37.946701 51.179699 -728.450806
37.946098 46.411701 -729.179871
37.945599 51.923698 -728.835205
37.945499 57.357601 -729.310120
37.945499 50.226601 -728.337219
37.945202 2.806300 -733.144287
37.944801 52.431499 -729.124878
37.944401 5.101300 -731.468811
37.943001 45.705898 -729.249390
37.942299 3.727400 -729.651184
37.942200 18.313400 -732.955627
37.941399 19.818600 -731.328796
37.941399 58.027901 -729.167114
37.941101 2.654800 -732.587830
37.941101 6.819300 -728.135071
37.940800 30.825899 -735.242126
37.940800 6.122900 -730.720215
37.940800 48.365299 -729.233521
37.940601 13.192900 -730.770325
37.939800 20.124399 -733.574524
37.939400 5.269400 -732.974426
37.938202 33.877201 -734.856079
37.937801 19.577600 -731.795776
37.936798 40.532101 -729.898499
37.936501 49.262299 -728.941772
37.936001 6.803900 -729.645020
37.935600 43.956501 -729.331726
37.935200 42.556900 -729.476929
37.934399 16.215900 -730.891174
37.933102 44.647900 -729.274475
37.931599 47.419899 -729.349976
37.930099 52.063400 -729.690979
37.930099 55.456299 -729.416199
37.929600 6.509200 -731.103088
37.927898 2.382800 -733.213013
37.927700 2.198800 -732.277588
37.927601 17.244200 -732.418030
37.926399 20.131800 -731.411072
37.926102 50.850201 -727.901184
37.925598 19.309000 -731.133911
37.925499 24.666201 -734.725220
37.924599 19.008400 -730.965820
37.924500 8.665200 -732.923523
37.924198 5.364700 -729.971802
37.924000 6.552500 -729.864319
37.923901 47.839699 -729.146423
37.922901 45.438400 -729.112915
37.922699 19.374599 -733.274414
37.922298 14.156000 -732.994324
37.922199 48.861301 -729.953918
37.922199 48.703899 -728.871582
37.921902 53.241600 -727.304321
37.921600 46.766899 -729.091187
37.921501 45.086201 -729.259094
37.921299 52.635502 -727.570679
37.921001 50.117100 -728.700623
37.920898 31.900700 -735.145874
37.920700 8.304900 -730.785706
37.920101 3.485700 -732.793701
37.919701 5.850600 -728.414490
37.919102 3.691100 -731.796570
37.918800 52.110901 -729.095520
37.918701 4.954700 -730.344421
37.918701 49.787601 -728.586487
37.918598 27.697300 -734.980225
37.918201 40.896900 -729.671021
37.918201 4.062200 -729.477112
37.918201 6.124900 -728.570129
37.917900 51.382099 -729.841919
37.917099 42.245300 -729.504578
37.916698 14.812700 -732.777283
37.916199 8.914000 -730.703308
37.916100 19.055500 -733.043518
37.915901 2.560500 -730.179810
37.915798 3.411700 -732.178772
37.915798 17.362499 -730.866394
37.914700 46.293701 -730.198730
37.914600 43.625900 -729.205078
37.914600 51.476700 -728.346130
37.913300 24.270500 -734.631287
37.913200 4.537500 -731.706482
37.910198 41.812500 -729.537781
37.909100 20.600401 -731.323425
37.909100 51.625702 -728.849487
37.908100 19.617701 -731.073975
37.907501 40.228199 -729.901917
37.907299 21.088400 -731.776306
37.906700 52.648300 -729.330994
37.905998 17.891899 -732.067200
37.905998 52.803699 -729.653320
37.905899 47.275101 -729.094971
37.905701 32.682899 -734.877380
37.905102 6.826300 -728.529785
37.904099 54.348099 -729.509888
37.903900 56.552799 -729.166870
37.903801 16.900600 -732.772888
37.903500 1.799600 -732.247070
37.902500 42.889500 -729.293274
37.902302 2.893900 -730.219116
37.901600 3.146600 -732.298523
37.900700 53.883202 -729.600830
37.900600 7.081000 -727.221619
37.899700 56.090199 -729.689880
37.899601 46.141399 -728.959290
37.899502 1.506000 -732.364014
37.899101 19.928600 -731.830200
37.898499 27.129200 -735.115173
37.897598 28.672600 -735.207825
37.897499 23.117001 -734.421997
37.897099 11.961000 -730.736084
37.896000 49.239201 -728.652771
37.895901 20.041599 -731.127625
37.895802 5.581900 -731.193970
37.895500 10.430800 -730.463928
37.895500 41.228802 -729.508972
37.894199 0.822400 -732.815979
37.893700 7.559900 -730.912476
37.893398 51.689602 -729.177124
37.893101 7.197500 -730.981628
37.893002 48.382099 -728.876770
37.892399 21.313499 -731.242798
37.890701 56.965302 -729.391113
37.890499 27.409100 -734.947876
37.890099 39.923698 -729.964478
37.889900 51.363499 -729.021729
37.889801 23.945999 -734.570129
37.889702 33.654999 -735.108215
37.889702 4.217400 -731.867920
37.889301 56.615101 -728.637024
37.888802 21.990000 -734.089172
37.888401 2.855800 -732.119385
37.887600 53.647900 -726.880676
37.887402 7.181400 -728.150879
37.886700 5.531700 -732.832825
37.886600 51.958401 -727.481812
37.886501 9.183700 -732.882324
37.886299 -0.501100 -735.067627
37.886299 1.942200 -730.629395
37.885399 14.168800 -730.837585
37.885101 0.289600 -732.839905
37.884399 18.210100 -732.045715
37.883499 55.071899 -729.605774
37.883202 46.446602 -728.882813
37.881802 25.761200 -734.799011
37.881001 16.471600 -732.837524
37.880901 38.874802 -730.099426
37.880402 20.961700 -731.079407
37.880199 49.902699 -728.259705
37.879200 43.780800 -730.307312
37.879002 31.227400 -735.208984
37.878700 39.565800 -730.093323
37.878700 6.376500 -728.422607
37.878201 18.461399 -730.822388
37.878201 40.373501 -729.500610
37.877201 45.813099 -728.912415
37.877201 54.451199 -727.352173
37.877102 42.455502 -730.459900
37.877102 47.611000 -728.954407
37.876999 44.249401 -729.033630
37.876202 45.111900 -730.238708
37.875702 14.538500 -732.947815
37.875401 34.129799 -735.035706
37.875198 10.993700 -730.620911
37.875198 51.027100 -728.986572
37.874401 7.981400 -727.711182
37.872601 50.463402 -727.957520
37.872398 39.262402 -730.073303
37.872200 19.306601 -731.972473
37.871799 17.818300 -730.779114
37.871101 45.175301 -728.953308
37.870499 42.565300 -729.177612
37.865101 49.554901 -728.317871
37.864700 51.392700 -727.557373
37.864101 29.948400 -735.091614
37.863800 52.914101 -727.335999
37.862499 6.166100 -729.236572
37.862301 52.252300 -729.359924
37.861401 5.482800 -729.678772
37.861301 6.169800 -731.266418
37.861198 47.314400 -730.036499
37.860100 3.701800 -732.129028
37.858601 42.125500 -729.219910
37.858101 4.539100 -730.991821
37.858002 51.102600 -727.641602
37.857201 53.527000 -729.652771
37.856998 22.294399 -734.197083
37.856602 15.122300 -730.771729
37.856400 3.421900 -732.511902
37.856300 3.046500 -731.883118
37.855801 37.548302 -730.267090
37.855202 47.915401 -728.833496
37.855000 21.228001 -730.956787
37.855000 48.688599 -728.554382
37.854099 43.916801 -728.910095
37.853802 26.726400 -735.069702
37.853699 0.758500 -731.006226
37.853699 17.084200 -730.727173
37.853699 3.224400 -730.085999
37.853600 55.691898 -729.644470
37.853401 50.155998 -728.988770
37.852798 41.522800 -729.330383
37.852501 22.379400 -731.350220
37.852402 16.493099 -730.802612
37.851898 57.968899 -728.779114
37.851799 49.558102 -728.810730
37.851299 3.844300 -732.689026
37.851200 40.670300 -729.452515
37.851200 44.757301 -728.945129
37.850899 19.047199 -733.372192
37.849701 0.219300 -731.171814
37.849701 1.303900 -730.762329
37.849602 32.303101 -735.166382
37.849098 56.934101 -728.998108
37.848900 47.023800 -728.832520
37.848701 39.624599 -729.701904
37.848499 0.293700 -732.399719
37.848000 45.513599 -729.682129
37.847198 15.680800 -730.746216
37.846600 44.786999 -729.767517
37.845600 28.015301 -735.213013
37.845299 21.666700 -731.523315
37.845299 40.044701 -729.601929
37.844299 37.132401 -730.294678
37.842701 20.884399 -731.539185
37.842400 20.588100 -730.996582
37.842300 38.032001 -730.153381
37.841801 6.312600 -728.046509
37.841099 47.381100 -728.741272
37.840900 4.103000 -731.286316
37.840900 21.962000 -731.242126
37.840199 7.244700 -732.823914
37.840000 22.942801 -731.455383
37.838699 38.483898 -730.116089
37.838699 43.723701 -729.885193
37.838402 20.309799 -731.845581
37.838200 41.577301 -730.457397
37.837799 58.226398 -729.431519
37.836800 41.223900 -730.418884
37.835999 43.173401 -729.007996
37.835602 52.961498 -729.379578
37.834400 17.462799 -732.895386
37.833500 51.440800 -729.385193
37.833000 43.323700 -730.379028
37.832699 0.669500 -732.365723
37.832298 52.323200 -727.473572
37.832199 7.875900 -727.297424
37.832001 4.394400 -732.745972
37.831799 6.386000 -728.847229
37.831600 7.479400 -730.519409
37.831402 44.410400 -730.320129
37.831001 1.169100 -732.318298
37.830898 44.252201 -729.858215
37.830898 40.948002 -729.330017
37.830502 3.415400 -731.884827
37.830399 14.678600 -730.711609
37.830101 2.297500 -730.559021
37.829399 19.285000 -730.815674
37.829300 43.387501 -729.923218
37.829201 9.352700 -730.595825
37.829201 38.871601 -729.716370
37.828098 42.795898 -729.945618
37.827999 2.270300 -731.924988
37.827900 20.573400 -733.674194
37.827900 45.894100 -729.816711
37.827202 51.053600 -729.288574
37.827000 16.790701 -730.715881
37.824699 39.184399 -729.790283
37.824001 48.986698 -728.911011
37.823601 4.035200 -732.157776
37.823399 21.211399 -733.889221
37.822800 45.562500 -728.773376
37.822300 42.240002 -729.887085
37.822102 38.268902 -729.912781
37.821701 19.919100 -730.807617
37.821701 49.553799 -730.008118
37.820599 18.772800 -730.719421
37.820599 51.960602 -729.340576
37.820499 12.728900 -730.751404
37.820202 22.839199 -734.520020
37.819901 46.580700 -729.813171
37.819599 53.395199 -727.015381
37.818901 10.293900 -732.839783
37.818600 24.110201 -731.292175
37.817902 5.676600 -729.459778
37.817799 50.445599 -729.409119
37.817699 29.284401 -735.279724
37.817501 47.498798 -729.614929
37.817200 34.433601 -735.153687
37.817200 8.029400 -730.893372
37.814999 5.852500 -731.408630
37.813900 49.956501 -729.232788
37.813900 8.026900 -728.212524
37.813499 7.213600 -730.639526
37.813202 6.857300 -727.868286
37.813099 41.414700 -730.104004
37.812500 23.459801 -731.409424
37.812302 43.093399 -729.498291
37.812302 47.999802 -728.550598
37.812099 24.936899 -734.747986
37.811798 4.984600 -732.962708
37.811600 18.709999 -732.121216
37.811401 42.521801 -730.048584
37.810699 46.704399 -728.623718
37.810600 30.596500 -735.092285
37.810600 41.530300 -729.656921
37.810200 41.256401 -729.169128
37.809799 47.791302 -730.051208
37.808899 44.525002 -728.755981
37.808800 22.604500 -731.143616
37.808201 11.035000 -732.772705
37.807800 2.937600 -732.496887
37.807800 43.483398 -728.893982
37.807701 0.546100 -732.971619
37.807701 40.097698 -730.481201
37.807400 48.153900 -729.080383
37.807301 47.101101 -729.773621
37.806099 49.311798 -729.663696
37.805099 15.360300 -732.784180
37.805000 6.820600 -727.578979
37.804901 37.739799 -729.830017
37.804100 46.073101 -728.651184
37.803001 11.369100 -730.486816
37.802601 2.565000 -731.865112
37.802601 40.975498 -729.950989
37.802200 48.970200 -728.262207
37.801800 21.608400 -730.980774
37.801399 22.194401 -731.028320
37.800900 47.952202 -729.735596
37.799900 23.594299 -734.669922
37.799500 44.820900 -730.338684
37.799099 24.753599 -731.290771
37.798302 21.220600 -731.523621
37.798302 50.157600 -729.495972
37.798000 3.760500 -733.150085
37.797600 4.189400 -730.862671
37.796799 6.726000 -732.828674
37.796200 19.737000 -733.548096
37.796200 45.243599 -729.903992
37.795399 18.142599 -730.677185
37.794498 41.732601 -730.010376
37.792999 25.460501 -731.262573
37.792301 48.300598 -729.679871
37.792000 45.044899 -728.652283
37.791100 46.974400 -729.260681
37.790901 41.818600 -729.033813
37.790501 32.679501 -735.178772
37.789902 18.279800 -733.200684
37.789600 36.467800 -730.325928
37.789101 4.971300 -731.744507
37.789101 3.804100 -731.554993
37.788799 19.684099 -732.032593
37.788601 49.917500 -727.942200
37.788200 32.993698 -734.956116
37.788200 23.156900 -731.260071
37.788200 43.957001 -730.050903
37.788101 48.299000 -728.435425
37.787800 43.017799 -730.408691
37.787800 57.420799 -729.022522
37.787800 42.822899 -728.924072
37.787498 36.764000 -730.278320
37.786800 55.398399 -729.688782
37.786701 5.601500 -731.698975
37.786701 42.402802 -728.944092
37.786598 38.479000 -729.703186
37.786499 57.678799 -729.201416
37.785500 44.498699 -730.045288
37.785400 50.716099 -729.537781
37.785301 37.321499 -729.936279
37.785000 7.157700 -726.944275
37.784302 2.588000 -730.447510
37.784199 40.764198 -730.174500
37.784000 33.390800 -734.982483
37.783699 50.660099 -727.669006
37.783199 49.601799 -729.594482
37.782200 6.592500 -728.236816
37.781700 6.800900 -731.153320
37.781200 47.655300 -728.460510
37.780998 20.690500 -731.872314
37.780701 13.096700 -732.978271
37.780300 4.586300 -732.000671
37.779999 40.042500 -729.282471
37.779900 41.868698 -730.435974
37.778999 4.192300 -732.538208
37.778900 1.996400 -732.062683
37.778801 13.727100 -730.706787
37.778702 8.277800 -732.830200
37.778702 49.272598 -728.381897
37.778301 40.463799 -729.180298
37.777802 40.290298 -730.174011
37.777199 45.651501 -729.972229
37.777000 46.757999 -730.168823
37.776402 20.305500 -730.916870
37.775600 22.846600 -730.918518
37.775600 56.605598 -729.468994
37.775501 26.812000 -731.153381
37.771999 40.939701 -730.521118
37.771400 19.961800 -733.362793
37.770802 18.980900 -732.296692
37.770500 51.712299 -729.525574
37.770401 49.557701 -727.982422
37.769798 39.626598 -729.343384
37.769600 51.600700 -727.351929
37.768902 48.967098 -728.578918
37.768501 21.645599 -734.007019
37.768200 9.949100 -730.646301
37.767300 50.437901 -729.965210
37.767101 52.246201 -727.194275
37.766998 37.946899 -729.624512
37.766899 26.185801 -731.198730
37.766899 7.430900 -727.747498
37.766201 39.168201 -729.422913
37.766102 49.016701 -729.740173
37.765800 50.205898 -728.063782
37.764500 11.677100 -730.484680
37.764000 1.385000 -732.072083
37.763500 7.837900 -732.932373
37.763302 4.635400 -732.574280
37.762001 21.839600 -730.768799
37.762001 44.153999 -728.679077
37.761799 6.534400 -727.839172
37.761398 52.451199 -729.778015
37.761002 43.096001 -730.012329
37.760502 40.771500 -729.109314
37.760201 49.856800 -729.747375
37.760101 42.221401 -730.190918
37.759602 36.990002 -730.051086
37.759201 28.428200 -735.093079
37.758598 30.278099 -735.124329
37.758202 9.943700 -732.818481
37.758202 48.595402 -729.751099
37.758099 29.678801 -735.124817
37.758099 54.127899 -729.677307
37.757599 38.699100 -729.481995
37.757401 4.527900 -730.484924
37.757301 27.788401 -731.107483
37.756699 46.411098 -728.538513
37.756199 1.006700 -731.963928
37.755901 20.886801 -730.731812
37.755402 2.410900 -732.420471
37.755001 35.797699 -730.370911
37.754501 6.284500 -730.093018
37.754299 51.027699 -729.583984
37.754200 23.532801 -731.011475
37.754200 53.083199 -727.125427
37.753502 17.992100 -733.022278
37.753502 8.921600 -732.893921
37.753399 5.321000 -731.209473
37.752899 45.363701 -730.328308
37.752701 50.149399 -729.788574
37.752602 28.161301 -731.055115
37.752499 36.085899 -730.276489
37.752201 21.336300 -730.695618
37.751801 47.096401 -728.491394
37.751301 9.616100 -730.703125
37.751301 46.203899 -729.793396
37.750801 16.060499 -732.723877
37.750801 22.406500 -730.836121
37.748699 52.536400 -727.215088
37.748001 20.535101 -730.691772
37.747700 45.368999 -728.547974
37.747501 16.187300 -730.633423
37.746799 17.813999 -732.317383
37.746601 12.274400 -730.644714
37.746498 27.367100 -731.103882
37.745602 13.417700 -732.943420
37.745399 4.796700 -730.713501
37.745300 28.549000 -731.005005
37.745300 4.275300 -729.600586
37.743500 35.492599 -730.357117
37.743401 45.813499 -728.523682
37.742901 54.738602 -729.773682
37.742802 26.482800 -734.938477
37.741901 34.692001 -735.444885
37.741699 -0.040700 -732.503418
37.741402 17.710899 -732.769409
37.741199 51.853901 -729.817200
37.741001 25.680799 -731.057983
37.740002 20.003799 -732.091675
37.739799 23.212099 -730.836487
37.739101 14.404300 -730.679077
37.739101 44.026501 -730.389709
37.738098 49.232601 -727.993286
37.737900 0.025700 -731.665222
37.737301 22.003300 -731.510498
37.737099 21.559999 -731.824707
37.736900 23.928200 -730.972473
37.736801 41.531399 -728.897705
37.736198 39.716499 -730.316589
37.735100 19.590799 -730.733215
37.734200 46.075500 -730.068176
37.734200 42.116402 -728.890076
37.734100 36.614700 -729.944519
37.733002 3.226700 -731.627197
37.732899 42.755199 -730.254700
37.731602 48.574902 -728.150879
37.730999 13.002000 -730.687988
37.730301 5.295800 -731.692871
37.730202 6.118600 -732.776978
37.730099 4.393600 -732.295105
37.728100 39.250198 -730.360474
37.727901 18.554701 -732.878906
37.727901 44.955299 -729.979797
37.727299 43.568001 -730.170715
37.727200 36.317699 -730.043579
37.726299 18.833500 -733.045410
37.724800 25.078600 -730.989929
37.724098 22.509600 -734.394470
37.723400 43.734501 -728.646973
37.723301 25.472500 -734.785278
37.723000 19.274900 -733.002014
37.722599 18.632999 -733.279419
37.722599 53.034801 -729.744690
37.722500 12.021200 -730.466309
37.722401 17.480900 -730.599304
37.722401 5.106300 -730.508118
37.722301 51.935001 -727.192078
37.721298 3.874000 -729.836975
37.720798 37.034500 -729.756897
37.720200 38.403301 -729.413818
37.720001 38.141300 -730.428223
37.719799 48.203400 -729.948792
37.719501 13.385100 -730.672180
37.718601 5.128800 -730.184692
37.717300 51.187698 -727.343323
37.716900 47.366001 -728.380188
37.716499 38.775200 -730.371887
37.715099 53.917900 -727.184204
37.714901 1.205400 -731.724915
37.714500 50.161499 -727.694580
37.714401 24.415600 -731.017578
37.713600 18.521500 -730.542480
37.712601 29.931299 -730.788330
37.711700 44.751202 -728.537415
37.711102 19.535000 -733.148010
37.711102 1.232200 -731.048889
37.710899 33.775002 -735.424927
37.710899 25.997200 -734.883179
37.710499 56.237400 -729.208313
37.710098 20.989599 -731.975586
37.709900 6.436200 -731.340576
37.709099 24.462500 -734.712280
37.708698 40.570599 -730.407776
37.708698 35.057598 -730.286987
37.708000 10.798000 -730.411987
37.707600 22.630199 -730.631287
37.707500 20.476400 -732.069275
37.707500 20.170401 -730.593994
37.707100 24.076500 -734.762573
37.707001 43.228802 -728.676208
37.706200 19.490200 -732.295288
37.705399 4.928000 -729.124878
37.705101 22.631399 -731.468628
37.704899 51.108799 -729.901428
37.704899 48.185101 -728.162109
37.704700 29.432199 -730.981018
37.703899 37.438999 -729.600098
37.703602 8.525300 -730.766602
37.702599 50.721802 -729.974304
37.702599 35.780499 -729.968689
37.701698 5.815600 -729.201416
37.701302 20.925100 -733.693115
37.701302 41.038101 -728.958679
37.701099 30.974600 -730.700317
37.701000 19.288900 -730.505798
37.700901 23.574400 -730.720825
37.700500 5.182400 -732.730774
37.700500 58.187401 -728.969299
37.700199 15.046000 -732.875000
37.700001 3.512600 -731.499512
37.700001 50.887199 -727.440979
37.699902 30.335699 -730.826294
37.699799 45.761600 -730.344421
37.699699 10.647000 -732.849487
37.699402 33.973801 -730.447388
37.699200 28.855700 -730.992371
37.699200 26.539000 -730.866699
37.699001 24.159300 -730.757019
37.698700 29.018600 -735.121826
37.698399 2.826400 -731.753479
37.698299 27.022900 -730.961975
37.697800 38.104000 -729.385315
37.697701 4.407500 -733.186218
37.697701 42.649601 -728.703979
37.696602 34.309799 -730.318787
37.694302 53.287601 -726.765198
37.694199 4.668800 -732.879517
37.694199 46.851601 -729.878113
37.693199 34.574600 -730.050720
37.692600 1.739100 -730.787170
37.690800 49.259201 -729.969727
37.690300 31.695101 -735.100525
37.690201 20.280899 -733.578125
37.689400 25.311701 -730.770386
37.689301 3.851300 -731.195129
37.688999 7.311600 -727.197815
37.688801 57.148998 -729.241882
37.687698 0.710400 -731.276672
37.687500 47.874699 -728.246216
37.686501 34.694599 -730.411072
37.686199 15.443300 -730.635071
37.685101 3.692500 -732.480408
37.685101 0.721500 -732.063904
37.685001 9.490000 -732.856201
37.684601 46.794800 -728.310181
37.684399 37.992401 -729.909424
37.682899 7.525300 -732.829102
37.682701 24.656500 -730.790588
37.682098 12.664800 -733.102112
37.681900 27.403099 -735.155884
37.681400 0.327100 -732.024475
37.681198 7.379600 -731.151794
37.680599 46.183399 -728.372375
37.680199 19.467300 -733.458679
37.680199 37.591900 -730.498718
37.679901 20.672199 -732.292786
37.679401 38.970100 -729.218872
37.679298 22.953199 -734.288086
37.679298 1.669000 -731.746094
37.678902 53.758701 -729.761475
37.678600 33.367199 -730.471619
37.678501 48.854698 -730.126526
37.676998 41.823799 -728.754517
37.676601 30.943899 -735.215088
37.676300 34.130798 -730.035278
37.675701 36.065601 -729.783508
37.674702 7.005500 -732.799072
37.674198 33.872601 -735.021912
37.673901 56.265202 -729.537720
37.673801 30.618099 -730.693726
37.673599 17.894899 -730.542114
37.673100 36.481800 -729.685486
37.672298 15.753600 -732.876892
37.671001 4.781600 -732.319702
37.671001 42.223202 -730.498779
37.670799 21.003000 -732.282776
37.670700 37.584900 -730.045776
37.670700 44.390900 -728.448181
37.670200 31.514900 -730.265686
37.669899 7.776100 -730.955811
37.669800 54.405701 -729.708130
37.669498 3.520400 -730.085022
37.669201 35.267101 -730.081116
37.668800 25.995399 -730.765686
37.668400 31.375299 -730.736694
37.667801 5.580200 -731.388916
37.667801 5.186800 -729.770630
37.667198 5.010600 -732.018982
37.666599 48.379200 -730.177917
37.666599 51.409000 -729.651184
37.666100 32.009300 -730.615173
37.665699 30.903000 -730.341675
37.665100 21.976101 -731.809387
37.663399 29.102400 -730.830872
37.663200 6.075600 -731.519470
37.662498 28.776600 -730.715027
37.661900 27.249201 -730.747314
37.661900 14.039200 -730.581482
37.661598 22.360701 -731.614990
37.661301 22.113400 -730.528870
37.661201 14.323900 -732.901428
37.660999 21.616699 -730.560181
37.660702 4.572500 -729.268982
37.660500 23.314400 -734.441284
37.659500 32.411301 -730.212524
37.659500 42.936501 -728.626099
37.659401 4.444500 -730.769714
37.659401 46.459301 -730.128418
37.659100 20.235100 -732.299377
37.658600 30.339100 -730.473083
37.657799 26.757799 -730.660828
37.657501 27.696501 -730.797913
37.657398 43.546299 -730.515076
37.657001 18.133101 -732.239685
37.656898 46.462799 -728.268188
37.656601 39.969398 -729.012512
37.656200 24.385201 -731.317078
37.655899 23.003901 -730.537720
37.655800 10.280300 -730.542175
37.655800 32.956799 -730.283813
37.655399 7.903400 -727.886230
37.655102 9.075400 -730.729309
37.655102 2.855600 -730.429321
37.654900 52.145100 -729.737671
37.654400 29.506399 -730.658386
37.654400 47.038399 -730.229126
37.654301 13.060700 -730.392700
37.654301 39.514801 -729.088318
37.653999 6.984700 -727.340393
37.652901 35.514198 -729.831909
37.652500 11.105800 -730.461182
37.652401 26.908701 -734.953430
37.652401 4.148800 -731.608887
37.652302 12.336900 -733.120605
37.652302 32.677399 -730.566284
37.651299 33.065498 -735.264282
37.650501 18.839100 -730.476074
37.650299 34.902802 -729.917786
37.650002 47.528999 -729.898987
37.649700 28.173901 -730.749512
37.648998 38.410900 -730.540771
37.647999 14.028700 -732.919983
37.647900 33.588799 -730.254089
37.647301 29.790199 -735.388184
37.647099 8.282300 -730.984680
37.646999 23.868000 -731.396484
37.646702 37.040600 -730.504883
37.646400 29.220400 -730.537598
37.646301 45.584999 -728.340698
37.646099 48.803902 -727.923523
37.645401 31.874100 -735.369202
37.645199 0.946700 -732.245300
37.644699 23.257500 -731.564880
37.643398 50.047699 -730.086975
37.643101 31.229900 -730.366577
37.643002 37.328499 -730.616516
37.643002 20.800699 -730.462524
37.642899 31.908701 -730.207214
37.642799 6.394600 -728.606323
37.641399 12.637400 -730.457520
37.640701 2.050200 -731.519104
37.640301 15.841400 -730.617004
37.640202 30.611799 -730.364380
37.639801 46.254200 -730.335815
37.638699 37.133499 -729.431030
37.638500 24.874800 -730.588074
37.638100 3.154200 -730.318970
37.636700 42.349602 -728.666809
37.636398 25.179501 -734.773926
37.636002 16.978399 -730.557983
37.635899 35.149502 -735.590210
37.635601 33.195999 -730.046997
37.635601 45.154099 -728.351624
37.634899 21.246201 -732.108582
37.634602 52.716202 -727.014099
37.634399 29.754801 -730.416016
37.633999 2.432300 -731.570129
37.633900 17.054701 -732.789001
37.633400 27.941000 -730.562317
37.633099 36.840698 -729.525879
37.632999 39.206902 -730.635986
37.632702 27.880400 -735.050720
37.632198 55.661201 -729.952209
37.632000 37.841801 -730.671387
37.632000 34.351601 -729.846130
37.631901 47.162102 -728.174988
37.631802 1.431500 -731.476013
37.631100 38.656799 -729.171570
37.629700 30.318199 -735.428101
37.629700 56.775600 -729.226318
37.629299 14.903600 -730.745911
37.628899 23.922300 -730.557129
37.628799 37.717999 -729.328491
37.628700 36.318001 -730.547485
37.628399 7.061900 -731.105225
37.627899 32.632900 -729.996277
37.627701 16.466801 -730.612305
37.626999 2.026500 -730.770081
37.626801 36.675301 -730.519897
37.625900 42.615501 -730.551086
37.625500 34.974602 -735.276184
37.625500 2.999000 -731.383423
37.625401 23.810900 -734.545593
37.625099 45.125500 -730.453674
37.624500 26.210300 -730.565002
37.624298 5.578100 -731.084473
37.624100 5.539100 -732.676575
37.623299 43.958199 -728.432373
37.622700 21.866699 -734.200012
37.622200 41.229301 -728.753479
37.621700 1.842700 -731.301514
37.621498 39.498798 -730.542175
37.621300 34.239601 -735.327698
37.620701 6.134500 -728.974121
37.620602 49.690300 -727.769775
37.620499 40.384201 -730.649719
37.620300 23.322201 -730.494812
37.619999 33.422901 -735.282776
37.619499 28.406401 -730.526611
37.619400 4.783600 -730.257996
37.618999 47.500900 -728.088684
37.618599 13.366000 -730.389587
37.618401 40.436100 -728.909119
37.618301 1.961000 -731.811218
37.617901 26.458099 -731.168884
37.617298 3.961300 -730.804016
37.617001 32.140701 -729.979980
37.616798 38.728600 -730.646484
37.616199 24.459400 -730.484009
37.616199 50.366402 -727.494629
37.615898 16.687901 -732.933777
37.614700 3.431100 -731.197693
37.613499 52.688599 -729.689209
37.613201 34.647999 -729.781311
37.612900 29.446501 -730.320374
37.612801 28.156500 -735.316711
37.612400 55.931198 -729.640991
37.612301 23.635401 -731.592529
37.612000 45.896000 -728.243286
37.611801 31.388901 -735.228088
37.611801 1.125900 -731.360413
37.611000 51.667301 -727.081970
37.610901 25.027100 -731.300720
37.610500 5.863900 -731.177979
37.610401 28.635000 -735.328430
37.610100 48.400398 -727.952087
37.609200 28.824100 -730.430298
37.608299 53.003899 -726.843872
37.607800 7.605200 -730.687683
37.607300 58.340599 -729.249329
37.606899 33.420101 -729.827087
37.606800 25.847799 -731.324402
37.605701 16.266300 -732.935913
37.605598 43.452099 -728.463013
37.605202 6.088800 -729.421814
37.605000 19.903200 -730.496216
37.604801 31.699800 -729.994019
37.604698 36.203400 -729.509827
37.602299 29.981701 -730.197388
37.601898 0.543100 -731.691772
37.601101 2.483400 -730.705383
37.600601 54.989498 -729.620483
37.599998 31.209999 -730.048706
37.598301 8.540000 -732.889709
37.596901 7.369400 -727.497620
37.595299 25.589001 -730.519897
37.595299 21.204500 -730.463989
37.593399 5.231200 -733.050598
37.593399 35.958199 -730.555176
37.593300 1.633300 -731.097473
37.593300 35.188999 -730.521118
37.592400 28.156000 -730.359070
37.592098 35.216301 -729.610718
37.591900 18.458500 -732.225403
37.591000 5.382200 -730.015991
37.590900 26.271099 -735.067383
37.590401 22.929701 -731.665588
37.589600 53.314400 -729.843628
37.589001 22.227100 -734.301697
37.588799 27.555099 -730.461670
37.588501 -0.349300 -735.767883
37.588402 32.461899 -735.224487
37.588100 21.672899 -732.122314
37.587700 44.616001 -730.260620
37.587101 35.813900 -729.539307
37.586498 27.068600 -730.371094
37.586102 20.662100 -733.810913
37.586102 52.381302 -726.999329
37.584000 44.420898 -730.526184
37.582500 6.434200 -732.737000
37.582100 35.425800 -735.444275
37.581699 30.344299 -730.100220
37.581501 18.279800 -732.941895
37.581501 5.576300 -731.932922
37.581402 55.279099 -729.858398
37.580799 49.245998 -727.706726
37.580101 43.783401 -730.324219
37.579498 5.806500 -729.762695
37.579102 26.672501 -735.154175
37.578899 24.756800 -734.762024
37.578602 48.578602 -729.984314
37.577499 20.393200 -730.410400
37.576801 22.634100 -730.370178
37.576500 6.211900 -731.121216
37.576500 55.620499 -729.419922
37.576302 24.213900 -731.602112
37.574299 5.583000 -728.648071
37.573799 29.486000 -735.249023
37.572899 39.192902 -729.012024
37.572300 47.694302 -730.243286
37.571701 26.698601 -731.341675
37.571400 3.897500 -732.303223
37.571400 35.655701 -730.623718
37.571400 46.699299 -728.034912
37.571098 38.295898 -729.151428
37.570801 35.427898 -735.750183
37.569698 44.610500 -728.237671
37.569500 57.846600 -728.966370
37.569302 19.056601 -733.172913
37.568901 18.197001 -730.445679
37.568001 30.633499 -730.034119
37.567699 8.892600 -730.947021
37.567402 2.252400 -731.036377
37.567001 21.371401 -733.935608
37.565800 47.379501 -730.235718
37.564499 37.006699 -730.785889
37.564301 39.951599 -730.618103
37.564201 5.836100 -731.653625
37.563900 5.295700 -732.073914
37.563801 6.654600 -731.489380
37.562000 32.378101 -730.528809
37.561901 0.852200 -730.797180
37.560699 49.540600 -730.144226
37.560001 51.305599 -727.121399
37.559700 47.917500 -727.940491
37.559200 0.109600 -732.324402
37.558998 31.762600 -730.443298
37.557999 24.182400 -730.398010
37.557800 55.942200 -729.236511
37.557400 42.019901 -728.575684
37.557301 30.594900 -735.283997
37.556599 32.924400 -729.718323
37.555599 43.250198 -730.555603
37.555401 33.737202 -730.590393
37.555401 6.733800 -727.744690
37.555199 54.153599 -729.903992
37.555000 5.458900 -729.721375
37.554600 3.680200 -730.968323
37.554298 43.154202 -728.419983
37.553799 27.965900 -730.966675
37.553699 33.927502 -729.840210
37.553398 25.277300 -731.437927
37.553200 5.806200 -732.790405
37.553200 2.585800 -731.136780
37.553101 51.359402 -729.937988
37.553001 29.823799 -731.027771
37.551800 51.652802 -729.954529
37.551601 15.164300 -730.613525
37.551399 42.438000 -730.302612
37.551300 47.984501 -730.060120
37.551201 33.085201 -730.599182
37.550999 41.273201 -730.592712
37.550900 5.253900 -732.482422
37.549599 34.247299 -730.629272
37.549500 26.980900 -731.273315
37.549400 34.788502 -729.530579
37.548801 22.302000 -731.904114
37.547901 25.707399 -734.833984
37.547699 41.607300 -730.569214
37.547600 44.835999 -730.556580
37.547199 24.833900 -731.547791
37.547199 46.675201 -730.344971
37.547199 27.769899 -730.259399
37.547001 38.128201 -730.698730
37.544800 34.875401 -730.619995
37.543999 21.860100 -730.353516
37.543701 7.738500 -731.223206
37.543400 13.627800 -730.530518
37.543301 27.599501 -731.283325
37.542500 46.243801 -728.109985
37.541901 32.789700 -735.363281
37.541698 36.639500 -730.800720
37.541500 36.521500 -729.344177
37.541000 17.395599 -732.973022
37.540901 28.325600 -731.233521
37.539600 34.692902 -735.204224
37.538700 31.775000 -730.747986
37.538502 4.920500 -732.609802
37.538200 37.370701 -729.208374
37.537800 52.549400 -726.672302
37.537601 39.719299 -728.902100
37.536900 49.918499 -727.607727
37.536800 21.987900 -732.124695
37.536598 5.544800 -733.058105
37.536598 25.139200 -730.352722
37.536499 29.593000 -730.048889
37.535999 22.343000 -730.336121
37.535198 29.120899 -730.152588
37.534901 14.712900 -732.997070
37.534599 42.721001 -728.467773
37.534401 45.370602 -728.143921
37.533901 37.517899 -730.837219
37.533901 26.489799 -730.310730
37.533298 10.663000 -730.678589
37.533001 9.413200 -730.767578
37.532501 32.411999 -729.725586
37.532299 24.510401 -731.600708
37.532200 35.391399 -730.765686
37.531799 45.523399 -730.449829
37.531300 9.220600 -732.888916
37.531200 1.211900 -732.033386
37.530701 31.117800 -730.900330
37.530602 28.010599 -731.252686
37.530499 40.759800 -730.618774
37.530499 52.449402 -729.954285
37.528400 4.207300 -729.831116
37.528301 33.696602 -729.564880
37.528099 30.939400 -729.937012
37.528000 13.742400 -732.999329
37.528000 28.816401 -730.141174
37.527901 31.926100 -729.779297
37.527802 34.335701 -729.524170
37.527699 44.904900 -728.181824
37.526901 6.183400 -731.800598
37.526798 5.908800 -733.094177
37.525600 36.269001 -730.823792
37.525600 50.582298 -727.281128
37.525501 34.470699 -735.478821
37.524899 15.455200 -732.959412
37.524399 6.446100 -728.163086
37.524200 54.611000 -729.941284
37.523800 30.576799 -730.970276
37.523399 11.431800 -730.570984
37.523102 19.599300 -730.487671
37.522900 4.299400 -730.549683
37.522400 10.359600 -732.854980
37.521702 33.474201 -730.716614
37.520699 19.857500 -733.557922
37.520699 47.026699 -727.934326
37.519798 26.411699 -731.457581
37.518902 7.134400 -731.406006
37.518600 50.438702 -730.164185
37.518501 37.937302 -729.125916
37.518299 6.054900 -728.620178
37.518002 32.135201 -730.353210
37.518002 44.172100 -728.229309
37.517399 12.286200 -730.416687
37.514198 44.092499 -730.568909
37.514099 8.052700 -732.851990
37.513802 35.717701 -735.851013
37.513500 20.575600 -733.392090
37.513100 23.036301 -730.283325
37.512402 38.860298 -728.987488
37.512402 5.432200 -728.890625
37.511398 31.477200 -729.800171
37.511002 23.577200 -730.273071
37.510601 48.607399 -727.752014
37.510399 22.582600 -731.783997
37.509998 13.949900 -730.346313
37.509800 0.108800 -731.909790
37.509800 49.158699 -730.215881
37.509399 27.188400 -735.027771
37.508598 7.775200 -732.765320
37.507702 19.310400 -730.285583
37.507500 28.747299 -731.199402
37.506302 41.931801 -730.601318
37.505600 9.917600 -730.850525
37.504902 25.902500 -730.536804
37.504902 52.895199 -729.964172
37.504902 5.071700 -728.914978
37.504799 51.962299 -730.003479
37.504101 8.570000 -731.054321
37.503899 52.056801 -726.981812
37.503601 40.641399 -728.721130
37.502899 4.430900 -729.482788
37.502800 23.556101 -734.635681
37.502201 29.945299 -729.926208
37.501701 49.796299 -730.013916
37.501099 41.543598 -728.617798
37.500900 7.245000 -732.756775
37.500900 14.549400 -730.599121
37.500401 32.359600 -730.822021
37.499500 35.915901 -730.834473
37.498100 43.664101 -728.263123
37.497799 33.675499 -735.175171
37.497398 6.219900 -730.252930
37.497200 35.509300 -729.542419
37.496300 24.693899 -730.281982
37.495998 30.209299 -731.091125
37.495602 45.946800 -730.471985
37.495098 29.155600 -731.149414
37.494598 4.783100 -729.454712
37.493999 28.414900 -730.124512
37.493500 5.718400 -729.473999
37.492699 22.593000 -734.197388
37.491798 6.774600 -732.798584
37.491100 50.968399 -727.190308
37.490898 21.628099 -734.092529
37.490398 42.979900 -730.435730
37.490200 32.735298 -730.861023
37.488300 19.271500 -732.242615
37.488098 55.278599 -729.573120
37.487900 38.974098 -730.753479
37.487900 5.037700 -729.968018
37.486599 32.178501 -735.300415
37.486198 57.467499 -729.052002
37.485699 2.980300 -730.928772
37.485100 3.789400 -730.010193
37.484600 13.222300 -733.043579
37.484600 36.980301 -729.213379
37.483898 6.009100 -732.065613
37.483799 45.686901 -728.037903
37.483601 1.513400 -731.947327
37.483299 19.335501 -733.276428
37.483299 18.659700 -733.065308
37.483200 8.056400 -731.074585
37.482201 42.296902 -728.420288
37.481899 51.021999 -730.109375
37.481400 10.391900 -730.770325
37.481300 2.717400 -731.494324
37.480900 49.449600 -727.509521
37.480598 53.647598 -730.002075
37.480400 27.318300 -730.148010
37.479801 16.733299 -730.530579
37.479099 3.424700 -730.335876
37.478901 4.515700 -730.350525
37.478600 17.903999 -733.055786
37.477001 6.113100 -732.576416
37.476898 0.892000 -731.908997
37.476601 5.536000 -732.373596
37.475800 21.157900 -733.706421
37.475601 39.576801 -730.817078
37.473801 48.923500 -727.632874
37.473202 6.392400 -731.575317
37.472401 3.032500 -730.588928
37.472401 35.090199 -729.362488
37.471699 17.629801 -730.528809
37.471699 47.522099 -727.826721
37.471401 31.586100 -735.454102
37.470501 22.065800 -734.039917
37.470402 18.373600 -733.259583
37.469898 19.955200 -732.219604
37.469898 0.533000 -732.014282
37.469799 38.277699 -730.934998
37.468102 34.472500 -730.845215
37.467602 32.074501 -730.952515
37.466301 48.130798 -730.299194
37.466000 17.205601 -730.483704
37.465199 31.221001 -735.468079
37.464500 33.949100 -730.815430
37.464500 56.433102 -729.400391
37.464100 22.813400 -734.431030
37.462399 27.652800 -735.184509
37.462299 10.943700 -732.810486
37.460499 32.469200 -735.486816
37.459499 23.960800 -731.695374
37.457901 34.766602 -735.556885
37.457901 26.805799 -730.371399
37.457901 39.400501 -728.822510
37.457500 55.541100 -729.737488
37.457100 31.387300 -731.010376
37.456001 23.906500 -730.228882
37.455399 25.931200 -730.215698
37.455200 16.216600 -730.502380
37.454601 33.211201 -730.847473
37.453300 29.998699 -735.269470
37.452900 25.989599 -731.549622
37.452499 11.742000 -730.585388
37.452301 33.160099 -729.503296
37.452099 24.198200 -734.630615
37.451401 35.118301 -730.864990
37.451302 25.642900 -731.540894
37.450100 6.266200 -728.404785
37.449501 4.547300 -732.312073
37.449402 38.494598 -728.972229
37.449100 46.969700 -730.422485
37.447701 22.319700 -732.235474
37.447701 19.002800 -730.344482
37.447300 7.973100 -727.437988
37.446499 30.418699 -729.795715
37.444199 31.201200 -729.707886
37.443901 33.983398 -735.258179
37.443001 28.020100 -730.034790
37.442501 19.753500 -730.215210
37.442501 36.116199 -729.260620
37.441299 43.357700 -728.230591
37.440800 30.793501 -735.511780
37.440601 16.925900 -733.039490
37.440102 5.827000 -732.502075
37.439701 7.048100 -726.802795
37.439201 29.078400 -735.237305
37.438999 46.006001 -727.938477
37.438702 38.625500 -730.900024
37.438301 37.988300 -730.956116
37.437500 18.652201 -730.393677
37.435902 3.977800 -730.576111
37.435799 14.236600 -730.335327
37.435799 55.002399 -729.954590
37.435200 42.316299 -730.702881
37.435101 20.860201 -733.450989
37.435101 24.411699 -730.202393
37.435001 2.314900 -731.322876
37.434299 50.143600 -727.394104
37.433899 16.020201 -732.856323
37.433399 8.785500 -732.841919
37.432098 6.729600 -731.740601
37.432098 15.589400 -730.550171
37.431900 24.480900 -734.840820
37.431801 43.765202 -730.697388
37.431599 46.440399 -727.925293
37.431400 29.572599 -731.224121
37.430199 9.822400 -732.796509
37.429901 26.085100 -734.913086
37.429798 33.262199 -735.451782
37.428398 32.172600 -729.553284
37.428001 40.103001 -728.828003
37.427601 6.801500 -727.482727
37.425400 42.810902 -730.719788
37.424999 29.248699 -735.472473
37.424500 30.797300 -731.134521
37.424400 32.643101 -729.516724
37.423698 36.281101 -735.961304
37.422901 9.455200 -732.734924
37.422501 3.202600 -731.105713
37.421902 45.299500 -730.625977
37.421799 42.925999 -728.277283
37.421398 21.013100 -730.307007
37.420101 22.700899 -732.037903
37.419800 20.314501 -733.685974
37.419102 30.767401 -729.713196
37.418499 7.500900 -731.442810
37.418301 15.126300 -733.030518
37.418201 35.576698 -730.963806
37.417999 46.470001 -730.506897
37.417900 26.543200 -734.949585
37.417801 34.557899 -729.322815
37.417000 37.572201 -729.026917
37.415901 35.357800 -729.265503
37.415199 31.710400 -731.025696
37.414902 48.620899 -730.336121
37.414200 12.897700 -730.375427
37.414101 6.030300 -729.201599
37.413300 51.549702 -726.889221
37.413200 36.035099 -735.797119
37.412998 23.172899 -734.361023
37.411701 6.887800 -727.137817
37.411301 33.664501 -730.936218
37.410599 13.531500 -730.265015
37.410599 22.092899 -730.227173
37.410400 58.200600 -728.998718
37.410198 40.182301 -730.784729
37.409801 36.688801 -729.146973
37.408401 33.904701 -729.380371
37.408298 50.707500 -730.146484
37.408001 28.417101 -735.170593
37.407299 19.591600 -732.271179
37.406799 23.382200 -731.745422
37.406601 50.136200 -730.246277
37.406300 21.652500 -733.787170
37.406300 21.448400 -730.370972
37.405399 25.352100 -730.173218
37.405300 48.160900 -727.714722
37.405102 18.160000 -732.403015
37.404999 54.143398 -730.189880
37.404400 31.712700 -729.587280
37.403801 3.610200 -730.714478
37.403500 39.869099 -730.867615
37.402802 26.848801 -731.556580
37.401600 27.356400 -735.255615
37.401100 47.292500 -728.030823
37.399899 5.949800 -728.892212
37.399799 52.289398 -726.691772
37.398800 20.107100 -733.396484
37.398701 41.012699 -728.719482
37.397301 27.909201 -735.319824
37.397301 19.613701 -733.381714
37.396400 1.220400 -731.689270
37.396301 9.200000 -731.037781
37.396301 3.980800 -730.220703
37.395199 4.977100 -729.193909
37.395000 25.428400 -734.801819
37.394901 7.671800 -730.928589
37.394699 38.132999 -728.950378
37.394299 6.460700 -731.860413
37.393799 15.756300 -733.020325
37.393799 5.482600 -729.327087
37.393600 4.979800 -732.288330
37.393200 49.760300 -730.286499
37.392502 31.888599 -735.538025
37.392502 28.667000 -729.896973
37.392200 37.185200 -731.003174
37.391499 1.765300 -731.586914
37.390800 20.396601 -732.317871
37.390301 10.975300 -730.646179
37.389702 29.145201 -729.845276
37.389000 35.206001 -735.421570
37.388302 22.735800 -730.160522
37.388000 23.893101 -734.698181
37.388000 7.064200 -731.683228
37.387299 7.480000 -732.613403
37.387199 23.087099 -731.819092
37.387001 17.911400 -730.426086
37.386002 40.993500 -730.760620
37.385799 43.310299 -730.790588
37.384701 4.739300 -730.019287
37.384102 34.781300 -730.870117
37.383202 2.204900 -731.596375
37.382801 35.705299 -729.354370
37.382702 20.789801 -732.269592
37.382099 26.210199 -730.274597
37.381901 6.265800 -732.314087
37.381901 57.221699 -729.187927
37.381901 41.739601 -728.439514
37.381199 51.504200 -730.141724
37.379902 40.540199 -730.856201
37.378799 56.080299 -729.433289
37.377300 35.577702 -735.594116
37.377102 47.727402 -730.458313
37.376999 53.891499 -729.810974
37.376202 8.346900 -730.895630
37.375702 6.503200 -727.917175
37.374599 26.794600 -730.045471
37.373901 14.447600 -733.018372
37.373798 18.878201 -733.347290
37.373600 47.271099 -730.486572
37.373402 25.083000 -734.929016
37.373402 13.213800 -730.481323
37.373402 23.318899 -730.107971
37.372898 56.916500 -729.237122
37.372799 49.125999 -727.437622
37.372200 12.024000 -730.503174
37.372101 26.986099 -735.208008
37.370899 52.741001 -726.859375
37.370602 44.538799 -730.723389
37.370300 15.903900 -730.507690
37.370300 29.542500 -729.770081
37.369701 7.819400 -731.454773
37.369099 6.537000 -732.492981
37.367699 54.814899 -729.727417
37.367100 37.188702 -729.024414
37.366100 46.800999 -727.783997
37.365200 45.149399 -727.958374
37.364700 30.485600 -731.240173
37.362900 30.146999 -729.677185
37.362202 8.130100 -731.367310
37.360401 27.332600 -731.506897
37.359901 9.566400 -731.011597
37.359402 44.658501 -727.986877
37.359299 21.319401 -732.337097
37.359299 32.484501 -731.050293
37.359200 5.755600 -729.113220
37.358200 5.049000 -729.704102
37.358101 29.756201 -735.517578
37.357498 33.550999 -735.489197
37.357498 32.982399 -731.010315
37.357101 39.251598 -730.885986
37.356300 24.944901 -730.203613
37.356098 27.535900 -729.960205
37.355801 35.085800 -735.705017
37.354198 36.101398 -731.008179
37.353199 30.389299 -735.342712
37.352798 41.207699 -728.500183
37.351200 45.437099 -727.888794
37.351101 53.129700 -730.100830
37.351002 6.856200 -732.542786
37.351002 45.641899 -730.697205
37.351002 29.829901 -729.698730
37.350498 5.728400 -728.468628
37.350300 6.814400 -732.047119
37.349998 22.851000 -732.375000
37.349602 36.713501 -731.007324
37.348400 -0.225200 -735.620728
37.348400 14.797700 -730.560730
37.347401 36.649300 -736.171082
37.347198 28.042500 -731.492981
37.346901 41.471699 -730.779419
37.346001 47.241901 -727.743896
37.345402 20.124100 -730.316772
37.344601 25.073000 -731.696472
37.343601 39.112301 -728.764221
37.343201 34.135502 -731.034424
37.343102 28.803801 -735.273621
37.342602 2.954800 -731.310608
37.342098 42.554401 -728.241516
37.341099 18.928301 -732.319885
37.341099 54.330799 -729.800415
37.340599 53.837101 -730.212830
37.340401 48.923302 -730.251282
37.338501 49.705101 -727.265686
37.338200 21.771999 -732.286316
37.337799 16.493799 -733.113525
37.337002 44.046299 -728.035889
37.336498 20.606100 -730.318176
37.336498 52.216000 -730.102722
37.336399 48.657398 -727.485413
37.335098 8.832300 -731.172424
37.333599 46.080299 -730.673828
37.332100 35.278099 -731.093872
37.331902 10.103100 -732.792114
37.331200 4.661600 -729.722717
37.330898 51.237801 -730.251282
37.330700 53.489799 -729.806396
37.328999 40.482601 -728.552124
37.327801 31.421101 -729.513123
37.326698 24.686001 -731.731079
37.326099 52.646000 -730.078186
37.326099 4.342300 -730.062988
37.326000 8.457900 -731.316772
37.325500 22.352600 -734.103516
37.325401 33.470600 -729.426025
37.325199 26.284599 -731.645874
37.324402 3.690700 -730.367981
37.323299 37.656601 -731.041687
37.322399 32.951099 -735.474487
37.319801 51.879299 -726.807678
37.317600 44.988499 -730.786804
37.317402 28.833000 -731.421692
37.316299 33.864201 -735.543884
37.316101 36.311901 -729.087219
37.315899 28.230700 -729.853821
37.315300 44.349998 -728.117615
37.312500 54.748699 -730.209106
37.310902 47.765099 -727.781677
37.310799 50.511902 -727.053528
37.310398 23.627199 -731.874512
37.310001 49.508301 -730.415100
37.308800 22.429300 -730.030090
37.307301 24.881001 -734.702026
37.306801 44.242802 -730.778687
37.306499 42.053101 -728.290771
37.304298 38.787102 -728.765198
37.302399 1.937800 -731.353027
37.302200 25.361799 -731.712219
37.301601 34.266201 -735.391418
37.301201 7.217700 -733.022827
37.299900 15.501400 -733.164490
37.299702 45.748501 -727.794312
37.299000 26.460699 -730.106079
37.298801 10.128500 -730.979126
37.298698 24.616699 -730.033020
37.298401 23.456499 -734.418823
37.297699 23.374701 -732.315613
37.297699 28.434799 -731.444214
37.297298 7.519000 -732.989014
37.297001 48.343601 -730.461426
37.296799 8.500500 -732.753296
37.296501 7.333700 -731.745605
37.295300 23.018000 -730.002686
37.295200 55.764599 -729.588623
37.293400 30.972799 -729.534912
37.293201 33.345901 -731.117676
37.292400 55.308800 -729.794922
37.291401 18.301800 -730.279907
37.290901 21.283199 -733.955383
37.290600 18.556299 -732.347473
37.290501 52.042801 -726.563599
37.289799 29.508200 -735.312195
37.289600 53.542999 -730.269470
37.289600 35.139999 -729.119080
37.289001 14.503600 -730.251221
37.288101 16.038900 -733.106384
37.287899 16.966000 -730.385986
37.287498 21.381399 -733.624878
37.286900 51.940498 -730.210022
37.286400 37.245800 -736.427124
37.286400 36.907700 -729.001892
37.286201 23.038000 -732.111389
37.286201 41.950199 -730.865112
37.285500 46.708401 -730.628174
37.285198 36.932400 -736.238708
37.284698 7.145900 -732.491028
37.284302 5.398800 -729.627319
37.284302 35.791000 -729.090271
37.283699 6.224700 -731.227112
37.282001 34.860100 -729.280090
37.280701 5.600800 -728.784424
37.279999 34.611099 -731.128784
37.279301 29.223101 -731.408325
37.279301 10.624000 -730.886902
37.278801 21.695299 -730.247620
37.278400 23.764700 -734.441284
37.277599 4.307400 -730.367310
37.277500 27.632500 -731.538574
37.277500 5.302800 -729.050415
37.276901 24.335400 -731.776123
37.276798 51.208599 -727.061707
37.276199 12.701900 -730.590881
37.275101 2.706600 -731.046814
37.275002 43.601898 -728.009888
37.274700 31.909599 -729.417480
37.274300 34.201900 -729.320984
37.273300 50.411701 -730.359314
37.272701 18.141500 -733.260071
37.272701 10.588400 -732.794006
37.272301 32.383400 -729.378723
37.271099 22.772699 -734.125305
37.270500 5.176800 -729.388672
37.268799 25.782000 -734.918701
37.268501 35.826199 -735.978088
37.268398 30.405800 -729.555115
37.268101 15.250700 -730.638489
37.267502 42.490200 -730.925781
37.266899 30.065500 -731.343872
37.266300 31.272600 -731.271484
37.264999 39.611198 -728.647095
37.264900 20.749800 -733.784119
37.264500 25.871000 -731.744507
37.264198 8.100500 -732.688782
37.263401 50.165401 -727.092102
37.263000 46.223999 -727.745728
37.262299 35.775600 -731.152100
37.261600 7.227600 -732.092529
37.261002 31.948299 -731.208374
37.260502 37.550999 -736.664124
37.259800 27.462000 -735.015625
37.259102 16.547800 -730.415710
37.258099 38.907799 -730.995422
37.257900 13.989800 -730.522888
37.257301 7.959900 -730.831177
37.257301 24.152399 -730.033813
37.256599 13.678200 -730.494873
37.255798 28.169500 -735.248474
37.254601 35.348000 -735.814270
37.254002 8.770300 -730.878296
37.253899 43.168999 -728.059021
37.252300 24.512400 -734.607422
37.250900 25.658300 -730.125977
37.249901 17.529800 -730.277771
37.249802 6.167600 -728.166321
37.248402 7.651900 -731.757507
37.248402 35.002800 -731.193176
37.248299 27.009899 -729.861084
37.247799 34.889801 -735.379211
37.247299 23.650700 -732.416077
37.247002 50.910301 -730.318115
37.246101 23.626699 -730.026123
37.245701 32.604500 -735.679321
37.243599 32.889500 -729.307617
37.241501 21.874599 -734.119385
37.241501 8.083700 -732.992615
37.240601 11.419900 -730.759277
37.240501 28.567301 -735.450989
37.239399 30.279900 -735.615723
37.238201 49.204300 -730.346924
37.238098 26.564301 -735.189270
37.237999 48.766701 -730.535400
37.237900 34.558800 -735.450989
37.237598 50.884499 -727.063782
37.237000 40.146198 -728.526001
37.236000 9.040500 -732.756287
