65.474297 222.482895 -835.131775
65.473999 178.499298 -767.660522
65.472504 199.493896 -764.978088
65.472198 176.251007 -769.654419
65.470100 207.048904 -764.499207
65.458199 217.454102 -829.714783
65.446404 112.095200 -745.329895
65.445297 219.095901 -831.782410
65.433098 112.134399 -747.517822
65.418900 215.874496 -827.565674
65.416702 197.683395 -765.064087
65.411797 241.126099 -759.689880
65.411102 185.100693 -766.239929
65.397400 183.369293 -766.341492
65.387100 177.021606 -768.176270
65.383499 222.055405 -763.244324
65.380600 218.589798 -830.585571
65.376198 212.196396 -820.377014
65.366402 218.853104 -763.398193
65.362396 216.801605 -828.806519
65.339996 176.418198 -771.012390
65.331596 232.650208 -761.543518
65.327202 226.103394 -762.556213
65.324203 224.108902 -762.939575
65.313904 175.968094 -768.673706
65.313698 112.599503 -740.598022
65.292503 223.531403 -836.048096
65.289597 196.390106 -765.128906
65.279404 112.298599 -746.316711
65.270599 200.504593 -764.761108
65.260399 111.304100 -744.525818
65.258904 114.049202 -739.489380
65.255798 175.484299 -770.271790
65.254402 233.920700 -761.358704
65.254097 211.620804 -819.470093
65.247704 228.199203 -839.596985
65.244499 205.901505 -764.488586
65.224503 208.514496 -764.447571
65.201103 187.038300 -765.553528
65.198196 191.599792 -765.533691
65.197403 109.926903 -741.864319
65.190201 175.015503 -769.274475
65.188202 214.677399 -825.632080
65.182404 217.432098 -763.561279
65.177399 182.424393 -765.984924
65.171799 235.188797 -761.084778
65.163200 198.120605 -808.151428
65.159203 212.436203 -764.267517
65.157097 200.791794 -809.919922
65.151901 230.529694 -762.017822
65.151001 220.145996 -763.419678
65.135597 188.616806 -765.705322
65.130699 199.143005 -808.824219
65.124901 215.451797 -763.904175
65.123901 229.005096 -840.373779
65.123497 110.696404 -743.309082
65.123299 211.072006 -818.549683
65.120399 224.345901 -836.611206
65.116203 237.251007 -760.678406
65.114304 194.739197 -765.164612
65.112999 195.858398 -806.713074
65.098099 195.094299 -805.979187
65.083099 177.862305 -766.995483
65.082603 196.921600 -807.404419
65.081802 184.229095 -765.791382
65.076897 213.615295 -823.822388
65.068802 185.994400 -765.506104
65.062897 180.999496 -765.995300
65.057098 202.381500 -764.547302
65.055702 215.194305 -826.619385
65.042000 174.434296 -770.078125
65.041397 223.117096 -763.086487
65.040901 176.272507 -767.583618
65.040199 179.293106 -766.454529
65.037300 201.699402 -810.480408
65.030296 175.055801 -768.228271
65.026001 193.700500 -804.674683
65.020897 192.545502 -804.150085
65.018600 210.535797 -764.381775
64.997498 111.473503 -746.837585
64.997398 202.687698 -810.702576
64.993797 225.233795 -837.617371
64.987503 174.064499 -768.972229
64.972000 192.599503 -765.331726
64.969101 210.247299 -817.896973
64.957298 214.049194 -824.784180
64.945801 200.070602 -809.137329
64.935303 198.662201 -764.980530
64.928299 115.904701 -737.122498
64.917397 236.283096 -760.914917
64.912804 204.721893 -812.543823
64.910896 190.220703 -765.315125
64.908401 226.363205 -838.484619
64.896500 204.766205 -764.565979
64.893402 216.403107 -763.751526
64.891403 174.932495 -771.214722
64.890297 240.305893 -760.098022
64.888496 110.948898 -741.380615
64.888000 229.896103 -841.207581
64.884201 227.050293 -762.598389
64.880203 221.008606 -834.136292
64.872398 209.522202 -816.960327
64.857399 183.351700 -765.388000
64.856400 204.026306 -811.467590
64.856300 212.071106 -821.231323
64.852699 205.565308 -813.219177
64.846703 173.478806 -769.763123
64.834999 111.018204 -745.469421
64.824997 220.183899 -833.282715
64.818802 191.623795 -803.239929
64.814003 212.775497 -822.629395
64.792099 193.797806 -765.031128
64.789497 221.075302 -763.357971
64.786102 109.150902 -742.406677
64.782097 219.488907 -832.417175
64.780197 176.468597 -766.616211
64.778801 113.108704 -739.909119
64.768303 114.556297 -738.648621
64.767197 206.365295 -813.846313
64.766800 175.344406 -767.221680
64.766197 230.705597 -841.840027
64.757004 207.170197 -814.518921
64.756500 221.702896 -834.833679
64.754303 227.322205 -839.337891
64.747200 174.086395 -767.943481
64.733803 216.171997 -828.349182
64.733299 225.053101 -762.739380
64.731796 211.516098 -764.156128
64.727402 180.008102 -765.822388
64.717003 208.724792 -815.945496
64.715302 178.429596 -766.090576
64.708504 214.426193 -763.992371
64.702904 228.363602 -762.323914
64.697800 218.558502 -831.405029
64.697403 115.338799 -737.927673
64.690598 173.149094 -768.652771
64.689499 110.490799 -744.521484
64.682297 203.356506 -764.565186
64.677299 238.443405 -760.444824
64.676300 217.898697 -830.473022
64.661201 173.759506 -770.732910
64.659500 182.042007 -765.210327
64.653900 213.270493 -764.033203
64.649597 211.420898 -820.322571
64.647102 207.948105 -815.136902
64.644302 185.014206 -765.288513
64.637199 195.648102 -764.953491
64.633202 231.952896 -761.840576
64.631599 201.340195 -764.505127
64.630798 222.631805 -835.678772
64.629204 203.054504 -811.571716
64.618301 209.368607 -764.358093
64.604202 187.861893 -765.206177
64.603104 207.614502 -764.385681
64.599503 172.464600 -769.382019
64.595802 109.846497 -743.198181
64.594498 190.605392 -802.355774
64.589897 197.000702 -764.727173
64.587196 194.294006 -805.567688
64.583099 111.820396 -740.777100
64.573601 216.889603 -829.465027
64.557098 199.496201 -764.597290
64.554703 218.290298 -763.645874
64.544197 231.842499 -843.017273
64.536903 189.586197 -801.335693
64.536003 206.599396 -764.382019
64.524002 172.772797 -770.404114
64.504501 110.638100 -746.605774
64.498199 189.233398 -765.078796
64.486099 173.522903 -767.131409
64.486000 181.003601 -765.114319
64.478203 172.384201 -768.007019
64.446602 223.529800 -836.594116
64.441200 179.132706 -765.448730
64.438004 233.060196 -761.682800
64.431900 174.504395 -766.785400
64.430901 215.553604 -827.544006
64.415001 110.627197 -747.602417
64.414803 171.485306 -769.037781
64.410599 109.262497 -748.324524
64.407402 175.508499 -766.308472
64.402702 210.796799 -819.393372
64.397400 222.382797 -763.276489
64.390404 219.465500 -763.551270
64.389603 228.269699 -840.134705
64.382698 232.630798 -843.745483
64.370499 229.911301 -762.284912
64.364304 226.132202 -762.833130
64.361801 191.009796 -764.877808
64.361397 212.945496 -823.551514
64.361000 224.484100 -837.345215
64.345398 177.020096 -765.866028
64.338097 186.553604 -765.057312
64.337700 198.551804 -808.690918
64.331497 197.413101 -807.925415
64.326103 188.740204 -800.303101
64.308502 171.738495 -770.054382
64.302803 214.639404 -826.212280
64.297897 223.781006 -763.035583
64.295197 109.490997 -741.561096
64.283501 113.596298 -739.089417
64.273697 195.328705 -806.544922
64.270897 205.556198 -764.332092
64.267197 202.094299 -811.055786
64.266998 201.016205 -810.340576
64.266701 228.893402 -840.951782
64.259399 197.971893 -764.562317
64.257103 171.406693 -767.955322
64.255600 110.192596 -745.405273
64.245499 196.199005 -807.069885
64.239197 204.012604 -812.355774
64.236900 234.025604 -761.552795
64.225502 231.090500 -762.111877
64.224098 192.978302 -804.654480
64.222900 200.434692 -764.453125
64.219101 172.544601 -766.992004
64.214401 192.018402 -764.776917
64.210297 108.363403 -742.627502
64.209503 212.067795 -822.028687
64.203903 235.520798 -761.203613
64.199303 217.237305 -763.728088
64.186501 194.719101 -764.738770
64.180099 109.538902 -744.091125
64.179497 193.044495 -764.716614
64.178596 210.282394 -818.574890
64.177803 188.071503 -799.343811
64.173599 209.680603 -817.730713
64.171204 179.962799 -764.974426
64.166702 170.658707 -769.581726
64.164703 225.522598 -838.111572
64.161903 199.417007 -809.336121
64.155701 192.087204 -803.884583
64.148499 215.709503 -763.838074
64.129303 213.461807 -824.409912
64.125801 184.088593 -764.946289
64.114799 237.413696 -760.870911
64.113998 177.928497 -765.450623
64.105301 109.790802 -747.052917
64.104698 226.454407 -839.146729
64.100304 170.269806 -768.615417
64.099403 208.534103 -764.229980
64.093597 214.029694 -825.278320
64.089897 112.391502 -739.932373
64.083603 171.383194 -766.971680
64.079201 202.159393 -764.404480
64.073700 174.498093 -765.847595
64.069901 210.258499 -764.311279
64.068298 204.923401 -813.095520
64.065201 212.287506 -764.190491
64.063797 182.881104 -764.916077
64.050400 204.158005 -764.336182
64.048897 231.111206 -842.567383
64.043602 173.139297 -766.130188
64.040199 208.994995 -816.762817
64.017899 220.553802 -833.929199
64.012703 110.479401 -741.295776
64.005699 175.972504 -765.517212
63.995499 229.725693 -841.675171
63.983898 205.711700 -813.750610
63.983799 220.376694 -763.398376
63.982201 218.988403 -832.019775
63.979198 170.210297 -767.629883
63.972099 227.716293 -762.552002
63.970901 211.459396 -821.056030
63.960999 227.191406 -839.944885
63.959801 187.059494 -798.570129
63.942299 229.029495 -762.471680
63.941101 219.523300 -832.957275
63.937901 114.483002 -737.976685
63.936798 185.624207 -764.850830
63.932800 233.655594 -844.557373
63.928398 190.114105 -764.933716
63.926998 200.165604 -809.948486
63.926701 191.138397 -803.119873
63.897099 216.403900 -828.845703
63.893101 169.588806 -769.365784
63.884399 207.981506 -815.850830
63.883202 206.667007 -814.507080
63.882999 221.535599 -763.343811
63.882801 217.415298 -830.041687
63.868900 109.167702 -744.971130
63.866699 222.017395 -835.524719
63.863300 218.089706 -831.111511
63.853600 196.383606 -764.469421
63.835499 190.180496 -801.841614
63.831600 169.027893 -768.417786
63.830700 213.873306 -764.059326
63.830200 171.860504 -770.961792
63.817101 108.604301 -743.586426
63.816101 224.689102 -762.995972
63.801498 171.913605 -766.158875
63.800701 170.845901 -770.580872
63.792900 169.578705 -766.888794
63.791302 222.794006 -836.243225
63.782799 170.645996 -766.367981
63.781101 221.256699 -834.625977
63.780102 212.552597 -822.831421
63.766899 188.319901 -764.693420
63.762798 193.634399 -805.317993
63.761200 109.540199 -746.093506
63.759998 211.325607 -764.279480
63.755600 181.790604 -764.724121
63.754700 186.260406 -797.314880
63.754700 236.618500 -761.391479
63.752499 198.914795 -764.426514
63.737099 187.303894 -764.705017
63.735699 108.274399 -741.749023
63.718899 194.537094 -806.058777
63.713799 202.785294 -811.843384
63.712200 215.089905 -826.943176
63.696602 232.123306 -762.122620
63.692402 231.925003 -843.522827
63.688900 168.560898 -767.530396
63.688702 245.412704 -867.789917
63.684399 245.136795 -865.577209
63.681702 210.822906 -820.107971
63.681099 189.063797 -801.130127
63.673599 245.918198 -869.191711
63.666100 176.831696 -765.050171
63.662498 203.187897 -764.304016
63.660000 207.198502 -764.366089
63.654999 111.181702 -740.627625
63.653301 246.231094 -870.216980
63.653301 178.868500 -764.670715
63.652500 107.412201 -742.513428
63.649399 245.383408 -866.599182
63.646301 218.736206 -763.579285
63.639702 108.898201 -747.176270
63.634102 168.477402 -769.233521
63.626801 243.451706 -862.239685
63.624500 185.271194 -796.736511
63.622898 227.977905 -840.717102
63.618500 215.774094 -828.130676
63.603500 169.698593 -770.373779
63.603298 234.286407 -845.286316
63.593700 224.699203 -837.986328
63.586399 172.778000 -765.326111
63.579800 173.781693 -765.295105
63.578300 201.260406 -764.361084
63.577599 197.798904 -808.474487
63.571201 223.613297 -837.123230
63.570702 246.748703 -871.560120
63.564400 196.675095 -807.677795
63.562698 167.878693 -768.333679
63.560600 243.968399 -863.610596
63.556999 244.410400 -864.672180
63.551701 226.762405 -762.876282
63.549999 222.972198 -763.226929
63.537399 232.725800 -844.261597
63.536900 180.739594 -764.593994
63.536201 242.889801 -861.374817
63.530998 193.843597 -764.442627
63.528099 174.944397 -765.054810
63.525299 207.128906 -815.320618
63.524101 235.553894 -847.600403
63.505299 201.465698 -810.815308
63.499500 242.239304 -859.798279
63.492100 236.247101 -848.703674
63.485100 169.860199 -765.806885
63.478500 168.376495 -766.568420
63.478298 234.917694 -761.559814
63.477200 225.666397 -838.944519
63.477100 197.307907 -764.387695
63.475300 188.210403 -800.275330
63.472900 233.130997 -761.984802
63.466599 206.132507 -764.277405
63.456299 247.280304 -872.445007
63.450901 209.482895 -764.397278
63.449600 184.555603 -796.014404
63.447498 225.738205 -763.038086
63.445301 171.031097 -765.458679
63.445202 167.492905 -767.354004
63.443298 214.983902 -763.986023
63.436901 198.748901 -809.183777
63.430698 210.128799 -819.211975
63.430599 247.807098 -873.338318
63.421902 228.793396 -841.494080
63.420399 203.735596 -813.022888
63.420399 204.924301 -764.313782
63.418999 195.555405 -807.009094
63.416901 191.159897 -764.460388
63.413799 216.391602 -763.905029
63.409901 113.103302 -739.182678
63.409500 209.536606 -818.346008
63.409302 108.344101 -744.611511
63.403500 230.021103 -842.419312
63.402401 177.653397 -764.544678
63.399700 175.878006 -764.538330
63.397900 109.130302 -741.338196
63.393600 236.967804 -849.848816
63.388699 212.897293 -824.018921
63.388599 229.956406 -762.593384
63.361099 241.749298 -858.759705
63.360298 184.818695 -764.532471
63.350101 108.567497 -745.597717
63.346600 107.691803 -743.456726
63.344398 208.783600 -817.436096
63.340500 199.817795 -764.322021
63.329201 168.728897 -770.236694
63.325298 195.435898 -764.448425
63.325199 214.326004 -826.107971
63.316799 186.335098 -764.491028
63.314098 183.256104 -794.829285
63.310799 183.482300 -764.574585
63.307999 212.967300 -764.173218
63.306900 187.343201 -799.329224
63.303398 211.644699 -821.832214
63.297199 166.919998 -768.527222
63.295799 167.544205 -769.309082
63.294601 192.522095 -764.472595
63.293201 208.119507 -816.668579
63.287701 167.414993 -766.350403
63.286499 113.708099 -737.944092
63.284401 179.768402 -764.455017
63.283401 168.629593 -765.628601
63.281399 217.742203 -763.761719
63.276600 230.945694 -762.478821
63.275200 237.510696 -850.738708
63.273300 234.649399 -846.244080
63.271599 186.394501 -798.213379
63.266998 192.725906 -804.759094
63.260899 216.764008 -829.551270
63.259899 241.140701 -857.090515
63.258499 189.601501 -764.408691
63.258301 230.973907 -843.216187
63.257000 204.977402 -813.787903
63.240898 191.654205 -803.873474
63.240398 219.717102 -763.599304
63.229900 213.500198 -824.829590
63.222900 190.503601 -802.673889
63.221298 226.381897 -839.663513
63.194000 182.389603 -794.074219
63.190800 200.559204 -810.558289
63.188900 228.429504 -762.705200
63.188000 205.702393 -814.472229
63.186699 208.216507 -764.463013
63.186199 166.100906 -767.643982
63.180599 220.334198 -833.389771
63.178101 108.033096 -747.447327
63.177601 247.653793 -874.488770
63.172001 240.725601 -856.170715
63.160599 111.946198 -739.924011
63.157101 174.189301 -764.426025
63.156898 171.983398 -764.901672
63.140598 223.875702 -763.232300
63.131802 165.929703 -766.668518
63.130798 248.318497 -875.335327
63.128502 110.216599 -740.883728
63.125999 234.138504 -762.198730
63.115299 201.998795 -811.628418
63.113998 218.695099 -831.511719
63.110699 220.877106 -763.615723
63.109001 238.294495 -851.945618
63.106602 248.872894 -876.215576
63.098801 210.461197 -764.362122
63.087799 170.259705 -764.935181
63.083099 199.568405 -809.850586
63.081200 217.694794 -830.601074
63.074902 222.113907 -763.432129
63.073502 211.025497 -821.091614
63.061199 219.169296 -832.479126
63.057499 227.131104 -840.398499
63.051102 221.494003 -835.282471
63.041199 182.521103 -764.358582
63.037601 167.559494 -765.372681
63.035599 202.100204 -764.307800
63.024502 198.218994 -764.221497
63.021301 220.667206 -834.370422
63.013302 189.624496 -801.929016
63.012798 244.522095 -865.980225
63.011700 211.968399 -764.372925
63.007099 165.978302 -768.721130
63.004299 240.202194 -855.195984
62.998699 181.339996 -793.109009
62.990101 166.237305 -765.723694
62.981499 173.110703 -764.552185
62.975899 244.819107 -867.109192
62.971298 164.920898 -766.814270
62.966999 239.123199 -853.078796
62.965698 233.512894 -845.659119
62.962200 204.028305 -764.407288
62.959301 231.839600 -844.251587
62.959202 203.025696 -812.453125
62.956902 106.877502 -743.028809
62.953400 107.476997 -744.343506
62.951000 239.718399 -854.099182
62.950401 222.377502 -835.889526
62.949200 242.453003 -860.705994
62.947300 206.294907 -815.281128
62.945301 215.343094 -827.534119
62.941502 212.035995 -822.666870
62.937901 185.667999 -797.542297
62.933601 166.594894 -769.495789
62.932999 245.219101 -868.446777
62.932899 169.062302 -764.765930
62.930302 229.149704 -842.349121
62.930099 207.255295 -816.161804
62.910400 181.468796 -764.297424
62.905102 107.661400 -741.802490
62.894501 194.806107 -806.614380
62.892700 245.561096 -869.688171
62.877998 183.705505 -795.612793
62.877602 216.153305 -828.778015
62.875500 223.131393 -836.543213
62.874500 193.951706 -805.918396
62.873501 248.779694 -877.219116
62.865002 196.469299 -764.222412
62.864300 167.738495 -770.368713
62.859798 245.977402 -870.767700
62.853802 243.242004 -862.882202
62.851700 107.978996 -746.329224
62.847198 164.877899 -767.891724
62.842499 210.237106 -820.102722
62.841499 187.699402 -764.298218
62.841099 249.099304 -878.229614
62.840801 176.636703 -764.167297
62.839500 178.496094 -764.205688
62.833698 234.842407 -847.195984
62.833401 164.814102 -765.795227
62.832100 107.675102 -745.351074
62.830601 232.624603 -845.049927
62.826199 106.414803 -742.067688
62.823700 197.029495 -808.344116
62.818501 214.212906 -764.087219
62.816700 241.351105 -858.008972
62.810699 224.053604 -837.806702
62.808102 249.408401 -879.248413
62.799198 180.651993 -792.152771
62.792801 188.556396 -800.911072
62.791801 243.757904 -864.297729
62.789501 184.626404 -796.760315
62.782299 194.610794 -764.330322
62.779800 236.279907 -849.436584
62.755001 227.893906 -841.222778
62.751499 107.150597 -747.682922
62.750500 227.348801 -763.033386
62.746899 200.657394 -764.288696
62.740898 232.187805 -762.440186
62.737701 241.610794 -859.518982
62.736500 197.966095 -808.986877
62.730202 196.072296 -807.636902
62.729801 224.821503 -838.486389
62.724800 175.135605 -764.128479
62.716301 163.739807 -766.671509
62.715302 188.682297 -764.431885
62.714401 246.925201 -873.055481
62.705898 112.937500 -738.325500
62.695900 204.110504 -813.584595
62.692902 206.857193 -764.532471
62.690800 170.879898 -764.272522
62.684200 166.546295 -764.722473
62.680302 167.901398 -764.503479
62.674198 229.340698 -762.899780
62.672798 225.128494 -763.348816
62.670399 246.539200 -871.972473
62.667900 165.012207 -768.860718
62.666199 185.486496 -764.233826
62.665600 208.817902 -818.212585
62.662701 218.849792 -763.746582
62.655399 165.433502 -764.980713
62.654800 209.497406 -819.059570
62.648899 242.470093 -861.669128
62.644501 215.767502 -764.085022
62.641102 226.269897 -763.269714
62.632301 191.749802 -764.212219
62.631001 179.727005 -791.705688
62.628399 190.362701 -764.189087
62.619900 204.799698 -814.610413
62.616001 163.653793 -765.652588
62.613602 205.502899 -764.547180
62.611801 110.866699 -740.277100
62.599499 180.437500 -764.136414
62.597698 201.203705 -811.343323
62.595402 199.112000 -764.204285
62.594501 187.758698 -800.169312
62.591702 230.168503 -843.063477
62.587700 193.183395 -805.330688
62.579899 214.686096 -826.721191
62.578201 212.446793 -823.661987
62.578098 172.062607 -764.090820
62.577900 163.686707 -767.651428
62.574501 249.459503 -880.220520
62.574299 213.766296 -825.530273
62.569801 169.832108 -764.188416
62.565899 225.614304 -839.381470
62.564301 184.048599 -764.200317
62.563801 209.014801 -764.556396
62.561699 193.184296 -764.194824
62.558899 207.997498 -817.328186
62.549000 217.046204 -764.011230
62.548199 191.018204 -803.485779
62.535198 249.706299 -881.231384
62.532299 223.041504 -763.430786
62.531700 235.220093 -848.129028
62.521801 186.920898 -798.888000
62.517899 203.143097 -764.473816
62.514301 230.923401 -843.919678
62.505600 162.650894 -766.385071
62.498402 198.726898 -809.687622
62.495201 243.901001 -865.341980
62.492901 219.518707 -833.219482
62.492001 179.072098 -790.668274
62.489399 192.085495 -804.483826
62.489300 108.781097 -741.060974
62.488499 165.702194 -769.645874
62.477798 182.590607 -794.843872
62.468399 106.122002 -743.549377
62.467499 106.703400 -744.766724
62.461201 236.529007 -850.345825
62.457901 181.650497 -793.976013
62.438099 237.225098 -851.288574
62.431801 164.140305 -764.803406
62.409698 202.193604 -812.334900
62.408100 166.741501 -770.378296
62.406502 217.117996 -830.037781
62.399300 213.004898 -824.460510
62.398602 233.665695 -846.488525
62.398201 241.653107 -860.497314
62.397999 197.369995 -764.178528
62.393200 173.738693 -763.893616
62.386200 211.322006 -822.076477
62.383598 218.070999 -831.197083
62.380600 105.613098 -742.606995
62.372299 186.533203 -764.210327
62.368698 247.246002 -873.935791
62.368301 162.543396 -765.354126
62.361500 168.733307 -764.012817
62.353298 211.102203 -764.488525
62.352600 220.069305 -763.872681
62.346901 199.777206 -810.519897
62.343399 248.144699 -876.088379
62.343201 213.241592 -764.290588
62.343201 231.197403 -762.809570
62.335999 162.579498 -767.363586
62.326698 205.510605 -815.236816
62.326099 178.122894 -790.174988
62.323399 195.599792 -764.103271
62.318802 163.563507 -768.614319
62.304600 203.233093 -813.295776
62.303699 244.072098 -866.532288
62.300701 226.332703 -840.127197
62.293701 177.377396 -789.223389
62.291000 228.217194 -763.286926
62.289200 249.318100 -882.425903
62.285801 239.908005 -855.961426
62.284302 161.551895 -766.358582
62.283100 206.333405 -816.031616
62.280701 107.124397 -745.988770
62.280499 185.951508 -798.322571
62.279499 237.679703 -852.172424
62.273602 243.055801 -863.683228
62.268002 244.501495 -867.729614
62.267200 238.397202 -852.942078
62.266201 190.166901 -802.790100
62.264400 112.010002 -739.442017
62.262001 228.577194 -841.825195
62.250099 231.756302 -845.019470
62.249401 177.443695 -763.930481
62.248798 238.985397 -853.800476
62.246201 218.630005 -832.205322
62.242699 180.719299 -793.344910
62.238899 179.298294 -763.969177
62.237999 240.139893 -856.936829
62.228699 201.507095 -764.485413
62.223900 244.962601 -869.169128
62.223900 207.820206 -764.617188
62.222301 239.363495 -854.754395
62.221100 167.353806 -763.688782
62.218399 221.020905 -835.011230
62.216000 220.203903 -833.947083
62.210400 210.006897 -764.542480
62.209000 106.307503 -748.054626
62.204300 230.208603 -763.011230
62.197399 210.486496 -820.828186
62.195900 221.748505 -763.733887
62.195301 109.734703 -740.851074
62.194099 227.045395 -840.907227
62.191799 240.485107 -857.975281
62.190498 223.980103 -763.566772
62.189499 189.137405 -801.511902
62.187801 195.249496 -807.179077
62.186600 161.529297 -765.338318
62.186199 247.486496 -875.001587
62.172199 249.849503 -883.386475
62.170898 207.101303 -816.867371
62.166199 223.333603 -837.264771
62.165901 215.576096 -828.177917
62.160198 164.346695 -769.627686
62.159100 185.038696 -797.424988
62.157902 189.492401 -764.127380
62.154900 235.280899 -849.093079
62.146099 250.322998 -884.325806
62.146099 165.047607 -764.164612
62.143902 240.760895 -858.986877
62.142399 183.872192 -796.344788
62.138802 183.031494 -764.051392
62.129101 221.686996 -835.758301
62.128399 166.137604 -763.924622
62.128300 218.028503 -764.065918
62.121601 232.523300 -845.840271
62.118500 175.922897 -763.951477
62.116501 106.533401 -747.043823
62.114201 162.833694 -764.416382
62.097900 179.965897 -792.537720
62.097500 245.286301 -870.635925
62.097000 216.377808 -829.387817
62.090801 161.587906 -767.349426
62.077499 194.225403 -806.457886
62.069199 204.504105 -764.616272
62.067902 170.518906 -763.584106
62.067200 229.196701 -842.833679
62.063202 160.591599 -765.789673
62.061401 222.393997 -836.497986
62.056999 174.561401 -763.417297
62.049801 162.433395 -768.384216
62.036900 233.870407 -847.392029
62.035801 183.107193 -795.713318
62.025299 199.920303 -764.466309
62.022900 248.832397 -879.601501
62.022099 211.868103 -823.017517
62.021801 196.425903 -808.257080
62.020302 105.218102 -743.492920
62.016399 209.438507 -819.818481
62.016399 176.092896 -788.197876
62.015999 171.657303 -763.359192
62.009201 242.236404 -862.396973
62.008999 208.729904 -819.014221
62.008400 178.922104 -791.539978
62.002800 107.214401 -742.010315
62.000198 248.312500 -877.018188
61.999401 198.328598 -764.414673
61.998001 214.846802 -764.214783
61.995098 181.934006 -764.007019
61.983299 172.824707 -763.786499
61.980202 212.187805 -764.428711
61.978401 235.554092 -850.038513
61.970402 200.380997 -811.306213
61.966702 248.590103 -878.086121
61.965500 214.019699 -826.288208
61.962799 105.827003 -744.449585
61.961399 194.088501 -764.088379
61.960701 197.343307 -808.867981
61.955002 161.825500 -764.413391
61.953602 236.326706 -851.198120
61.950901 163.767105 -763.964111
61.945801 243.156494 -864.613281
61.941898 245.897705 -871.450073
61.940102 160.548401 -766.782410
61.936100 208.094604 -818.251099
61.935501 224.259003 -838.231323
61.928699 214.959305 -827.436584
61.925701 106.095596 -745.413330
61.925400 203.974503 -814.259521
61.915401 186.989807 -799.710022
61.912201 188.027405 -764.080322
61.902302 107.895599 -741.246826
61.893501 160.812500 -764.697876
61.892899 246.372604 -872.643127
61.875401 249.000107 -880.772095
61.875000 230.162598 -843.880005
61.872398 227.639893 -841.645325
61.871899 188.167404 -800.968079
61.871899 226.992203 -763.361572
61.870602 229.121704 -763.435120
61.870300 184.758301 -764.037476
61.869801 191.145706 -763.963989
61.860199 224.980301 -839.023621
61.858002 234.432693 -848.315125
61.851398 192.457306 -763.863220
61.844002 201.170807 -812.025818
61.835602 162.959595 -769.234070
61.834301 204.510803 -815.246521
61.833698 159.714905 -765.284607
61.831799 206.330307 -764.680481
61.821400 250.407104 -885.352417
61.816200 191.452301 -804.127319
61.802601 165.321594 -770.257385
61.787498 216.252106 -764.208618
61.785400 196.545197 -764.358826
61.781101 198.044495 -809.613525
61.774601 240.885101 -859.970825
61.773998 177.300293 -790.066223
61.772400 225.493103 -763.545471
61.764702 192.557999 -805.138611
61.762299 232.939301 -846.716370
61.757000 169.329193 -763.298523
61.753201 159.521194 -766.301819
61.749699 168.337204 -763.320313
61.748001 236.740799 -852.139771
61.742500 178.460297 -763.775879
61.739601 219.145706 -764.072571
61.738899 175.238800 -787.775574
61.731602 237.481705 -853.039429
61.731098 111.166801 -739.814087
61.725700 241.351105 -861.161072
61.721100 213.198395 -825.469971
61.721001 180.979706 -763.891296
61.715599 238.120895 -853.866577
61.714802 181.927307 -794.802979
61.711300 185.795700 -764.034119
61.707001 217.362701 -830.723022
61.704601 198.871201 -810.306885
61.698601 250.511993 -886.362793
61.696201 210.589905 -821.769226
61.692402 202.332901 -813.093628
61.687599 238.518402 -854.862976
61.686798 230.743500 -844.681396
61.686199 105.871002 -746.365112
61.684101 202.572205 -764.646423
61.678799 225.546997 -839.850586
61.677101 160.914795 -767.987671
61.673100 203.027893 -814.101685
61.662399 106.290001 -742.302124
61.656200 238.813095 -855.881592
61.654099 220.789597 -763.978699
61.649200 159.942902 -764.257019
61.648701 222.692703 -763.838623
61.644699 242.261093 -863.325317
61.644699 212.333298 -824.327209
61.644501 189.430099 -802.342407
61.639198 158.749100 -765.073486
61.631100 239.246994 -856.823181
61.630100 177.929901 -790.868286
61.629398 176.423203 -789.117310
61.626999 181.136002 -794.148193
61.624001 105.300903 -748.122803
61.622601 219.034897 -832.992371
61.622601 110.088097 -740.047974
61.620998 162.454498 -763.570679
61.614799 231.603897 -845.831604
61.611500 104.443001 -742.428223
61.604500 239.644699 -857.779175
61.601898 207.130295 -817.695679
61.600201 108.892502 -740.624023
61.592201 161.142502 -763.720215
61.587601 164.646103 -763.418213
61.584202 243.197205 -865.556824
61.584099 208.876602 -764.636475
61.575500 190.616898 -803.460388
61.574799 205.332993 -815.926880
61.574100 228.197998 -842.462585
61.571800 174.347702 -787.178223
61.556900 166.699402 -763.340576
61.554100 193.483398 -806.029602
61.552101 246.699799 -873.528381
61.550701 244.790100 -869.944275
61.550201 187.051193 -763.903015
61.544998 248.972900 -881.801819
61.539799 243.836304 -867.166077
61.537498 165.653198 -763.056091
61.533100 239.963303 -858.775391
61.528702 213.833405 -764.452271
61.527901 176.831802 -763.604614
61.526699 218.112198 -831.722900
61.524799 206.080597 -816.629822
61.521500 159.595703 -767.264404
61.516998 161.926193 -769.137573
61.516201 173.706894 -763.370422
61.516102 184.406906 -796.993530
61.510201 158.554596 -766.416016
61.505501 244.263199 -868.367188
61.502300 186.262802 -798.869019
61.493900 209.594101 -820.722717
61.487701 203.642303 -764.755371
61.484699 158.913300 -764.067688
61.482899 227.852493 -763.730591
61.476299 185.343201 -798.205505
61.473301 195.598602 -807.797302
61.468399 179.160599 -792.367615
61.462200 247.560303 -875.704224
61.461899 220.418900 -834.598999
61.459801 229.251404 -843.644409
61.457699 104.105698 -743.376404
61.454300 217.190903 -764.223816
61.449402 195.221695 -764.382629
61.443401 183.754807 -763.964783
61.440601 104.980797 -744.427185
61.439800 210.638504 -764.675171
61.435501 233.473297 -848.120789
61.434399 157.804993 -765.298828
61.432301 215.668503 -828.847473
61.429699 241.455994 -862.168823
61.428699 200.699097 -764.654602
61.427898 226.254501 -840.656372
61.420399 111.423698 -738.875916
61.419201 197.467896 -764.528870
61.417301 205.253998 -764.800110
61.417301 199.134094 -764.591370
61.416302 211.210999 -822.567200
61.412998 249.331497 -882.953979
61.412102 234.296295 -849.254578
61.402401 216.727005 -830.002075
61.397301 199.596497 -811.080322
61.395199 201.391403 -812.967224
61.389999 190.273605 -763.940918
61.387402 180.174896 -793.281311
61.381599 105.220802 -747.057373
61.379200 249.567093 -883.993774
61.379200 207.220596 -764.764099
61.376499 235.197296 -850.753723
61.372299 173.235397 -786.267883
61.367199 224.556107 -763.845520
61.361900 194.653000 -806.998230
61.348900 250.373596 -887.465698
61.345001 175.536804 -763.455872
61.343498 164.354202 -770.244873
61.343300 246.992203 -874.491821
61.340599 163.338303 -763.209229
61.337101 157.922104 -764.310974
61.330299 219.726105 -833.726685
61.327400 248.324997 -879.012207
61.323399 188.646301 -801.721313
61.323101 179.840103 -763.750122
61.320202 175.455704 -788.675598
61.318501 214.206299 -827.125183
61.308899 189.048004 -763.778015
61.306301 160.076096 -763.315430
61.305401 222.803696 -837.121582
61.304100 221.248505 -835.356873
61.302700 105.123802 -745.547791
61.300800 242.466400 -864.298218
61.296501 183.304199 -796.429016
61.291401 105.354401 -742.203308
61.280701 156.951202 -764.525330
61.279400 182.455505 -795.662415
61.276501 235.875702 -851.780273
61.267399 221.776596 -764.081726
61.263901 223.605606 -837.871704
61.258499 212.879105 -764.576477
61.252998 231.954407 -846.721375
61.252800 248.033096 -877.604492
61.252701 193.147507 -764.337097
61.251202 250.958405 -888.339417
61.250900 208.695694 -819.745117
61.250900 172.338699 -763.261780
61.241299 226.337494 -763.799683
61.236099 182.625595 -763.882324
61.222698 170.395004 -763.073181
61.218300 167.598999 -762.692688
61.195000 245.303406 -871.048279
61.192299 172.354294 -785.297180
61.191898 207.586197 -818.674500
61.180801 211.537506 -823.601196
61.180599 221.944595 -836.069519
61.180199 196.566696 -808.762390
61.177898 157.506195 -766.234070
61.175800 187.279007 -800.427917
61.175098 245.815994 -872.240112
61.174702 176.417694 -789.998779
61.173500 248.557007 -880.091675
61.173500 160.072205 -768.430420
61.172901 215.353302 -764.521118
61.172798 211.651398 -764.715576
61.171600 218.283600 -764.215881
61.171501 226.934006 -841.536377
61.159599 203.586700 -814.813477
61.158100 156.554901 -765.425415
61.154499 236.446396 -852.901184
61.150799 240.033401 -859.692627
61.149101 200.264297 -811.896118
61.147202 178.171600 -791.734802
61.139801 104.419098 -748.225830
61.137600 162.064407 -762.703796
61.135799 237.048599 -853.759583
61.132401 215.039398 -828.103027
61.128799 243.236496 -866.437622
61.125301 240.473694 -860.634583
61.124001 157.111694 -763.528870
61.122700 158.314499 -767.383789
61.122002 158.164795 -763.375305
61.121601 201.746902 -764.828186
61.120399 171.395798 -784.582886
61.110600 237.525803 -854.704102
61.108501 107.238197 -741.233887
61.107399 219.947006 -764.212830
61.106998 232.538193 -847.513916
61.104198 223.552094 -763.940613
61.101799 224.377106 -838.778992
61.085300 191.880905 -804.764282
61.084099 247.600006 -876.622375
61.083698 237.970001 -855.672974
61.074799 155.923798 -764.569275
61.073002 177.112198 -790.749573
61.072399 174.591705 -788.132874
61.070999 197.328003 -809.476318
61.058601 160.976700 -769.002075
61.058201 159.114899 -763.097107
61.057301 213.501801 -826.367615
61.056099 238.404907 -856.650513
61.048801 177.710999 -763.579529
61.048401 234.426193 -850.188599
61.042900 192.069504 -764.307007
61.027199 163.052704 -769.967712
61.023300 229.933594 -844.784729
61.019501 249.650101 -884.965515
61.019501 206.312607 -817.559387
61.018600 209.711807 -764.842896
61.008099 186.514893 -799.696716
60.997700 230.750198 -845.433289
60.992298 212.568893 -825.152222
60.987900 204.530304 -815.885376
60.983799 185.132706 -763.716614
60.976200 189.822296 -803.015015
60.975300 104.095703 -744.434082
60.971500 209.866699 -821.598999
60.963902 228.442902 -843.234314
60.959900 174.603607 -763.252991
60.958302 249.988602 -885.961914
60.954700 238.866592 -857.645508
60.948299 168.914001 -762.892395
60.941700 202.190704 -813.786804
60.939499 248.594101 -881.101013
60.938999 155.890305 -763.520081
60.933102 161.097000 -762.571411
60.929199 108.104897 -740.757324
60.920200 159.069702 -768.014893
60.919701 194.085693 -764.667480
60.918701 164.199493 -762.758484
60.917099 205.274094 -816.665771
60.917099 198.227402 -810.339111
60.915199 173.438293 -787.201477
60.913502 187.863205 -764.028076
60.908501 191.076401 -764.299316
60.904499 191.037598 -804.136414
60.899399 104.350899 -746.081970
60.898102 218.583405 -832.339722
60.897301 241.503906 -863.004578
60.892200 170.434296 -784.132385
60.890900 250.917892 -889.261230
60.888302 244.264099 -869.191772
60.884499 192.752701 -805.681580
60.882000 104.352699 -747.202881
60.877201 233.438797 -848.954529
60.874100 251.495499 -890.079529
60.870602 184.283295 -797.738281
60.869400 181.571793 -763.780212
60.859901 181.431900 -795.150085
60.859200 198.278107 -764.693970
60.857300 110.655701 -739.591003
60.855999 186.317795 -763.875122
60.855900 171.388596 -763.148315
60.854698 217.549393 -831.250977
60.853298 155.229996 -765.372620
60.851898 208.221298 -764.884277
60.851799 224.966507 -839.686523
60.850300 168.920593 -782.897827
60.849400 196.153702 -764.612976
60.841900 154.628998 -763.953003
60.841499 210.403000 -822.516296
60.840000 166.486404 -762.655884
60.836399 206.358002 -764.963074
60.833599 239.147903 -858.594177
60.833000 156.772003 -766.808716
60.832600 231.093796 -846.409790
60.832001 180.553802 -794.355896
60.820301 242.454193 -865.223083
60.811501 240.690201 -861.645203
60.804600 103.151497 -742.588379
60.799198 109.474800 -740.114380
60.794601 179.362305 -793.267212
60.792198 185.507095 -798.916687
60.791000 225.438400 -764.068176
60.782200 227.578506 -842.281677
60.782001 246.161697 -873.157471
60.781200 216.315903 -764.446716
60.777500 178.792099 -763.687378
60.775002 187.819199 -801.230530
60.770699 199.859695 -764.818298
60.756302 202.935501 -764.888916
60.756100 155.892502 -766.327820
60.753601 165.224503 -762.611328
60.750099 172.422897 -786.212402
60.746799 243.534500 -867.780212
60.745899 208.927002 -820.735718
60.745499 103.423798 -743.588501
60.722698 248.804703 -882.359985
60.720798 216.019196 -829.597900
60.718201 246.988907 -875.333496
60.714100 154.221802 -764.860229
60.709099 161.924194 -769.774902
60.708000 234.651306 -851.256287
60.701000 204.232605 -764.970703
60.698799 166.937393 -781.669678
60.698002 214.380707 -764.638000
60.694901 178.398697 -792.588074
60.691200 106.278297 -741.949280
60.690300 193.929596 -806.817383
60.689899 222.625305 -764.212524
60.684399 235.169693 -852.175171
60.681801 202.647797 -814.830872
60.681000 175.583099 -789.789307
60.674198 176.261398 -763.371521
60.673401 244.737198 -870.411194
60.668098 211.861893 -824.445374
60.657001 103.523399 -748.321777
60.655701 156.514297 -762.776917
60.653400 220.824905 -764.373901
60.650299 225.701706 -840.375671
60.647800 154.868500 -763.003174
60.647202 236.181396 -853.749023
60.647099 174.826202 -789.062317
60.645500 162.934601 -762.395813
60.642601 229.045898 -844.217712
60.641602 247.809402 -878.367371
60.639099 183.437897 -797.174316
60.637901 153.633301 -764.028015
60.636700 171.453003 -785.493713
60.630199 206.746201 -818.416199
60.628899 194.982697 -807.734680
60.626999 165.639999 -780.802673
60.625099 169.637299 -783.589600
60.623402 219.144608 -833.167175
60.619801 207.824295 -819.486084
60.619598 195.768997 -808.354370
60.618500 219.060699 -764.482605
60.618198 249.125793 -883.514771
60.611301 160.095200 -762.578186
60.607498 173.311600 -763.113281
60.602100 157.791199 -762.612915
60.601501 189.761597 -764.304016
60.599098 183.469696 -763.447876
60.597401 200.640594 -812.681091
60.587898 198.925598 -811.154175
60.587601 251.711899 -891.080627
60.576000 177.310394 -791.590515
60.573200 167.717300 -782.351318
60.573101 157.437698 -767.702271
60.572498 104.556503 -742.626709
60.570301 246.417099 -874.101074
60.562099 180.425995 -763.491882
60.561298 220.600998 -835.001587
60.561100 231.658203 -847.476318
60.555901 241.758698 -863.942871
60.555000 156.656494 -775.973999
60.551899 232.509995 -848.408203
60.549801 103.648399 -745.223389
60.546902 216.899002 -830.481201
60.544102 164.519501 -780.094482
60.536999 189.056198 -802.545715
60.532600 224.442398 -764.453430
60.531799 236.720306 -854.625122
60.526699 210.965195 -765.024170
60.519299 222.229095 -836.908386
60.516300 233.557205 -849.961975
60.515400 162.310501 -778.967773
60.512901 250.093399 -886.876770
60.511200 153.638504 -762.993408
60.506699 214.311203 -827.691284
60.505001 182.321899 -796.283813
60.504200 219.924194 -834.247925
60.501701 195.007904 -764.610474
60.498001 163.414398 -779.587830
60.495300 158.706207 -762.171570
60.492001 176.272598 -790.763123
60.490200 157.537598 -776.463379
60.476799 250.326096 -887.966370
60.473099 222.908798 -837.681519
60.471401 237.616592 -856.440613
60.469101 215.395096 -828.815674
60.466400 152.619995 -763.934204
60.463200 203.706497 -815.567078
60.461201 217.610794 -764.502686
60.460300 160.226700 -777.782288
60.460098 197.220703 -764.789490
60.459000 154.528793 -765.994324
60.458599 226.174500 -841.224609
60.454899 245.351105 -871.713013
60.452301 223.689606 -838.443787
60.448399 158.459305 -776.886414
60.448200 201.009796 -764.965515
60.441002 248.150604 -879.515076
60.438599 221.319000 -835.849487
60.429699 155.537399 -775.377380
60.429600 173.317902 -788.081726
60.429100 212.414902 -764.903625
60.427799 201.323898 -813.443604
60.424999 207.275696 -765.075500
60.416500 159.575302 -768.905518
60.416199 205.290207 -765.047424
60.414700 154.350906 -774.816223
60.411598 238.071304 -857.357422
60.410999 153.276505 -765.078674
60.402100 169.742996 -762.779175
60.398998 103.517601 -746.304321
60.396599 210.794800 -823.345093
60.391899 170.543900 -785.089905
60.377300 239.290894 -859.514221
60.366699 252.235001 -892.061218
60.363899 152.632202 -762.890686
60.362000 229.911896 -845.543274
60.359699 213.447205 -764.825928
60.356201 235.414307 -853.117981
60.355900 199.585602 -811.862976
60.352798 247.524704 -877.342285
60.352402 190.268799 -803.693115
60.350700 184.371704 -763.950684
60.349899 237.056198 -855.595398
60.348900 239.798294 -860.444824
60.340801 212.942902 -825.912415
60.338001 172.530701 -787.150696
60.338001 161.051895 -778.401428
60.337200 188.806000 -764.310181
60.334900 103.362297 -747.302917
60.330002 103.080704 -744.426270
60.320499 102.324997 -743.419922
60.318401 242.646393 -866.707886
60.316601 151.726196 -763.492310
60.315498 158.268906 -768.364014
60.310699 209.022202 -765.183228
60.300098 157.040604 -761.974915
60.298302 168.093796 -762.547974
60.296799 172.304504 -762.976501
60.293900 246.981400 -876.274597
60.292801 186.754501 -800.499512
60.292400 205.629395 -817.677979
60.291698 179.670197 -794.096985
60.288799 196.544296 -809.227112
60.288300 155.648697 -762.294373
60.287399 160.388702 -769.461426
60.286499 161.961807 -762.044006
60.285099 155.221405 -767.047119
60.284500 197.484894 -810.100586
60.283501 240.893707 -862.522278
60.270100 193.036301 -764.574829
60.269100 213.666199 -826.950073
60.267502 168.662399 -783.741272
60.265202 151.555206 -773.518127
60.260300 166.027603 -781.714172
60.252602 204.436401 -816.549988
60.251301 151.964401 -764.661926
60.248699 177.172195 -763.279480
60.246399 243.770599 -868.602722
60.243599 192.052399 -805.393921
60.242699 223.462708 -764.529602
60.237000 153.325394 -774.422302
60.235401 249.302399 -884.443176
60.230598 105.297401 -741.848572
60.227100 159.207199 -777.556580
60.225800 182.531403 -763.779480
60.219398 221.762802 -764.475830
60.218102 156.486496 -767.551575
60.214500 163.859894 -762.128113
60.212101 215.409897 -764.791199
60.211399 184.573898 -798.477173
60.205601 219.963196 -764.624573
60.202999 248.283798 -880.510376
60.199501 202.062897 -765.051575
60.188702 173.891693 -788.871582
60.184898 188.405899 -801.818176
60.181198 227.810196 -843.100586
60.180599 171.642303 -786.543823
60.178398 106.658798 -741.145630
60.177101 160.785400 -761.929321
60.172501 224.228500 -839.276672
60.165298 217.873795 -831.986328
60.164200 169.737900 -784.486877
60.163399 238.442902 -858.357483
60.157902 150.705307 -763.572876
60.155499 199.091599 -764.991699
60.152599 175.207504 -763.084473
60.152401 208.318604 -820.223328
60.147800 185.606003 -764.109375
60.144699 187.206696 -764.233521
60.141399 102.636398 -748.240173
60.139099 210.055298 -765.227600
60.136299 164.809906 -781.027527
60.135601 191.652298 -764.566284
60.128700 154.485001 -762.139526
60.124401 209.348694 -821.509277
60.122501 226.792007 -842.122498
60.119499 185.799606 -799.677979
60.117100 232.807495 -849.309814
60.111500 151.147400 -762.661682
60.107201 178.210495 -763.238586
60.105202 245.652206 -872.623779
60.091099 181.297104 -795.774292
60.090401 108.832397 -740.480286
60.090302 193.182800 -806.469421
60.089401 248.326508 -881.590271
60.087601 167.106293 -762.354370
60.087399 167.614395 -783.237183
60.084900 191.190094 -804.703003
60.083302 165.888596 -762.257813
60.082401 201.932007 -814.303528
60.082199 233.878098 -850.874878
60.077499 153.631195 -766.167480
60.076801 166.770294 -782.562927
60.076401 180.409103 -794.991577
60.073799 240.083893 -861.357422
60.069099 152.375595 -765.644287
60.065800 212.188507 -825.244873
60.065601 174.173798 -763.081726
60.064701 159.570602 -761.849792
60.063702 241.937500 -864.796570
60.063301 250.960297 -889.869385
60.057499 249.362305 -885.423828
60.052502 244.074997 -869.696777
60.049099 230.300903 -846.430420
60.045300 153.466797 -762.088989
60.042400 179.581802 -763.413574
60.031700 177.503204 -792.427673
60.030300 174.639999 -789.901794
60.027199 170.799194 -762.860901
60.018200 178.840103 -793.620422
60.016499 198.180695 -810.835388
60.013699 228.279404 -843.982971
60.010899 224.870300 -840.216797
60.009399 250.569397 -888.806274
60.008301 102.746498 -745.355286
60.000801 234.223602 -851.850830
60.000301 152.130997 -762.082275
59.998901 162.530899 -779.801025
59.996101 209.849701 -822.469116
59.994801 170.780396 -785.970825
59.993301 229.083099 -845.006409
59.992401 161.552994 -779.366882
59.981998 206.932205 -819.157227
59.972801 152.361404 -774.104187
59.967499 150.579300 -773.137329
59.967201 252.107498 -893.041016
59.961800 149.844803 -762.760925
59.958698 230.873596 -847.322571
59.957298 163.544098 -780.481628
59.956902 155.859497 -776.282288
59.955700 231.548599 -848.291382
59.952499 216.786407 -764.722778
59.947399 150.938797 -764.828674
59.944599 235.616501 -854.162720
59.941299 194.221497 -807.441101
59.941200 157.704102 -777.305115
59.937099 203.599899 -765.208313
59.934799 107.872200 -740.929321
59.933701 242.314194 -865.746826
59.929901 241.095596 -863.520386
59.927200 195.929398 -764.922974
59.924900 154.555695 -775.780396
59.923000 159.759293 -778.470703
59.919102 246.427200 -874.924988
59.917999 211.267807 -824.075623
59.914001 206.167404 -765.364807
59.909801 194.052597 -764.823120
59.907799 218.461197 -832.817200
59.906502 156.728394 -776.787415
59.902500 182.683899 -797.051575
59.896702 198.099106 -765.023682
59.895599 102.155998 -744.305420
59.895500 183.609207 -797.899780
59.889599 176.424606 -791.595520
59.885101 181.190704 -763.782776
59.882999 103.601402 -742.742676
59.880600 175.335495 -790.628479
59.877499 102.579300 -746.359985
59.875702 164.923401 -762.050171
59.872299 101.426003 -743.581726
59.870800 217.294495 -831.101807
59.868698 244.748306 -871.019409
59.860199 149.419601 -763.780823
59.856201 218.357193 -764.830200
59.855499 202.905304 -815.334473
59.846600 214.796600 -828.325012
59.842300 168.972000 -762.489014
59.841900 242.959503 -867.551208
59.840900 206.132294 -818.498413
59.836899 189.406799 -803.196228
59.833401 219.316299 -833.742676
59.832199 216.323196 -830.037109
59.831600 157.826096 -761.588074
59.824799 190.570999 -764.559814
59.821400 248.628296 -882.963928
59.814098 187.467300 -801.420227
59.804199 200.285797 -765.174927
59.803200 149.205200 -772.407593
59.802502 162.897995 -761.829895
59.794998 245.896698 -873.553101
59.788898 153.693298 -775.264221
59.784901 251.117599 -890.920593
59.784199 183.450104 -764.110474
59.781300 232.999207 -850.329773
59.779999 200.016998 -812.679688
59.777599 211.585800 -765.249817
59.775002 236.062393 -855.120117
59.774200 154.327301 -767.130371
59.767300 221.702301 -836.510925
59.765202 208.192200 -765.413879
59.764500 249.737305 -886.313416
59.763599 225.511002 -840.969788
59.761700 252.427200 -893.962280
59.760101 195.130600 -808.335815
59.753799 247.387405 -878.230225
59.752701 176.151993 -762.972717
59.750000 220.842896 -764.783020
59.744701 152.761307 -766.529785
59.743401 236.888504 -856.420410
59.741402 214.379196 -765.010681
59.740799 155.653198 -761.449097
59.735298 204.606094 -765.339722
59.733601 148.803299 -762.939270
59.733501 150.341599 -761.923584
59.727501 157.036896 -768.310974
59.724602 172.609299 -788.110901
59.722401 149.938507 -764.616577
59.722301 234.553101 -852.820007
59.719700 102.139702 -747.491272
59.714600 171.681503 -787.488525
59.713001 237.368698 -857.383118
59.702599 168.848907 -784.666626
59.702499 165.183197 -781.962280
59.701698 169.730896 -785.468689
59.700298 155.637299 -767.740295
59.699001 160.606293 -779.168701
59.693901 198.876999 -811.655273
59.693501 148.213196 -771.866577
59.692299 158.457199 -778.011414
59.681499 185.011200 -799.240601
59.668499 220.106995 -834.815674
59.668098 238.543793 -859.232971
59.656502 212.951096 -765.322021
59.649899 173.242294 -762.703003
59.648701 203.595093 -816.191711
59.646301 250.090805 -887.477722
59.644100 159.300705 -769.503723
59.642799 251.464798 -891.956177
59.641300 222.426498 -837.442078
59.641102 101.473801 -748.413330
59.637600 215.619293 -829.305420
59.636600 102.571701 -742.684814
59.636299 151.444595 -765.664917
59.630001 208.433594 -821.062012
59.629200 149.169601 -762.007019
59.627701 207.454697 -819.925720
59.627499 153.931503 -761.229980
59.623901 204.886398 -817.208801
59.621201 223.085999 -838.236084
59.614799 147.154205 -771.345581
59.611099 104.332298 -742.038574
59.599998 189.500504 -764.587708
59.583302 152.666794 -761.326416
59.583199 240.216797 -862.223083
59.582298 220.809097 -835.651428
59.579700 195.802902 -809.041992
59.577599 167.796799 -784.165222
59.573700 188.651398 -802.609924
59.569698 196.891693 -765.094421
59.563000 164.026993 -781.261475
59.561798 207.105194 -765.574219
59.555801 147.718307 -762.505127
59.551498 227.006699 -842.908630
59.544998 165.912292 -782.705017
59.542198 200.825104 -813.327515
59.541199 238.993393 -860.228394
59.539700 247.085999 -876.982178
59.538200 145.825897 -770.667480
59.537998 178.017105 -793.187317
59.536098 231.918396 -849.195984
