49.366100 180.040100 -766.585083
49.365700 195.327606 -772.818115
49.360802 133.892197 -761.132019
49.352699 144.320099 -763.092529
49.349499 239.033401 -787.840271
49.339901 199.605194 -781.760071
49.328899 237.304901 -781.688721
49.322498 136.019897 -761.823181
49.321602 221.321899 -779.115723
49.320900 251.211197 -791.077881
49.318501 265.650391 -786.002014
49.318100 237.306000 -787.536011
49.313702 279.968201 -787.461487
49.297600 185.970795 -767.023804
49.296398 275.763000 -787.408386
49.294201 191.462997 -771.682373
49.293800 207.507706 -780.747192
49.286400 238.848907 -782.063171
49.282600 271.872314 -797.053223
49.273300 187.523895 -771.130676
49.265301 219.286606 -778.745972
49.261902 205.810806 -780.383301
49.245499 226.418594 -780.213013
49.243198 196.945999 -780.961914
49.242100 150.820694 -763.796509
49.238998 233.905502 -781.234985
49.230301 284.390991 -800.679077
49.226101 152.452103 -763.905029
49.219601 225.061600 -784.211975
49.208599 92.871002 -754.477417
49.205399 181.443802 -769.733887
49.205101 268.045807 -795.721680
49.201099 248.178802 -783.817871
49.198399 131.850098 -762.844788
49.195301 165.245895 -764.637329
49.194901 189.649094 -767.455383
49.192799 159.352203 -764.179688
49.190601 90.023399 -750.631592
49.185299 212.100800 -781.710693
49.177299 281.721313 -787.976196
49.166302 216.688599 -778.223328
49.164600 279.240997 -799.346802
49.163200 232.719299 -786.010498
49.163200 263.197693 -785.895386
49.162498 224.826202 -780.150391
49.156300 212.141602 -776.997925
49.153000 198.100006 -773.567627
49.149502 235.712601 -786.730286
49.148998 175.636398 -768.524475
49.146599 92.842499 -750.184204
49.143600 219.623398 -783.179321
49.142502 127.374496 -760.543701
49.141602 230.282898 -780.985596
49.137600 208.837799 -776.140381
49.136200 193.565308 -772.659973
49.136002 230.698196 -785.469482
49.136002 177.079697 -768.904907
49.131401 222.979706 -783.629883
49.121201 216.181503 -786.511780
49.098499 285.503204 -788.655884
49.097500 252.629898 -784.521484
49.092499 267.595795 -786.578979
49.090401 218.020401 -782.675293
49.073502 277.196808 -787.843079
49.071800 167.815903 -764.978394
49.065102 94.994499 -748.355530
49.061199 140.848801 -762.451416
49.060501 255.161407 -791.552917
49.058300 232.483505 -781.562500
49.058300 171.567200 -765.231018
49.058300 155.779999 -763.737915
49.053398 202.636703 -774.613892
49.049999 240.135101 -782.697815
49.044300 247.456406 -789.416626
49.035301 271.706909 -787.182129
49.015900 210.137695 -776.788696
49.015499 132.486099 -760.682007
49.009300 214.173904 -781.729126
49.008801 235.107498 -782.060120
49.006599 173.481400 -768.085815
49.002300 91.799004 -755.568176
49.002102 205.704697 -783.093018
48.998901 216.148697 -782.194092
48.991901 202.304092 -779.726379
48.988998 124.844803 -760.212219
48.987202 142.406906 -762.638916
48.985901 244.150299 -783.556824
48.983501 264.561493 -794.496826
48.979198 214.476105 -777.995728
48.973598 244.437897 -788.578918
48.971401 242.740601 -783.289124
48.962799 227.167603 -784.137329
48.953300 249.750595 -784.462402
48.952900 176.239807 -765.753174
48.949600 227.490906 -781.065186
48.945801 249.836502 -789.891113
48.939999 229.095001 -784.716125
48.936001 130.234100 -762.476807
48.933300 273.369110 -787.525085
48.923599 240.445007 -787.427185
48.922699 123.068001 -759.737976
48.918098 222.348404 -780.080322
48.916100 200.904907 -774.535522
48.915199 91.409401 -750.367981
48.908401 270.658112 -796.273376
48.904499 130.916702 -760.366211
48.891300 285.919403 -800.779419
48.891300 246.061096 -784.094727
48.883701 278.727997 -788.148987
48.880798 246.073700 -788.906372
48.868999 260.752197 -792.952393
48.868500 274.106415 -797.445618
48.860199 221.455093 -782.790588
48.856899 253.988007 -785.209595
48.849899 210.887207 -780.864990
48.847301 224.529297 -782.926880
48.840801 162.438797 -764.241577
48.833599 205.669006 -775.827087
48.830299 213.617004 -785.505371
48.827801 203.938904 -782.525574
48.824100 234.037003 -785.589722
48.824001 252.449005 -790.482910
48.820301 204.191895 -775.423828
48.817200 257.895599 -785.699097
48.813702 139.091202 -761.943787
48.805401 127.870003 -762.097473
48.804199 257.926910 -792.005493
48.796001 243.110992 -788.004272
48.792400 238.426895 -786.645813
48.791401 188.869400 -771.375977
48.788101 126.244904 -761.503723
48.784500 280.790497 -799.622192
48.783199 236.472504 -782.771912
48.779099 90.772301 -752.605591
48.776402 179.949005 -769.707275
48.774899 225.991806 -783.239929
48.767700 91.564796 -753.914917
48.762798 190.167496 -772.185730
48.760300 199.272705 -774.373474
48.756901 218.019699 -779.160217
48.755299 275.747589 -797.903870
48.749599 198.416397 -781.059387
48.749298 232.042999 -784.821411
48.743900 208.677307 -780.137878
48.743500 121.149597 -759.143127
48.736698 207.445694 -776.477905
48.727699 263.138092 -793.723999
48.727100 222.784805 -782.280579
48.725601 241.862595 -787.371277
48.724300 264.472107 -786.624817
48.722198 184.231400 -766.752808
48.719700 147.109100 -763.072998
48.719601 170.042892 -765.263489
48.719601 126.347298 -759.528381
48.719299 201.128693 -778.894775
48.713799 220.157303 -779.774475
48.705399 238.402893 -783.328613
48.704601 251.200195 -785.127625
48.703701 268.955688 -787.117920
48.702301 194.832993 -780.094727
48.694302 94.049797 -749.612793
48.693001 261.744598 -786.262817
48.690498 259.967987 -786.150085
48.688202 228.378998 -783.444092
48.688000 219.730606 -781.823975
48.687401 256.135712 -785.605530
48.687302 204.535904 -779.237793
48.677700 267.003204 -794.867310
48.673000 230.595306 -784.116211
48.671700 236.712708 -785.789978
48.669300 217.224503 -781.357483
48.667198 213.068100 -778.087830
48.657902 214.994598 -785.809875
48.648399 287.847900 -800.984619
48.643398 233.737503 -782.604126
48.642700 174.689499 -765.959717
48.641998 241.392899 -783.630920
48.638699 287.349304 -788.807678
48.636501 247.303497 -784.796021
48.636002 228.988800 -781.748230
48.627998 209.826096 -784.069275
48.626598 212.273605 -780.389771
48.618801 212.274796 -784.891785
48.610401 235.408997 -785.233398
48.609699 215.511398 -780.948486
48.602600 196.832993 -773.960205
48.587399 198.598694 -778.311218
48.582802 227.230499 -782.546875
48.577400 119.456398 -758.645325
48.574600 90.172501 -755.470581
48.574299 154.344498 -763.320129
48.573601 233.616302 -784.271606
48.570400 207.315903 -779.517883
48.570400 191.399902 -779.013184
48.570301 128.624405 -760.064575
48.569901 254.105392 -790.516479
48.566898 221.069107 -781.329224
48.563202 282.922791 -788.598328
48.555099 256.502411 -791.230225
48.550800 225.549301 -781.218079
48.545399 240.138107 -786.096619
48.544800 277.259399 -798.248230
48.541599 185.375305 -771.146729
48.540798 203.060104 -778.578674
48.539799 280.122986 -788.643127
48.538101 259.627289 -792.136597
48.537899 269.449310 -795.554382
48.536098 251.134705 -789.426392
48.535999 135.046799 -761.169128
48.532799 211.166107 -777.794128
48.532299 214.041702 -780.401978
48.531101 189.220505 -778.320801
48.529701 192.136703 -772.753784
48.528400 215.638107 -778.971985
48.524502 230.835907 -782.222900
48.522499 210.080002 -779.734985
48.522099 183.946396 -770.817505
48.517899 282.177399 -799.820190
48.517502 202.066299 -781.913574
48.515900 266.181000 -787.020020
48.512100 182.720398 -766.695374
48.504601 248.513397 -788.618774
48.502899 187.822296 -778.116089
48.499901 252.389801 -785.932007
48.491100 218.841599 -780.759888
48.489899 238.048004 -785.246704
48.489399 148.587799 -763.021729
48.483398 166.480698 -764.782227
48.481098 223.820099 -780.870789
48.472301 270.441895 -787.524902
48.471901 158.247101 -763.646606
48.464001 181.276199 -766.290588
48.463699 137.088898 -761.492798
48.461300 274.705200 -787.897888
48.454601 208.069107 -783.380371
48.451900 245.170303 -787.428528
48.451099 194.535004 -773.563599
48.442501 124.333702 -758.978821
48.441502 160.535995 -764.135315
48.439499 89.068298 -751.472290
48.438801 199.991104 -778.023804
48.438400 239.673599 -783.996826
48.437901 245.012207 -784.942322
48.435902 208.878296 -777.436279
48.435398 248.889893 -785.554626
48.424599 145.368195 -762.710876
48.411201 232.268600 -783.471313
48.407299 128.719193 -764.615723
48.405201 143.699203 -762.135010
48.403198 243.008499 -784.628479
48.399700 272.805298 -796.496216
48.388599 172.817001 -765.727905
48.386101 182.061096 -776.275391
48.380199 243.460403 -786.653381
48.377899 265.699005 -793.834229
48.376900 289.627991 -801.237122
48.370499 205.707596 -778.521179
48.367001 117.603203 -758.196899
48.364601 247.144302 -788.133484
48.362202 254.923904 -786.330322
48.353001 216.602798 -780.078918
48.350601 249.961197 -788.581909
48.347198 178.994202 -766.259827
48.328999 178.262604 -769.603577
48.318901 185.310593 -777.266113
48.314201 182.189407 -770.608398
48.307201 202.880402 -775.822083
48.303600 149.990494 -763.048706
48.302200 241.540695 -785.716919
48.290901 235.148499 -783.322876
48.288601 236.595993 -784.374390
48.285999 284.419189 -789.022827
48.283600 262.060303 -792.648987
48.278400 283.562592 -800.021729
48.278400 197.143600 -777.586487
48.277500 257.195587 -786.856873
48.271702 163.978699 -764.156616
48.270100 200.768707 -781.383911
48.263901 268.429108 -794.610779
48.257599 281.633209 -789.062988
48.255199 201.909195 -777.712524
48.252998 253.183899 -789.383972
48.252998 263.259399 -787.168823
48.249401 201.438400 -775.661377
48.236900 152.821396 -762.981384
48.233200 121.986397 -760.580383
48.232101 116.071098 -757.768921
48.229801 250.555298 -786.330078
48.212299 186.783203 -771.856384
48.202801 93.454697 -748.346680
48.199299 264.341888 -793.167725
48.196800 204.477402 -777.866272
48.196400 198.062195 -774.974915
48.195900 129.028305 -766.012878
48.186600 122.849197 -758.563477
48.184601 133.586197 -760.406494
48.183399 272.322296 -788.153381
48.180302 89.993401 -753.964111
48.172199 198.793106 -776.912598
48.169701 123.454498 -761.005981
48.166500 114.646103 -757.609985
48.165699 212.035904 -779.050903
48.162998 196.201202 -780.207397
48.160599 246.828705 -786.766113
48.159801 276.392609 -788.568115
48.158298 278.691010 -798.382385
48.157200 151.425995 -763.123413
48.153500 267.273590 -787.862427
48.149799 249.162292 -787.389404
48.137001 259.153198 -787.249023
48.136902 173.631500 -774.106628
48.135300 255.241699 -789.685791
48.124401 156.875504 -763.616211
48.121899 251.816193 -788.210815
48.118099 253.640106 -786.947571
48.116798 206.276703 -777.121704
48.111099 193.040405 -779.563477
48.105900 260.865692 -787.271729
48.102699 288.582397 -789.584717
48.098202 88.400398 -755.126526
48.096001 207.316193 -778.134888
48.086899 140.494705 -761.506226
48.078800 119.691200 -759.942078
48.077000 271.468201 -795.431396
48.071098 188.934296 -772.579590
48.067001 257.842804 -790.814514
48.061501 129.962601 -767.335083
48.056801 177.350098 -766.195313
48.044601 195.671600 -774.512024
48.040298 195.566498 -776.658630
48.021900 176.084305 -769.302429
48.018002 255.898499 -787.369324
48.008900 192.980301 -773.755005
48.003700 274.964813 -796.747925
48.002399 209.815506 -778.435913
48.000401 118.334999 -759.553772
47.999699 277.803986 -788.873230
47.993198 265.070892 -787.799011
47.988499 88.044601 -750.328918
47.983200 206.885101 -782.678223
47.983101 214.018295 -778.996887
47.979000 280.096985 -798.703613
47.973099 112.925903 -756.993286
47.972500 211.090897 -784.041992
47.964699 168.753204 -765.017578
47.957901 269.285492 -788.301819
47.957401 291.673096 -801.435486
47.954800 127.528801 -759.221130
47.951302 286.282501 -789.403076
47.951000 285.069000 -800.122070
47.948898 205.362396 -782.162720
47.945702 92.219101 -749.655823
47.943802 89.564201 -750.186829
47.943100 257.999390 -788.046021
47.938400 197.276199 -776.232788
47.934898 175.029907 -774.344482
47.931301 260.787994 -791.537598
47.928398 180.053894 -775.562378
47.924801 256.571014 -789.211670
47.910999 183.417206 -776.394287
47.906898 199.507507 -775.504272
47.905499 129.999893 -759.994080
47.903099 262.126892 -787.921387
47.886101 190.982803 -773.434387
47.881001 141.916199 -761.873718
47.880299 204.462204 -776.484985
47.868698 174.044006 -768.804321
47.865601 259.112610 -790.248718
47.859100 128.669006 -763.313110
47.852001 254.838898 -788.332825
47.848499 180.580002 -770.581299
47.844700 276.551788 -797.201172
47.840401 203.378799 -781.585571
47.830700 131.769196 -759.936584
47.825298 271.034485 -788.650085
47.819302 267.281006 -793.736572
47.818600 269.901886 -794.417114
47.808899 116.440201 -759.133118
47.803398 110.331200 -756.524902
47.799000 199.514099 -780.651489
47.795399 259.769196 -788.533691
47.794998 146.588501 -762.107910
47.789001 273.519104 -788.808594
47.786999 245.706802 -786.000488
47.780998 121.379700 -758.034790
47.773899 171.816696 -773.551270
47.772701 125.611801 -758.783325
47.770599 286.663788 -800.279175
47.753300 263.752197 -788.388977
47.750900 177.800400 -774.973328
47.730301 263.074799 -791.858276
47.730099 138.789795 -761.053284
47.721001 89.043800 -752.771179
47.720600 171.043503 -765.139893
47.708401 290.292908 -789.882690
47.697102 184.361099 -771.872681
47.694000 283.031311 -789.691284
47.685001 165.214401 -764.491577
47.683701 197.917404 -780.175476
47.677101 275.114594 -789.033630
47.676800 240.395294 -784.928101
47.675301 118.776802 -757.783875
47.670898 281.547394 -798.893127
47.668400 279.225189 -789.388123
47.667301 260.876709 -790.106201
47.663101 194.417496 -775.529419
47.660500 294.039703 -801.599670
47.659199 161.764694 -763.766418
47.657101 175.768906 -766.079590
47.648998 159.363098 -763.862915
47.642300 266.350403 -788.784973
47.633099 108.446404 -756.028198
47.628399 273.839905 -795.815308
47.627300 194.468994 -779.240479
47.627300 131.395004 -768.365723
47.625702 180.145401 -766.670715
47.616402 179.176697 -770.491577
47.616100 155.535095 -763.135315
47.612301 257.915802 -789.446228
47.609699 209.971802 -782.976379
47.604301 265.755402 -792.615601
47.581100 268.048096 -788.967712
47.581001 262.367889 -790.634827
47.570099 111.561203 -757.247192
47.563801 92.226402 -748.011597
47.555000 87.810204 -751.686829
47.550499 113.636299 -758.600281
47.543999 264.487701 -791.741089
47.528500 86.775101 -754.862183
47.505001 280.603210 -789.743225
47.496601 288.733795 -800.539612
47.488800 182.735703 -771.690796
47.484402 264.784393 -789.332214
47.480499 190.379196 -778.023376
47.479500 117.075401 -757.139893
47.476501 177.184006 -770.173828
47.461102 186.440903 -777.066711
47.460201 106.616203 -755.543274
47.459400 176.452499 -774.502625
47.459000 90.898300 -749.826782
47.455700 284.925995 -790.047913
47.454700 170.297897 -773.111694
47.441898 202.132202 -781.009521
47.433998 104.925499 -755.092529
47.430099 268.722290 -793.411682
47.426201 277.992615 -797.389526
47.421299 148.266205 -762.131104
47.413200 272.116394 -789.457397
47.404999 130.215607 -766.084717
47.400799 135.333496 -760.374573
47.395100 262.012390 -789.239075
47.390400 144.570404 -761.686401
47.386101 115.500702 -756.740601
47.383202 192.400497 -778.500122
47.377499 208.467499 -782.548279
47.374599 187.663696 -772.655884
47.369999 263.804504 -790.485107
47.369400 283.050293 -799.041504
47.369400 174.066101 -765.982422
47.366699 269.517792 -789.635498
47.366402 201.981201 -776.625671
47.359299 188.768295 -777.560730
47.358601 167.530106 -764.664673
47.352100 266.883911 -790.071899
47.351002 181.975693 -766.962280
47.346699 267.025208 -791.950378
47.345001 137.104904 -760.624390
47.332600 272.613312 -794.894714
47.329601 192.465897 -774.899170
47.318802 174.846695 -769.837585
47.317299 103.561501 -754.682495
47.315800 86.594704 -750.179016
47.313801 295.399902 -801.605103
47.301800 276.894714 -789.725708
47.301300 128.787094 -759.482727
47.297501 271.209412 -794.274902
47.297001 186.224106 -772.802185
47.286701 111.676598 -755.855774
47.280300 265.710602 -790.996094
47.273300 287.481201 -789.910522
47.271999 112.109100 -758.617798
47.256302 109.343300 -757.411316
47.254101 189.423004 -773.606323
47.236301 181.329300 -771.601196
47.233898 274.155304 -789.961426
47.232300 292.044098 -790.471130
47.227100 168.839996 -772.747925
47.217899 181.533005 -775.568970
47.216999 114.078400 -756.584778
47.216900 275.471497 -795.702393
47.205399 154.205795 -762.889526
47.192799 87.623398 -753.743530
47.187901 279.361115 -797.622925
47.187500 102.147301 -754.272278
47.185001 268.459808 -790.624878
47.184101 270.795807 -790.187622
47.182899 204.714294 -781.155273
47.168900 290.254700 -800.619080
47.163101 150.409500 -762.288208
47.155899 163.067307 -764.216675
47.154999 206.796997 -781.475098
47.153099 124.258904 -758.267212
47.141399 99.682297 -754.188599
47.139500 107.523903 -756.980713
47.139301 196.216995 -779.215698
47.138500 131.412994 -766.982910
47.136002 84.284500 -749.875427
47.131199 270.226013 -793.213074
47.128300 129.306396 -764.737122
47.126900 166.988098 -772.370972
47.114300 143.072693 -761.397522
47.100300 157.894897 -763.494873
47.098099 120.155296 -757.770386
47.095901 281.885590 -790.334717
47.088699 179.061203 -774.887085
47.080799 185.191406 -776.429016
47.077801 109.988800 -755.370422
47.071400 172.191498 -765.623291
47.067001 178.417801 -766.563110
47.058601 284.483398 -799.159485
47.034500 200.492096 -779.897827
47.034199 97.604797 -753.584717
47.025501 269.796906 -791.268372
47.021099 104.037201 -756.271423
47.020802 292.712402 -801.054810
47.020699 165.591797 -772.016479
47.012699 169.773300 -765.383423
46.991001 105.617203 -756.596130
46.990501 272.459503 -790.774780
46.972000 82.549797 -749.451416
46.966099 285.876404 -799.404114
46.956402 268.430206 -792.070374
46.953800 289.254791 -790.503296
46.949799 286.289612 -790.596680
46.945301 277.028290 -796.187012
46.940399 132.849594 -759.778809
46.935501 173.009506 -773.422485
46.932598 297.498108 -801.722229
46.927299 275.592987 -790.167480
46.925598 107.993896 -754.898071
46.921799 152.132401 -762.771118
46.918800 132.571793 -769.056213
46.914700 283.635895 -790.744080
46.913399 86.311699 -751.522827
46.909100 122.480797 -758.101196
46.905399 280.881104 -797.861328
46.903400 141.262100 -761.072083
46.899200 287.673187 -799.838928
46.889400 198.875702 -779.353577
46.885101 179.938095 -771.516724
46.881901 80.714798 -748.945923
46.880699 278.156891 -790.181580
46.878799 171.332703 -767.355225
46.873100 95.857101 -753.182678
46.873001 271.636810 -792.989319
46.861801 274.194305 -794.633423
46.855400 79.230598 -748.750183
46.838501 203.329407 -780.406677
46.828400 160.504196 -763.859009
46.813301 272.912506 -793.624512
46.813000 93.671097 -752.557983
46.811001 279.756195 -790.662109
46.809399 172.851303 -767.754395
46.806400 273.868713 -791.268188
46.804001 91.847099 -752.128906
46.786800 91.116203 -748.536926
46.773399 174.636597 -773.612488
46.770100 163.937302 -771.752808
46.761299 176.938904 -766.777222
46.748699 271.148407 -791.569519
46.745998 162.330399 -771.249573
46.742401 126.637100 -758.593628
46.742100 100.976700 -753.479004
46.738499 194.125504 -778.177673
46.734798 282.274292 -797.916321
46.729500 299.122498 -801.954773
46.719898 166.258408 -764.885498
46.716301 175.972504 -770.527771
46.714901 84.614197 -751.206970
46.704300 83.223900 -750.700317
46.703602 184.673294 -772.866028
46.691799 276.690491 -791.064697
46.687500 90.340500 -751.625427
46.684601 201.919693 -779.757202
46.683498 130.858597 -759.588074
46.683300 76.449097 -748.051270
46.682899 88.574501 -749.872620
46.678799 290.708893 -790.784485
46.677799 105.806000 -754.239624
46.666500 272.795593 -792.182983
46.665100 175.373306 -768.592529
46.656200 183.506302 -775.659973
46.655499 95.023399 -752.049316
46.633301 156.531693 -763.169983
46.631802 191.309494 -777.273682
46.631699 197.417892 -778.585388
46.630299 169.473801 -766.773193
46.619598 278.606110 -796.280212
46.615601 145.856598 -761.705688
46.593399 81.459396 -750.284729
46.589001 288.007111 -791.085083
46.583900 275.495789 -791.814819
46.582600 132.600998 -767.686584
46.580898 98.884697 -753.080200
46.579498 177.666595 -774.215515
46.558399 74.937698 -747.644226
46.558201 187.442703 -776.618774
46.555500 178.013702 -771.172607
46.553101 139.728500 -760.982422
46.549301 164.268600 -764.606323
46.545300 195.579407 -778.100525
46.522202 118.274803 -757.153809
46.520302 73.474503 -747.267700
46.517700 199.662201 -777.968628
46.517700 85.521500 -749.563171
46.513302 285.166504 -791.320618
46.512901 112.878799 -756.093079
46.510399 134.325500 -759.884216
46.504299 189.761307 -777.019409
46.498699 293.309998 -791.197571
46.491600 79.968102 -750.100830
46.488602 275.517487 -794.222229
46.486801 160.904999 -770.875610
46.473000 278.591888 -791.452515
46.472099 77.701401 -748.793213
46.468800 274.179199 -793.019775
46.464901 89.946999 -749.339417
46.463501 300.917999 -802.009827
46.451199 177.253998 -769.076416
46.444199 168.071793 -766.577820
46.438400 174.913300 -766.637024
46.437000 171.508408 -772.783875
46.421600 86.822601 -752.738586
46.421200 179.004807 -769.690308
46.413700 96.780296 -752.227173
46.408901 103.384201 -753.606079
46.407001 71.559700 -746.842285
46.397701 280.965088 -791.259399
46.386501 289.049103 -799.699585
46.384899 149.271301 -762.034180
46.382702 279.965302 -796.591125
46.380901 147.299805 -762.116028
46.372299 131.154602 -765.839172
46.367199 176.067200 -773.703674
46.367001 138.137695 -760.496887
46.366001 277.336914 -792.304626
46.366001 133.917892 -769.759277
46.365799 294.306213 -801.008118
46.350800 276.750793 -794.872192
46.350800 161.916397 -764.264282
46.347301 282.418488 -791.456787
46.330101 70.070900 -746.486084
46.323399 170.907898 -765.888123
46.316299 196.337006 -776.492981
46.314201 291.383606 -800.305176
46.310200 283.756805 -798.195313
46.299099 180.243195 -774.572388
46.297199 116.540298 -756.588318
46.295101 198.110001 -777.386475
46.281399 159.236893 -770.484619
46.277302 200.891403 -778.730530
46.267601 181.598999 -770.560486
46.260399 183.835800 -771.435181
46.257999 159.192795 -763.758179
46.253799 76.212700 -749.370422
46.242599 174.114197 -768.129395
46.241600 166.504700 -766.232300
46.235298 192.605499 -776.887329
46.233101 170.086807 -772.354370
46.222401 127.906403 -758.961182
46.222401 78.570702 -750.227417
46.216099 168.538605 -765.163696
46.215199 67.946800 -745.966614
46.208801 194.744507 -775.733887
46.200901 121.247498 -757.552002
46.198601 173.148804 -766.307007
46.192402 87.214699 -749.552979
46.190498 190.568298 -773.943787
46.187698 286.614990 -791.795471
46.179600 129.591599 -758.973999
46.179401 193.285797 -775.051025
46.171902 136.038803 -760.411011
46.171398 73.866402 -748.571899
46.169601 155.964798 -769.688782
46.167099 167.990204 -771.826782
46.158699 186.107101 -775.695190
46.153900 125.322304 -758.463501
46.146198 279.325287 -792.600525
46.146198 283.777313 -792.011108
46.145100 278.370209 -794.917480
46.144798 72.470596 -748.220825
46.140099 285.539215 -798.270325
46.137402 182.256500 -774.944092
46.135601 296.180603 -801.246216
46.132000 66.316803 -745.626282
46.125500 281.380798 -796.777527
46.119801 294.865997 -791.725098
46.118900 291.860901 -791.390625
46.109402 83.588600 -749.054688
46.108898 302.369110 -802.209778
46.106400 157.330597 -770.164429
46.103699 289.466797 -791.685181
46.100800 92.935799 -751.540222
46.097401 188.717300 -776.038086
46.096500 286.878601 -798.934204
46.089401 188.613205 -773.102722
46.084400 90.177803 -747.600220
46.076000 82.248100 -751.562317
46.075699 83.607101 -751.950989
46.074200 114.983597 -756.340088
46.069401 304.180206 -802.094116
46.062302 110.994598 -755.464111
46.060902 166.594193 -771.469177
46.059299 154.962997 -763.192993
46.052601 81.803497 -748.494629
46.043701 64.333801 -745.150513
46.035099 85.479897 -752.552185
46.016300 109.120796 -754.967407
46.012901 186.797302 -772.329529
45.997101 144.163193 -761.481079
45.992401 151.071899 -762.687378
45.991299 165.028397 -771.185791
45.984798 70.211304 -747.855591
45.982700 191.953003 -775.569214
45.980900 190.123505 -775.639282
45.975300 185.355392 -771.864502
45.975300 119.734703 -756.930786
45.970200 132.456100 -766.361328
45.959499 80.402702 -751.321472
45.951599 153.571701 -763.049927
45.937302 281.605286 -792.541321
45.935001 107.076797 -754.493408
45.934399 130.398804 -764.648926
45.934299 78.408401 -747.622803
45.929501 62.494400 -744.636719
45.925800 68.595703 -747.238403
45.917099 142.302795 -761.212280
45.914902 133.975296 -768.343628
45.907700 296.569489 -792.067383
45.904999 80.062798 -748.102173
45.902500 154.439606 -769.246704
45.897900 135.391602 -770.369507
45.885601 89.595398 -750.728271
45.883400 277.563599 -793.744629
45.879200 91.248596 -750.805176
45.874802 170.373993 -767.595093
45.872898 279.709808 -794.612122
45.872299 173.714294 -772.807007
45.869301 123.619003 -757.926575
45.857601 74.862999 -749.687012
45.852100 163.279602 -770.680176
45.850601 60.958199 -744.516602
45.849300 104.706802 -753.967712
45.835602 283.162689 -796.964600
45.833599 180.256302 -770.417114
45.828800 285.128693 -792.590698
45.825199 184.585602 -774.996521
45.820900 188.282898 -774.618530
45.813900 293.155487 -800.336914
45.809399 132.001907 -759.491699
45.807800 67.049202 -746.968079
45.797798 288.246185 -792.364685
45.778099 171.882706 -768.083008
45.752300 137.306793 -770.652100
45.744999 157.752594 -763.866516
45.742901 298.230194 -801.399902
45.738602 306.117493 -802.251587
45.731201 280.762390 -795.548523
45.729900 64.948502 -746.371826
45.727699 178.891296 -773.734314
45.722698 99.999496 -752.821228
45.719299 163.103699 -764.885681
45.717999 187.168304 -773.650330
45.716202 76.922600 -750.516174
45.709499 72.639702 -746.229004
45.707500 58.355400 -743.521423
45.706299 101.917198 -753.064087
45.705601 290.306610 -799.492676
45.702301 71.225899 -748.794983
45.694302 152.807098 -768.825317
45.691101 281.189301 -793.867126
45.689602 165.393204 -765.280212
45.676201 75.937599 -747.107300
45.646999 175.975998 -769.375671
45.645401 62.998600 -745.953979
45.643299 56.106701 -743.338989
45.637699 161.851593 -770.189026
45.633999 185.817993 -773.283875
45.631802 164.686295 -766.493286
45.619598 74.395302 -746.709778
45.615398 290.738800 -792.149170
45.615398 177.182205 -773.122620
45.612000 182.481400 -771.439697
45.611500 288.208893 -798.749390
45.601898 54.574100 -742.982971
45.592999 282.949005 -793.117126
45.579399 282.183502 -795.632629
45.576302 52.761299 -742.709778
45.575699 160.339294 -769.828125
45.575298 97.965698 -752.289673
45.566299 169.007004 -767.563477
45.555401 89.219498 -748.541626
45.554798 113.888199 -755.613525
45.551201 160.637100 -764.538086
45.548901 177.750305 -770.041321
45.544998 140.906693 -761.038025
45.544601 59.686100 -745.100220
45.540901 73.313698 -749.727295
45.536201 284.589294 -797.250183
45.534100 69.053299 -745.442322
45.532700 183.290497 -774.067871
45.526901 286.611908 -793.064270
45.519299 139.706497 -771.578003
45.512199 181.179199 -773.711426
45.510201 299.951202 -801.653809
45.505600 95.637100 -751.538025
45.503502 50.121899 -742.049377
45.490601 183.865494 -772.659973
45.478298 84.875504 -748.844482
45.475899 158.565903 -769.552917
45.469799 174.577606 -769.232300
45.466801 175.076797 -772.562317
45.464500 172.326004 -772.156128
45.458801 68.993103 -748.529114
45.455002 79.079697 -751.393127
45.445301 307.946289 -802.450623
45.442600 133.416901 -759.612976
45.432598 65.558601 -744.555298
45.430199 151.120605 -768.385620
45.429600 292.796112 -792.213989
45.424301 135.231903 -768.971313
45.423199 173.057999 -768.783325
45.421600 94.235497 -751.505920
45.420200 71.027802 -745.816223
45.419300 48.245300 -741.701782
45.418900 45.405399 -741.032593
45.417900 181.045197 -771.570190
45.416901 169.187897 -771.406921
45.396900 167.603897 -767.450073
45.391102 156.192398 -763.752197
45.376400 133.940796 -767.024292
45.371799 57.514599 -744.676025
45.363098 152.284393 -763.074707
45.360500 283.340302 -794.508972
45.360500 178.930801 -770.863281
45.359100 51.553200 -741.881592
45.350800 126.481300 -758.202576
45.349899 297.969086 -792.453674
45.344799 66.083801 -747.899170
45.341599 67.521400 -748.205811
45.338299 139.129105 -760.583130
45.335602 148.220001 -762.369629
45.333698 283.930603 -795.786316
45.326698 141.113098 -771.891785
45.325401 61.683899 -746.443726
45.322102 284.751190 -793.848877
45.320801 67.363701 -744.982117
45.314602 117.794701 -756.605286
45.314499 137.205505 -760.456787
45.312000 289.352600 -793.080872
45.309200 286.355408 -797.405518
45.302898 171.008301 -771.681213
45.299000 122.319199 -757.640686
45.297798 63.716202 -744.078613
45.293701 295.334106 -800.462585
45.288399 112.406403 -755.449829
45.283298 63.673500 -747.159790
45.281799 146.186096 -762.061584
45.279900 59.763199 -743.220520
45.272400 169.732407 -766.087219
45.271301 47.077099 -740.829773
45.268902 142.767502 -772.232971
45.264599 88.475601 -750.042175
45.257900 156.979004 -769.009583
45.256699 44.006599 -740.491028
45.256302 292.081909 -799.570313
45.250198 180.169098 -772.732788
45.234501 106.027199 -753.846924
45.228500 166.138000 -767.232483
45.227299 163.083694 -766.268677
45.224701 55.459000 -744.562012
45.208801 134.798096 -760.150391
45.197399 155.565002 -768.626099
45.182598 136.521698 -769.614929
45.167500 167.339493 -770.679077
45.161999 167.616196 -765.747925
45.153000 178.410995 -772.509521
45.146702 288.037994 -793.671570
45.143200 42.800400 -739.720825
45.142200 53.681099 -744.061890
45.139400 130.710907 -759.255371
45.136902 158.908798 -764.562988
45.128799 294.260895 -792.542786
45.127800 132.148697 -765.177185
45.123299 51.574699 -743.392273
45.121201 40.820400 -739.740601
45.116798 161.853806 -765.211426
45.112701 176.543304 -770.725708
45.108299 57.251202 -742.580627
45.106098 82.840599 -748.314026
45.098499 61.758099 -743.640015
45.097599 75.259804 -750.852478
45.093201 165.718201 -770.287720
45.088001 108.190399 -754.311279
45.085800 297.039215 -800.679871
45.078800 138.764206 -770.610596
45.073200 149.698502 -762.670410
45.070999 86.198700 -749.053528
45.068699 144.667496 -772.736328
45.058800 173.554398 -771.476624
45.057301 170.946198 -768.894714
45.056301 301.463287 -801.717529
45.053902 70.203400 -749.565125
45.051201 310.056702 -802.523926
45.047901 128.785400 -758.800476
45.039398 49.458401 -740.862671
45.038799 38.736500 -739.280396
45.028599 289.580200 -798.465698
45.026600 110.139198 -754.966125
45.025902 285.450287 -795.042603
45.023899 53.832298 -741.781311
45.023602 182.327606 -772.916870
45.015598 164.044998 -769.695313
45.011398 103.306801 -753.374512
45.007301 37.306499 -738.939819
45.004799 153.894897 -768.134583
44.992500 291.742401 -793.049988
44.990101 286.723602 -794.442017
44.988998 58.202599 -745.859497
44.987999 49.083302 -742.932495
44.987000 60.323002 -746.693604
44.980400 135.193604 -767.626587
44.979000 115.911003 -756.163574
44.971699 174.746796 -770.563599
44.970501 34.670700 -738.418518
44.962601 55.793201 -742.135986
44.962101 303.138214 -801.878479
44.956799 287.724701 -797.320129
44.952400 154.251205 -763.763489
44.929600 124.721001 -758.126221
44.922901 299.198792 -793.062378
44.919201 173.363693 -770.095093
44.915100 46.224800 -742.087524
44.909199 161.384506 -769.077820
44.905201 152.369003 -767.716919
44.903400 92.318604 -750.874573
44.900101 77.205704 -747.054810
44.898998 294.036987 -799.729004
44.893002 45.138901 -739.751526
44.890301 161.078598 -766.425903
44.887501 172.052795 -770.830811
44.885502 120.662903 -757.343994
44.875900 295.706512 -792.570129
44.872799 77.504303 -751.546814
44.872002 169.297104 -768.783020
44.865700 82.005402 -752.495972
44.855701 159.750000 -768.779480
44.841801 144.835693 -761.956787
44.835899 72.097801 -750.288513
44.822701 149.982697 -767.575317
44.822399 47.600101 -742.915222
44.815201 291.079498 -798.687500
44.812199 80.860901 -747.695313
44.801201 146.082001 -773.096619
44.800900 170.528503 -770.407288
44.798100 290.455414 -793.819214
44.795700 286.629700 -796.127808
44.792999 90.437103 -750.435974
44.791698 80.445999 -752.204285
44.779999 311.552704 -802.905029
44.779400 50.291599 -744.068604
44.773998 159.291901 -766.068420
44.773602 33.023701 -737.829773
44.767899 168.917099 -770.149780
44.767502 43.905399 -741.845276
44.765301 164.901093 -767.802979
44.763401 79.276100 -747.448914
44.754299 158.081696 -768.275024
44.754200 157.406693 -764.806274
44.752102 62.289902 -747.631592
44.750099 56.024899 -745.753113
44.747601 36.125900 -738.075012
44.742599 143.005905 -761.663696
44.737801 166.991394 -768.544617
44.732201 42.138302 -740.909302
44.729198 30.677799 -737.398193
44.728001 119.035202 -756.967224
44.723400 151.045303 -763.297119
44.719898 304.707001 -802.060425
44.716202 96.755898 -751.864319
44.709499 39.982300 -738.681274
44.704399 147.783707 -767.034180
44.700699 87.647400 -749.050903
44.699600 289.019806 -794.621521
44.695702 100.979401 -752.691406
44.689899 137.935394 -769.450928
44.687099 64.917999 -748.469421
44.684200 54.140800 -745.380676
44.679901 162.918793 -767.561279
44.672699 140.400208 -770.616821
44.668800 99.049301 -752.166321
44.664299 136.438293 -768.275085
44.660801 52.514801 -744.823486
44.649502 133.877594 -765.798279
44.640598 156.576401 -767.746277
44.640099 40.005402 -740.792175
44.607498 45.031898 -742.753418
44.604301 298.753998 -800.675415
44.604198 52.539700 -741.173584
44.602699 28.850401 -736.919189
44.598400 157.423203 -766.302673
44.594398 155.178894 -767.374512
44.590099 73.542603 -750.843628
44.578800 68.345001 -749.581787
44.577400 151.083298 -766.725525
44.576698 160.883102 -767.811890
44.575901 58.682301 -742.656311
44.574402 73.569397 -746.191895
44.570599 155.399094 -764.666504
44.566101 51.104301 -740.817688
44.562199 27.149000 -736.564880
44.549301 41.716099 -738.785217
44.547199 287.800507 -795.379578
44.546299 136.027298 -760.558594
44.544800 289.140991 -797.186829
44.542400 147.742096 -773.734985
44.541801 66.508904 -749.086670
44.539501 142.014008 -771.058105
44.532001 313.357697 -802.664917
44.530800 35.889301 -739.523682
44.529099 156.022293 -765.973572
44.528900 297.027313 -793.105225
44.522301 293.432190 -793.631470
44.508499 153.586197 -766.830688
44.507900 132.240997 -759.967712
44.507801 104.735802 -753.521729
44.502998 48.073799 -740.187622
44.493500 159.185501 -767.436523
44.485298 75.246201 -746.404297
44.478199 306.788696 -802.307312
44.478100 37.987000 -740.385986
44.477299 153.006607 -764.235779
44.469601 145.383698 -766.444214
44.454700 300.446503 -793.565613
44.440498 46.528999 -739.793213
44.431301 293.028412 -798.817871
44.426701 69.910301 -745.366211
44.421700 147.258301 -762.835876
44.419300 38.279202 -737.990173
44.417000 43.888000 -739.147217
44.416401 141.642593 -761.675171
44.416401 58.804001 -747.056030
44.409599 143.971298 -771.676025
44.408501 149.276596 -766.399780
44.405899 152.524399 -765.921814
44.395802 129.699203 -759.881775
44.391300 48.959099 -744.345093
44.389801 46.427200 -743.622192
44.369400 138.185394 -760.955811
44.367901 31.978600 -736.940430
44.364399 289.864502 -795.729126
44.362701 34.410801 -737.184326
44.349602 140.123795 -761.057922
44.341000 296.277802 -799.747192
44.339802 33.463902 -739.139282
44.334301 111.418800 -755.044983
44.333900 114.585197 -755.732971
44.333199 42.691299 -742.522217
44.326500 146.863007 -765.995422
44.322601 106.991203 -754.312927
44.320099 127.326500 -758.792419
44.311699 139.385101 -769.540527
44.307899 148.682800 -763.284302
44.307400 144.119095 -765.865723
44.305500 31.138500 -738.690125
44.300800 154.245102 -765.549622
44.298401 300.179413 -800.860229
44.297501 150.455200 -765.503113
44.295898 25.419100 -736.109375
44.292900 60.906898 -747.847900
44.291801 291.337585 -794.849426
44.290798 66.492897 -744.418701
44.287899 71.914299 -745.752686
44.286598 64.695503 -743.965881
44.279202 123.350899 -757.972900
44.275799 62.890598 -743.516174
44.273201 22.081699 -735.537720
44.271099 23.700899 -735.983826
44.268600 295.332611 -793.782288
44.262600 68.316902 -744.942688
44.256100 60.817600 -742.952576
44.256100 40.671700 -741.971375
44.254101 34.474499 -740.110718
44.223598 308.900909 -802.671570
44.222401 78.741898 -752.080017
44.221699 149.135696 -774.423706
44.217800 151.501907 -764.525879
44.212898 36.696602 -740.869873
44.212399 133.814301 -760.432617
44.203899 95.010498 -751.585022
44.201302 84.212097 -748.608582
44.191502 50.824402 -745.253723
44.182999 141.682800 -765.514404
44.179501 38.640900 -741.650024
44.178501 137.859604 -768.107483
44.173599 145.794601 -762.863586
44.164600 125.817703 -758.575806
44.162102 290.497406 -797.570313
44.161098 135.650101 -766.496521
44.151699 30.046000 -736.279114
44.151501 315.046295 -803.168823
44.115898 291.895386 -797.659790
44.115501 298.282410 -793.760498
44.113098 28.574800 -738.256592
44.110600 113.163696 -755.713623
44.102699 19.761299 -734.953186
44.095798 294.985809 -799.065186
44.083900 145.718994 -765.128784
44.080299 109.038498 -754.793701
44.073502 17.496099 -735.002014
44.072899 148.058105 -765.110596
44.072300 150.071106 -764.073608
44.061298 32.039001 -739.775330
44.056999 29.741501 -739.086487
44.049000 291.793396 -796.216919
44.047298 26.119801 -737.386597
44.034500 116.887901 -756.661072
44.030998 93.405403 -751.114685
44.023899 56.469101 -746.914124
44.016300 89.297798 -750.141174
44.016102 102.266602 -752.982300
44.014702 139.856094 -764.795776
44.006699 54.743198 -741.456787
44.005199 143.807297 -762.649902
44.005199 70.828796 -750.612305
43.995300 43.972198 -743.528320
43.988499 302.406006 -801.173584
43.973900 121.765404 -757.453979
43.966999 145.548599 -772.049622
43.966599 297.629791 -799.944214
43.951698 52.757999 -746.018921
43.950001 293.146790 -794.982788
43.946999 56.776501 -741.896973
43.946301 27.145500 -738.515503
43.943802 28.206200 -735.756226
43.938702 129.555893 -758.351318
43.936298 81.973099 -748.059021
43.931900 76.251099 -751.757813
43.924301 35.321098 -741.184082
43.922699 143.236893 -764.792114
43.920601 15.066500 -734.487915
43.913601 63.587399 -748.813171
43.913200 69.429398 -750.266113
43.911400 140.710693 -769.290588
43.877399 24.007401 -737.368713
43.877201 301.686310 -793.983582
43.875301 22.641600 -736.868713
43.865101 47.285801 -744.648376
43.863800 131.011703 -760.193970
43.841801 54.403801 -746.613586
43.827000 20.526899 -736.154297
43.815102 296.511810 -794.457825
43.812500 24.617399 -734.966919
43.811401 293.358612 -797.570801
43.810501 10.175700 -733.355530
43.802700 11.867900 -733.698486
43.801998 26.577499 -735.263123
43.796101 144.659500 -763.902771
43.795898 23.142700 -734.710083
43.794899 21.145100 -734.527283
43.794498 36.887402 -737.351318
43.790501 83.920097 -753.413696
43.787601 49.713100 -740.227112
43.782001 136.862900 -761.406921
43.766800 146.799301 -764.025391
43.763699 37.344101 -742.036682
43.761600 18.677700 -734.089600
43.760101 142.134995 -762.877930
43.756100 316.705200 -803.149719
43.754902 140.139893 -762.328491
43.748402 150.591995 -775.403687
43.744598 45.264400 -744.289612
43.744400 91.340599 -750.752625
43.737499 33.162701 -736.537598
43.736099 85.480003 -749.023987
43.733200 16.299801 -733.799683
43.730499 294.567596 -794.918091
43.729500 143.213699 -770.650024
43.715199 97.982803 -752.104675
43.708099 128.525101 -759.366272
43.702301 99.955101 -752.811584
43.696899 134.868301 -761.200378
43.694599 139.200302 -768.137512
43.693199 141.100006 -764.081177
43.692101 41.227299 -743.197571
43.688499 310.516113 -802.772583
43.684399 78.050102 -747.083923
43.684101 13.278300 -733.465820
43.668701 76.680099 -746.603577
43.665901 138.678299 -762.109619
43.659100 305.757385 -801.809082
43.656300 25.713499 -738.767822
43.654800 49.440899 -745.454285
43.649899 138.691193 -764.081116
43.646900 303.795685 -801.321289
43.642899 28.121599 -739.563477
43.641102 32.814201 -740.970093
43.633400 30.524500 -740.251526
43.624500 45.229599 -739.161926
43.623501 42.772099 -738.673523
43.619999 146.924698 -772.758972
43.616699 18.272900 -736.093628
43.612900 119.974998 -757.338623
43.611599 294.019196 -796.304382
43.610298 21.350500 -737.439087
43.607800 80.072502 -747.717407
43.607101 86.869598 -749.496216
43.598999 124.407303 -758.597900
43.582298 16.000000 -735.482117
43.579899 103.587799 -753.353516
43.574799 105.840797 -753.791321
43.558800 118.159897 -757.081482
43.554401 39.781502 -737.906372
43.553501 299.800598 -794.468384
43.546600 312.224487 -802.968872
43.544300 65.395302 -749.531372
43.531101 295.197205 -797.757324
43.524799 298.956299 -799.693787
43.518902 296.453094 -798.575623
43.504002 136.828796 -766.885315
43.502201 22.896700 -738.197571
43.494400 303.886597 -794.567505
43.487701 14.673400 -733.162109
43.483700 12.742600 -734.793213
43.483101 8.787100 -732.286316
43.473301 19.633200 -737.324829
43.470600 319.018402 -803.048523
43.461399 132.406006 -760.920898
43.460602 110.302597 -754.941406
43.442799 136.936295 -763.212280
43.441101 38.991501 -742.877930
43.430000 53.432400 -741.094116
43.429199 31.276300 -736.048523
43.428501 301.238800 -800.518127
43.421101 298.073914 -795.042175
43.418499 59.533401 -742.677185
43.407001 115.639000 -756.230591
43.396900 58.083000 -747.809570
43.393600 51.923698 -740.713501
43.378101 35.379200 -736.954102
43.376099 7.076700 -732.102417
43.375000 296.162689 -795.764526
43.356602 16.912001 -736.628418
43.354099 74.416603 -746.194580
43.351799 307.668213 -802.095520
43.351601 41.236698 -738.192505
43.350300 142.199402 -769.697083
43.344101 62.293201 -748.864624
43.341702 151.935196 -776.120789
43.328201 11.299000 -732.393982
43.322601 5.249300 -731.707275
43.322498 14.634500 -735.929810
43.315399 51.522701 -746.217896
43.315399 24.371901 -738.983215
43.307701 96.619202 -751.732910
43.305599 47.483101 -739.728821
43.294399 133.065994 -766.050903
43.292099 70.888603 -745.514893
43.286598 134.444305 -765.766113
43.284000 107.866096 -754.786377
43.281399 61.925999 -743.259583
43.279099 148.404205 -773.225525
43.275398 8.718500 -734.242920
43.272301 58.133598 -742.322388
43.266602 19.964500 -733.805908
43.249100 42.685699 -744.015991
43.246601 11.388800 -735.181030
43.243301 144.565094 -771.051086
43.236099 72.961304 -745.872314
43.234299 7.220700 -733.514404
43.232601 132.009796 -763.523193
43.231400 60.176701 -748.420227
43.231300 313.635986 -803.193970
43.222599 126.605598 -759.348816
43.206100 5.717000 -733.041687
43.203899 133.579300 -761.648315
43.193802 35.855000 -742.303528
43.192699 88.157204 -750.133789
43.186600 83.052399 -748.601624
43.184200 129.147202 -760.684570
43.181301 1.618300 -731.230225
43.180000 65.556396 -744.225220
43.176102 111.862701 -755.763794
43.172901 297.177307 -797.350525
43.168999 63.767700 -743.735474
43.160900 69.284599 -745.059875
43.130299 122.484596 -758.463684
43.109299 113.950500 -756.330017
43.106300 9.984800 -735.200012
43.105801 298.194092 -798.582886
43.097801 101.161903 -753.229004
43.088699 320.944000 -803.112671
43.083302 301.239502 -795.125000
43.078701 67.501099 -744.701172
43.068298 134.914993 -762.806213
43.067299 29.306601 -735.556213
43.061600 28.888201 -740.635986
43.059399 38.359001 -737.575195
43.057701 3.786400 -730.964478
43.048901 -0.056100 -730.459778
43.042400 149.893906 -774.290222
43.020401 130.857101 -761.427917
43.006802 26.332701 -739.943176
43.001301 13.292900 -736.420776
42.998299 17.759899 -733.335571
42.994301 130.365402 -759.073730
42.993000 12.723800 -732.305298
42.983898 299.501892 -795.795898
42.977901 55.768398 -741.692627
42.960098 20.382601 -738.444885
42.957699 47.910702 -745.532104
42.946602 21.762899 -738.871826
42.945801 55.713200 -747.578186
42.941799 94.273102 -751.479980
42.939499 44.008900 -738.799011
42.933300 31.099400 -741.325989
42.929798 300.202515 -799.367126
42.921101 90.218201 -750.561279
42.917400 6.857900 -734.993408
42.908298 121.022202 -758.188782
42.906700 302.647400 -794.906982
42.906700 92.521400 -751.059814
42.899700 22.245100 -734.115479
42.898102 5.364900 -734.412415
42.892700 15.328100 -737.131592
42.867001 46.117699 -745.108521
42.848801 317.795105 -803.471191
42.847698 309.234711 -802.292175
42.833099 9.998300 -731.996887
42.818802 302.914612 -800.502319
42.813599 298.420990 -796.758789
42.811798 127.790100 -760.151978
42.809502 140.690704 -768.416382
42.808899 153.399597 -777.048096
42.799900 44.059399 -744.681213
42.790501 33.271400 -742.023926
42.786701 84.438698 -749.041626
42.786301 104.566200 -754.035400
42.775700 8.226000 -735.512878
42.768101 299.422485 -797.882874
42.763699 116.419800 -761.138184
42.760799 18.336399 -738.080688
42.758099 315.317413 -803.375916
42.756699 50.612099 -740.526123
42.754700 27.629900 -735.198120
42.753101 81.091103 -748.229675
42.747601 304.881287 -795.224182
42.744499 116.805901 -757.266602
42.718300 37.487202 -743.153809
42.714100 124.978699 -759.603882
42.701599 137.932297 -767.374817
42.701401 146.226196 -771.700317
42.699902 23.978300 -734.398987
42.698101 15.948000 -732.886719
42.695900 119.958801 -761.845581
42.692402 40.475700 -743.892517
42.689098 48.836498 -740.086304
42.680599 98.766899 -752.681519
42.679501 119.027802 -757.910889
42.677502 102.519402 -753.773071
42.674099 6.311800 -731.056274
42.666901 322.423615 -803.049622
42.661701 78.932899 -747.719971
42.651100 25.884899 -734.788696
42.642101 106.489998 -754.685791
42.636501 10.816100 -736.372986
42.635799 34.211201 -736.633118
42.626202 300.890808 -796.421387
42.624500 75.817497 -746.989014
42.622002 304.992798 -801.048218
42.622002 46.273201 -739.460205
42.612900 8.067700 -731.266724
42.612598 126.211403 -763.260498
42.601700 77.173698 -747.389221
42.600498 112.320198 -760.252014
42.596298 114.185997 -760.618713
42.591202 109.155403 -755.060730
42.580601 124.328598 -762.808105
42.579601 85.908096 -749.765686
42.578300 117.801697 -761.375000
42.577702 110.928703 -759.986694
42.569302 133.037506 -764.752625
42.563801 121.863403 -762.229492
42.550900 2.560700 -730.361511
42.542400 151.437805 -775.042725
42.539101 143.639801 -769.995605
42.535801 135.954407 -766.256775
42.531200 32.519402 -736.224487
42.520401 306.507294 -801.463989
42.508900 126.451797 -760.571472
42.503601 311.274292 -802.658386
42.487301 60.482899 -743.340271
42.482800 9.395600 -736.463318
42.477402 54.439701 -741.501282
42.466099 123.143600 -759.555725
42.462299 301.613892 -799.483276
42.443100 36.551399 -737.170776
42.439098 300.988892 -798.182922
42.438000 128.028000 -761.498779
42.429600 127.941498 -763.527527
42.425499 23.629700 -739.903198
42.424801 109.405197 -759.633484
42.421001 95.517799 -752.000427
42.412998 130.676605 -757.785522
42.403801 319.718994 -803.699097
42.394901 56.869099 -742.444519
42.384602 115.196602 -757.119629
42.380001 302.754395 -796.280396
42.375900 97.392097 -752.630676
42.371899 1.185000 -730.033020
42.358799 129.442703 -761.897888
42.341499 14.006900 -732.360229
42.322300 42.160900 -738.489014
42.321602 131.202896 -760.254883
42.317200 126.009804 -761.892578
42.307999 4.967700 -730.629395
42.307201 112.729599 -756.567993
42.303200 110.749100 -755.627319
42.301201 21.008801 -733.785522
42.298599 324.003387 -803.097778
42.296001 121.339104 -759.435120
42.295101 13.699200 -737.574707
42.293900 106.762901 -759.061523
42.285599 124.253601 -761.109314
42.278999 4.773500 -735.582397
42.278198 147.610397 -772.507874
42.268501 40.296299 -738.118408
42.257401 119.968399 -758.862488
42.254601 73.701599 -746.713379
42.248199 18.948500 -733.357788
42.235600 154.786499 -777.952515
42.230499 71.775902 -746.164612
42.228901 30.538601 -735.913818
42.228401 62.689201 -743.849670
42.226799 52.705601 -741.151978
42.221901 122.654900 -761.019897
42.214600 58.919102 -743.077087
42.210999 100.073502 -753.080811
42.194500 -0.795900 -729.314880
42.190899 120.792397 -760.818420
42.185501 117.719597 -758.225708
42.180199 104.099899 -758.497925
42.179699 152.671997 -775.854492
42.179501 16.968100 -738.428284
42.173401 6.178800 -736.056885
42.172600 303.076111 -799.210205
42.165298 87.202202 -750.263794
42.159801 70.123100 -745.889221
42.154999 302.271210 -797.598511
42.124901 308.148499 -801.610779
42.121201 68.183403 -745.495728
42.117802 141.726105 -769.104919
42.112999 149.202301 -773.500427
42.106201 312.854309 -802.884277
42.104900 118.622200 -760.330627
42.100899 139.574005 -767.841125
42.097198 129.467896 -763.841919
