91.592499 138.560806 -734.609314
91.590897 134.096802 -726.369507
91.535797 135.972305 -729.681824
91.484901 133.168396 -724.351318
91.414902 136.786301 -731.074890
91.408897 137.907593 -734.384399
91.399399 137.563004 -733.004028
91.389999 135.086899 -728.569824
91.359100 134.708099 -727.361511
91.346100 132.232697 -721.721497
91.287804 137.011307 -731.784607
91.274101 133.752106 -725.819824
91.255798 132.817703 -723.561218
91.250801 137.957199 -733.653320
91.137497 133.378204 -725.192322
91.068001 132.409805 -722.396423
91.063698 138.287003 -735.005676
91.042099 135.421707 -729.101929
91.019699 134.702194 -728.099121
91.017502 137.158600 -732.508789
91.012199 136.227005 -730.497009
90.989700 134.115402 -727.115173
90.907204 135.685501 -729.872314
90.824699 133.998199 -726.332886
90.797897 132.926407 -724.481323
90.779800 136.479706 -731.289185
90.766403 132.697693 -723.050720
90.762497 137.258301 -733.213928
90.704201 137.625900 -734.542419
90.681801 134.860504 -728.807373
90.648399 136.693298 -732.012695
90.610703 132.054504 -721.759094
90.590698 137.684998 -733.816711
90.553001 133.588303 -725.637512
90.525803 132.675293 -723.742676
90.512901 134.324493 -727.734680
90.411102 135.396301 -729.448975
90.391197 135.918793 -730.341919
90.383102 136.872696 -732.695923
90.348396 133.597198 -726.675415
90.346497 132.310196 -722.491699
90.287102 133.112503 -725.015625
90.237198 134.414902 -728.425598
90.145798 136.194000 -731.476624
90.072998 132.412506 -723.236694
90.068298 137.900101 -734.784729
90.062698 137.302002 -733.494202
90.054901 133.742203 -727.338379
90.050003 132.795197 -724.265991
90.038399 135.295593 -730.127014
90.033203 133.269104 -726.108521
90.014397 136.415497 -732.190002
90.003403 134.881607 -729.163513
89.917801 137.413895 -734.184814
89.866600 131.852600 -721.824524
89.827202 135.700302 -730.837830
89.791901 133.870300 -728.172974
89.748001 136.598206 -732.867920
89.746201 132.860001 -725.489624
89.704697 134.150803 -728.951782
89.656601 132.101807 -722.693970
89.641403 133.304504 -726.860229
89.597198 132.323502 -723.760376
89.582703 132.580307 -724.815796
89.511200 135.920105 -731.648621
89.495003 134.887894 -729.777893
89.417999 133.452301 -727.536377
89.397301 137.580093 -734.861206
89.392097 137.029602 -733.397827
89.358803 135.302994 -730.395386
89.325600 132.979004 -726.292114
89.305603 136.138596 -732.344421
89.208900 131.801407 -722.182678
89.201500 137.184799 -734.126404
89.173897 133.779297 -728.612122
89.167198 132.296295 -723.194885
89.128502 134.394501 -729.421021
89.107399 135.371399 -731.056580
89.067497 132.229797 -724.302002
89.067001 132.551102 -725.382813
89.047401 136.363403 -732.968872
89.007500 133.035904 -727.033813
88.874100 135.649796 -731.815186
88.863297 134.815506 -730.212524
88.819099 133.495804 -727.997620
88.758003 131.877594 -722.767090
88.748703 133.733704 -729.219299
88.747498 136.771301 -733.592285
88.716202 137.556305 -734.644409
88.688698 132.703201 -726.476074
88.672897 132.057800 -723.662415
88.641296 132.179398 -724.872986
88.616798 131.589798 -721.836975
88.596901 135.877197 -732.478577
88.595596 134.174103 -729.842529
88.500702 133.248199 -728.614075
88.465698 135.086502 -731.240723
88.445099 132.417496 -725.772522
88.440102 136.931396 -734.217712
88.366798 132.946396 -727.898315
88.332199 136.317902 -733.049377
88.290001 134.550598 -730.588379
88.232399 135.373505 -731.988220
88.184402 131.855804 -722.342102
88.129501 132.662506 -727.276123
88.122704 132.104904 -723.124084
88.071999 133.793594 -729.492310
88.069397 131.901199 -724.067505
88.052200 137.309799 -734.805176
88.015198 132.420807 -726.415405
87.942596 132.104202 -725.129089
87.916901 134.110901 -730.150513
87.904099 133.186707 -729.046387
87.890602 136.646698 -733.597473
87.886398 135.622498 -732.603577
87.824303 134.816696 -731.405273
87.791801 132.914505 -728.377930
87.724899 136.882004 -734.278503
87.702904 132.088699 -725.828613
87.668404 131.454605 -722.034729
87.609703 131.648193 -722.920288
87.571602 134.385605 -730.751526
87.523102 132.024597 -724.510315
87.517403 135.105896 -732.128601
87.498497 132.672302 -727.661499
87.488701 136.016998 -733.086487
87.478401 132.160599 -726.849609
87.475502 133.531998 -729.789185
87.415901 131.861801 -723.619995
87.344200 132.781998 -729.213074
87.311699 131.708893 -725.127319
87.269600 137.290802 -734.718323
87.232803 136.514297 -733.891724
87.211098 132.355103 -728.341492
87.175499 134.530304 -731.589417
87.173798 135.372406 -732.721924
87.171997 133.849899 -730.430908
87.080002 131.903397 -726.280212
87.040802 131.366104 -722.356628
86.986801 132.127304 -727.654724
86.978699 131.572693 -724.279907
86.892403 131.477402 -723.048218
86.890900 134.181396 -731.022217
86.878899 132.871704 -729.801880
86.872398 136.084702 -733.455688
86.838303 134.869904 -732.140381
86.783203 136.846695 -734.391724
86.775902 131.987793 -726.974426
86.761902 132.353394 -729.281494
86.697701 131.573593 -725.458679
86.644699 133.282700 -730.436707
86.574303 131.738602 -723.646912
86.541100 132.003296 -728.609985
86.530502 135.621994 -732.892578
86.528702 134.264999 -731.746704
86.407501 131.518204 -726.329224
86.406502 136.390793 -733.938904
86.401001 131.658005 -724.751770
86.395203 131.802200 -727.912292
86.357101 131.179794 -722.129272
86.342697 133.692703 -731.138611
86.217102 132.555801 -730.022095
86.197098 131.567703 -722.708130
86.181900 134.889694 -732.488892
86.172798 131.531006 -727.068115
86.114403 131.914993 -729.316223
86.059700 135.880295 -733.430420
86.054199 136.989594 -734.586182
86.046997 131.259399 -725.371582
86.019997 131.458099 -724.130920
85.985901 132.980896 -730.638428
85.926201 131.297897 -723.396118
85.888496 131.701797 -728.495422
85.879700 134.319199 -732.047180
85.829498 135.282898 -732.974670
85.762604 131.408005 -727.644775
85.748802 131.218002 -726.540283
85.700203 131.452393 -724.769897
85.698303 136.497894 -734.039185
85.686501 131.133499 -722.413879
85.685097 133.401794 -731.326111
85.635201 132.218307 -729.783630
85.505699 131.368301 -729.367615
85.486198 134.708801 -732.646973
85.445602 131.262100 -725.874390
85.419899 132.556702 -730.442017
85.383301 135.997498 -733.621582
85.366402 133.877106 -731.759277
85.341698 131.220795 -728.390198
85.329903 131.379303 -723.807678
85.297600 131.472794 -722.954285
85.287300 131.039307 -727.112183
85.240402 136.902496 -734.442688
85.185699 130.992294 -725.104980
85.160103 135.431396 -733.160522
85.063202 133.078598 -731.204590
85.048203 130.925293 -727.786987
85.025398 132.024002 -730.150024
85.012604 131.287201 -724.469116
84.999901 131.211304 -722.222473
84.995102 134.223602 -732.302979
84.992401 130.881195 -726.413208
84.945297 136.342896 -734.110229
84.925499 131.114197 -729.009277
84.844803 131.500793 -729.688293
84.806503 134.825897 -732.844727
84.806503 132.485504 -730.843628
84.799400 130.992004 -725.737976
84.741203 131.392700 -723.390930
84.736504 133.558197 -731.974670
84.646202 135.773499 -733.661499
84.576500 130.848404 -727.139099
84.573997 130.879105 -728.437317
84.499901 130.969193 -724.888184
84.477097 130.853104 -729.522400
84.457497 132.908203 -731.611816
84.448502 131.365997 -722.712708
84.423103 131.693604 -730.366699
84.363297 131.106506 -723.968872
84.351997 134.318604 -732.633789
84.326797 135.252197 -733.262512
84.279800 130.709106 -726.446228
84.268898 130.660599 -727.752197
84.195702 136.298706 -733.964600
84.162598 132.177994 -731.154785
84.149002 130.757904 -725.497620
84.124100 130.452499 -729.032227
84.095497 133.700607 -732.306580
84.028603 131.079895 -730.057922
83.999802 131.277100 -723.336182
83.938499 131.043106 -722.326294
83.924797 130.463303 -728.346924
83.900299 130.423798 -727.095276
83.857803 131.010605 -724.507629
83.855904 134.674500 -733.043274
83.855003 133.108398 -731.931702
83.846603 135.678604 -733.681030
83.804604 131.477997 -730.729492
83.745499 130.475800 -729.710510
83.669502 132.524796 -731.559082
83.624199 130.384796 -726.427307
83.562401 130.620499 -725.094971
83.557899 130.207901 -727.693909
83.467598 131.003799 -723.861511
83.461899 133.805099 -732.642822
83.461403 130.090805 -729.177185
83.436897 130.937393 -730.446777
83.411102 131.857697 -731.354004
83.394798 131.144608 -722.795288
83.348297 130.367401 -725.756287
83.309303 136.156906 -734.192627
83.286400 130.064194 -728.342896
83.267403 135.011200 -733.274475
83.217400 133.087402 -732.317322
83.213898 130.074203 -727.056030
83.111298 130.201401 -729.985413
83.070503 134.386993 -732.926025
83.053101 132.351303 -731.928589
83.042900 130.791107 -724.468323
83.037903 135.668900 -733.677795
82.989502 130.047806 -726.376709
82.978699 131.300003 -731.007324
82.936897 129.835800 -727.724487
82.903099 129.744904 -728.856628
82.887901 130.405807 -725.206116
82.852798 131.133896 -723.263123
82.812202 130.605606 -730.560181
82.770103 133.514404 -732.690918
82.727097 131.743805 -731.574524
82.659302 129.750305 -729.651123
82.566704 135.175598 -733.411682
82.557198 132.839905 -732.447571
82.548401 129.702393 -726.941284
82.510201 129.473495 -728.161316
82.485497 130.888504 -722.654419
82.445099 130.824005 -723.799377
82.424797 130.025696 -730.280579
82.416801 134.112000 -732.980103
82.400902 129.979004 -725.604980
82.394096 135.849396 -733.965576
82.378304 132.133896 -732.058228
82.365402 130.839096 -731.146179
82.341904 130.560196 -724.603516
82.325401 129.306503 -729.117920
82.255096 129.664398 -726.251587
82.216202 129.089203 -729.820801
82.144897 129.329193 -727.463928
82.107803 131.391296 -731.692871
82.088997 133.303894 -732.800720
82.046303 134.667404 -733.320679
81.968903 130.225800 -730.846680
81.945801 130.093201 -725.020081
81.935898 130.859100 -723.158813
81.922302 135.332199 -733.694885
81.892899 132.589096 -732.580872
81.868401 129.089203 -728.223999
81.794601 129.556000 -730.182678
81.773804 129.296402 -726.672913
81.769798 128.873306 -729.251526
81.761703 130.561295 -723.953125
81.758904 131.781799 -732.177185
81.728302 133.867599 -733.097473
81.690697 130.742004 -731.476929
81.603798 129.637405 -725.873230
81.508797 128.517395 -729.899170
81.492203 128.861206 -727.653992
81.394798 129.723007 -730.840698
81.386002 133.021805 -732.883789
81.383202 134.841797 -733.606079
81.368698 128.683701 -728.542725
81.342499 131.119507 -731.975525
81.296799 130.551498 -723.084778
81.261497 129.892899 -725.071411
81.257004 130.203995 -724.345703
81.242599 132.282898 -732.505005
81.218803 129.151901 -730.360718
81.191101 128.921494 -726.870422
81.152397 130.267105 -731.540710
81.151100 134.222198 -733.341492
81.137100 128.450195 -729.280701
81.045998 129.170700 -726.059814
80.992203 131.543701 -732.426575
80.975403 133.541595 -733.232178
80.862999 130.469299 -723.736572
80.857803 128.250198 -728.234009
80.834000 128.459793 -730.123230
80.828003 128.271194 -727.493225
80.780701 129.767700 -731.194702
80.767899 132.576599 -732.974426
80.708397 130.690308 -732.038818
80.695297 134.521698 -733.821228
80.677498 129.387894 -725.407227
80.649696 129.923401 -724.650391
80.622597 129.047501 -730.745972
80.541603 128.574997 -726.822083
80.504601 130.227203 -723.060974
80.480103 127.985497 -729.448120
80.456299 131.927200 -732.828918
80.417999 133.881897 -733.557678
80.378700 130.104095 -731.764221
80.360802 133.177200 -733.252686
80.350098 127.873299 -727.883972
80.346901 131.235901 -732.593994
80.321999 127.950897 -728.750977
80.304298 128.792404 -726.145874
80.244797 127.883598 -730.150696
80.215302 130.089294 -723.937317
80.209702 129.339203 -731.288574
80.118698 128.465500 -730.646912
80.114899 129.479095 -724.936279
80.062798 130.520996 -732.283203
80.055801 132.495804 -733.179626
79.956299 134.219299 -734.012024
79.948303 127.989304 -726.983582
79.894203 127.558800 -729.296692
79.840302 127.484299 -728.412476
79.836502 129.648605 -731.965881
79.834999 131.585007 -732.948486
79.816299 128.881500 -725.569214
79.797699 133.519302 -733.639221
79.773598 128.771301 -731.215698
79.762802 130.085602 -723.345276
79.689697 127.392601 -730.210083
79.675003 127.639000 -727.664490
79.653702 129.736694 -724.322205
79.583702 130.905594 -732.709778
79.578796 128.231201 -726.290283
79.508499 132.846497 -733.586914
79.472900 130.143295 -732.443787
79.468201 127.948196 -730.634583
79.432198 129.169098 -724.963623
79.427803 129.076294 -731.787292
79.427002 132.108002 -733.378113
79.351898 127.088501 -729.561218
79.338799 133.856400 -734.098572
79.272202 127.642998 -727.044678
79.232498 127.131699 -728.160217
79.188400 129.754898 -723.741516
79.182800 131.399796 -733.235474
79.176498 126.690300 -730.252014
79.175201 128.534805 -725.575012
79.130501 128.338699 -731.278870
79.079102 129.437103 -732.304016
79.057198 126.919502 -728.827698
79.018600 130.569702 -733.019226
78.957901 133.167603 -733.908386
78.927101 127.374496 -730.546021
78.926300 127.872200 -726.359314
78.879601 129.354507 -724.397278
78.869797 127.145401 -727.478821
78.834801 128.675598 -731.831116
78.829903 132.426407 -733.754822
78.796204 128.819397 -724.971619
78.746002 129.938202 -732.797607
78.667999 127.714699 -731.197571
78.638298 126.533302 -729.700073
78.619698 131.739807 -733.544617
78.599297 129.382095 -723.567322
78.535202 131.001297 -733.372681
78.535202 126.618401 -728.334473
78.531601 128.216705 -725.541687
78.512604 127.308403 -726.723206
78.487900 128.979797 -732.447021
78.478104 126.260498 -730.341797
78.384201 132.836395 -734.175781
78.343300 126.962898 -730.692322
78.332802 130.318405 -733.287415
78.321800 128.017105 -731.741577
78.253700 127.644600 -726.044312
78.232903 126.690201 -727.608582
78.193199 129.460907 -732.959778
78.188301 128.940201 -724.515381
78.157700 126.229599 -728.971680
78.141800 132.165894 -734.019104
78.047501 126.118698 -729.668396
78.005997 127.271103 -731.254883
77.999100 131.487396 -733.809570
77.972000 129.104996 -723.789001
77.928299 126.264900 -728.143005
77.927299 128.456100 -732.420898
77.919601 128.177704 -725.172119
77.874702 125.782700 -730.422485
77.861397 126.995399 -726.412781
77.834503 130.752304 -733.674316
77.750702 129.957596 -733.501770
77.734001 126.594299 -730.751770
77.728302 127.608597 -731.927917
77.722603 128.928207 -732.913025
77.671600 126.614197 -727.032776
77.579002 132.173706 -734.479126
77.561600 125.815201 -729.084778
77.518700 128.512802 -724.559387
77.510300 127.399300 -725.819214
77.509201 125.661003 -729.822815
77.431396 131.157806 -734.106323
77.411400 126.931999 -731.562073
77.360901 128.045807 -732.679016
77.352501 126.107101 -727.614075
77.350700 129.293793 -733.522827
77.298103 125.831001 -728.327087
77.285698 128.530197 -723.655701
77.250801 130.480499 -733.974915
77.237000 126.002197 -730.711304
77.189301 126.667198 -726.326904
77.156998 125.178398 -730.577026
77.125801 126.858704 -725.536621
77.122398 127.456200 -732.327271
77.077698 127.726303 -725.203003
77.073196 131.607895 -734.617798
77.030998 128.517303 -733.248413
77.018700 126.242401 -726.939026
76.983101 125.436501 -729.325317
76.966103 126.350304 -731.309082
76.921097 129.791000 -733.884216
76.909698 128.289001 -724.209778
76.847397 125.257004 -728.647705
76.845901 126.847397 -732.071716
76.812202 130.925507 -734.456970
76.738503 125.085197 -729.917419
76.734398 128.928894 -733.837830
76.731903 125.727798 -727.493225
76.704903 127.788300 -732.918701
76.688400 125.600502 -730.935181
76.545303 127.272697 -725.393372
76.544502 126.315300 -726.356628
76.528397 124.535004 -730.684875
76.467499 128.128601 -733.518127
76.463699 127.660797 -724.793701
76.461197 127.086502 -732.642517
76.456497 129.948898 -734.435181
76.452301 126.293503 -731.850525
76.442101 127.872597 -723.789185
76.407097 124.930603 -729.220703
76.406998 125.722298 -726.793396
76.355103 125.173599 -728.021729
76.345703 131.038803 -735.087830
76.252502 129.240997 -734.363220
76.192101 126.617798 -725.761108
76.189697 125.658203 -731.481018
76.148201 127.515900 -733.316284
76.122299 125.127701 -730.934570
76.106796 128.399796 -734.074280
76.105904 124.686798 -729.861206
76.103203 124.821297 -728.586304
76.039597 130.378204 -734.830627
76.035103 126.506302 -732.471130
75.950699 127.171898 -724.949219
75.923698 125.957397 -726.210022
75.910004 124.052696 -730.730408
75.897400 127.646400 -724.335876
75.894897 125.216202 -727.268982
75.860001 127.727402 -733.943970
75.856499 125.851601 -732.172485
75.821404 126.900803 -733.124512
75.818901 129.516998 -734.903870
75.770500 126.424103 -725.108826
75.751701 124.331299 -729.186584
75.667198 128.725098 -734.649719
75.650803 125.259201 -726.080872
75.641701 124.751404 -727.834290
75.634300 130.016998 -735.388794
75.619499 125.230202 -731.623718
75.548302 124.108101 -730.015930
75.531799 127.113098 -733.752686
75.521698 124.392403 -728.498108
75.520599 127.126801 -723.996826
75.516800 124.621300 -731.086487
75.509804 126.224098 -732.888428
75.442001 128.036407 -734.528076
75.426697 126.028603 -725.694092
75.324799 124.797501 -727.191101
75.269402 126.835197 -724.690125
75.263603 123.590599 -730.850525
75.259003 129.376099 -735.426086
75.253403 125.437202 -732.323120
75.190201 126.505997 -733.539490
75.160797 127.386597 -734.353088
75.156898 123.893501 -729.288025
75.097801 128.667404 -735.097412
75.094299 124.300797 -727.932617
75.081703 125.026398 -726.536377
75.081299 124.694702 -731.649719
75.005898 123.641701 -729.962708
74.974602 125.804703 -733.160217
74.958603 125.004204 -725.824219
74.941299 126.252296 -724.227417
74.885002 123.821800 -728.635803
74.872902 126.687401 -734.230286
74.859001 125.994301 -725.154175
74.851097 127.971802 -734.993103
74.848999 124.079300 -731.278198
74.791298 124.268898 -727.260620
74.770401 124.917000 -732.271973
74.751404 123.068901 -730.913574
74.711800 128.667694 -735.712402
74.643997 127.214401 -734.848083
74.632004 126.102600 -733.789795
74.576897 123.449303 -729.175171
74.569000 125.234901 -732.893982
74.504799 124.339798 -731.896423
74.492203 124.541199 -726.592773
74.409698 128.024094 -735.570190
74.387497 123.142303 -730.008972
74.384003 125.774300 -724.258423
74.363701 123.756500 -727.817688
74.357903 126.161598 -734.449890
74.335999 125.314903 -725.451782
74.240501 127.330101 -735.444824
74.232201 123.876701 -727.056396
74.225197 124.788902 -725.937195
74.221298 125.483902 -733.531128
74.214302 123.401604 -728.499878
74.197800 123.764801 -731.476196
74.183296 124.628799 -732.632080
74.158997 122.571800 -731.002380
74.150002 126.612801 -734.958008
74.012299 123.003304 -729.330505
73.986397 127.778099 -736.191711
73.938004 125.216797 -724.322571
73.928596 125.539101 -734.273926
73.915901 124.002602 -732.299683
73.882202 122.659698 -730.220581
73.819397 124.005402 -726.445618
73.817703 124.742401 -733.260620
73.804497 125.971703 -734.973816
73.784897 126.823898 -735.728088
73.779099 123.465897 -727.485779
73.684700 124.762199 -725.285828
73.684303 123.100403 -728.102783
73.674797 123.320702 -731.678711
73.582397 124.231499 -725.800720
73.552696 122.091797 -731.140381
73.521698 122.782997 -728.778625
73.520401 127.256500 -736.359802
73.515999 124.894997 -733.885925
73.495598 122.548798 -729.536377
73.463303 124.627899 -724.365723
73.417198 124.141403 -733.100830
73.409203 126.209396 -735.793701
73.387901 125.396301 -734.790710
73.351196 123.377800 -726.892395
73.339699 123.548698 -732.266418
73.296303 122.229301 -730.280884
73.186501 122.549400 -728.165100
73.171303 122.636200 -731.545776
73.170303 123.508202 -726.208496
73.111702 124.775101 -734.460999
73.089203 124.300903 -733.721375
73.074203 124.010300 -724.437012
73.065201 125.661499 -735.436523
73.062599 126.720596 -736.228577
73.040001 124.050201 -725.279297
73.037300 122.789299 -727.437927
73.020897 121.622299 -731.203674
73.011101 122.252296 -729.017212
72.964203 123.610100 -732.901672
72.950600 121.980698 -729.671814
72.852798 122.870102 -732.167419
72.851196 125.776802 -736.193115
72.844398 121.697098 -730.478882
72.825302 122.960999 -726.574585
72.820999 125.042603 -735.141479
72.653603 124.241798 -734.290771
72.628098 123.478104 -725.562378
72.626701 122.155296 -731.509827
72.621002 123.431198 -724.465210
72.596397 122.009499 -728.471130
72.586601 123.680397 -733.530518
72.537598 122.330597 -727.653381
72.536903 121.696098 -729.127014
72.505898 121.136398 -731.274780
72.467598 122.913399 -732.786682
72.457001 125.164497 -735.752197
72.420502 124.379303 -734.968018
72.359299 121.540398 -729.810974
72.343697 122.450104 -726.825012
72.327599 122.734703 -726.095093
72.309898 125.396301 -736.530029
72.292297 122.286903 -732.150024
72.251503 121.155800 -730.409912
72.212700 123.611504 -734.172119
72.156601 123.415703 -725.026978
72.150497 122.822998 -724.522583
72.122101 123.100700 -733.482605
72.082100 124.534698 -735.575500
72.057899 121.616699 -731.666870
71.985199 121.883400 -727.593384
71.985100 121.390503 -728.751892
71.947998 123.729301 -734.825500
71.930397 122.389503 -732.849976
71.930199 120.638702 -731.366089
71.898697 124.790802 -736.301514
71.896301 121.114403 -729.458374
71.860001 122.609398 -725.557129
71.712303 121.857399 -732.300293
71.690300 121.767502 -726.829773
71.681000 123.074699 -734.214417
71.672302 120.700401 -730.495117
71.657799 123.918098 -735.450928
71.623703 121.339798 -728.118286
71.605400 122.142700 -726.064026
71.584503 122.577301 -733.544373
71.536201 122.383400 -724.602295
71.502098 121.092102 -731.755127
71.445999 120.939697 -728.913818
71.417000 124.258003 -736.125488
71.403603 119.984901 -731.485779
71.395401 123.235497 -734.919678
71.370796 121.974098 -733.059692
71.360001 122.139099 -725.301819
71.355003 120.661903 -729.718079
71.266899 124.741699 -736.710876
71.235100 121.338898 -727.381470
71.174103 121.343102 -732.336792
71.150002 120.101501 -730.652222
71.141602 122.606003 -734.227783
71.084801 121.395401 -726.590515
71.079300 123.565102 -735.693420
71.009499 121.784203 -724.717285
70.989197 122.066902 -733.701782
70.980003 120.570801 -731.706177
70.967201 121.668503 -725.892273
70.927399 120.395302 -729.127991
70.924797 120.840797 -727.875916
70.885002 123.913597 -736.459229
70.865196 122.734200 -734.915588
70.852798 121.412903 -733.032227
70.736801 119.333298 -731.594910
70.709297 120.048103 -729.956604
70.705299 120.763802 -732.424622
70.672302 119.595703 -730.905212
70.656303 120.847000 -727.184204
70.627602 123.020203 -735.548706
70.568398 122.156097 -734.353882
70.567902 121.467499 -725.271179
70.546501 120.008102 -731.770081
70.507500 120.936699 -726.409729
70.462196 120.292999 -728.521179
70.458702 123.316902 -736.191772
70.447098 121.524498 -733.712585
70.446297 121.153198 -724.637329
70.343102 119.963997 -729.146790
70.303101 120.845200 -733.086121
70.290298 120.276001 -727.757019
70.273697 122.344597 -735.023315
70.269600 118.800003 -731.658386
70.254997 123.755096 -736.920593
70.222198 120.244797 -732.383423
70.188797 119.585403 -729.774597
70.141296 120.976501 -725.694214
70.135101 119.287598 -730.471802
70.087502 120.444504 -727.001221
70.055801 121.638603 -734.297485
70.042099 122.624199 -735.692017
69.978500 122.988602 -736.660583
69.975899 119.600899 -731.952698
69.933701 120.539902 -726.258728
69.911598 121.054802 -733.865601
69.876602 119.901802 -728.270020
69.825401 118.750801 -731.101379
69.819702 120.730598 -725.000610
69.803101 119.482697 -729.055420
69.780998 120.096100 -732.990479
69.755997 121.793503 -735.022583
69.677002 118.957001 -729.990112
69.671097 119.883904 -727.542114
69.664398 118.256203 -731.887085
69.588402 122.362099 -736.353821
69.560699 119.548897 -732.548523
69.552902 122.108101 -735.654114
69.549698 118.982201 -731.887573
69.546600 121.148003 -734.480713
69.543503 120.047401 -726.741882
69.466003 120.289497 -733.620422
69.436096 120.439796 -725.645874
69.401703 119.294197 -728.465271
69.330101 118.471298 -730.590515
69.259102 118.784500 -729.347595
69.256897 123.160599 -736.972229
69.173302 117.663300 -731.884827
69.173203 121.535301 -735.405090
69.156502 119.662804 -733.209778
69.151299 120.611603 -734.227905
69.133301 117.998901 -731.211426
69.095901 119.455902 -727.479126
69.094101 120.100304 -725.108887
69.056900 118.876297 -732.416992
69.049202 120.027901 -726.120972
69.031403 121.816498 -736.046326
68.977402 120.972397 -734.888123
68.970001 122.515297 -736.696106
68.946503 119.642998 -726.805786
68.887100 119.022797 -728.055603
68.885201 118.292900 -729.976624
68.865997 119.961899 -733.900085
68.807098 118.198196 -732.200684
68.767799 119.084999 -733.036011
68.722397 118.502899 -728.966370
68.688797 117.931999 -730.580811
68.626900 121.268097 -735.804077
68.622002 117.401299 -731.400818
68.608398 119.696701 -725.466370
68.599098 120.241600 -734.521118
68.539803 117.104599 -732.055908
68.499100 121.983299 -736.487305
68.472900 119.077103 -727.343323
68.467796 119.496300 -726.227478
68.432701 119.329300 -733.638672
68.431396 118.500000 -732.752686
68.404198 120.794800 -735.299377
68.321297 117.778801 -729.666382
68.302200 118.424400 -728.255493
68.251900 119.679703 -734.239624
68.213402 117.757500 -732.371826
68.178902 117.419502 -730.811401
68.160400 117.962898 -728.947083
68.067497 121.456596 -736.247925
68.067398 116.557999 -732.131775
68.062401 118.624100 -733.428284
68.010696 119.316704 -725.548523
68.010002 120.263802 -735.036682
67.994400 118.584297 -727.608582
67.988098 119.095001 -726.650513
67.959000 117.000504 -731.375122
67.927002 122.137802 -736.910278
67.913399 117.338303 -730.149170
67.839302 120.872398 -735.780884
67.828796 117.973396 -732.971191
67.790901 119.035301 -733.990601
67.746399 117.487099 -729.297729
67.722397 117.203499 -732.503784
67.701302 119.670197 -734.768677
67.630699 116.356102 -731.586121
67.598602 117.809898 -728.455322
67.530998 118.612099 -726.961975
67.527199 121.485901 -736.765320
67.501900 118.996101 -726.086975
67.487900 118.407997 -733.820313
67.455498 116.024498 -732.235413
67.425499 116.804001 -730.463684
67.421600 120.260498 -735.470886
67.421204 118.108498 -727.748413
67.322601 117.621399 -733.410278
67.308197 119.101303 -734.557617
67.304398 117.009102 -729.651428
67.290497 120.960701 -736.223083
67.251900 116.642998 -732.551819
67.157402 117.328300 -728.786926
67.151497 116.204002 -730.970398
67.083199 119.697899 -735.197083
67.009003 116.402496 -729.960510
66.990402 115.676598 -731.732788
66.975304 118.405899 -734.315430
66.974998 117.115303 -733.037598
66.954102 118.519096 -725.997070
66.944702 118.154297 -727.178711
66.868599 120.370003 -735.985779
66.855499 115.535004 -732.432983
66.818802 117.849098 -733.884277
66.805901 118.822800 -735.077820
66.781097 116.642502 -729.221375
66.743401 121.242302 -736.805420
66.726196 116.180000 -732.756470
66.710701 117.364098 -728.140930
66.657402 115.953300 -730.510681
66.616402 117.144897 -733.687988
66.486000 119.820198 -735.665588
66.479301 118.209999 -726.611206
66.450996 115.348396 -731.381287
66.441299 117.627098 -727.496216
66.423500 114.945198 -732.579712
66.413803 116.527397 -733.308716
66.378098 115.922203 -729.682129
66.365097 118.012299 -734.446777
66.320000 120.583603 -736.450073
66.210503 115.681503 -732.908020
66.207603 116.547798 -728.706299
66.163498 118.511398 -734.945923
66.139999 117.342697 -734.208618
66.124100 115.495102 -730.693420
66.062500 114.635201 -731.977722
66.016701 116.682701 -733.915100
66.014198 119.190498 -735.582520
66.000397 114.214104 -732.691101
65.965897 115.737999 -729.012817
65.922600 115.344299 -729.875000
65.916603 119.984901 -736.071472
65.909103 116.835403 -728.051086
65.899803 115.978401 -733.556030
65.889603 114.836304 -731.245789
65.887497 117.778801 -726.882874
65.792702 115.005798 -732.981873
65.712700 117.803200 -734.685120
65.552101 114.024200 -731.913391
65.542603 118.565201 -735.333130
65.530502 117.177498 -727.473816
65.519997 116.334000 -728.419617
65.507202 117.040604 -734.436218
65.501602 113.520302 -732.627808
65.492599 114.789902 -730.595825
65.488197 116.166901 -734.150879
65.401100 115.539200 -733.819580
65.394501 119.456398 -735.917908
65.371201 117.454399 -726.435181
65.343300 115.441597 -729.255493
65.331200 114.938103 -729.847290
65.292702 114.287498 -731.253113
65.285797 114.303299 -732.682373
65.210800 120.147797 -736.496216
65.205200 114.922798 -733.419495
65.194901 116.635201 -727.854919
65.158798 117.926003 -735.201294
65.038399 113.500099 -732.032593
65.025299 116.482697 -734.586975
65.021202 114.273598 -730.470215
65.016602 115.746002 -728.685791
64.988800 113.086800 -732.927124
64.956802 117.223396 -726.987183
64.944397 118.837601 -735.754089
64.937698 117.160500 -734.880188
64.894302 114.270103 -733.305481
64.867996 115.713898 -734.294922
64.790901 114.467300 -729.764709
64.775902 113.726402 -731.347229
64.737503 119.377197 -736.183289
64.732498 115.038300 -733.984314
64.705597 114.941399 -729.155579
64.623901 116.102501 -728.101379
64.612099 116.732201 -727.440979
64.529099 113.624199 -733.014709
64.526604 112.732803 -732.347717
64.525398 113.112000 -731.717285
64.523102 118.157898 -735.497192
64.493797 113.892899 -730.163208
64.467003 114.370499 -733.892029
64.405403 116.208199 -734.862610
64.372299 112.558998 -733.023926
64.328400 117.401100 -735.276428
64.323601 115.292099 -728.570923
64.320503 113.460503 -730.777588
64.284599 113.711098 -733.689270
64.243797 114.346497 -728.902283
64.238197 118.757698 -735.931519
64.226700 115.419800 -734.526184
64.065498 115.894798 -727.691223
64.052498 113.419403 -729.682129
64.050499 116.748596 -735.184570
64.031601 112.888603 -731.213684
64.022903 114.712502 -734.476807
64.013802 112.480598 -731.889526
63.977798 113.062302 -733.388184
63.971199 112.118599 -732.534180
63.937500 111.395103 -732.199097
63.902500 113.951698 -734.249329
63.859299 117.969498 -735.712524
63.854099 111.744904 -733.152771
63.827400 113.129501 -730.377930
63.797501 115.175797 -728.028870
63.766499 115.845001 -734.926086
63.674999 113.757896 -729.037781
63.656898 113.287201 -733.987000
63.639400 114.698196 -728.672119
63.578098 117.221603 -735.517883
63.569801 112.320099 -733.462708
63.544899 116.284599 -727.358887
63.512501 112.269600 -731.403076
63.462299 114.324097 -734.737122
63.452900 115.052696 -734.925171
63.440899 112.792503 -729.750305
63.438999 110.763702 -732.297180
63.423698 116.355202 -735.320313
63.401199 118.622498 -736.143616
63.362301 111.401703 -732.697876
63.336300 112.480400 -730.671082
63.318802 111.589104 -731.810486
63.311798 115.676804 -727.749817
63.296902 113.596298 -734.556274
63.224998 110.881897 -733.249023
63.204498 117.750298 -736.021118
63.202999 113.232300 -729.129089
63.200401 114.694199 -728.043884
63.185501 112.575500 -734.041016
63.130100 115.706299 -735.254395
63.117001 114.188904 -728.647827
63.051399 111.572998 -733.380493
62.993301 116.810303 -735.709900
62.991699 111.851097 -731.122681
62.952599 114.592598 -735.202209
62.942501 110.165398 -732.370728
62.845001 111.010597 -731.848389
62.811501 112.110397 -730.294983
62.805901 112.813301 -734.599426
62.790798 113.916000 -735.000488
62.769402 115.150101 -727.621277
62.725700 112.662598 -729.718628
62.699600 111.030602 -732.648376
62.691002 113.566399 -728.603516
62.681000 116.125603 -735.765930
62.670502 111.811203 -733.940674
62.667099 110.380096 -733.358276
62.649799 115.177101 -735.483582
62.592999 117.402397 -735.864990
62.554199 114.483498 -727.806824
62.524101 111.114700 -733.625671
62.500099 111.256302 -731.184814
62.444901 109.541100 -732.491577
62.412701 113.279800 -734.997009
62.398800 110.450401 -731.886292
62.385799 117.046097 -736.479309
62.380501 112.792702 -728.943481
62.332699 111.878304 -734.572083
62.331299 114.253197 -735.443420
62.278500 111.496002 -730.536926
62.248001 112.106102 -729.822083
62.233101 115.609100 -736.025391
62.230999 109.813599 -733.454102
62.193501 112.538902 -734.974976
62.184399 113.937500 -728.214722
62.176498 110.207901 -732.769470
62.099899 116.330704 -736.268372
62.095001 111.249901 -734.270874
62.092999 114.839203 -735.821106
62.088299 113.165604 -728.407593
62.048199 110.450996 -733.713074
62.021000 113.610802 -735.490479
61.988998 109.834000 -732.018372
61.943401 112.123299 -729.138672
61.942001 108.871696 -732.670471
61.921600 110.879303 -730.733582
61.789799 110.496696 -731.473877
61.776699 109.256104 -733.543030
61.772099 114.172699 -735.919128
61.762001 111.928802 -735.071716
61.756401 112.928703 -735.481873
61.738998 113.632500 -727.710327
61.721401 111.403999 -729.971497
61.720402 109.608597 -732.875000
61.707100 112.494301 -728.576172
61.643398 115.477402 -736.501709
61.633499 111.204903 -734.828186
61.596500 110.483200 -734.345825
61.525200 109.905701 -733.837708
61.506100 109.238403 -732.110718
61.472900 114.782204 -736.233582
61.470200 112.921700 -728.028015
61.468300 111.537804 -729.223389
61.436001 108.599998 -733.606812
61.412102 113.434196 -735.966614
61.386101 109.876999 -731.537415
61.342400 108.503998 -732.444275
61.309898 112.250999 -735.618713
61.296799 110.564102 -730.480713
61.250500 114.157700 -736.522827
61.225899 108.944702 -733.013794
61.222698 110.603500 -734.976318
61.211300 107.751198 -732.866089
61.182800 111.961601 -728.664001
61.132401 111.502602 -735.372498
61.110401 109.274498 -733.956970
61.061199 109.795197 -734.461975
61.047901 110.830704 -729.827820
61.046902 107.964401 -733.686279
61.038502 109.847801 -730.694275
61.023102 112.162201 -727.934021
61.012798 109.164299 -731.543030
60.989300 112.884201 -736.199707
60.972198 115.139503 -736.793518
60.962799 114.314102 -737.187317
60.906101 113.536201 -736.585083
60.821098 108.938202 -732.213623
60.804401 108.368301 -733.120789
60.800499 111.280296 -729.147827
60.785702 111.871399 -736.030579
60.761002 108.078903 -732.353882
60.738300 108.616096 -733.803589
60.731300 110.797997 -735.520630
60.720100 110.078102 -735.047913
60.613998 106.976898 -732.941101
60.588200 110.119102 -730.192078
60.581902 109.178398 -730.939514
60.578999 109.219902 -734.443787
60.575600 111.561401 -728.512817
60.555599 113.563698 -737.378479
60.554699 112.404198 -736.524719
60.550900 107.457603 -733.812927
60.496700 110.576103 -729.174316
60.440399 111.189201 -736.109009
60.402500 108.644203 -731.664978
60.382401 112.896202 -737.097107
60.322102 109.475899 -735.157471
60.270500 107.720901 -733.070923
60.269501 110.273201 -735.665100
60.251499 108.052200 -734.085388
60.221298 111.765701 -736.464783
60.193600 111.205902 -728.025024
60.179401 112.221397 -737.185730
60.165401 106.254501 -733.076721
60.157398 108.831398 -734.862671
60.126499 110.680099 -728.561523
60.122002 109.287399 -730.299072
60.109299 107.304901 -732.417480
60.093700 106.875298 -733.903198
60.053799 108.092201 -731.976196
60.053799 110.025398 -729.701599
59.950001 110.929398 -736.560730
59.941799 108.685097 -731.084595
59.939602 111.469299 -737.107971
59.887299 107.116898 -733.244629
59.863499 109.576897 -735.691101
59.804001 108.126602 -734.699585
59.778801 106.059402 -733.987671
59.751598 110.359901 -736.175171
59.730598 107.570503 -734.184326
59.715099 110.274902 -728.989929
59.677700 108.640404 -735.376587
59.672298 106.536102 -732.614624
59.667999 107.417503 -731.852783
59.623600 105.520500 -733.127197
59.603600 108.090500 -731.419189
59.599300 110.199799 -728.267212
59.590900 111.090897 -737.609680
59.547901 112.010902 -737.596313
59.515900 106.589401 -733.572571
59.498600 109.619400 -729.461792
59.493599 108.357101 -730.641174
59.451698 110.231102 -736.825073
59.438099 109.716797 -736.299988
59.427299 106.909401 -734.341370
59.418701 109.135101 -730.107300
59.367100 107.979301 -735.263123
59.318298 108.883202 -735.953979
59.246799 106.920898 -732.167603
59.240200 109.655602 -728.627075
59.228699 110.322403 -737.531128
59.210899 107.318703 -734.898193
59.173199 105.618896 -734.084473
59.160500 106.043900 -732.929077
59.088501 107.551804 -731.315430
59.074299 104.637001 -733.285583
59.063999 109.569504 -736.950073
59.016499 108.213097 -735.843872
59.007900 108.464203 -730.060608
58.950401 105.299103 -732.843628
58.945301 106.433701 -734.557312
58.941399 109.083397 -729.544373
58.880001 109.669403 -737.688782
58.879799 107.527100 -735.587524
58.866199 106.161003 -732.159912
58.864399 108.845200 -736.581726
58.833199 107.668800 -730.654480
58.769501 105.166397 -733.708130
58.733002 106.835899 -735.215271
58.725899 109.165604 -728.765015
58.680901 106.613297 -731.554810
58.648499 108.925797 -737.291626
58.588001 105.816200 -734.535278
58.579201 107.812202 -736.275513
58.509201 107.084198 -730.929810
58.480301 108.967003 -738.018677
58.478500 103.636002 -733.429077
58.460201 108.301804 -736.896423
58.435299 105.723503 -732.517517
58.434502 104.409500 -733.003723
58.422100 107.027100 -735.910706
58.409599 108.052696 -730.230286
58.399799 108.557404 -729.578613
58.393299 104.132301 -734.283081
58.379200 105.059799 -734.294373
58.376999 106.125801 -735.216797
58.293400 108.341599 -737.623901
58.190399 108.659599 -728.895874
58.178101 106.007401 -731.861328
58.147202 107.597801 -736.856384
58.092499 104.468803 -733.697876
58.059601 106.289398 -735.898682
58.053501 104.978600 -732.759399
58.051701 105.276497 -734.908508
58.042000 107.468903 -730.468384
58.027302 106.590797 -731.199097
58.015499 107.995697 -738.339417
58.015499 106.975601 -736.500977
57.966702 102.977699 -733.453430
57.932598 107.677101 -737.567383
57.893200 103.920601 -732.945801
57.885899 105.190697 -731.900024
57.843899 107.952003 -729.769470
57.836102 104.581100 -734.457886
57.818802 105.634201 -735.517883
57.817699 103.650101 -733.703796
57.767601 107.082199 -737.202026
57.686901 106.873100 -730.625488
57.647202 106.002197 -731.362488
57.592999 106.267403 -736.509277
57.588699 107.131699 -737.926575
57.583401 108.116798 -728.967224
57.554001 104.886002 -735.320313
57.544201 102.267403 -733.579285
57.535500 103.810097 -734.410278
57.480598 104.282799 -732.404602
57.477600 105.622498 -736.212097
57.443001 103.223099 -733.034119
57.415199 103.156303 -734.117615
57.390900 107.232597 -730.060425
57.351299 106.369003 -737.214111
57.328999 104.156998 -735.075073
57.274502 104.701698 -731.838806
57.261501 106.541603 -738.373230
57.246101 106.272499 -730.775024
57.176998 104.623001 -735.886230
57.165699 107.463501 -729.343018
57.163101 105.460800 -731.471802
57.117599 105.733803 -736.836670
57.080799 103.326797 -734.801819
57.051998 102.538597 -733.136597
57.041801 103.768898 -732.709778
57.036999 101.522697 -733.637573
57.024700 102.452202 -734.130920
56.976898 105.904297 -737.640808
56.976601 105.597702 -730.758728
56.962898 106.683998 -730.214417
56.908401 105.097900 -736.440674
56.889599 103.902199 -735.641174
56.855202 105.942200 -738.430481
56.790001 103.945900 -731.994995
56.690800 104.304100 -736.321777
56.688999 103.132797 -732.818420
56.686401 106.869102 -729.556274
56.666901 102.638496 -734.811218
56.659698 105.284302 -737.143372
56.656101 103.124496 -735.363525
56.628399 105.390503 -738.005127
56.623402 104.665001 -731.493225
56.600498 101.779999 -734.180420
56.554001 100.971497 -733.443176
56.494701 104.567101 -736.968506
56.484100 106.161301 -730.325623
56.453098 101.801102 -733.167725
56.436501 103.648201 -736.172119
56.386200 105.205704 -730.991516
56.354099 103.184097 -732.186523
56.329300 105.060699 -738.602295
56.316601 104.612503 -737.695190
56.292900 101.922897 -734.877991
56.291801 102.459000 -732.908508
56.270199 101.124603 -734.122681
56.233501 100.131500 -733.843811
56.217098 102.846397 -735.853271
56.182201 104.027901 -731.546814
56.166698 103.765701 -736.871216
56.160801 106.321098 -729.579712
56.123600 105.381203 -730.346497
56.029202 104.225098 -738.309082
56.009201 103.150902 -736.517822
55.992901 102.287498 -735.448608
55.973801 101.257004 -734.825378
55.971802 103.820999 -737.593323
55.932301 104.605598 -731.009705
55.916901 101.333900 -733.113098
55.909401 100.633202 -733.416626
55.847401 102.638496 -732.325378
55.831402 100.610901 -734.388428
55.803101 101.901100 -732.660522
55.783298 103.093803 -731.713989
55.739700 99.573898 -733.825623
55.739399 102.526100 -736.303406
55.704899 105.641296 -729.602783
55.691799 101.626900 -735.437927
55.673000 103.506897 -738.194275
55.651798 103.109596 -737.150513
55.533699 104.767097 -730.296509
55.512901 100.761497 -735.085876
55.510300 103.849197 -731.230530
55.485100 101.805496 -736.110718
55.437302 99.890701 -734.449829
55.424999 103.273300 -738.934082
55.414200 100.273102 -733.782288
55.402500 102.959702 -737.799927
55.346802 102.372299 -736.954712
55.339500 102.044296 -732.112671
55.305199 100.765198 -732.964478
55.241600 101.088799 -735.696228
55.237400 98.657600 -733.981628
55.236698 101.365097 -732.584106
55.208000 102.726997 -731.512878
55.149101 104.182899 -730.573914
55.129299 99.423203 -733.458923
55.109901 101.662903 -736.736511
55.107700 102.603897 -738.426819
55.095001 100.060501 -735.142517
55.074001 103.265503 -731.062012
55.035301 102.254501 -737.668213
55.033100 99.302498 -734.215027
55.019699 105.228500 -729.774475
54.932098 104.453903 -729.867371
54.913300 101.046600 -736.388428
54.853199 102.058800 -731.575317
54.841999 100.119102 -733.304993
54.833199 100.486603 -735.747986
54.823002 99.391800 -734.947388
54.765900 97.789001 -734.113281
54.759998 101.999397 -738.742188
54.741402 101.497902 -737.329773
54.706799 101.268997 -732.117615
54.698101 98.613297 -734.518982
54.678902 101.756699 -738.039429
54.677101 103.486504 -730.461121
54.641300 98.388100 -733.668030
54.600399 102.579697 -731.037109
54.591301 100.645798 -732.788696
54.517601 99.839401 -735.650574
54.511902 100.737602 -736.986694
54.439499 100.206596 -736.353882
54.408401 99.440201 -733.171570
54.376999 98.758904 -735.219482
54.376900 101.180000 -738.391785
54.290401 100.807701 -737.707825
54.281502 97.005699 -734.148926
54.253399 97.939796 -734.587708
54.252399 100.720200 -732.099487
54.226898 102.965401 -730.010071
54.210300 101.732101 -731.648010
54.176998 99.247299 -735.903320
54.130798 98.802902 -733.338074
54.126801 100.138496 -737.020325
54.084499 100.822899 -738.956482
54.083900 99.812599 -732.645325
54.028900 97.648804 -733.769775
53.991699 102.467300 -730.658020
53.966801 99.415001 -736.587708
53.950401 98.068604 -735.293091
53.934502 100.183403 -737.750610
53.878101 98.555603 -735.846619
53.835098 101.659500 -731.046509
53.823502 97.450104 -734.879883
53.815102 100.357597 -738.433472
53.805000 96.439102 -734.020203
53.797798 101.117699 -731.678223
53.732101 99.199203 -732.766724
53.728500 99.494698 -737.306274
53.727299 98.280899 -733.652893
53.712200 100.006203 -732.049072
53.668999 101.894897 -730.338684
53.591801 98.744102 -736.532776
53.560200 97.137398 -734.086487
53.526901 99.543900 -738.034912
53.501499 99.837303 -738.896606
53.494400 97.701302 -735.711975
53.438099 97.034103 -735.329102
53.414101 95.691002 -734.097229
53.410500 98.331398 -732.976318
53.405602 96.576797 -734.692810
53.362701 101.283897 -730.617126
53.359001 100.524002 -731.668579
53.352001 98.849998 -737.251282
53.321400 98.041397 -736.328674
53.264099 99.386299 -732.154907
53.225201 99.175797 -738.588806
53.179100 97.368797 -733.471924
53.108700 97.183296 -736.026489
53.105801 98.774902 -737.924683
53.101898 96.682800 -733.737427
53.091999 98.131897 -737.047424
53.083599 100.545799 -730.307678
53.050900 96.138397 -735.167786
53.049400 98.893997 -732.631775
53.047001 95.064003 -734.162720
53.022999 100.659103 -731.034973
52.965900 99.923203 -731.763672
52.899899 98.411003 -738.987915
52.838299 97.421700 -736.673096
52.807598 97.931198 -737.684326
52.806400 97.907997 -733.019775
52.780201 96.032799 -733.847778
52.710701 98.892601 -731.964172
52.699402 95.341599 -734.771912
52.675800 94.440804 -734.369080
52.671398 96.334900 -735.829712
52.634499 100.031898 -730.925720
52.593601 96.962097 -733.288818
52.579399 96.702103 -736.500793
52.561798 98.231903 -732.299316
52.541698 97.994797 -738.423218
52.510300 95.684700 -735.450012
52.492001 99.433502 -731.465515
52.465000 97.401802 -737.340271
52.370800 99.415100 -730.556396
52.367401 97.525299 -739.093628
52.353802 95.123398 -733.978882
52.306801 94.881798 -735.215393
52.280998 97.415199 -738.072876
52.271900 97.341499 -732.756287
52.244900 96.775497 -737.686279
52.236198 93.528999 -734.516418
52.227600 96.013496 -736.370728
52.185398 96.326897 -733.364075
52.138199 95.392899 -735.980225
52.121498 98.696404 -731.502625
52.077801 96.142502 -737.125977
52.065701 96.764297 -739.101807
52.050098 94.212196 -734.847412
52.022099 94.126999 -734.077820
51.997002 95.676102 -733.590027
51.940399 97.917999 -732.151184
51.915501 96.811302 -738.370117
51.882500 98.832497 -730.642822
51.866600 95.491600 -736.692871
51.856499 94.565903 -735.689819
51.785702 96.559700 -732.798706
51.765400 96.172096 -737.796326
51.719200 93.650902 -735.211121
51.692200 94.845100 -736.341187
51.686199 96.021500 -739.125610
51.651199 95.542999 -737.420715
51.648300 94.951500 -733.939026
51.632801 93.078300 -734.417114
51.616501 98.164200 -731.482178
51.613800 97.298698 -732.327820
51.581299 92.356400 -734.662170
51.482399 95.774498 -738.339783
51.475601 95.881500 -732.947998
51.463501 94.906502 -737.066223
51.447498 93.885597 -735.824219
51.414200 93.853401 -734.357117
51.324699 97.782501 -730.781921
51.301498 95.283401 -733.303772
51.296200 92.898804 -735.054016
51.285000 94.338898 -733.795105
51.254299 97.514099 -731.644104
51.247299 94.203697 -736.500122
51.243401 91.734596 -734.731201
51.239201 94.971298 -737.749817
51.197399 96.576897 -732.322083
51.154701 95.306198 -739.187683
51.052200 92.971397 -735.741882
51.003799 94.287003 -737.200623
50.998001 93.174599 -734.007324
50.994900 93.546204 -736.273376
50.975800 95.143303 -738.399780
50.972500 92.321297 -734.277527
50.924500 97.197098 -730.936829
50.851501 95.714203 -732.585327
50.823399 96.850601 -731.725281
50.812599 92.087097 -735.189026
50.810600 94.719704 -733.426514
50.768700 94.361099 -737.924011
50.754398 91.200401 -734.731995
50.751499 94.623398 -739.154785
50.738499 93.629799 -736.957214
50.691700 93.891296 -733.781311
50.675800 92.818901 -736.333679
50.607601 95.060501 -732.823914
50.587002 92.135902 -735.911926
50.577702 96.268501 -732.152100
50.528801 96.372398 -731.187805
50.514301 93.688400 -737.652588
50.434200 92.729401 -733.964417
50.431198 94.247704 -738.567505
50.425098 90.242699 -734.882690
50.415600 91.237900 -735.413574
50.410999 92.906799 -737.051880
50.365700 90.329697 -735.835022
50.344501 91.981903 -734.559570
50.305599 94.155296 -733.078979
50.300098 92.241402 -736.625610
50.214699 95.542999 -732.227478
50.201302 93.810402 -739.276001
50.150398 90.892799 -734.461609
50.148102 93.364700 -733.656982
50.109200 91.527901 -736.021912
50.100601 93.501701 -738.247620
50.092999 95.870300 -731.585205
50.065701 92.309097 -737.314575
50.023701 94.881897 -732.427307
50.020699 92.796204 -737.866272
49.909698 90.509903 -735.310913
49.877701 89.503304 -734.805176
49.875599 92.099403 -734.028076
49.824200 91.475899 -736.739319
49.822701 90.782097 -736.080383
49.791500 93.317596 -738.875122
49.784901 92.656403 -733.587891
49.781300 89.582001 -735.928528
49.734798 95.146500 -731.822388
49.696201 93.794800 -733.134216
49.662899 91.411903 -734.440186
49.581799 90.119698 -734.504272
49.575100 91.786400 -737.420105
49.571301 88.837997 -735.034912
49.531601 94.309601 -732.520508
49.525101 92.459702 -738.255493
49.443199 92.794098 -739.288879
49.435699 90.176201 -736.169006
49.397999 94.704102 -731.364685
49.383301 90.869698 -736.776001
49.364601 93.155701 -733.253723
49.338501 88.981697 -736.050903
49.335999 89.463402 -735.360107
49.317101 91.679901 -733.799316
49.247601 91.750198 -738.068115
49.213501 90.722000 -734.189819
49.168800 91.066399 -737.510620
49.142300 92.162598 -738.891602
49.125999 93.598801 -732.708008
49.124500 87.909599 -735.135986
49.116100 89.469299 -734.645630
49.115398 92.393303 -733.448975
49.094398 94.226303 -731.905823
49.062698 90.055901 -736.943909
48.999699 89.534103 -736.381470
48.986500 88.640900 -735.476196
48.962700 144.724594 -741.303528
48.959801 146.125107 -741.789795
48.959099 147.962204 -742.359924
48.932098 148.873306 -742.620422
48.910900 91.141998 -738.260071
48.895901 149.799194 -742.950928
48.887402 143.845993 -741.023682
48.871300 150.645599 -743.257019
48.846802 142.729599 -740.680420
48.830399 90.138496 -734.433899
