71.234596 245.834595 -787.776489
71.222000 123.158897 -742.445190
71.203201 261.835785 -766.673706
71.170403 124.708099 -752.805908
71.169701 247.761307 -789.606628
71.141701 235.533493 -773.087891
71.114899 238.147903 -775.700378
71.095100 122.186996 -749.331177
71.078796 239.474304 -781.738403
71.056198 263.700195 -765.693481
71.053596 251.088303 -769.264526
71.045799 237.841003 -777.476318
70.972298 243.138199 -785.376587
70.957703 242.799606 -771.480286
70.943001 255.957199 -767.753113
70.928902 245.220306 -770.575073
70.924202 244.536499 -786.985596
70.883499 237.611206 -779.247192
70.878502 121.363197 -748.299805
70.870697 240.773804 -772.334717
70.867599 238.345901 -772.916077
70.854401 235.929199 -774.335999
70.824600 247.267197 -769.853821
70.775101 238.285599 -780.438171
70.759201 257.836914 -767.443787
70.688400 236.695801 -778.007629
70.681099 237.042801 -776.339783
70.671501 234.161301 -773.062012
70.635696 240.085800 -783.327576
70.621803 246.031403 -788.944214
70.621002 254.671097 -767.793030
70.620697 123.731796 -751.613525
70.604202 120.815102 -746.117920
70.594101 252.540695 -768.379578
70.535301 241.848206 -784.869019
70.484100 249.815994 -768.993591
70.479301 243.914993 -770.482178
70.454102 260.457794 -766.759399
70.449203 243.322403 -786.606323
70.429604 236.933105 -772.789307
70.423698 248.253799 -790.566711
70.421600 122.596001 -750.467712
70.420601 238.291702 -781.768311
70.406097 241.587601 -771.369202
70.372002 119.693298 -747.401428
70.365700 239.468994 -772.232971
70.305901 245.957901 -769.681885
70.299400 235.940598 -776.995605
70.289497 244.936798 -788.091187
70.289101 235.887100 -775.631226
70.284599 236.343002 -779.326477
70.281998 234.732407 -774.396912
70.272102 122.999397 -741.544617
70.257599 248.311005 -769.168030
70.233902 262.450592 -765.952820
70.219498 237.129303 -780.769409
70.188698 235.440903 -778.252319
70.150902 240.639603 -784.445923
70.140099 232.945099 -773.257813
70.137100 246.898499 -789.901306
70.131500 251.247894 -768.301086
70.113098 238.678802 -783.066711
70.107101 121.343498 -749.512085
70.079498 242.561096 -770.514771
70.063797 258.863800 -767.008179
69.965202 240.244400 -771.215820
69.962601 242.070801 -786.093018
69.957397 256.686188 -767.208313
69.949501 253.473007 -767.577820
69.915703 120.493599 -748.490173
69.905296 235.392899 -772.657715
69.880203 124.105499 -752.635986
69.861801 238.165100 -772.063904
69.828300 122.274300 -742.702820
69.822800 234.402603 -777.507080
69.784203 237.200806 -782.152771
69.773804 231.448196 -772.893372
69.767197 234.574905 -775.697815
69.740097 233.502594 -774.393982
69.707802 243.692902 -787.798279
69.702003 235.174896 -779.542419
69.698502 244.661301 -769.709473
69.648697 235.959396 -781.061890
69.641403 246.960907 -769.111511
69.614098 261.109985 -765.922974
69.596901 241.307800 -770.372925
69.589104 255.353897 -767.181091
69.533401 239.319794 -784.196594
69.515900 240.913605 -785.665710
69.505402 249.191696 -768.368713
69.498802 122.958397 -751.498108
69.485001 245.384506 -789.255188
69.470100 252.144302 -767.475281
69.443199 236.918198 -771.905884
69.395897 234.003601 -778.804199
69.395401 259.848114 -766.243408
69.387604 238.975098 -770.971619
69.379303 243.302597 -769.681030
69.372704 118.743301 -747.536011
69.363998 232.194595 -774.115784
69.345497 234.138794 -772.663818
69.341599 233.468399 -776.719604
69.331001 121.878502 -750.604126
69.308098 230.217499 -772.664917
69.286301 257.815887 -766.652710
69.269501 237.687195 -783.260315
69.255402 242.432800 -787.173279
69.193100 245.696304 -768.972778
69.158203 250.415894 -767.870300
69.156601 232.987106 -775.476013
69.134003 232.915497 -777.977112
69.106796 236.020599 -782.741028
69.097298 234.742401 -780.712708
69.077103 232.505905 -772.503723
69.066399 120.406898 -749.490417
69.003700 240.092407 -770.314087
68.954803 247.897507 -768.390686
68.952499 254.189697 -767.070801
68.950500 119.489304 -748.548218
68.904800 235.317703 -771.770325
68.904099 237.723297 -770.940308
68.875099 239.610199 -785.416321
68.867699 232.035294 -776.997070
68.831497 228.889008 -772.461975
68.824799 244.292404 -788.892212
68.772499 241.820099 -769.473083
68.755096 230.896393 -773.768127
68.750298 256.195007 -766.564880
68.737900 233.335800 -779.767090
68.716599 121.503098 -743.010498
68.709702 122.361397 -741.841370
68.706100 241.314407 -786.629211
68.694397 235.027206 -781.931091
68.685799 238.336594 -784.473022
68.643303 231.770493 -775.362915
68.642601 123.481697 -752.479126
68.598701 245.542603 -790.207886
68.590202 236.431198 -771.017822
68.578796 231.928299 -778.635620
68.578697 244.257797 -768.985107
68.555397 243.003296 -788.148987
68.519798 252.887299 -766.844421
68.519699 258.840210 -766.140991
68.514702 249.371307 -767.410400
68.514000 229.583099 -773.768188
68.482903 231.234894 -772.289185
68.481903 251.414597 -767.005676
68.455002 233.867004 -771.742004
68.454597 238.845993 -770.034912
68.444801 246.582703 -768.243774
68.420700 230.790604 -777.193787
68.407700 260.358887 -765.434204
68.395103 117.812202 -747.695313
68.361504 233.856598 -781.371887
68.361504 227.519699 -772.231689
68.361099 236.740601 -783.692078
68.344803 122.242798 -751.483582
68.325996 121.034500 -750.656311
68.305603 230.386597 -774.965881
68.256302 240.573502 -769.304016
68.247704 242.979904 -768.882202
68.142097 255.046402 -766.378784
68.136597 119.450500 -749.656128
68.053596 232.083298 -779.896423
68.047401 235.051300 -770.774597
68.045998 240.090698 -786.384277
68.036697 237.251007 -769.950500
68.021202 228.193893 -773.314026
68.018898 245.251602 -768.210327
68.013397 235.376495 -783.176025
68.008797 257.466309 -766.079529
67.992203 229.903595 -772.315308
67.983299 232.530899 -771.601624
67.973000 247.886505 -767.487976
67.959900 238.613602 -785.542786
67.947800 229.843994 -776.395081
67.946404 230.804306 -778.933716
67.929901 241.622101 -787.724487
67.907501 244.437698 -789.840515
67.906502 226.130096 -772.146912
67.811798 229.858002 -777.936707
67.801102 229.042007 -774.775085
67.779800 226.853897 -773.346191
67.752602 234.088898 -782.618286
67.710602 232.683899 -781.103577
67.695503 121.542099 -742.170410
67.692497 118.268303 -748.919373
67.680397 237.439697 -784.910278
67.672997 253.798492 -766.314026
67.656700 241.728699 -768.783020
67.656303 250.249496 -766.753174
67.623802 119.550301 -744.158020
67.610397 228.639999 -771.940674
67.584900 233.546295 -770.685120
67.572403 116.868401 -747.083679
67.557404 239.450104 -769.102295
67.557198 228.743301 -777.116699
67.546501 243.325607 -789.218018
67.528297 256.226501 -765.912476
67.522499 224.719299 -772.160889
67.500900 252.095200 -766.367676
67.469398 231.323898 -771.364319
67.457603 235.855194 -769.885620
67.435097 246.617401 -767.385498
67.417603 243.842499 -768.154175
67.402298 230.972198 -780.189514
67.366997 228.194702 -775.755005
67.333801 238.139801 -769.151001
67.313301 248.926605 -766.842712
67.310997 120.478500 -743.232422
67.287498 227.550095 -774.445923
67.286301 120.164497 -750.704712
67.282700 240.486694 -787.388184
67.280800 225.399902 -773.268677
67.270897 236.139694 -784.197815
67.268600 121.444298 -751.435425
67.194099 229.517807 -779.133118
67.119904 227.155807 -771.853516
67.118896 242.164093 -788.669189
67.110802 232.949402 -782.253906
67.108299 223.360901 -771.981628
67.104897 234.479202 -769.862976
67.079803 239.139099 -786.580017
67.059196 232.273102 -770.516418
67.045898 229.798004 -771.339417
67.045403 227.274399 -776.667419
67.035599 118.972504 -750.195496
67.009300 240.550797 -768.642090
66.983902 228.431198 -778.330811
66.944504 245.190094 -767.387878
66.924599 231.678406 -781.483704
66.903702 117.044296 -748.346924
66.892097 118.446404 -744.587585
66.882103 234.762604 -783.613892
66.867104 226.766006 -775.437622
66.848297 251.020096 -765.948181
66.839600 237.786697 -785.871582
66.833199 253.002396 -765.602783
66.826202 236.741302 -769.140930
66.825500 242.514099 -768.057678
66.817802 224.099304 -773.152100
66.808601 254.412003 -765.517578
66.786499 247.606995 -766.667419
66.699699 226.038498 -774.282715
66.684097 117.782204 -749.699280
66.680099 225.924393 -771.701721
66.678001 221.900299 -771.913513
66.676399 229.662399 -780.388000
66.622299 233.289597 -769.493774
66.575600 230.914398 -770.410522
66.568497 228.581299 -771.078796
66.555298 115.801804 -747.836914
66.502701 227.222900 -778.036682
66.481003 238.928894 -768.469116
66.480103 225.864197 -776.637085
66.476997 235.396606 -769.081909
66.464401 236.263397 -785.242126
66.415100 241.027893 -788.408691
66.381897 228.569794 -779.612427
66.378098 249.699203 -765.976929
66.373497 222.829193 -772.955688
66.347603 233.542099 -783.252930
66.343201 243.923096 -767.271301
66.334198 246.328293 -766.621521
66.318802 119.370499 -743.737122
66.309402 224.641006 -774.327209
66.307503 224.423492 -771.746582
66.286598 239.388794 -787.653870
66.283699 230.493103 -781.508484
66.281601 120.569199 -751.501221
66.211998 220.588806 -771.648376
66.126801 241.174393 -767.874023
66.111702 232.080597 -782.559204
66.096199 229.691803 -770.380493
66.088898 235.103699 -784.641418
66.072899 251.849701 -765.204407
66.031998 225.949295 -777.903687
66.028099 120.447998 -742.513428
66.025101 231.913101 -769.476807
66.013901 224.577896 -775.722290
66.005402 119.184998 -750.985107
66.003304 238.265305 -786.800720
65.999496 248.364304 -765.942383
65.990997 116.601799 -749.249023
65.986504 226.964096 -771.144409
65.921501 227.352997 -779.325012
65.913498 223.052002 -771.395630
65.899902 237.746002 -768.445984
65.860199 221.531906 -772.900208
65.841301 224.705307 -777.021912
65.819397 244.983704 -766.707214
65.803802 234.194595 -768.874329
65.802696 223.426498 -774.004517
65.736900 242.406998 -767.218323
65.733803 237.134094 -786.181885
65.719498 228.839706 -780.791016
65.707199 117.647102 -744.567383
65.704399 114.646004 -747.995117
65.702499 219.098694 -771.373718
65.691597 253.125000 -764.764526
65.686996 236.385300 -768.399902
65.677002 117.969704 -750.518616
65.670502 239.807007 -767.822876
65.651199 225.504898 -770.910706
65.643898 250.459396 -765.194824
65.643700 228.139603 -770.152283
65.548897 230.427307 -769.434021
65.539101 223.326797 -776.291321
65.538597 247.113907 -765.928772
65.538498 233.951904 -784.285583
65.504204 220.272202 -772.734314
65.465897 221.743698 -771.250793
65.451103 222.146805 -774.037476
65.448402 224.105499 -778.192078
65.430496 240.086197 -788.450012
65.408897 225.975601 -779.172180
65.358200 217.827896 -771.304077
65.349701 118.491402 -743.569214
65.315598 230.732101 -782.434387
65.273697 232.553696 -783.478882
65.262100 235.790100 -785.700012
65.248398 226.809601 -770.060120
65.248100 243.686798 -766.560913
65.247704 227.588593 -780.507385
65.244797 224.116898 -770.875671
65.234802 232.818893 -768.742310
65.220299 222.499496 -775.299011
65.209297 115.505501 -748.873901
65.196297 119.889503 -751.957214
65.157799 116.667503 -750.278992
65.157303 218.843399 -772.548523
65.148903 238.725800 -787.760315
65.105698 221.907394 -776.483398
65.089104 248.973602 -765.099426
65.083000 235.221802 -768.335510
65.042297 220.819107 -773.834106
65.039398 240.937302 -767.149597
65.032097 229.098297 -769.479492
65.027100 229.480499 -782.010925
65.021698 238.681503 -767.637024
64.986504 251.321396 -764.456726
64.983597 220.537598 -771.018982
64.967102 118.588600 -751.529480
64.948303 245.826004 -765.955017
64.937302 222.957901 -777.492981
64.916397 216.447601 -771.033325
64.895798 231.301498 -768.664978
64.884598 221.246002 -775.065491
64.823196 222.758408 -770.625305
64.811501 237.243500 -767.823975
64.802597 114.304199 -747.100586
64.788696 237.403000 -787.124512
64.778503 225.359406 -769.891602
64.752602 116.593399 -744.610107
64.723801 217.086594 -772.237183
64.718803 224.659897 -779.315125
64.710899 226.256805 -780.277710
64.683502 227.786301 -769.220581
64.672302 228.266205 -781.639526
64.664902 234.555603 -785.338318
64.653503 233.975800 -768.140076
64.600800 242.101898 -766.580627
64.598396 247.750702 -765.070313
64.598099 113.584297 -748.179871
64.562500 233.077896 -784.472412
64.554604 231.401199 -783.472412
64.549797 117.362900 -751.251587
64.535500 219.867294 -774.671692
64.534103 250.066406 -764.549500
64.495499 219.226700 -770.824280
64.488403 115.505600 -749.975525
64.474701 215.075897 -770.877014
64.450500 239.692505 -766.969971
64.448898 220.377197 -775.958618
64.440598 224.029999 -769.812927
64.402802 221.029999 -777.501526
64.402298 117.533600 -743.439026
64.401299 244.546997 -765.906311
64.379700 223.427795 -778.588806
64.374702 229.924194 -768.696411
64.371803 219.174500 -773.560181
64.352402 236.167297 -786.579712
64.322800 221.533600 -770.365479
64.321503 227.009995 -781.280518
64.312103 226.474503 -769.138916
64.249397 239.342407 -788.688721
64.241699 230.067200 -782.910278
64.175499 217.573303 -770.718628
64.164497 236.059906 -767.754578
64.162300 232.315903 -768.164917
64.138000 213.767593 -770.729675
64.112900 246.363693 -765.005615
64.044701 248.815704 -764.267029
64.044197 225.050995 -780.401428
64.042397 219.773605 -777.263123
64.034203 215.389694 -772.096497
64.031502 115.219398 -745.229370
64.021599 243.228104 -766.034180
64.010101 238.045700 -788.031189
64.009003 219.139694 -775.671570
64.007401 118.039497 -752.238098
64.000000 217.894302 -773.340881
63.978600 114.179604 -749.449524
63.955502 220.269501 -770.112183
63.945301 116.189301 -751.064514
63.936100 112.868103 -747.143921
63.932999 237.917007 -767.079712
63.916500 222.648300 -769.571228
63.889301 222.197495 -778.570923
63.886101 228.709900 -768.473083
63.884102 240.885895 -766.466370
63.877800 228.711105 -782.631287
63.860401 225.006302 -768.949585
63.830200 218.243393 -774.635925
63.804001 223.824799 -779.897217
63.782398 234.981598 -786.247192
63.766899 231.940994 -784.445374
63.754902 216.559204 -772.968811
63.706902 216.142593 -770.477112
63.665699 230.875397 -768.130127
63.654900 234.765594 -767.611511
63.654499 212.132401 -770.443115
63.654499 116.015602 -744.177612
63.614601 225.877808 -781.397827
63.590900 233.298706 -785.346680
63.588001 236.873093 -787.580383
63.548801 227.346802 -768.402527
63.543900 214.104996 -772.005920
63.519199 112.138000 -748.224792
63.514999 116.752998 -752.207581
63.513802 218.540497 -770.033630
63.501099 114.801498 -750.511719
63.462101 217.389999 -775.789001
63.458401 223.738693 -768.807373
63.457600 216.979599 -774.230713
63.450199 221.202606 -769.301880
63.446602 230.419205 -783.934814
63.431499 245.018204 -765.069275
63.430099 247.397598 -764.321228
63.405800 227.479599 -782.461182
63.395500 218.663101 -776.769775
63.355499 220.491302 -778.123230
63.351898 212.785904 -771.699524
63.317799 233.305298 -767.729370
63.317699 215.265106 -773.290283
63.316399 116.894501 -742.950500
63.298698 113.993401 -745.920227
63.284901 239.203094 -766.489075
63.271900 236.604996 -766.951904
63.259602 241.903305 -765.899780
63.250198 210.607300 -770.309509
63.249298 214.863907 -770.316223
63.192200 113.167099 -749.146118
63.146500 224.355499 -781.096191
63.139702 222.213303 -779.646973
63.133301 217.276596 -769.944824
63.104301 229.088104 -783.633118
63.080399 235.705597 -787.250122
63.059299 219.952301 -769.117981
63.051498 215.756393 -774.477722
63.049801 115.542999 -751.782593
63.047401 229.584595 -767.936096
63.028198 225.791306 -768.268005
63.018600 211.475800 -771.554688
62.967899 243.540497 -765.230591
62.961700 209.587006 -771.244324
62.955601 222.233002 -768.578125
62.950298 231.977997 -767.562805
62.936501 213.297394 -770.398499
62.936199 219.225204 -777.928223
62.914398 223.122498 -780.565918
62.912399 114.926003 -744.591492
62.820301 111.687599 -747.185181
62.814999 234.039597 -786.427917
62.812099 220.751801 -779.294006
62.807800 246.033096 -764.515198
62.798801 217.401993 -776.931030
62.796700 226.221695 -782.520386
62.778198 232.126205 -785.309570
62.772701 215.808594 -776.549011
62.753601 208.732300 -770.113525
62.715599 214.323303 -773.987122
62.712601 237.987106 -766.410522
62.703899 228.223495 -767.682129
62.701302 218.541595 -769.002014
62.689499 113.494301 -750.396912
62.685001 235.289993 -766.869873
62.671299 213.393906 -772.695679
62.651001 240.440903 -766.120911
62.598801 230.838394 -784.883911
62.592999 227.690002 -783.468872
62.586899 115.670601 -743.312927
62.564999 214.945908 -775.384827
62.555698 215.813507 -769.522217
62.540199 224.476196 -768.088501
62.534901 207.559097 -770.935303
62.502701 112.863197 -746.036377
62.481499 225.003998 -782.086670
62.479099 211.601898 -769.924500
62.443600 114.408997 -751.440491
62.432598 230.743195 -767.509888
62.424999 226.941193 -767.845825
62.398300 234.009796 -766.922729
62.377300 111.100800 -748.375671
62.327801 219.542603 -779.080688
62.313801 112.219803 -749.385315
62.298100 220.645401 -768.221130
62.287201 229.505997 -784.585571
62.284100 212.136597 -772.664307
62.282600 115.105400 -752.766479
62.272099 218.094696 -778.058289
62.266701 223.161499 -767.946472
62.266399 244.625305 -764.580872
62.263599 214.365402 -769.539429
62.254501 221.457901 -780.262573
62.254002 216.940094 -768.800781
62.229099 206.485504 -769.792480
62.226299 213.152802 -774.373230
62.215302 223.593307 -781.674011
62.178902 210.466797 -771.829529
62.138302 210.143997 -769.723389
62.104099 242.254593 -765.262817
62.100601 232.865997 -786.361206
62.071400 113.625603 -745.057800
62.059799 216.293701 -777.539307
62.049400 239.275406 -765.970581
62.046902 236.557404 -766.410706
61.997299 219.250900 -768.151978
61.997200 110.380501 -747.288025
61.995800 214.303696 -776.408813
61.968899 232.729202 -767.012512
61.958199 208.724899 -771.390015
61.956402 235.057602 -787.494690
61.953400 226.040802 -783.547729
61.932899 212.810196 -769.483887
61.928101 211.887207 -773.962585
61.921799 222.234406 -781.266785
61.881199 228.229095 -784.429504
61.878799 221.879501 -767.876587
61.871700 229.244904 -767.335022
61.826599 225.519196 -767.665527
61.823898 215.220993 -768.610229
61.802200 112.463600 -750.583008
61.802101 113.771103 -752.408813
61.799198 208.045303 -769.515198
61.798401 114.595001 -743.937378
61.789501 231.440002 -785.885925
61.778099 213.054001 -775.614380
61.770802 205.198502 -769.459778
61.729000 220.087799 -780.266479
61.701302 240.984299 -765.352112
61.686199 210.655304 -773.046814
61.683498 218.346802 -779.201477
61.668098 243.430298 -764.606628
61.596199 204.038895 -770.434692
61.552898 206.697006 -771.046875
61.524899 217.669998 -767.916321
61.520100 224.626495 -782.997681
61.508598 217.127304 -778.716370
61.494202 213.837204 -768.566406
61.493099 211.729095 -775.244629
61.485199 111.347099 -746.443115
61.484901 231.491806 -766.962219
61.473900 227.780899 -767.446899
61.472099 235.121094 -766.240112
61.453602 237.756607 -766.028870
61.433899 111.213799 -749.843872
61.426899 230.045105 -785.476624
61.423199 215.123398 -777.574219
61.420502 209.536896 -772.395386
61.414299 109.616302 -748.263489
61.383801 211.314804 -769.168823
61.379700 233.870407 -787.300903
61.373798 203.479095 -769.256287
61.356800 205.375107 -770.692688
61.339699 210.586594 -774.573975
61.284100 220.939301 -781.172180
61.273300 227.049698 -784.391296
61.240799 220.213303 -767.509888
61.232601 112.716400 -751.854980
61.228199 223.417892 -782.538025
61.221298 216.239304 -767.806519
61.182201 112.250298 -745.481812
61.171799 233.837601 -766.491821
61.160999 213.185501 -776.790771
61.158100 202.015793 -770.193115
61.153900 212.393906 -768.440308
61.150501 207.720505 -771.788391
61.145599 223.903900 -767.507080
61.128502 209.212601 -769.290100
61.081299 206.659698 -769.148071
61.067902 209.331207 -774.099670
61.052200 226.504593 -767.245972
61.038898 218.879501 -780.319092
61.008701 230.150299 -766.910889
60.992802 208.450897 -773.127991
60.991600 232.260300 -786.751526
60.951000 228.829193 -785.302307
60.948200 242.121994 -764.641174
60.933399 214.720001 -767.689087
60.931499 215.914795 -778.685913
60.920700 218.848206 -767.497925
60.896099 222.047607 -782.106506
60.893700 225.310104 -783.990112
60.893101 238.881500 -765.483826
60.870998 201.248001 -768.906982
60.870800 211.875397 -776.436279
60.852299 108.646103 -747.541626
60.828602 217.524796 -779.795227
60.815701 111.610603 -751.119629
60.798401 222.567902 -767.325928
60.783100 214.009293 -777.835327
60.782600 113.120598 -744.478577
60.775101 236.341400 -766.057495
60.738701 209.005798 -775.477112
60.725300 210.295197 -775.723022
60.697201 228.788895 -766.947021
60.695301 206.005402 -772.062927
60.690102 232.482803 -766.489685
60.684200 109.900902 -746.978882
60.670799 207.175293 -773.030518
60.617199 240.254700 -765.230286
60.606800 111.988098 -752.852417
60.601002 204.926407 -768.929871
60.592499 199.741394 -768.697083
60.584801 210.745804 -768.242920
60.580200 110.267197 -750.154724
60.557701 230.690094 -786.317871
60.554600 213.387604 -767.575012
60.545399 200.359406 -769.901184
60.519798 208.091904 -768.902222
60.515499 224.020203 -783.613586
60.508999 203.241501 -770.722595
60.508598 219.815994 -781.301025
60.479599 204.488297 -771.193298
60.447399 207.608795 -775.079590
60.426899 217.263107 -767.247925
60.419201 224.987793 -767.110291
60.375198 202.478500 -768.736023
60.373901 221.226501 -767.216125
60.345901 227.640900 -785.215820
60.327499 212.610596 -777.673096
60.308102 109.148201 -748.828796
60.287701 227.535797 -766.840698
60.287601 222.674896 -783.255981
60.284100 209.246399 -768.198486
60.278801 214.825195 -779.073486
60.267799 198.772598 -769.680725
60.240200 226.175003 -784.746094
60.199799 220.867706 -782.152283
60.191799 197.463394 -769.404480
60.187801 206.083496 -773.593323
60.180801 210.808105 -776.897522
60.179100 211.890198 -767.468323
60.170300 237.544907 -765.628784
60.165600 235.116898 -766.091125
60.131500 215.947098 -779.756775
60.121201 110.541603 -745.945679
60.120602 219.722794 -766.934082
60.116299 215.721298 -767.058716
60.108200 230.932999 -766.296570
60.087700 110.883797 -752.287476
60.086800 218.242905 -780.971497
60.069302 204.972702 -772.695679
60.061001 206.295700 -774.922119
60.022900 198.380203 -768.250122
60.004902 206.847595 -768.364807
60.004799 202.029495 -770.821777
59.996201 229.446594 -786.063171
59.965302 111.586998 -745.067688
59.959801 209.515900 -776.520691
59.930901 213.436707 -778.677185
59.914501 233.562897 -766.223816
59.910999 223.779999 -766.952026
59.895100 107.841003 -748.519714
59.845501 203.527100 -771.829773
59.809502 203.963303 -768.519287
59.799900 110.053802 -751.296875
59.786098 226.253403 -766.814026
59.780201 218.431198 -766.977783
59.779900 196.887604 -768.292175
59.779301 224.774399 -784.451782
59.770500 204.848099 -774.474609
59.737999 210.199905 -767.321594
59.727600 208.086197 -767.744873
59.698502 214.214005 -766.909180
59.692402 108.667297 -746.927002
59.680500 200.627701 -768.377502
59.672001 113.061203 -743.630920
59.669498 208.159195 -776.222229
59.661999 229.423996 -766.447327
59.659302 216.973495 -780.802429
59.655201 109.075699 -749.987488
59.651501 211.539597 -778.020386
59.636902 195.958099 -769.226074
59.613998 221.534805 -783.127686
59.612598 239.232803 -765.081482
59.567101 204.002701 -773.421509
59.563400 219.228302 -782.065125
59.540699 106.998703 -747.424622
59.517502 236.223495 -765.673279
59.508598 212.892395 -766.813477
59.503101 222.511093 -766.900696
59.501701 199.626099 -770.367920
59.486900 205.363907 -768.119324
59.473801 194.961304 -768.052429
59.439400 232.316895 -766.064697
59.400002 202.164703 -771.978210
59.373299 223.444901 -784.025024
59.347401 202.883499 -774.497498
59.344398 214.200806 -779.749329
59.338299 200.876007 -771.070007
59.302898 206.841293 -776.057678
59.297100 109.902702 -752.666687
59.295799 209.870102 -777.640686
59.282902 193.519394 -768.972290
59.281601 201.892502 -768.268616
59.273300 216.814499 -766.756470
59.217602 202.618805 -773.205872
59.209000 206.698807 -767.328308
59.206501 220.679901 -766.840576
59.192402 198.053497 -770.101074
59.191399 224.844894 -766.623413
59.188801 109.475899 -745.957703
59.185902 228.097107 -766.404297
59.184898 227.074097 -785.499084
59.170300 228.317795 -785.921997
59.165001 215.339005 -780.476074
59.146702 108.880997 -751.390625
59.107601 205.571793 -775.482300
59.100700 220.303604 -782.887024
59.099098 217.922501 -781.834412
59.094101 212.463104 -779.023987
59.076801 107.922897 -749.639587
59.051201 199.380798 -768.214722
59.022400 238.074905 -765.268921
59.020802 193.652405 -767.694885
59.004501 208.708099 -766.700806
58.962502 215.268005 -766.612915
58.948002 225.750702 -785.095886
58.940899 200.862793 -772.346313
58.937599 106.769897 -748.592773
58.928799 211.019104 -766.592285
58.909100 203.492905 -767.654175
58.908798 111.777100 -744.170776
58.905499 234.965607 -765.732788
58.902599 110.621101 -745.214417
58.872799 194.768799 -769.356506
58.871601 196.702896 -770.427429
58.862301 204.159393 -775.263123
58.856300 197.813202 -767.883118
58.837101 196.251694 -767.638489
58.825901 208.646805 -777.554077
58.824200 219.361404 -766.743530
58.823399 191.669800 -767.694092
58.803200 230.789307 -766.282227
58.802399 105.890800 -747.581116
58.800201 199.611404 -771.537170
58.741100 222.187805 -783.871521
58.739601 210.714905 -778.558105
58.727001 226.853806 -766.184326
58.721500 205.017303 -767.068115
58.715000 201.579803 -773.848572
58.623100 223.586502 -766.539795
58.621899 108.701401 -752.779419
58.610600 216.531601 -781.488770
58.581001 233.475006 -765.918030
58.578400 207.360306 -777.137085
58.565800 200.958603 -767.652710
58.553699 192.437897 -768.779114
58.496399 224.482697 -784.772705
58.482498 276.380188 -798.196594
58.480202 108.362801 -746.108704
58.469898 202.275299 -767.290283
58.461700 189.196701 -768.248596
58.451000 190.254593 -767.401672
58.430901 199.749207 -772.945374
58.425301 214.121002 -766.259277
58.417999 207.386398 -766.403503
58.413898 213.218796 -780.041382
58.412601 274.528809 -797.762024
58.408699 219.045898 -782.793823
58.407001 206.036499 -776.614380
58.396801 236.879105 -765.450073
58.387001 107.812103 -750.827209
58.377201 198.317200 -771.547424
58.368801 229.182800 -766.337280
58.362400 199.772003 -774.291626
58.351299 212.529907 -766.159607
58.341202 270.704987 -796.919373
58.340900 217.745895 -766.578674
58.308102 202.243301 -775.024475
58.296799 106.949402 -746.949524
58.294899 221.638504 -766.577026
58.283401 272.639191 -797.466980
58.228802 195.122299 -767.360107
58.215000 269.343903 -796.649109
58.205799 220.980698 -783.600830
58.197601 278.539886 -799.174011
58.186100 214.549698 -780.876526
58.172401 190.852493 -768.582275
58.170799 209.472000 -778.490723
58.139801 232.188705 -765.919983
58.138901 195.612106 -770.276978
58.136101 204.689896 -776.370728
58.133099 205.947296 -766.296021
58.131901 211.691696 -779.520996
58.131599 277.645386 -798.194519
58.128899 193.649399 -769.581726
58.125500 199.732803 -767.322510
58.120300 203.855103 -766.586975
58.108898 105.222099 -748.496826
58.098202 192.727402 -767.150818
58.092499 280.168701 -799.488525
58.075699 209.461395 -765.999023
58.070202 223.230301 -784.395813
58.059502 106.555199 -749.628418
58.052799 188.480103 -767.087524
58.046398 107.689697 -752.135315
58.032398 267.988495 -796.355530
58.027699 197.035599 -771.421082
58.001999 216.151901 -766.460876
57.979198 225.306900 -766.289124
57.978901 109.331596 -745.310425
57.969002 198.141602 -772.812317
57.956402 200.987106 -774.755005
57.952499 203.442596 -775.877686
57.951302 287.548004 -801.184387
57.946098 227.549301 -785.487610
57.922600 217.577301 -782.419983
57.913799 271.825500 -796.348999
57.911301 284.852692 -800.637817
57.903801 289.418915 -801.765198
57.888699 273.674408 -796.751526
57.878502 281.694702 -799.768616
57.865200 186.442398 -767.678223
57.836700 111.003601 -744.124573
57.809502 198.200806 -767.156677
57.792900 266.780396 -795.565613
57.785099 207.856094 -778.160522
57.780499 286.183502 -800.838379
57.772499 220.245605 -766.437378
57.766201 211.110901 -765.960388
57.763199 269.247498 -795.379578
57.760502 283.323212 -799.912781
57.744099 291.063599 -801.991577
57.715698 200.982498 -766.578979
57.703300 275.531708 -797.283325
57.685600 227.661407 -766.322693
57.674900 234.364700 -765.468506
57.662998 191.256195 -767.033875
57.640800 215.515793 -781.789124
57.639702 270.739288 -795.640381
57.639702 105.381599 -747.185791
57.633301 106.702797 -751.068604
57.625099 202.535202 -766.206726
57.621498 265.398804 -795.286682
57.621399 206.577896 -777.658081
57.618198 226.099304 -785.128174
57.606998 198.692902 -774.008911
57.589199 196.260498 -767.145325
57.588902 194.387497 -770.550720
57.586201 195.549103 -771.483521
57.577499 193.999603 -767.074219
57.570599 222.764801 -766.280029
57.561298 230.202896 -766.124023
57.561199 187.860504 -768.140991
57.558701 191.830399 -769.395874
57.558601 184.406601 -767.432007
57.557800 267.724609 -794.676575
57.557301 103.946503 -747.803223
57.529701 279.484100 -798.468384
57.522499 196.486496 -772.542480
57.522301 264.831604 -794.074402
57.497601 185.498901 -766.651428
57.482498 276.845612 -797.370728
57.470901 263.333313 -794.140930
57.444199 219.886200 -783.371704
57.441200 266.170990 -794.194702
57.432201 210.141907 -779.405273
57.424000 107.522003 -745.888489
57.423000 205.292603 -777.322205
57.413799 189.726593 -768.900818
57.412899 106.549202 -752.561584
57.409199 189.641098 -766.801270
57.407501 187.183502 -766.692993
57.406799 281.160004 -798.641907
57.376900 222.010498 -784.114624
57.362499 218.658600 -766.401672
57.362301 205.080902 -765.655884
57.356499 262.277802 -793.354126
57.345402 263.948608 -795.325928
57.345100 285.164703 -799.463379
57.334499 224.054199 -766.206421
57.332600 207.873306 -765.831299
57.328899 197.292099 -773.630371
57.324501 201.790894 -775.873108
57.316399 282.553589 -798.921814
57.290901 212.326202 -780.427612
57.287899 105.334099 -749.547424
57.261002 199.865997 -775.039124
57.251999 199.697403 -766.246399
57.239101 192.984497 -770.370178
57.236801 226.413696 -766.298279
57.220100 214.678101 -766.236023
57.215401 213.545807 -780.939026
57.212299 260.738586 -792.823120
57.200699 206.565994 -765.612183
57.186901 224.462097 -784.722778
57.180401 109.855499 -744.281616
57.180000 208.771393 -779.036499
57.167702 233.149002 -765.549194
57.156601 218.601303 -782.997681
57.151699 213.142593 -766.135498
57.147900 203.685104 -765.555176
57.137199 278.422394 -797.711975
57.130600 263.983185 -793.002197
57.104599 183.421906 -766.333374
57.101398 194.295700 -771.824524
57.073002 272.783203 -795.948486
57.071899 203.555603 -776.849670
57.057899 195.391602 -773.368774
57.021702 221.263901 -766.025818
57.020500 261.144989 -794.078979
57.019699 231.502808 -765.905029
57.011299 259.315613 -792.065125
56.986500 274.610504 -796.480103
56.986401 195.223999 -766.581482
56.977901 197.157501 -766.388428
56.965000 262.311615 -794.803284
56.955399 108.655701 -744.836487
56.946499 216.955307 -766.286316
56.914101 185.430298 -767.937012
56.904099 106.264297 -746.340027
56.873699 105.734299 -751.585815
56.863400 209.928406 -765.702576
56.856899 262.162994 -792.104797
56.846600 188.381302 -766.553894
56.839100 257.820313 -791.796326
56.839100 216.701096 -782.441284
56.828899 190.781601 -769.888611
56.822102 268.912109 -794.475098
56.819599 228.624207 -765.941528
56.810101 192.825607 -766.607605
56.799999 198.177307 -774.921021
56.795898 206.931702 -778.637329
56.789501 182.231003 -766.994019
56.789200 211.072693 -780.081970
56.785900 201.288605 -765.636230
56.784401 198.435806 -765.924683
56.765900 259.261505 -793.427429
56.761299 193.033600 -771.666504
56.758400 186.650604 -768.469177
56.749699 205.610001 -778.408630
56.737202 256.256287 -790.763428
56.724400 102.917503 -748.211792
56.696701 276.171600 -796.515503
56.693901 260.856506 -791.511475
56.690601 191.900299 -770.949829
56.690399 214.566498 -781.675415
56.669800 200.620499 -775.937683
56.669601 188.392502 -768.968628
56.666500 181.040497 -766.116089
56.664101 223.162399 -784.301025
56.660301 254.895294 -790.245422
56.655602 211.844193 -765.961487
56.610901 258.873413 -790.867798
56.608501 267.211609 -793.870728
56.606098 194.007095 -773.397827
56.605598 271.502502 -795.236816
56.598801 265.608398 -793.268982
56.590199 225.253601 -766.241516
56.583599 184.660599 -766.153076
56.571899 104.573997 -750.541626
56.563702 196.348999 -774.239197
56.552502 190.807495 -766.417480
56.546200 253.580597 -789.528015
56.541000 186.257507 -766.146118
56.533401 183.485397 -767.630493
56.523201 104.758400 -746.838989
56.500099 219.825394 -766.179688
56.488098 251.759094 -788.119812
56.474400 220.955704 -783.793396
56.468399 202.186096 -776.786682
56.462700 189.480499 -769.807983
56.452099 256.230896 -792.124512
56.450901 250.267395 -787.562683
56.426899 257.911591 -793.129822
56.421799 257.409485 -790.029785
56.414101 204.472000 -777.704529
56.411701 256.205292 -789.212585
56.393799 253.593307 -788.190613
56.387199 202.534897 -765.349426
56.386200 254.923004 -788.746094
56.382301 252.001297 -789.446289
56.372601 105.193901 -752.729187
56.359699 246.848495 -785.622620
56.359299 270.110809 -794.827515
56.344501 245.289001 -785.170410
56.341801 248.588394 -786.892517
56.340900 192.033401 -772.556702
56.330299 254.902603 -791.601929
56.328602 280.110687 -798.072571
56.328300 196.228394 -765.726074
56.320999 250.668503 -788.931824
56.317699 229.896896 -765.833130
56.308899 199.247101 -775.695313
56.300900 244.128296 -784.523682
56.299801 222.439194 -766.137207
56.293201 199.763901 -765.208008
56.284901 253.518600 -790.899170
56.277401 215.594803 -766.097229
56.277100 179.344696 -765.760620
56.266800 190.652802 -771.112915
56.264000 193.907898 -765.950989
56.250401 189.535995 -766.185974
56.246601 103.545898 -749.380493
56.242199 107.597298 -745.162720
56.240101 209.853607 -779.940613
56.238701 218.015594 -765.941223
56.238098 208.640594 -765.652222
56.237099 248.959396 -788.219482
56.235699 263.322693 -792.120972
56.230598 241.633408 -783.392029
56.222900 277.268402 -797.269226
56.214699 248.171295 -785.581116
56.201801 242.921295 -784.018677
56.197498 205.707001 -765.278381
56.195202 260.551605 -795.084106
56.184200 246.725906 -786.924194
56.184200 240.373795 -782.918518
56.177898 235.089294 -779.994873
56.172100 212.665100 -781.093811
56.168900 227.207199 -766.129089
56.162300 249.765503 -786.191101
56.136700 239.039398 -782.511108
56.132301 207.961197 -779.261902
56.126301 182.707108 -765.801575
56.115299 197.449600 -765.202087
56.110401 237.617203 -781.918823
56.108101 273.778687 -795.942505
56.091900 251.304504 -786.707581
56.086601 217.710297 -782.858398
56.085701 219.636093 -783.305115
56.078602 245.244003 -786.466675
56.076900 244.045105 -785.830078
56.072800 177.905106 -765.594177
56.071098 207.328995 -765.517822
56.067101 103.574501 -747.215088
56.063999 213.994095 -766.008911
56.061798 204.324097 -765.171387
56.057201 195.061600 -774.197876
56.050400 180.134293 -766.862305
56.026501 223.779800 -766.218689
56.025799 187.316605 -769.458679
56.021198 235.986801 -781.263977
56.006699 252.763199 -787.204895
56.002899 260.009613 -790.556213
55.993099 242.826004 -785.325623
55.992401 187.470001 -766.032898
55.991901 264.687012 -792.517822
55.961201 184.623093 -768.434570
55.950401 240.675201 -784.252075
55.946301 233.345001 -780.281128
55.944199 104.287697 -751.699585
55.936600 246.984604 -788.421814
55.915298 197.122192 -775.188904
55.896099 232.214005 -779.218323
55.895699 192.482605 -765.664917
55.890900 252.157394 -790.670715
55.890400 189.261993 -771.138428
55.881699 262.127106 -791.205078
55.872200 259.012909 -789.691284
55.869801 259.457794 -794.377930
55.864601 203.279800 -777.602722
55.864498 239.255295 -783.822327
55.863201 105.590401 -745.914124
55.859200 101.557602 -747.539001
55.856098 237.881897 -783.193726
55.855801 234.334793 -781.200928
55.847500 181.454498 -767.533875
55.847301 249.453201 -789.372314
55.844601 215.584503 -782.151489
55.841000 250.812607 -790.164978
55.834499 236.607498 -782.747986
55.830898 186.029907 -769.161316
55.818802 230.307495 -779.184875
55.817902 222.248199 -783.852905
55.811699 176.356995 -765.369812
55.785599 190.534805 -772.381775
55.782299 192.899506 -773.391785
55.750900 231.605194 -780.470276
55.742199 241.535599 -785.426575
55.738899 103.449501 -750.614075
55.729198 228.893097 -778.718811
55.722301 178.608704 -766.716919
55.716999 211.441895 -780.747375
55.713299 268.197601 -794.105896
55.695301 272.417297 -795.512817
55.691299 245.636993 -787.766724
55.688702 234.965698 -782.413696
55.683701 256.659607 -793.171814
55.679600 201.057999 -776.865112
55.676498 221.139099 -765.991272
55.675598 201.367294 -764.937378
55.674702 180.469803 -765.458984
55.673801 210.966904 -765.759705
55.673599 216.764999 -766.022583
55.666100 228.518402 -780.014282
55.641399 224.778595 -775.821472
55.640099 190.555206 -765.479980
55.639900 102.110001 -748.717712
55.639801 198.669998 -764.884827
55.637100 244.148499 -787.099121
55.631100 206.231598 -778.848206
55.606400 230.195908 -780.499878
55.601200 194.842300 -765.165222
55.594002 230.002899 -777.930725
55.581699 228.742798 -777.247925
55.578800 242.898804 -786.602295
55.573002 187.779099 -770.603210
55.570599 227.494995 -778.978027
55.567101 212.597900 -765.888489
55.553501 185.432404 -765.695801
55.551601 266.420898 -793.417114
55.550301 248.130600 -789.028992
55.543800 232.404297 -781.582581
55.536499 255.349701 -792.647888
55.534599 182.650101 -768.162598
55.527000 213.947800 -781.599915
55.521198 188.564301 -765.476013
55.509998 174.905197 -765.089783
55.507999 228.795395 -766.035217
55.503201 195.846298 -775.164917
55.493698 106.437599 -744.913513
55.472301 227.298798 -777.585571
55.465698 226.025696 -778.173096
55.457802 177.113098 -766.437927
55.438301 240.183701 -785.360413
55.435200 198.154999 -775.949402
55.434601 253.755997 -791.928772
55.416599 173.792694 -765.821472
55.410000 199.755203 -776.531128
55.404800 225.856598 -766.198303
55.400799 236.812698 -784.046021
55.393002 233.396606 -782.444824
55.391701 104.292000 -746.214600
55.387798 219.145096 -766.027283
55.376801 257.956512 -793.938477
55.365799 196.135406 -764.837219
55.362499 238.490402 -784.803223
55.359200 103.462799 -752.578003
55.357300 191.479004 -773.354126
55.345901 183.867905 -765.430420
55.340801 209.665100 -765.651123
55.337399 193.582504 -764.853577
55.320702 224.589600 -778.102722
55.317001 193.742401 -774.281128
55.308300 204.890900 -778.447327
55.304401 186.326096 -770.406982
55.302200 225.729401 -776.887817
55.257801 227.270294 -780.684082
55.253799 208.856705 -779.937622
55.252998 189.314697 -772.425476
55.243301 223.418594 -776.799988
55.231400 225.268997 -779.931824
55.217499 181.837601 -765.343201
55.207901 230.745804 -781.801086
55.206200 203.133499 -765.054321
55.205299 186.681305 -765.305786
55.203999 102.413399 -749.947815
55.201000 183.702301 -768.999023
55.195599 178.770599 -765.102478
55.194199 184.978394 -769.754028
55.172901 221.004303 -783.403198
55.157200 235.572403 -783.496826
55.151001 100.430603 -747.823914
55.112900 175.747604 -766.356384
55.101601 102.716698 -746.875916
55.098202 172.964706 -764.755188
55.094002 180.375702 -767.823914
55.089401 188.013000 -771.805603
55.089298 241.669006 -786.630920
55.083900 222.871704 -779.286621
55.074299 214.805206 -765.720886
55.073299 200.204498 -764.814026
55.063000 102.572197 -751.448120
55.060501 206.496796 -765.367371
55.055401 191.914703 -764.751099
55.047901 218.863998 -782.911072
55.039600 222.124207 -776.023621
55.036900 202.141006 -777.658020
55.036201 229.079102 -781.247070
55.030998 222.804199 -766.082520
55.022202 177.328995 -764.823486
55.014900 210.153198 -780.448975
55.013699 171.520599 -765.428223
55.005798 252.464401 -791.600525
55.002102 251.212402 -791.093384
54.989201 208.224503 -765.483826
54.978199 249.771194 -790.418823
54.977901 216.643799 -782.313904
54.976601 197.551895 -764.520203
54.974899 231.955902 -782.768005
54.957802 221.550797 -778.982483
54.956600 207.289093 -779.499878
54.935299 189.592697 -764.833618
54.922199 246.063705 -788.748596
54.916199 220.075607 -778.301819
54.914799 234.193802 -783.532593
54.865002 227.363693 -766.103516
54.863400 217.950806 -765.875122
54.862499 244.623993 -788.081177
54.859200 223.564194 -775.370789
54.844898 212.328506 -781.265991
54.825298 186.739197 -771.596680
54.809200 181.523300 -768.518677
54.804501 101.094704 -748.932922
54.803101 204.757797 -765.159729
54.779999 224.702194 -766.196472
54.768501 197.011902 -775.929382
54.767101 179.031799 -767.655884
54.764099 239.169403 -785.915100
54.756100 187.823395 -764.699585
54.743599 243.209000 -787.567871
54.730598 105.099197 -745.261780
54.722301 194.774307 -775.101013
54.719299 170.499100 -764.394470
54.718399 214.959305 -781.826782
54.716801 190.313599 -773.407593
54.713501 220.320801 -775.864807
54.711300 192.536102 -774.356995
54.703400 240.383102 -786.448120
54.701199 203.460098 -778.265381
54.685001 237.389603 -785.200928
54.670502 184.762207 -770.969604
54.668701 218.110001 -778.070313
54.668201 182.498505 -769.409485
54.666401 247.223404 -789.414978
54.638802 248.560303 -789.990112
54.634102 183.633102 -770.255188
54.617001 185.102203 -764.722717
54.608601 222.222504 -774.691223
54.599300 175.680695 -764.503113
54.590900 101.433701 -747.172424
54.581501 179.959000 -764.920776
54.579201 200.419006 -777.299500
54.575600 216.029800 -765.935486
54.568100 101.668297 -752.472595
54.563999 177.584305 -767.328613
54.560902 168.587204 -764.692810
54.560501 171.904205 -764.202515
54.559399 195.086700 -764.298706
54.552200 236.128098 -784.794800
54.545502 229.608200 -782.400024
54.542000 254.495804 -792.762512
54.530399 255.999100 -793.198975
54.528500 201.979401 -764.768005
54.514599 225.995300 -780.838623
54.500900 227.785095 -781.693481
54.489700 220.616104 -766.257507
54.480000 174.547104 -766.484802
54.472801 190.739304 -764.364075
54.472401 216.770096 -777.518677
54.470600 182.790695 -764.787781
54.460201 198.807098 -776.660583
54.453800 101.474701 -750.825317
54.446800 211.431000 -765.587708
54.437000 213.345001 -765.823975
54.437000 174.152603 -764.437805
54.434399 199.050201 -764.519226
54.428600 224.041504 -780.099487
54.382999 99.168098 -747.785583
54.378101 232.819504 -783.637817
54.375000 192.918793 -764.185425
54.364300 220.047699 -782.742676
54.354801 220.059494 -774.613525
54.325901 172.983398 -766.103271
54.317101 103.509399 -745.901123
54.307899 206.105606 -779.269470
54.283401 180.117096 -768.874695
54.280300 188.520004 -772.952515
54.272999 166.960297 -764.341492
54.257900 176.315094 -767.185974
54.223801 230.806396 -783.104309
54.209301 186.572601 -764.339172
54.206600 181.389297 -764.556702
54.179501 213.464905 -781.280396
54.173500 217.947693 -782.437683
54.166100 185.591904 -771.867676
54.163502 253.246307 -792.318481
54.161400 191.334900 -774.120178
54.158298 180.876404 -770.124573
54.129601 169.992294 -765.461182
54.116901 195.828094 -775.801575
54.109699 222.058304 -779.991577
54.106998 221.888794 -766.294495
54.087601 218.191605 -774.521118
54.081501 225.991196 -766.293579
54.080399 220.562897 -779.569824
54.077099 218.994995 -766.088074
54.069500 219.127899 -778.783020
54.060799 182.459198 -770.593018
54.058201 209.988205 -765.480408
54.056198 193.503998 -775.044617
54.054298 241.861801 -787.442871
54.042198 100.022102 -749.077026
54.041901 165.573502 -764.178528
54.035801 188.907196 -764.089172
54.032902 178.151001 -764.444885
54.029400 234.377197 -784.529480
53.998299 178.125504 -768.674316
53.995899 208.216003 -779.994629
53.987202 211.429001 -780.807373
53.986198 187.044205 -772.559875
53.982101 196.656998 -764.345276
53.958900 215.545395 -777.465271
53.952801 169.438400 -763.808289
53.951000 250.339096 -791.001526
53.913601 251.706802 -791.657410
53.913101 205.756393 -765.265381
53.909199 203.316406 -764.868774
53.903900 183.830597 -771.559814
53.903801 216.979202 -778.756775
53.892799 173.041595 -763.950684
53.888699 207.114304 -765.365784
53.886700 204.841293 -778.922974
53.875999 245.205795 -788.903381
53.875900 238.073898 -786.038879
53.872799 100.232803 -750.395081
53.860699 224.584595 -781.156494
53.858398 215.990295 -781.859070
53.843800 171.731796 -766.101013
53.834400 176.858002 -764.291016
53.834000 167.884598 -763.510376
53.817902 223.235596 -766.381897
53.809502 243.849701 -788.312683
53.805401 201.492798 -777.842285
53.801800 209.664093 -780.349915
53.799702 226.693802 -782.098877
53.796001 163.816803 -763.836609
53.783100 104.323799 -744.755310
53.781200 102.161301 -746.398376
53.780300 100.709999 -751.941895
53.773701 183.688293 -764.046814
53.762299 219.255997 -773.705505
53.756199 200.380600 -764.712830
53.755100 214.488800 -765.940979
53.753101 228.532196 -782.629578
53.736301 197.711700 -776.624512
53.731300 191.786896 -763.875977
53.713600 217.333694 -766.194519
53.697800 197.937897 -764.481628
53.692799 217.246201 -773.363586
53.686401 179.056000 -769.573914
53.686401 100.168602 -747.167297
53.682400 176.874207 -768.261292
53.681099 189.517807 -773.836182
53.678299 239.486893 -786.636475
53.668900 223.023499 -780.767578
53.649200 208.746704 -765.366272
53.640499 175.158600 -767.486328
53.628399 171.104202 -763.666077
53.627899 179.836395 -763.942322
53.611099 185.231903 -763.753418
53.603199 187.638794 -763.792297
53.594002 98.059196 -747.809021
53.578701 249.073807 -790.588013
53.562698 173.649994 -766.967529
53.558998 247.647400 -789.990295
53.558300 213.862595 -777.398315
53.529701 167.890198 -765.122498
53.529598 166.433395 -763.238281
53.523899 164.915604 -763.149170
53.517799 199.515198 -777.246521
53.514500 246.424896 -789.456604
53.501598 231.819397 -783.902527
53.488400 236.509598 -785.533813
53.486801 175.194305 -763.995117
53.479599 182.319702 -763.808716
53.472698 193.922607 -764.073120
53.468399 192.343903 -774.859009
53.467098 214.631302 -781.616516
53.452000 162.216507 -763.585022
53.433201 190.101501 -763.770874
53.417900 202.894608 -778.396484
53.395500 212.233002 -765.819824
53.372299 194.604797 -775.691406
53.362000 240.762207 -787.193115
53.339699 207.068298 -779.633972
53.308601 181.423294 -771.157471
53.292801 98.942299 -749.201904
53.284698 218.145905 -779.153503
53.268101 184.791702 -772.431396
53.261398 177.344193 -769.508301
53.255199 187.769302 -773.398621
53.254002 215.951996 -766.209900
53.247601 180.038605 -770.693420
53.245800 220.091202 -766.457581
53.243599 233.310806 -784.319519
53.242802 182.676697 -771.620422
53.237598 99.449203 -751.320129
53.226200 229.585495 -783.214172
53.219101 103.087303 -745.215881
53.215401 195.322601 -764.077087
53.209499 166.261002 -764.926575
53.207802 201.821304 -764.887024
53.207298 169.069504 -765.753418
53.127102 170.651596 -766.290405
53.126301 159.664398 -763.079529
53.125599 181.034195 -763.307129
53.124100 175.662903 -768.647583
53.116901 178.440308 -763.539917
53.116100 215.428406 -772.883484
53.109501 225.524399 -781.726379
53.102100 212.484894 -780.775818
53.098999 190.566101 -774.483704
53.090599 212.591202 -777.332825
53.084400 242.586197 -787.974182
53.082401 163.259399 -762.828674
53.066898 174.020599 -763.516479
53.065899 235.070694 -785.088074
53.065201 172.278503 -767.043579
53.064301 161.041306 -762.560425
53.063499 164.769501 -764.564087
53.054600 215.363800 -778.492004
53.054199 221.304306 -780.252625
53.045399 219.425903 -779.632080
53.041000 199.289001 -764.474487
53.034599 186.281494 -773.042786
53.030800 196.604294 -776.487427
52.989799 101.093498 -746.372375
52.989300 205.823807 -779.241882
52.978600 176.303299 -763.405579
52.965199 204.768600 -765.182495
52.955002 253.140701 -791.757019
52.942299 251.298798 -790.802612
52.941601 174.267197 -768.164001
52.936199 210.627106 -765.796509
52.897099 178.515701 -770.492310
52.894001 221.413101 -766.545227
52.887100 168.932404 -763.171021
52.878300 218.382294 -766.282471
52.831299 227.494797 -782.544128
52.831200 99.172600 -747.043823
52.829498 210.555603 -780.286316
52.828201 97.028198 -748.114014
52.819099 172.523300 -763.306824
52.812801 188.752396 -763.513123
52.802700 184.171005 -763.301025
52.780998 200.538101 -777.665527
52.772099 223.809998 -781.366516
52.752701 230.782700 -783.567688
52.749100 193.458405 -775.569824
