92.781601 217.348801 -768.288330
92.742203 218.455902 -771.342712
92.699402 219.350693 -772.741882
92.669403 223.707504 -762.530579
92.597801 215.686295 -767.036011
92.583099 225.868500 -761.346375
92.557503 221.370193 -763.635681
92.489899 214.898499 -765.581909
92.387100 217.311905 -769.845703
92.315697 218.874496 -764.632324
91.996803 219.414505 -774.280518
91.985901 217.963806 -772.611694
91.978302 227.038193 -759.840088
91.945702 216.052002 -768.514587
91.904999 216.922501 -771.340576
91.882401 222.306900 -762.586792
91.808601 214.288406 -766.963318
91.762001 213.005402 -765.905884
91.744499 220.034302 -763.682312
91.730400 224.524704 -761.482483
91.682999 216.303604 -765.546875
91.542603 215.999405 -770.028015
91.328697 217.529007 -764.602173
91.307198 218.005402 -774.049377
91.260803 225.746307 -760.399475
91.231003 216.554398 -772.708496
91.200500 214.677505 -768.388428
90.987900 215.327393 -771.394470
90.959198 220.932007 -762.550903
90.915001 212.892502 -767.277771
90.914803 214.808899 -765.259583
90.897102 211.540894 -766.000671
90.875999 223.071106 -761.612305
90.854202 218.743500 -763.659180
90.806297 214.618393 -769.894775
90.614304 216.532700 -774.614685
90.422302 215.125702 -772.895386
90.387398 216.218002 -764.580811
90.364403 213.419998 -768.941284
90.351196 224.431396 -760.636597
90.253098 213.970901 -771.216797
90.227203 213.085098 -765.374512
90.107101 211.552902 -767.355225
90.035896 219.483597 -762.541016
89.992699 221.784302 -761.565979
89.957100 217.459702 -763.640076
89.949097 214.990097 -774.694702
89.858200 210.364105 -765.866028
89.791603 213.647705 -772.671021
89.737900 212.699997 -770.232910
89.528000 211.912094 -768.763672
89.526802 223.090607 -760.673706
89.412598 214.975693 -764.672974
89.317497 212.464203 -771.707886
89.303596 210.242599 -767.572998
89.299400 213.684601 -774.151123
89.163300 218.174606 -762.506104
89.128998 220.327499 -761.519409
89.075401 208.362396 -766.220093
89.042198 216.213593 -763.261414
89.008598 212.357697 -773.223572
88.961700 211.646194 -765.746704
88.921898 211.350601 -770.354187
88.771500 213.467499 -764.820679
88.770599 221.615005 -760.565125
88.745499 212.151993 -774.771484
88.656898 210.496994 -768.959717
88.617699 211.141205 -772.121887
88.482300 208.783905 -767.611328
88.456299 209.759705 -765.576721
88.364403 214.835800 -763.492676
88.298698 218.995605 -761.424316
88.284203 210.747604 -773.622375
88.193901 207.080505 -766.194885
88.163498 217.065201 -762.086914
88.139702 209.972900 -770.618408
88.069099 220.206100 -760.309570
87.973396 209.732101 -772.417725
87.878998 212.182297 -764.770386
87.861504 209.148605 -768.990112
87.732498 209.487396 -774.696411
87.711899 207.425507 -767.663879
87.635101 215.610397 -762.306885
87.588303 213.509598 -763.751587
87.522102 208.511795 -765.604004
87.505600 205.460693 -766.416870
87.403297 208.795593 -771.320190
87.357903 208.665405 -773.394470
87.325600 218.877701 -759.867371
87.270599 217.726593 -761.004395
87.186501 210.643402 -765.238892
87.165298 207.516296 -774.807373
87.079498 207.998795 -769.749573
86.891296 206.100601 -767.937500
86.875099 207.664795 -772.249084
86.868103 214.063599 -762.390320
86.766602 211.847900 -763.736328
86.725098 207.164597 -765.683472
86.717697 216.155899 -761.123291
86.578796 206.822693 -773.536682
86.493500 217.282501 -759.566772
86.456001 203.524796 -766.617188
86.455002 207.085800 -770.872070
86.426399 205.814697 -774.711792
86.394096 206.533493 -769.373779
86.272102 209.237503 -765.006470
86.257401 204.696198 -767.695801
86.149803 206.237595 -772.135986
86.118202 212.672302 -762.345886
86.116402 214.761597 -760.807312
86.059700 205.654907 -765.769409
85.958298 215.777603 -759.502930
85.933899 210.378006 -763.975281
85.853996 205.266602 -773.342712
85.719803 205.677399 -770.585083
85.684303 204.333694 -774.605530
85.664101 205.142593 -769.125610
85.600800 201.980606 -766.652771
85.501297 211.254395 -762.523071
85.486801 203.375793 -767.956482
85.441498 213.244705 -761.003418
85.400497 207.731705 -765.087280
85.337402 214.339706 -759.503906
85.303596 204.742004 -771.959778
85.245300 204.140305 -765.809875
85.195396 208.980194 -763.920288
85.072502 203.848602 -773.212219
84.947098 204.342407 -770.299377
84.914703 202.979095 -774.577820
84.850304 211.747696 -761.142883
84.840797 200.577499 -766.713074
84.782303 209.817505 -762.666992
84.687103 201.893799 -767.959717
84.684303 212.893005 -759.459412
84.600601 206.286606 -765.356079
84.535698 202.981003 -769.149902
84.514099 203.445496 -771.526672
84.389702 202.804993 -765.885010
84.336502 210.957001 -759.759216
84.299797 207.661697 -763.768616
84.277802 202.488098 -773.095703
84.167999 210.227203 -761.233521
84.071701 201.607300 -774.545898
83.913002 200.488907 -768.022583
83.891800 208.538300 -762.508789
83.868301 202.405701 -770.437500
83.853302 204.856400 -765.541016
83.831802 198.819595 -766.958130
83.736198 209.456100 -759.693787
83.690697 201.355301 -765.982727
83.674698 201.450394 -769.226013
83.673401 206.202194 -764.113281
83.570396 201.745407 -771.919983
83.487801 208.667404 -761.016418
83.302399 201.001099 -773.340515
83.239502 207.042404 -762.753723
83.107399 197.427704 -766.766602
83.063004 200.910400 -770.585388
83.049103 207.471893 -759.790894
83.038300 199.055298 -768.356689
82.993301 199.891602 -766.058777
82.971901 199.999100 -774.537109
82.915398 204.832397 -764.199280
82.854698 203.015793 -765.655823
82.749702 200.357407 -772.022888
82.733902 206.944901 -761.281006
82.611397 205.615997 -762.801086
82.501801 199.635193 -769.696716
82.339203 197.642197 -768.315674
82.321404 205.798996 -759.948181
82.304497 195.981705 -766.859070
82.267799 199.411606 -773.178101
82.170799 198.493301 -766.134216
82.156502 201.235306 -765.699707
82.128403 203.462997 -764.235779
82.081200 199.172195 -771.156921
81.981598 319.666107 -793.429810
81.970802 315.379303 -794.759277
81.967400 205.260498 -761.369324
81.904900 198.666397 -774.507629
81.886200 317.311890 -794.200623
81.875702 313.392487 -795.015320
81.853897 311.445007 -795.613220
81.778397 309.120697 -796.021484
81.771896 204.264999 -762.629028
81.737900 198.120193 -769.732788
81.681900 321.215210 -792.448608
81.648399 204.243607 -760.034729
81.594002 307.598999 -796.348816
81.567902 196.238007 -768.432678
81.554703 323.813904 -791.277283
81.544197 306.071808 -796.769897
81.480499 302.897308 -797.681213
81.476601 300.958710 -798.327087
81.476601 194.296906 -766.955811
81.472099 198.330795 -772.400879
81.467598 202.045303 -764.521484
81.419998 199.874695 -766.041626
81.348999 304.504791 -797.255676
81.296799 299.100494 -799.029297
81.163101 326.423187 -790.010315
81.162598 202.817993 -763.187500
81.116402 296.371796 -800.093628
81.107399 197.416901 -770.972229
81.106003 203.413498 -761.320618
81.036903 197.328705 -766.187317
81.014999 294.868103 -800.561279
80.992897 197.586502 -773.720093
80.939301 322.532990 -792.090698
80.935501 318.538605 -794.064880
80.858597 194.731293 -768.356689
80.834396 200.661499 -764.822571
80.767899 327.945007 -789.447510
80.734100 196.503403 -769.746704
80.706200 314.435913 -795.338318
80.702904 312.528992 -795.720825
80.693001 324.994507 -790.505005
80.689201 292.432587 -801.176086
80.681801 202.191696 -760.300903
80.630898 310.193604 -795.881714
80.607399 196.902100 -772.364075
80.579903 316.088715 -794.901123
80.545403 329.449890 -788.835693
80.534103 201.395706 -763.461121
80.517799 320.186798 -793.086121
80.468803 297.889587 -799.594177
80.468803 192.288193 -767.012024
80.465599 202.106598 -761.895630
80.462303 290.243805 -801.485718
80.380203 195.833801 -766.236816
80.373299 308.571014 -796.576782
80.350800 198.871796 -765.486694
80.309799 330.843506 -788.197876
80.216400 288.240387 -801.633301
80.213898 332.387207 -787.822083
80.212997 195.845093 -771.067017
80.199997 302.127808 -798.267578
80.189697 307.020813 -796.824097
80.140503 193.278793 -768.385620
80.139297 196.403503 -774.434814
80.117104 194.982407 -769.775574
80.116096 193.798294 -766.382385
80.108200 324.084290 -791.808716
80.088997 300.289001 -798.811523
80.088501 303.645111 -797.837280
80.039101 305.470001 -797.323914
79.986298 285.886993 -801.753418
79.919098 333.882385 -787.271729
79.918900 326.369690 -790.990784
79.879402 200.772797 -760.443726
79.850098 293.649597 -800.674988
79.830597 199.767593 -764.013916
79.818901 190.856094 -767.040527
79.793098 317.595001 -794.578918
79.792603 321.574402 -793.123718
79.790901 283.722687 -802.035217
79.779800 336.525604 -786.587524
79.771500 195.674500 -772.840576
79.744598 295.653900 -799.950378
79.735298 200.698807 -762.170898
79.628700 327.998291 -790.516602
79.613297 311.433197 -795.932678
79.580399 282.052887 -802.203918
79.573799 197.447495 -765.560730
79.537102 319.163513 -793.729980
79.491898 338.064392 -785.966797
79.472000 194.393295 -771.134216
79.464104 191.877701 -768.306030
79.421402 330.259888 -789.798706
79.414398 291.443207 -801.155029
79.407700 313.380890 -795.362488
79.374199 193.528900 -769.767212
79.334198 280.505890 -802.496582
79.328903 298.790588 -798.900879
79.303703 315.141113 -795.299622
79.300003 195.073898 -774.262207
79.260803 331.868805 -789.190125
79.248001 323.134094 -792.698181
79.159401 309.574402 -796.302002
79.142502 198.411194 -764.417725
79.133202 333.670502 -788.645508
79.086998 289.287506 -801.175415
79.073502 335.128906 -787.824280
79.067802 339.804108 -785.369812
79.061096 297.264801 -799.299683
79.057404 199.553299 -761.066895
79.053001 199.324402 -762.702820
79.037399 194.252899 -772.642212
79.030403 192.421906 -766.439880
79.027603 278.905304 -802.883972
79.010399 325.223389 -792.045776
78.993301 195.122192 -766.394714
78.922600 287.355804 -801.197815
78.915497 189.079300 -767.155029
78.914200 301.252594 -798.482788
78.806099 307.719208 -796.530579
78.798500 302.770813 -797.900574
78.740097 190.487900 -768.318420
78.709099 193.049698 -771.272583
78.708298 337.466003 -787.243713
78.703400 304.330414 -797.467529
78.688499 292.623108 -800.264282
78.675301 294.327301 -799.905518
78.672501 192.110107 -769.937683
78.646400 316.618500 -794.957397
78.646103 306.132813 -797.166992
78.637802 320.567902 -793.460876
78.621201 277.310211 -803.130371
78.601700 284.989807 -801.705872
78.600304 341.265594 -784.801514
78.581902 327.280396 -791.448181
78.555801 196.313797 -765.264221
78.510002 339.063293 -786.638184
78.502296 329.057587 -790.848877
78.464897 193.748993 -774.203125
78.383698 197.973907 -763.117920
78.379501 318.225098 -794.219788
78.362396 187.432007 -767.547913
78.357201 190.470398 -766.458679
78.318703 283.024811 -801.917480
78.310303 198.183304 -761.023804
78.305496 295.877289 -799.338013
78.289299 275.580292 -803.617310
78.234299 192.779907 -772.814087
78.227699 331.279694 -790.321472
78.227402 332.896210 -789.749329
78.211899 312.076385 -795.653625
78.211800 336.395813 -788.265503
78.186699 299.750610 -798.367371
78.179604 322.037506 -793.091980
78.162498 281.441406 -801.824707
78.147301 291.099915 -800.256714
78.110802 343.146210 -784.159912
78.109200 334.758698 -789.080078
78.087303 193.705399 -766.434875
78.080902 340.765686 -786.211975
78.062698 189.045395 -768.531982
78.019203 314.045593 -795.616516
78.016098 324.186310 -792.812073
78.000397 191.564102 -771.244324
77.982697 190.647598 -769.685486
77.936203 192.254700 -774.376221
77.917503 279.865692 -802.174072
77.870201 298.157898 -798.859070
77.861702 273.884613 -803.890686
77.859901 196.673904 -763.858826
77.851097 288.519897 -800.564514
77.824501 310.434296 -796.271729
77.815903 194.928497 -765.353821
77.738998 342.464386 -785.520020
77.704399 338.502808 -787.898926
77.688698 308.824585 -796.650330
77.660400 325.973602 -792.329102
77.644699 197.108398 -762.051270
77.625397 191.306305 -772.862305
77.622200 286.576385 -800.699524
77.614403 345.727600 -783.573486
77.610298 278.276703 -802.423584
77.592201 319.564514 -794.296997
77.556000 301.813293 -797.950989
77.550003 188.591599 -766.596375
77.498802 339.992310 -787.461975
77.472900 284.036896 -801.000916
77.453796 186.108902 -767.540588
77.452797 272.076996 -804.055786
77.446198 315.669403 -795.265625
77.427803 192.136398 -766.331177
77.414101 303.243011 -797.304810
77.413498 330.144501 -791.100525
77.402901 306.923492 -796.632629
77.367203 344.222290 -785.003418
77.365402 190.691498 -774.327881
77.351097 305.152802 -797.244324
77.350800 190.062607 -770.983215
77.322601 293.127289 -799.621887
77.316002 187.613297 -768.710571
77.308899 276.519989 -802.681519
77.295502 294.681885 -799.123291
77.288002 347.286285 -783.040771
77.273102 328.195007 -791.440979
77.182999 341.707214 -787.093811
77.155296 317.307190 -794.510681
77.154602 296.770599 -798.721130
77.133698 270.534698 -804.166870
77.101402 333.954895 -789.968384
77.072502 320.905090 -793.621216
77.065300 337.269287 -788.886780
77.060303 195.331497 -763.855530
77.053802 189.738998 -772.512817
77.035698 189.058304 -769.834412
77.032303 282.376801 -801.182983
77.010597 275.000793 -802.836670
76.999199 289.686890 -799.858582
76.965698 323.016388 -793.060303
76.960701 332.151611 -790.708618
76.938103 193.573303 -765.304382
76.935898 345.755188 -784.997803
76.915497 189.178604 -774.259827
76.908401 343.814789 -786.438782
76.908302 196.026596 -761.218018
76.887299 312.891296 -795.884827
76.827003 280.656586 -801.262207
76.824097 335.600098 -789.637573
76.793701 269.004791 -804.332520
76.773804 184.737793 -767.789307
76.767502 300.326813 -798.028687
76.763397 348.680298 -782.379395
76.743103 190.352798 -766.430420
76.736099 291.415314 -799.520081
76.694702 273.184814 -803.119507
76.686501 187.133301 -766.637878
76.685997 285.253601 -800.439880
76.662903 347.310211 -784.501770
76.660797 279.048187 -801.469482
76.634201 188.615295 -771.336304
76.599998 324.860413 -792.864319
76.580803 288.032288 -799.766785
76.577003 339.367615 -788.555420
76.566200 188.312302 -772.960083
76.556000 327.124695 -792.369873
76.553497 267.399200 -804.486877
76.547501 186.078293 -768.863220
76.518997 314.355194 -795.164612
76.515900 187.363098 -774.582886
76.513496 298.561798 -798.216614
76.495796 311.247101 -795.961304
76.446999 277.433502 -801.749878
76.428902 187.552399 -770.080872
76.405197 195.017807 -762.357971
76.371002 348.826294 -783.938416
76.343201 309.625305 -796.278687
76.308800 345.612793 -786.481079
76.300903 341.064911 -788.270020
76.289703 318.622009 -794.559814
76.285004 342.819214 -787.717773
76.280701 271.691193 -803.063721
76.279999 314.402496 -873.656982
76.263802 315.453796 -875.931030
76.216301 193.996796 -763.856018
76.212502 285.332703 -843.861206
76.211998 329.295105 -791.700012
76.187698 313.016693 -870.596375
76.167503 283.196411 -842.973877
76.165100 281.623413 -842.275024
76.160301 279.745087 -841.489502
76.157303 185.834900 -774.366089
76.156197 318.108612 -881.917480
76.150803 307.879608 -796.413086
76.144501 304.190704 -797.465515
76.141098 350.087708 -782.176880
76.139099 313.606293 -872.070923
76.122803 311.961487 -868.362305
76.120796 310.823303 -866.229187
76.114403 265.894287 -804.789673
76.110497 287.146393 -844.535889
76.109299 192.219406 -765.301086
76.106201 302.384186 -797.767090
76.104301 187.218002 -771.840881
76.102097 283.286499 -800.302612
76.101601 347.088013 -786.041382
76.071999 295.656799 -798.961487
76.067001 275.690613 -801.770325
76.042000 305.965790 -797.023621
76.030701 289.088593 -845.227295
76.021004 185.673096 -766.773926
76.012100 316.072113 -794.812317
76.009201 188.890594 -766.460205
76.008797 183.387299 -767.340820
75.981003 270.057587 -803.192078
75.980003 277.682495 -840.649719
75.962799 348.528992 -785.404724
75.956902 350.342712 -783.877197
75.956398 274.130798 -802.011719
75.936798 293.169800 -798.922180
75.930603 309.462402 -863.809387
75.929497 275.462189 -839.555420
75.908897 338.185608 -789.369629
75.876198 281.570404 -800.427979
75.866798 333.302887 -790.729675
75.866600 321.951599 -793.510376
75.814796 315.743286 -877.920715
75.807999 331.264404 -791.399414
75.795799 291.064911 -845.831299
75.792999 264.203308 -804.878296
75.772400 293.371399 -846.776672
75.766602 316.926910 -880.817627
75.766197 308.537689 -862.168579
75.762100 320.270386 -794.219727
75.745499 184.774002 -769.111511
75.732903 286.687988 -799.911072
75.703903 336.703003 -789.848022
75.689598 267.424988 -832.396484
75.676804 270.143188 -835.708313
75.672501 334.803406 -790.375122
75.670197 351.645508 -783.002075
75.670097 186.285904 -770.606628
75.662399 184.334702 -774.271912
75.648598 268.795197 -834.047607
75.642197 266.178711 -830.735474
75.639999 185.988693 -772.864319
75.634598 323.759308 -793.482971
75.626198 268.096191 -803.387878
75.614403 345.061798 -787.760681
75.611397 290.242096 -799.306824
75.609497 273.272705 -838.247192
75.583000 193.897903 -761.611572
75.582100 316.409393 -879.356812
75.580002 318.269592 -884.044617
75.579399 279.997101 -800.510376
75.576698 307.384613 -860.043274
75.556396 264.741302 -829.132813
75.556396 297.323486 -798.583374
75.549103 272.614685 -801.952576
75.546600 350.030792 -785.529907
75.492104 263.676208 -827.955322
75.477798 351.885498 -784.669800
75.466003 190.795593 -765.518188
75.450798 352.107788 -781.441528
75.448997 295.254791 -847.540771
75.446503 340.108307 -789.319580
75.441597 319.095886 -885.904907
75.440102 278.244812 -800.697327
75.435799 192.661499 -763.971191
75.414101 326.110901 -792.769226
75.405899 181.686096 -767.747375
75.395699 312.253693 -795.466614
75.394501 342.214813 -788.846191
75.394302 348.400604 -786.885925
75.381104 306.481506 -858.374512
75.377701 284.639191 -799.718018
75.375298 319.945587 -887.393799
75.369400 262.396088 -826.449707
75.366699 300.965515 -797.755188
75.338402 353.182190 -783.312927
75.330101 346.695313 -787.372925
75.323097 328.129913 -792.392517
75.319397 320.847809 -888.876099
75.316803 262.576385 -805.032104
75.289703 261.084503 -825.127319
75.285599 271.068787 -802.013977
75.282799 266.259308 -803.516785
75.282303 314.553101 -875.072815
75.246696 312.065186 -869.691223
75.241699 276.700897 -800.754822
75.223198 271.198700 -836.858582
75.210197 291.684998 -798.821289
75.202103 317.495789 -794.489685
75.188599 183.316696 -768.926819
75.163902 299.316589 -797.762085
75.162903 322.493713 -890.918518
75.161697 182.822006 -774.176514
75.149002 288.322815 -799.059021
75.139999 185.207397 -771.609619
75.133400 187.480301 -766.528076
75.132301 297.118500 -848.303101
75.131897 354.718689 -783.807678
75.123802 343.979492 -788.771729
75.114304 259.823090 -823.979187
75.085999 325.184601 -893.707825
75.080498 274.777496 -800.876709
75.076401 353.223602 -785.366028
75.073799 351.562592 -786.167603
75.067299 294.446106 -798.673218
75.052101 309.936615 -865.498413
75.042900 310.351807 -795.767578
75.042198 269.184906 -802.243225
75.017303 314.882690 -794.935425
75.015297 353.661194 -781.754395
75.014297 349.984589 -787.059692
74.986198 304.744690 -855.255981
74.983002 184.233093 -772.848877
74.979897 184.464005 -766.754211
74.963097 310.899292 -867.259521
74.953201 323.987091 -892.478821
74.937500 313.587708 -873.111816
74.928398 278.664703 -841.311829
74.918297 264.645386 -803.674072
74.906799 356.277802 -783.681885
74.891800 308.827698 -796.075378
74.885803 328.373108 -896.383911
74.874802 355.182190 -782.221191
74.865601 192.791504 -762.465210
74.863602 260.871887 -805.128296
74.862198 303.031006 -797.068176
74.858101 276.441986 -840.242310
74.848099 184.203705 -770.257324
74.833504 284.583496 -843.860413
74.827499 330.096405 -791.703125
74.824799 326.854004 -895.073914
74.822197 347.903412 -788.239502
74.815002 329.656311 -897.420288
74.807701 354.937286 -785.326294
74.804199 307.022186 -796.626709
74.797997 315.353790 -876.518188
74.790802 352.875092 -786.994019
74.781502 287.955688 -845.073730
74.775803 312.955994 -871.421387
74.774399 304.849915 -797.089783
74.769798 282.488007 -799.664612
74.768600 346.269012 -788.814819
74.765900 280.851715 -842.322083
74.764900 298.509796 -848.966125
74.746399 317.917114 -882.753296
74.735603 357.791504 -783.322876
74.734100 338.728485 -790.260071
74.732002 332.568512 -791.576172
74.723602 319.043701 -794.538208
74.723602 189.254700 -765.541016
74.716599 300.108490 -849.765015
74.714104 191.284500 -764.244995
74.710602 267.469513 -802.153198
74.694199 351.460602 -787.681030
74.683701 356.796204 -782.125610
74.683296 291.896606 -846.556824
74.671898 354.622314 -787.457214
74.670998 305.452606 -857.251770
74.670998 356.687012 -785.170715
74.664703 181.340607 -774.264526
74.651802 352.854004 -788.582520
74.650299 272.988586 -800.715698
74.648697 258.453400 -822.882874
74.645897 335.931793 -790.848083
74.641899 282.869904 -843.028015
74.638702 356.131104 -786.967712
74.630997 341.219299 -790.052673
74.630600 308.575287 -863.441711
74.626602 349.783813 -788.556885
74.607903 182.895706 -766.841797
74.591904 303.361786 -852.862488
74.575302 307.649597 -861.705688
74.558296 268.411987 -832.996094
74.545403 334.268005 -791.323120
74.539200 301.802094 -851.024170
74.533501 339.394714 -936.762695
74.530197 322.691010 -793.893127
74.525002 342.925903 -789.938721
74.524597 286.487488 -844.590576
74.523399 180.484497 -767.316284
74.521797 186.045898 -766.629028
74.520302 296.231689 -798.049377
74.517197 280.819397 -799.646118
74.516602 339.947815 -933.640320
74.509201 272.358887 -837.629578
74.503304 359.242798 -782.813599
74.501999 357.903198 -786.357178
74.498100 358.331696 -784.759521
74.486397 331.530914 -899.029175
74.484901 324.852112 -793.035217
74.482498 265.708588 -802.287781
74.481400 181.771103 -769.095520
74.478203 321.047699 -793.818726
74.460701 262.738190 -803.672729
74.459297 351.155090 -789.379211
74.454597 348.624298 -789.594788
74.449600 257.003296 -821.682129
74.446098 340.249512 -931.792419
74.441200 269.570404 -834.880371
74.432404 183.472702 -771.612305
74.428802 338.646912 -939.737793
74.428001 285.842987 -799.084229
74.426903 270.039886 -801.060791
74.423698 289.378113 -845.637695
74.416603 293.918793 -847.315186
74.416397 359.475311 -785.816711
74.410797 344.728699 -789.959229
74.405899 274.968597 -839.304321
74.385399 255.516098 -819.995972
74.371201 360.018311 -784.310791
74.369003 318.959290 -884.771729
74.367599 265.457001 -830.134277
74.358200 354.683411 -788.983521
74.356903 313.477112 -795.090698
74.347603 358.137085 -781.304626
74.344002 340.610291 -929.345093
74.325500 266.688293 -831.495117
74.316200 321.820892 -889.680420
74.314201 317.400909 -881.344421
74.310600 316.313202 -878.450928
74.304001 182.474503 -772.914124
74.296204 339.775299 -935.197388
74.286499 259.418213 -805.176025
74.283699 340.714111 -927.673706
74.273903 361.834595 -785.294128
74.261398 360.865295 -782.392822
74.255798 337.445496 -791.006104
74.255501 346.923615 -790.192993
74.244797 338.197601 -941.307922
74.244698 357.538208 -788.005005
74.244400 333.691986 -901.091125
74.239304 277.582611 -799.808472
74.237602 297.856598 -797.838684
74.235603 254.007004 -818.710083
74.201797 263.026306 -827.266785
74.199203 290.167999 -798.593628
74.197800 340.757813 -925.879822
74.192398 349.943512 -790.389282
74.187103 361.727905 -783.690918
74.186096 268.442596 -801.029785
74.184097 293.099915 -798.731018
74.181396 179.832504 -774.049683
74.176399 327.332489 -793.091370
74.176003 316.311005 -794.616028
74.175903 264.125000 -802.364319
74.162399 306.679108 -860.220215
74.160896 275.591614 -799.912415
74.144096 359.746307 -781.279297
74.139000 271.557098 -800.353394
74.138298 311.728485 -868.379028
74.131699 329.035614 -792.825012
74.110802 283.800995 -799.164917
74.097504 337.847595 -942.867920
74.094002 352.615204 -790.030579
74.092903 264.346313 -828.580872
74.090897 363.238098 -784.093079
74.081802 261.117188 -803.767517
74.077499 323.313812 -1005.729980
74.072800 340.868286 -923.809326
74.068398 324.994202 -1003.752686
74.066498 182.836502 -770.232483
74.052597 279.336304 -799.617126
74.049301 319.685394 -886.375122
74.041496 321.590393 -1008.059692
74.040298 303.762085 -854.479919
74.035896 270.621796 -835.946228
74.025703 191.359604 -762.858215
74.018600 362.484406 -782.343018
74.013802 295.438202 -848.211487
74.011200 178.647202 -767.784912
74.006401 338.790985 -967.399292
73.999802 339.945313 -790.936401
73.996696 320.363892 -1009.894470
73.996300 320.639587 -887.896912
73.981499 314.327515 -874.145996
73.975304 359.070709 -787.306824
73.963799 348.154602 -791.101929
73.945702 300.223389 -797.366699
73.939201 340.863312 -922.077271
73.938599 338.424896 -965.539978
73.935204 189.932297 -764.362488
73.930496 273.774414 -838.175293
73.923798 326.551788 -1002.335693
73.918503 311.705811 -795.674011
73.912300 323.339691 -891.475098
73.910400 301.770813 -797.112915
73.908600 364.652893 -783.248474
73.905502 316.865112 -879.846375
73.903603 180.330399 -768.903076
73.902000 337.480103 -944.597900
73.898903 266.584595 -801.148804
73.893501 360.710297 -786.741089
73.891502 331.127686 -792.517517
73.891296 287.432709 -798.719177
73.882698 187.897293 -765.674622
73.879898 252.267700 -817.169922
73.878197 313.583313 -1018.523376
73.876602 339.260986 -970.837219
73.875198 334.836212 -902.227783
73.872299 361.250702 -780.911377
73.865799 332.586487 -900.031311
73.865303 261.739807 -826.276428
73.862602 340.680115 -920.299683
73.860199 305.904602 -858.715515
73.851898 315.592285 -1016.856018
73.841400 319.216797 -1012.031677
73.836502 257.613403 -805.348877
73.824898 337.825104 -962.973511
73.823799 318.220306 -1013.677612
73.822197 274.017395 -799.692017
73.821198 339.052795 -938.355103
73.819504 343.737793 -791.082520
73.817001 260.487793 -824.808105
73.813202 309.281311 -864.678101
73.804398 342.037903 -791.154480
73.804298 363.914398 -781.762573
73.796799 345.285614 -791.273621
73.785500 310.372406 -866.285583
73.781197 339.311493 -972.739929
73.776001 290.629089 -846.348816
73.773201 339.049500 -968.911316
73.768799 363.351288 -785.657104
73.763702 312.338013 -870.147827
73.762398 316.961090 -1015.326782
73.758598 309.494385 -1021.151428
73.757401 262.317688 -802.264526
73.749496 181.867493 -771.512573
73.745598 305.458893 -1023.026672
73.744102 327.836395 -1000.983521
73.739700 364.954987 -784.771179
73.736900 329.491394 -999.559814
73.733902 180.947205 -772.947876
73.732498 250.778702 -815.848511
73.732101 297.289490 -848.995422
73.731201 279.730194 -841.872681
73.724701 337.357697 -960.924011
73.722603 340.483398 -918.213074
73.722397 337.114014 -946.438416
73.721298 330.645508 -897.997192
73.720901 302.104004 -852.344727
73.710297 366.109711 -782.523987
73.680298 339.313995 -974.483582
73.678001 317.861115 -794.274475
73.668900 307.183105 -1022.195923
73.668503 337.039093 -959.177124
73.664398 305.975494 -796.333130
73.663597 304.637695 -856.378113
73.654503 325.177887 -893.106323
73.648201 311.008087 -1020.444885
73.648102 259.567200 -803.733582
73.647400 294.945587 -797.982727
73.644798 362.794586 -780.640320
73.640503 178.259705 -774.083496
73.615799 326.354187 -894.207886
73.615799 335.345612 -791.937500
73.615097 340.267487 -916.564026
73.604797 330.561493 -998.266785
73.604301 336.908386 -948.177002
73.599701 336.035187 -903.859314
73.588997 277.341492 -840.601013
73.588203 339.176605 -976.191895
73.575203 365.333588 -781.122375
73.574600 366.802307 -783.972290
73.568497 307.977814 -796.316284
73.567902 309.729004 -795.606689
73.565399 327.836609 -895.466919
73.558998 336.681488 -956.228027
73.552399 312.286713 -1019.480713
73.546501 264.769196 -801.067871
73.535500 249.259796 -814.668274
73.534698 313.337708 -872.396912
73.530502 333.307800 -792.247375
73.527100 303.889496 -797.054077
73.514000 339.067810 -978.211487
73.498497 338.703308 -791.723389
73.496498 181.814804 -766.820618
73.492302 336.664795 -950.912476
73.484100 300.730286 -850.515625
73.483101 332.357513 -996.428528
73.478897 367.894897 -782.807922
73.473000 292.661285 -847.199585
73.470398 336.574707 -953.933777
73.465401 329.223511 -896.788818
73.464203 318.441498 -883.489929
73.458900 269.817108 -799.857971
73.454201 314.811615 -794.737122
73.447502 298.888702 -849.739685
73.447197 324.177094 -793.978088
73.444901 315.829315 -877.163818
73.443100 314.905792 -875.508423
73.435097 319.838287 -794.174011
73.429199 184.801605 -766.568604
73.426300 291.826691 -798.241577
73.421799 283.629700 -843.754883
73.420998 302.111603 -1024.230835
73.419197 281.847992 -799.101807
73.417999 340.053009 -914.501587
73.412697 260.574188 -802.446289
73.411797 346.743408 -791.749084
73.403603 180.910599 -770.251526
73.401299 281.566315 -842.813782
73.386497 322.610687 -1006.930115
73.376404 338.735809 -980.431519
73.365402 307.787811 -862.814575
73.361603 333.634613 -994.633911
73.355797 366.872192 -780.843628
73.353500 334.688904 -993.211121
73.348602 256.107910 -805.385986
73.335098 258.867188 -823.668213
73.334297 268.968994 -833.867188
73.322601 177.225693 -767.789612
73.309898 326.151886 -793.718994
73.292297 186.422897 -765.755920
73.282600 258.015686 -803.831482
73.281998 256.188293 -821.045715
73.259399 271.968414 -836.443726
73.244499 287.620911 -845.366028
73.234299 364.137390 -779.890930
73.219101 340.577087 -930.417114
73.218102 247.922501 -813.335571
73.215897 368.986908 -781.629883
73.215500 340.320496 -932.812622
73.215103 337.175110 -792.137085
73.214798 268.142303 -799.827881
73.213303 288.910400 -798.567078
73.207100 263.070404 -800.977905
73.203102 267.524902 -832.231079
73.200699 178.991104 -769.250977
73.197197 338.316986 -983.260010
73.193802 321.971313 -794.248901
73.181801 300.250397 -1025.022217
73.176003 179.321793 -772.961670
73.172203 276.167114 -839.675293
73.167603 304.071899 -1023.697388
73.149597 337.398499 -905.608582
73.148003 176.685196 -773.923523
73.147202 276.502686 -799.025818
73.146896 272.136414 -799.250610
73.132004 340.686096 -792.042480
73.130302 188.606094 -764.302429
73.130096 190.167404 -762.311890
73.127098 344.126404 -792.432312
73.123398 285.783813 -844.611694
73.105499 285.056213 -798.645386
73.095200 335.952911 -991.075623
73.089401 180.006699 -766.884277
73.065903 254.737900 -819.687683
73.052498 330.153503 -793.435791
73.049301 337.031586 -957.721130
73.049004 369.646790 -783.064514
73.046997 338.813812 -940.478882
73.041199 265.895203 -800.020386
73.039803 339.913086 -912.307373
73.038399 261.371002 -801.119995
73.035301 338.447510 -964.219116
73.034203 339.797699 -936.325806
73.031303 257.713013 -822.642090
73.030701 280.352386 -798.893799
73.025299 180.287399 -771.689270
73.024002 337.964691 -984.782593
73.021896 298.810486 -797.666504
73.021896 296.328888 -797.598816
73.015900 302.977600 -853.557373
73.014503 324.232910 -1005.074707
73.013702 322.644501 -890.166321
73.011902 266.134613 -830.704590
73.010201 258.788788 -802.446716
73.008301 340.135193 -934.340088
73.002403 270.410797 -834.700378
73.000198 321.528503 -888.869385
72.999199 183.291306 -766.741211
72.993401 365.718689 -779.636780
72.984703 306.970703 -861.261230
72.982498 342.452789 -792.421814
72.980400 278.049713 -798.900574
72.980301 317.965210 -882.062683
72.979401 371.028687 -782.241211
72.974800 368.273712 -780.164612
72.972099 298.637695 -1025.703369
72.966797 336.715698 -989.166870
72.965698 340.609314 -928.556213
72.961601 253.217194 -818.258911
72.939796 246.873001 -812.066528
72.938202 310.940002 -867.731628
72.934601 294.086395 -847.749084
72.926598 328.472992 -793.706787
72.923798 256.377686 -803.903381
72.920403 274.790100 -838.875427
72.917198 340.793213 -924.957886
72.914101 331.826508 -898.882813
72.912598 338.658112 -907.560181
72.912399 337.405701 -987.109375
72.901497 296.650085 -1026.365967
72.894302 340.670898 -926.866821
72.892601 254.559097 -805.355225
72.869301 321.320587 -1009.062622
72.854897 293.426392 -797.906982
72.853897 263.554199 -827.843506
72.849998 312.899597 -795.482422
72.845703 305.088898 -857.665222
72.845200 338.466614 -942.025330
72.837700 314.581207 -1017.514282
72.835297 319.926788 -1011.088989
72.832603 289.393707 -846.065430
72.828903 370.005188 -780.519226
72.815102 319.468292 -885.362671
72.812599 264.840515 -829.311584
72.805801 339.057709 -966.433716
72.796097 274.919006 -798.928589
72.775597 311.666809 -869.136719
72.764999 257.225800 -802.565308
72.762497 334.026489 -901.443176
72.760002 325.995514 -1003.243408
72.754303 320.296509 -887.003113
72.751602 331.944885 -793.198730
72.736504 339.684814 -910.658020
72.732498 316.558289 -878.670410
72.725800 316.594391 -795.101013
72.723099 336.834900 -952.276917
72.722702 244.538101 -810.256592
72.721497 338.136292 -943.753784
72.715897 372.908295 -781.660278
72.711899 338.151215 -961.853577
72.708000 259.750214 -801.268982
72.688797 312.893890 -871.163818
72.685097 324.394012 -891.902588
72.683998 264.205414 -799.810913
72.666298 334.645111 -792.942993
72.659698 278.553101 -841.120972
72.650597 303.686890 -855.318481
72.646599 308.488586 -1021.721802
72.645401 296.182800 -848.736511
72.627899 340.490387 -921.266785
72.627602 283.441498 -798.581177
72.612900 340.289307 -919.296814
72.611099 340.669189 -922.935425
72.608398 175.235306 -773.711487
72.597603 314.292389 -873.289307
72.596397 177.820801 -772.946472
72.589699 178.326904 -766.980774
72.583801 306.049408 -859.709106
72.582199 371.707397 -780.563171
72.574699 290.252686 -798.124573
72.570396 308.471893 -864.036926
72.559700 273.279785 -837.622620
72.559097 177.356094 -769.155518
72.557198 317.443115 -880.451721
72.554398 317.496399 -1014.472778
72.542198 331.325104 -997.411316
72.540398 270.529907 -798.770996
72.540001 367.146515 -779.068176
72.538902 251.487900 -816.598877
72.535896 286.630615 -798.301270
72.534897 309.550903 -865.526489
72.528397 179.204102 -770.657593
72.526497 112.119202 -931.343506
72.520302 300.981995 -851.714111
72.517403 311.061096 -795.437500
72.517303 302.479309 -797.028687
72.513901 328.756409 -1000.277710
72.512299 335.206787 -902.881104
72.512100 300.816986 -796.859497
72.511101 318.697388 -1012.962402
72.507103 337.283203 -949.206726
72.502197 175.706100 -768.189270
72.500000 337.795013 -960.015076
72.498497 339.433411 -792.761475
72.493500 315.948914 -1016.172607
72.483597 262.224915 -826.807129
72.482101 258.227692 -800.971313
72.478203 327.347687 -1001.835022
72.473801 260.865814 -825.580811
72.472099 295.145905 -1026.667358
72.469200 255.141907 -803.034912
72.461998 337.808594 -945.838989
72.449097 337.082397 -955.160828
72.444702 262.235596 -799.896729
72.444504 267.001312 -799.009521
72.441704 339.659485 -937.973328
72.437302 339.450195 -969.590088
72.436996 339.471405 -971.472229
72.419098 253.071503 -805.538086
72.416801 318.517487 -795.037781
72.415703 304.573700 -796.198730
72.415497 313.017212 -1018.692017
72.414299 291.531311 -847.125916
72.414101 242.941498 -809.062073
72.401398 374.733093 -780.917786
72.393303 369.265900 -779.060425
72.389297 113.948601 -930.860474
72.382698 187.270203 -764.563110
72.372101 330.227997 -897.254211
72.366997 310.107605 -1020.771179
72.355598 328.745392 -895.803101
72.346901 340.149811 -917.543030
72.346603 326.021606 -893.325684
72.346001 255.934204 -801.572876
72.345398 343.321014 -793.577576
72.332199 188.908096 -762.924072
72.327103 339.768005 -915.817993
72.321999 306.800507 -796.367310
72.317398 339.411896 -967.909912
72.315002 245.655594 -811.330688
72.311996 338.253510 -981.985596
72.311203 339.121887 -908.933594
72.309303 337.656006 -947.662720
72.307297 325.242004 -794.528381
72.306503 335.006409 -992.049316
72.306000 273.312500 -798.633972
72.305603 320.868011 -794.958496
72.302902 341.090515 -793.300903
72.300598 339.363098 -973.713928
72.299301 323.160187 -794.729614
72.298897 373.125305 -779.965027
72.298203 332.976807 -900.217224
72.296303 280.497711 -842.196228
72.295601 282.533295 -843.421997
72.293701 336.245392 -792.988770
72.288696 253.762497 -803.878723
72.286201 329.943115 -998.945374
72.276299 297.449310 -849.775879
72.273399 268.718811 -798.657471
72.272598 332.757202 -995.448608
72.267899 323.555786 -1006.330322
72.249397 327.550903 -894.678772
72.244499 311.479614 -1019.783875
72.241501 284.486786 -844.301880
72.239998 308.814789 -796.019226
72.239197 185.282196 -765.679626
72.234596 336.326385 -904.548096
72.230499 250.162704 -815.442017
72.219803 305.853790 -1023.001526
72.211403 371.309296 -779.086182
72.190598 376.252899 -780.294678
72.177002 315.553192 -876.155579
72.168999 339.696411 -913.641724
72.166397 265.485596 -798.804688
72.158798 173.495697 -773.689880
72.151604 340.509094 -931.654114
72.148201 259.842804 -824.436523
72.147400 314.414001 -795.497925
72.141899 337.791290 -793.213928
72.141197 322.401215 -1007.924622
72.136398 260.406189 -799.792419
72.135101 230.698807 -803.491211
72.133102 293.629486 -1026.902588
72.128098 338.864807 -977.477722
72.114799 268.684387 -832.932495
72.112503 248.783798 -814.141113
72.107697 319.086487 -883.984985
72.106903 241.664902 -808.196472
72.103699 253.858002 -802.236328
72.102097 337.373291 -950.880493
72.101997 339.174286 -975.684326
72.096497 301.456207 -1024.889893
72.091499 271.377014 -835.502075
72.090599 298.753387 -850.595215
72.081001 295.107208 -797.426270
72.073196 314.678192 -874.726074
72.072304 181.196198 -766.838379
72.059601 228.231201 -802.530884
72.059601 225.778397 -801.539429
72.052101 333.866211 -993.729980
72.042801 303.100494 -1024.279175
72.041496 176.871399 -766.936218
72.041000 301.769989 -853.440308
72.037102 338.578705 -979.578491
72.031303 304.218201 -856.669373
72.029800 327.303192 -794.243530
72.023804 251.961502 -804.515686
72.022697 281.496704 -798.500000
72.018700 233.612000 -804.311401
72.017799 235.399002 -805.054077
72.013000 297.789703 -797.077820
71.997200 177.855301 -771.245422
71.988098 256.944305 -800.194275
71.986397 337.517487 -956.685791
71.985901 256.550995 -821.844116
71.982300 255.382507 -820.773071
71.979698 374.990692 -779.392212
71.974800 337.839386 -906.562073
71.962402 339.479614 -939.464172
71.957100 252.391006 -802.959473
71.954102 292.867188 -847.799988
71.950600 267.321198 -831.196716
71.947899 333.214996 -793.858276
71.947403 337.342712 -953.567688
71.943901 323.617798 -890.726013
71.937599 291.971985 -797.720703
71.930199 176.425003 -772.690674
71.927498 377.737213 -779.628418
71.925102 339.223206 -965.135376
71.923698 279.101501 -798.372681
71.921501 325.201508 -1004.354492
71.903900 291.974304 -1027.215820
71.902298 337.877502 -958.439575
71.888100 254.663101 -800.674927
71.884903 253.724701 -819.349609
71.879700 329.761108 -794.383484
71.877899 221.799194 -799.757202
71.870201 263.056305 -798.711121
71.849503 258.888214 -799.551514
71.846603 338.813507 -963.006775
71.837303 307.251587 -862.317322
71.836899 276.955505 -840.036072
71.832603 240.237198 -807.007813
71.822899 258.480408 -823.552917
71.822403 335.876312 -989.863892
71.821098 237.604507 -805.630615
71.819504 340.220093 -935.401489
71.815399 276.828186 -798.291626
71.815300 336.688812 -987.945129
71.815102 252.197601 -817.982788
71.814499 307.239502 -1022.339478
71.811897 173.965698 -767.900391
71.801697 224.277405 -800.829712
71.800697 288.048096 -798.281311
71.799103 286.572906 -845.025818
71.791901 321.204712 -887.824707
71.773102 252.939499 -800.943726
71.764900 331.436401 -794.297180
71.751297 337.729095 -983.492981
71.750000 247.391098 -813.210815
71.747902 250.742096 -805.465027
71.741699 299.822601 -1025.593384
71.729301 340.498810 -929.526978
71.727303 373.092102 -778.490723
71.723396 310.270294 -866.943176
71.721397 337.071411 -986.113220
71.715500 340.369293 -933.482910
71.715401 265.973694 -829.846191
71.711403 183.568497 -765.906128
71.704697 299.483002 -797.152588
71.703300 339.206696 -941.275818
71.699799 297.978912 -1026.330811
71.697098 272.411804 -836.640625
71.686996 284.743988 -798.034912
71.680298 340.447113 -925.916321
71.672203 316.414612 -877.341187
71.660004 322.309387 -889.294189
71.658798 339.006989 -794.066711
71.656197 294.630188 -848.624573
71.654503 269.817810 -834.076782
71.647499 320.887604 -1009.932617
71.646004 313.406006 -872.432678
71.641701 379.187286 -778.974915
71.639702 115.256203 -930.398315
71.627701 176.546402 -770.093811
71.624199 251.438705 -801.691406
71.622803 288.427002 -845.824707
71.611801 339.117493 -911.605530
71.610298 312.323090 -870.200012
71.605103 274.510712 -837.979370
71.604202 338.916412 -943.004395
71.603500 250.505600 -803.727295
71.588699 271.938995 -798.543518
71.587303 376.440796 -778.651001
71.580803 319.417206 -1011.864014
71.575798 340.328613 -924.246826
71.567703 371.050110 -777.682129
71.566803 331.318115 -898.238586
71.560799 171.728806 -773.548218
71.557602 305.202606 -858.648376
71.548599 334.846313 -794.143372
71.548302 232.330795 -803.528320
71.539497 261.138885 -798.543701
71.536903 338.599701 -960.925171
71.535599 320.169312 -885.983887
71.533798 318.050903 -881.447998
71.531197 338.579407 -944.856812
71.510902 187.601303 -763.300293
71.505997 220.125595 -799.098389
71.504799 311.096588 -868.364380
71.500198 113.939499 -929.482117
71.499199 264.247711 -828.555176
71.493301 312.106598 -796.005920
71.492401 340.471008 -927.629395
71.476700 290.050598 -846.506287
71.474998 339.921600 -920.358582
71.470497 306.564514 -860.914185
71.470100 229.724899 -802.294922
71.466904 314.884308 -1016.824280
71.453598 185.960007 -764.523926
71.444099 274.845886 -798.060486
71.438202 331.888306 -996.444580
71.436501 293.691101 -797.238586
71.435402 174.958801 -769.189880
71.428703 174.730301 -772.802490
71.426300 317.058899 -879.369507
71.415604 316.546814 -1015.214722
71.413300 338.298187 -907.950989
71.409798 263.197113 -827.393616
71.407501 296.304596 -1026.854004
71.403702 255.724899 -799.298523
71.401299 381.345306 -778.275391
71.396301 336.786987 -794.132874
71.395897 249.871399 -802.094727
71.395599 315.846497 -795.750427
71.386200 325.257599 -892.212219
71.384499 319.664886 -795.291077
71.383598 310.109985 -795.906372
71.376404 326.646912 -1002.851013
71.372101 289.725403 -1027.551392
71.371597 304.649689 -1023.611023
71.360100 302.852295 -854.923523
71.333000 264.430206 -798.028625
71.329903 243.813995 -809.878174
71.315903 282.862213 -797.921082
71.313103 303.528687 -796.904785
71.309998 339.508911 -966.676392
71.303001 253.725494 -799.580017
71.302597 334.341187 -901.888489
71.302101 267.186890 -797.947083
71.300598 299.937103 -851.448975
71.297997 218.002502 -797.898376
71.297600 251.653000 -800.038208
71.295799 322.130707 -795.390991
71.294197 249.070297 -804.339417
71.293404 179.228806 -767.011597
71.292000 317.977997 -1013.660217
71.287498 340.184998 -922.071777
71.286201 257.470490 -798.779297
71.278801 175.354507 -767.219116
71.277603 338.112793 -948.741089
71.275200 374.907196 -777.994873
71.273499 339.630615 -918.601685
71.270203 339.095398 -914.828918
71.267097 269.778687 -797.934082
71.263000 340.128296 -937.004578
71.259697 317.403290 -795.304321
71.256500 338.049713 -980.827576
71.251602 330.616302 -997.911926
71.250000 328.137512 -1001.006226
71.248199 382.934113 -777.823914
71.245697 339.303711 -972.571228
71.241798 227.206207 -801.690979
71.235298 275.623993 -838.996582
71.230598 289.636414 -797.602295
71.227798 281.576813 -842.654907
71.210999 250.123199 -800.369324
71.207802 377.845612 -777.964172
71.203796 308.892487 -865.001282
71.201500 337.790894 -952.077881
71.198799 305.715515 -796.548523
71.190498 279.125702 -841.241028
71.178299 296.058685 -849.321289
71.177902 261.549500 -826.130981
71.174698 338.783600 -909.989319
71.172096 250.584702 -816.765930
71.171799 338.478699 -946.549072
71.168503 324.216797 -795.284790
71.165199 339.310394 -916.941895
71.162804 172.569901 -767.712830
71.161903 301.620789 -796.746887
71.156097 328.463501 -794.902283
71.152397 335.552795 -903.714478
71.149300 313.668091 -1017.798096
71.146500 223.197998 -799.602112
71.146400 332.265198 -899.424072
71.133301 379.646393 -777.547913
71.130501 259.222687 -798.187500
71.120300 309.201294 -1021.163086
71.113998 248.330307 -802.251099
71.111702 336.729187 -905.882019
71.109200 175.695694 -771.594421
71.103600 296.548187 -796.890991
71.096397 327.028198 -893.728821
71.091698 308.028992 -863.527588
71.088303 329.584412 -896.283020
71.085197 339.455597 -970.713989
71.065300 312.176208 -1019.000183
71.053802 337.938385 -954.801025
71.049698 115.686096 -928.993713
71.045799 334.892914 -990.804810
71.044502 332.839111 -994.350830
71.044502 326.559601 -795.197083
71.043198 318.712891 -882.901917
71.039597 242.173004 -809.293213
71.039001 307.846802 -796.590881
71.038803 384.870697 -777.201782
71.036301 328.532990 -895.001709
71.031403 294.668488 -1027.366943
71.025398 334.122986 -992.230103
71.023201 257.434113 -822.687378
71.023201 238.915802 -806.426086
71.020203 329.071594 -999.775330
71.019997 339.579193 -968.963623
71.018204 248.856094 -815.268677
71.005898 245.925903 -812.303711
70.999397 244.796295 -811.189270
70.993103 286.409088 -797.857788
70.988403 324.464691 -1005.367676
70.976601 323.032288 -1007.063599
70.959099 182.035599 -766.097717
70.955803 240.531006 -808.265381
70.948502 321.814301 -1008.829285
70.946602 310.636505 -1020.255005
70.944901 333.346100 -795.138184
70.937401 184.466797 -764.904175
70.921097 268.152710 -832.068176
70.912598 288.041992 -1027.859009
70.912102 247.931305 -800.759277
70.905296 338.842285 -913.085205
70.903603 283.230286 -843.474487
70.885696 273.206604 -797.918030
70.882202 297.579102 -850.602722
70.878304 280.483093 -798.128479
70.876404 216.372894 -797.218384
70.870003 291.339203 -847.390381
70.868401 338.992798 -974.319214
70.863899 338.434509 -978.524292
70.850197 293.111603 -1027.698853
70.849701 330.495514 -795.316772
70.849403 338.133087 -950.333984
70.847397 285.371796 -844.589417
70.844002 313.649902 -795.937073
70.838097 247.491806 -803.947815
70.836304 278.039886 -797.929321
70.829903 173.004501 -772.932373
70.820503 262.398590 -797.694275
70.819801 337.977997 -794.942871
70.818298 300.250092 -852.926819
70.800301 173.532501 -769.335327
70.797798 338.657013 -959.229492
70.787498 169.282394 -773.510925
70.780502 252.562393 -798.673096
70.767899 339.998413 -938.524292
70.767097 254.574997 -798.324585
70.761497 254.401306 -820.231812
70.760002 246.742401 -801.970581
70.753799 260.396698 -825.170227
70.746902 301.448212 -854.408813
70.745003 304.297211 -857.635986
70.738197 338.554199 -976.809814
70.730400 314.290985 -873.976807
70.727303 315.124603 -875.573914
70.725899 291.266113 -1027.991821
70.718597 302.342285 -1024.669556
70.717102 319.564911 -884.496704
70.715500 335.642914 -988.348083
70.711304 337.520599 -982.213074
70.703697 248.872803 -799.471313
70.697998 271.107697 -834.659912
70.685997 386.795502 -776.674194
70.681801 339.456390 -963.939209
70.677299 336.028107 -795.484009
70.676399 250.709000 -798.927429
70.666702 312.863800 -871.344116
70.659203 306.064514 -1022.864990
70.657799 338.330200 -956.527771
70.652298 336.775696 -984.977478
70.649399 236.122299 -805.432007
70.645103 265.810486 -797.543884
70.629898 340.499512 -931.079590
70.629097 256.159912 -797.921997
70.628304 247.514206 -805.582275
70.626099 303.230194 -856.241577
70.626099 381.018097 -776.965027
70.622803 252.746796 -818.840881
70.619202 177.456100 -767.145508
70.618896 287.972809 -797.268188
70.617897 255.874695 -821.527222
70.613297 215.212708 -796.074097
70.612198 234.167603 -804.744873
70.607002 186.334000 -763.243530
70.605103 291.101715 -797.635010
70.603600 324.388702 -891.083496
70.597702 300.926086 -1025.298950
70.593597 293.501190 -848.345886
70.592796 174.639404 -770.515625
70.591202 323.233002 -889.985779
70.587303 339.238312 -962.197388
70.586998 333.222412 -900.580322
70.580902 273.459106 -837.021606
70.574501 339.817810 -940.161316
70.554199 259.070099 -824.229004
70.546501 320.977386 -886.882690
70.542702 221.395096 -799.038513
70.542099 271.123199 -797.540527
70.540497 247.330704 -814.183777
70.538200 331.963196 -795.741211
70.533302 245.944199 -800.490784
70.519897 228.461105 -802.588623
70.515701 298.117706 -797.426514
70.509697 336.258087 -986.885498
70.504898 286.257599 -1028.202637
70.497902 295.062988 -797.149719
70.497597 269.323792 -833.099487
70.496902 266.694305 -830.754395
70.495300 225.739899 -801.430420
70.491898 325.612305 -1003.907471
70.481598 230.346298 -803.395508
70.481102 117.023399 -929.771423
70.480103 219.608505 -798.053589
