22.399000 79.968903 -745.586426
22.398399 80.223503 -744.569885
22.380600 80.787697 -742.629700
22.375500 82.437599 -740.438477
22.328800 84.244904 -738.486572
22.326700 79.676903 -746.146912
22.306000 83.064102 -739.623413
22.296700 83.757500 -739.203613
22.296400 76.973297 -748.767090
22.252300 80.390602 -745.075317
22.241199 79.383499 -743.838318
22.214701 81.519096 -741.820923
22.207600 79.677696 -747.166016
22.192301 80.128899 -743.813171
22.190500 82.238998 -741.054077
22.150200 80.576302 -743.168274
22.141800 78.868698 -747.972473
22.131901 82.918701 -740.240784
22.131300 79.885201 -746.590698
22.111200 81.219498 -742.361816
22.099800 80.653801 -744.500122
22.093901 77.893097 -748.646606
22.091999 80.479301 -745.608398
22.087999 83.540497 -739.652588
22.072001 78.365799 -748.217407
22.044800 77.557297 -749.141602
22.044001 80.281502 -746.154480
22.040899 81.919899 -741.528687
22.025900 84.569298 -738.154114
21.978399 79.343300 -747.608215
21.953699 80.891197 -745.030579
21.953600 80.703796 -743.997925
21.930201 80.985001 -742.802979
21.897400 82.596802 -740.725830
21.896299 79.928596 -747.611206
21.886400 84.223396 -738.796814
21.876900 81.739899 -742.157471
21.848301 79.387497 -748.140930
21.830700 80.157204 -746.982117
21.803699 80.842903 -745.896179
21.801201 78.377296 -748.775024
21.799101 81.084396 -744.563171
21.790100 80.540100 -746.528992
21.780800 80.602501 -747.485901
21.748301 80.367203 -743.505981
21.739100 81.148697 -745.478271
21.727800 82.356499 -741.320129
21.712500 82.147102 -741.866272
21.709499 80.957802 -743.302185
21.702600 81.569397 -742.693420
21.677799 83.486504 -739.993530
21.656300 84.071602 -739.261292
21.655300 84.926903 -738.252930
21.654499 78.947701 -748.485229
21.607500 80.067001 -748.024719
21.598400 80.736397 -746.979675
21.581800 77.927101 -749.211182
21.572500 81.321098 -745.009521
21.570700 81.287399 -744.070496
21.542900 82.904404 -740.975281
21.538099 79.689102 -748.434387
21.522900 83.170601 -740.432129
21.519300 78.889297 -749.266174
21.516001 81.623901 -744.534973
21.513300 81.290100 -745.987915
21.507000 81.287697 -747.387512
21.483700 82.026199 -742.395996
21.481100 81.130501 -746.634888
21.475000 83.988197 -739.869385
21.452900 84.500298 -738.978821
21.430500 81.446297 -743.159302
21.385401 80.912804 -743.735718
21.368999 81.795898 -745.127808
21.351601 79.400597 -748.903015
21.344000 82.776398 -741.440430
21.326000 81.678299 -746.388489
21.324301 80.566803 -747.827698
21.324100 82.440903 -742.104126
21.315599 80.286499 -748.414612
21.298000 85.296204 -737.904785
21.295900 81.779900 -744.019409
21.293400 81.764000 -745.660217
21.205900 83.618103 -740.273010
21.191299 81.445396 -746.989197
21.187599 84.322502 -739.452087
21.182800 82.018402 -742.880310
21.174999 82.098801 -744.673523
21.154499 79.893600 -748.978882
21.150499 81.095497 -747.717285
21.139900 84.992203 -738.543823
21.099400 82.215103 -745.320374
21.099400 83.390701 -740.765015
21.089300 81.340500 -743.750427
21.059299 81.914497 -746.769775
21.058701 81.753502 -743.427612
21.054600 82.283997 -744.154724
21.048201 82.074303 -746.160217
21.044300 82.738503 -744.438293
21.034901 80.733200 -748.290588
21.018999 83.153198 -741.273926
21.000500 80.554398 -748.887390
20.979500 82.553802 -742.538330
20.978800 84.186798 -739.916016
20.978500 81.611000 -747.460327
20.971800 83.032501 -741.817505
20.941000 85.618301 -738.106384
20.936899 84.925499 -739.042419
20.897499 80.871002 -749.353210
20.896700 82.608803 -744.945801
20.858500 81.412498 -748.010498
20.844801 80.269600 -749.300903
20.823400 82.587700 -745.648926
20.815399 82.415398 -746.570190
20.813200 83.222099 -744.904114
20.811399 82.085297 -747.242371
20.801201 84.111504 -740.441772
20.758301 82.409401 -743.013977
20.746000 84.741402 -739.574829
20.739700 81.836700 -743.887207
20.731001 85.308601 -738.622986
20.729401 81.176598 -748.513672
20.696699 83.456001 -741.571777
20.693001 82.393997 -743.711975
20.670601 82.012199 -747.835999
20.668600 83.955101 -740.984009
20.658199 82.998299 -742.322083
20.631100 81.523598 -749.135681
20.608200 82.619102 -747.064575
20.596901 82.799698 -746.179321
20.592501 82.859802 -744.204712
20.577801 82.917000 -745.320313
20.574200 84.565903 -740.111023
20.567900 81.717598 -748.380127
20.558201 85.870300 -737.851196
20.503500 82.181198 -749.440002
20.496500 85.187302 -739.182129
20.478201 82.996803 -742.902710
20.418200 83.117104 -746.778076
20.413300 84.379303 -740.743225
20.402700 83.399200 -742.071777
20.393400 82.746696 -747.529175
20.375700 82.367599 -748.089417
20.371300 82.821800 -743.637390
20.365400 83.230400 -745.860229
20.364100 85.683098 -738.382813
20.362101 83.347298 -744.634094
20.319599 85.008499 -739.717712
20.311899 83.566101 -745.211182
20.301901 82.646202 -749.213196
20.297501 81.990097 -748.787415
20.285000 83.878899 -741.518921
20.260900 83.480499 -742.613892
20.260401 83.243599 -744.059021
20.244200 83.595398 -746.463013
20.236200 83.215897 -747.366577
20.189400 82.900101 -748.008423
20.172300 82.667198 -748.479370
20.153200 84.818100 -740.349426
20.125299 86.182701 -737.706604
20.120199 83.805099 -745.647278
20.117500 84.236298 -741.163879
20.114000 85.642502 -738.876892
20.077900 83.714302 -744.370117
20.070299 83.995796 -742.007874
20.068300 85.379799 -739.410217
20.065599 83.231003 -743.525879
20.032801 83.097702 -749.190796
20.021601 83.791702 -746.964478
20.009199 83.410004 -747.915588
20.007299 83.957397 -744.912109
19.986900 84.089699 -746.462585
19.978800 84.296097 -744.516418
19.967899 83.228600 -748.441284
19.965401 86.063400 -738.227173
19.959600 83.769798 -747.499023
19.925400 83.608200 -743.861816
19.922899 84.808601 -740.828430
19.908501 83.525299 -743.039124
19.893000 85.275299 -739.957886
19.872900 83.895203 -742.547729
19.866301 84.212303 -745.423706
19.862101 84.456200 -741.621582
19.821199 83.829697 -748.207214
19.800699 83.810097 -749.273315
19.798599 84.363899 -745.969482
19.774099 86.517097 -738.011414
19.763100 83.680397 -748.765320
19.756300 84.344398 -746.871399
19.749100 85.781502 -739.227173
19.736200 84.857697 -746.525085
19.714701 85.168602 -740.508179
19.691500 84.680603 -747.626221
19.683399 84.388603 -742.140198
19.679199 84.153702 -744.047913
19.669800 86.072304 -738.728027
19.669500 84.484200 -744.927612
19.666800 84.620399 -749.018921
19.663200 84.185600 -747.820679
19.609301 84.863602 -741.326599
19.569500 83.995598 -743.459595
19.560600 84.773300 -745.746826
19.559500 84.268303 -748.397583
19.538200 84.817802 -747.019897
19.506500 84.852699 -744.367004
19.491699 84.271202 -742.698730
19.490200 83.380096 -743.652222
19.485500 84.797302 -741.868530
19.469700 86.690201 -737.615173
19.461599 85.760597 -739.702576
19.446501 85.109596 -749.057617
19.441099 85.283997 -746.431580
19.440300 84.795700 -748.087830
19.421301 85.330803 -747.734009
19.404301 84.897400 -745.155273
19.395599 85.208099 -740.993713
19.393101 86.404503 -738.425476
19.364799 85.648598 -740.281921
19.364100 84.535698 -743.870605
19.345600 85.265198 -745.899780
19.328100 85.756401 -748.935913
19.326799 86.137001 -739.137512
19.323200 85.213097 -748.439819
19.322100 85.435799 -746.993774
19.292700 84.737198 -742.445984
19.261900 85.302299 -744.682983
19.248100 85.808701 -746.450500
19.222500 85.772003 -747.520813
19.214001 84.395897 -743.304504
19.167299 85.408096 -745.388000
19.160500 85.337402 -741.476685
19.158400 85.639603 -740.771912
19.105200 85.720001 -748.043884
19.101500 86.732803 -738.049927
19.094900 85.122299 -744.187012
19.089701 86.140999 -739.629883
19.070400 86.631897 -748.890381
19.044399 85.183502 -742.026123
19.039301 84.772202 -742.983887
19.035500 85.902397 -746.918823
19.011200 85.792900 -745.958374
19.010700 86.071404 -748.618286
19.008200 86.184799 -747.771606
19.006300 87.070900 -737.550720
18.993299 84.875900 -743.619080
18.981701 86.538902 -738.785278
18.952299 86.065498 -740.180725
18.915899 86.287498 -746.312012
18.914200 86.331703 -747.251892
18.913601 85.633003 -744.958679
18.908100 86.501503 -748.219177
18.901699 87.130402 -748.809021
18.868900 85.135399 -742.595825
18.866899 85.925903 -745.452820
18.860600 85.745499 -741.200073
18.854700 85.566704 -744.409973
18.818100 86.494698 -739.325806
18.774500 85.603302 -741.754211
18.772301 86.782204 -747.574097
18.758499 85.444702 -743.906494
18.750099 86.610901 -746.793701
18.743401 86.064301 -740.729675
18.739100 86.327400 -745.771912
18.722401 87.032700 -748.176514
18.691500 87.659302 -748.723999
18.687700 86.894897 -738.391785
18.675100 85.176498 -743.320496
18.666500 85.538101 -742.309814
18.662100 86.093300 -744.981384
18.651199 86.467003 -739.850586
18.623899 86.719200 -746.210876
18.619200 88.316200 -748.774109
18.613199 87.142403 -737.890503
18.604799 87.097900 -747.105408
18.589300 87.264999 -747.687073
18.545799 85.475197 -742.835815
18.545401 85.927696 -744.084717
18.538200 86.132004 -741.341614
18.488701 86.509003 -745.270813
18.478600 86.865799 -738.999878
18.462900 87.240501 -746.565613
18.457701 87.647598 -748.104187
18.435499 87.445999 -737.372070
18.427401 86.467003 -740.402222
18.417700 85.970703 -741.890320
18.415800 85.668800 -743.490601
18.414101 87.288101 -748.985413
18.401899 86.205803 -744.528381
18.363701 87.571899 -747.254822
18.341999 87.130699 -746.041504
18.311501 86.772499 -739.486877
18.303499 88.123001 -748.254517
18.299700 86.407204 -740.951416
18.285101 87.962303 -747.641174
18.275700 88.681999 -748.578125
18.270399 85.883003 -742.664001
18.260300 87.185997 -738.286682
18.234800 86.807503 -745.615601
18.228701 87.794197 -749.022888
18.203100 86.655296 -744.767578
18.190800 87.583099 -746.253479
18.188200 87.849899 -746.841492
18.188101 89.441803 -748.567078
18.184500 86.807999 -740.065918
18.160601 86.110901 -743.637573
18.140301 86.567101 -744.248291
18.124500 88.431602 -747.801575
18.097500 85.459999 -743.132996
18.084600 86.455299 -741.652588
18.065701 87.031799 -745.172424
18.041401 87.394699 -745.647278
18.037100 88.300697 -747.139771
18.029600 86.258301 -742.137512
18.004999 87.555397 -737.671875
17.973101 88.981102 -748.153625
17.972900 86.115196 -743.143982
17.968500 88.081497 -746.322571
17.955400 89.992104 -748.500916
17.934700 87.140999 -739.642273
17.933701 87.322701 -738.698914
17.922400 86.642601 -743.775818
17.903299 86.703003 -740.657227
17.892700 88.811096 -747.505005
17.889500 86.969299 -744.470215
17.888901 87.883797 -745.821472
17.863300 86.799103 -741.234192
17.854200 88.471703 -746.668274
17.801800 86.516502 -742.544373
17.788900 87.508102 -745.134827
17.750601 89.456802 -748.159912
17.735201 87.517097 -738.191284
17.723301 87.897202 -737.260010
17.700300 89.034798 -748.862976
17.682699 87.159500 -740.158081
17.678301 86.849297 -741.750916
17.675501 88.997299 -746.965698
17.671499 87.073799 -744.002014
17.654900 88.454597 -746.125427
17.647301 89.306000 -747.535278
17.633400 87.434601 -744.635986
17.630199 86.225502 -743.535095
17.605700 88.006104 -745.393372
17.600300 87.126198 -740.695984
17.587900 87.454803 -739.084778
17.585300 86.874603 -743.408325
17.535999 89.696999 -748.598511
17.504299 87.425499 -739.707581
17.500000 90.107101 -748.240784
17.483700 88.963699 -746.404175
17.481199 89.727303 -747.791626
17.451401 87.811798 -737.745117
17.438801 87.867401 -744.916077
17.416500 86.711197 -742.859680
17.416201 90.618301 -748.443970
17.396601 87.489601 -744.152527
17.388800 88.458099 -745.590698
17.374100 89.577797 -747.131287
17.355600 87.310303 -743.622070
17.348000 87.013901 -742.145508
17.315399 87.748299 -738.463928
17.289801 89.428299 -746.588074
17.286100 87.334503 -741.057495
17.285101 88.919899 -745.919617
17.277700 87.582603 -740.467712
17.257900 88.254997 -737.012573
17.230000 87.337601 -741.593323
17.222700 90.201698 -747.759277
17.213900 87.264503 -742.810181
17.204599 88.379204 -745.039185
17.202299 86.498596 -743.391479
17.182100 87.695900 -739.356995
17.159000 87.907303 -744.469116
17.147499 87.702202 -739.969727
17.106001 90.093300 -747.252930
17.059299 87.866402 -743.947815
17.056000 89.381599 -746.027588
17.047600 88.036499 -738.000427
17.036501 91.052597 -748.644470
17.035101 88.815201 -745.424988
17.031200 90.652496 -748.085815
17.023500 86.974800 -743.222595
17.020201 89.855003 -746.716187
17.018200 87.534500 -743.267517
16.979601 87.563599 -742.356628
16.958700 87.805298 -740.881409
16.909700 87.975700 -738.808289
16.887100 87.716301 -741.438171
16.885401 90.531502 -747.478271
16.878700 88.302002 -737.416321
16.877100 88.353401 -744.511475
16.830999 88.754799 -744.926697
16.813299 87.890602 -740.388794
16.811199 88.021896 -739.726379
16.785500 89.266296 -745.550415
16.774200 89.842499 -746.170898
16.745001 90.359001 -746.941711
16.716101 91.140404 -748.230896
16.713200 88.257401 -743.996826
16.693001 87.795303 -742.861328
16.683599 88.229500 -738.381714
16.661400 87.888000 -743.497925
16.630301 90.955704 -747.684021
16.612700 87.971199 -742.077271
16.610901 88.640900 -737.118896
16.584299 91.525200 -748.593018
16.550699 88.150497 -739.219421
16.542900 88.786903 -744.436279
16.539301 90.823502 -747.179199
16.533600 87.213501 -743.170776
16.526899 88.161102 -740.908020
16.509701 89.711502 -745.651611
16.509300 88.399597 -737.789124
16.508200 90.347702 -746.420593
16.506399 88.122398 -741.505371
16.500000 89.222397 -745.047180
16.482500 88.322304 -740.089111
16.382299 91.496696 -747.995605
16.369301 88.450699 -743.619629
16.364799 90.174896 -745.907227
16.335899 88.184097 -742.761780
16.300800 91.285797 -747.421875
16.286600 90.837097 -746.711121
16.274200 91.948196 -748.569397
16.223801 88.287903 -742.255493
16.215799 88.488899 -738.215210
16.212299 89.175697 -744.577271
16.185400 88.485001 -738.823730
16.181200 87.644402 -743.226990
16.173500 88.655998 -744.072815
16.170300 88.484398 -740.485718
16.160700 88.667801 -737.478882
16.156401 89.610802 -745.146973
16.127600 88.479202 -739.363892
16.118601 90.673599 -746.208801
16.108200 90.007401 -745.486816
16.073999 88.893097 -736.993774
16.054899 88.505402 -741.469788
16.052999 91.901497 -748.049927
16.010799 91.250900 -746.873901
16.002100 88.636803 -743.225525
15.998100 89.145699 -743.947876
15.961200 91.682999 -747.451721
15.936800 88.127800 -743.312012
15.930900 90.477097 -745.754028
15.926400 89.646797 -744.674683
15.925500 88.610603 -739.966980
15.924700 88.614403 -742.696594
15.923300 92.322098 -748.436523
15.902200 88.374199 -740.936096
15.848700 91.109200 -746.302429
15.847500 88.645302 -742.048401
15.819900 88.773499 -737.892029
15.809200 89.996498 -745.042297
15.769500 88.816002 -740.433899
15.736800 88.736702 -738.433289
15.717600 88.811302 -739.232117
15.711700 89.044998 -743.419922
15.700600 89.570602 -744.169678
15.678400 92.224899 -747.855225
15.672800 91.731201 -747.009888
15.634200 88.987000 -737.368286
15.609700 88.767998 -741.170593
15.600800 89.245796 -736.833984
15.597500 90.400398 -745.309875
15.581800 90.961098 -745.814209
15.579800 92.749001 -748.449097
15.568700 91.528099 -746.459717
15.549900 88.994598 -742.671509
15.533100 92.095901 -747.370789
15.528600 89.970901 -744.539429
15.516100 88.960403 -739.839722
15.483800 88.927299 -741.664795
15.478800 89.494499 -743.615479
15.475700 88.459702 -743.182922
15.408200 88.885696 -738.815308
15.390800 92.725098 -747.963806
15.351800 89.147903 -740.788330
15.336300 88.985199 -742.161621
15.325200 91.395699 -745.997681
15.323000 93.211601 -748.501221
15.315300 89.071800 -737.823425
15.308300 89.882599 -744.023987
15.304000 89.284500 -743.041382
15.303500 90.403198 -744.828918
15.281700 91.969002 -746.722107
15.262200 90.858200 -745.385681
15.259100 89.131699 -739.383118
15.191000 92.531998 -747.451477
15.189400 89.444099 -737.132874
15.186200 89.266899 -740.290222
15.119000 89.192802 -741.305115
15.089000 89.139297 -738.310181
15.079600 89.408096 -742.499817
15.060200 89.289101 -741.823303
15.056600 90.305099 -744.339722
15.046400 89.653099 -743.353394
15.041300 92.401001 -746.967224
15.040000 91.630699 -746.399902
15.021000 88.713799 -742.980225
15.007400 93.104401 -748.073120
14.995500 89.188499 -738.928772
14.979500 89.360298 -739.816711
14.970200 91.309799 -745.501221
14.954700 90.825897 -744.934021
14.935100 91.723000 -745.863525
14.930400 92.986397 -747.570618
14.919300 89.410896 -737.675720
14.906200 92.182701 -746.407715
14.903700 89.471001 -740.777100
14.884200 90.088799 -743.701172
14.873500 89.546204 -736.646729
14.862100 93.615097 -748.475891
14.760200 89.660103 -742.109985
14.755400 89.802299 -742.903870
14.734400 92.841904 -747.064514
14.731600 89.486702 -739.364929
14.713500 89.316299 -743.108521
14.698700 89.560898 -741.455078
14.669000 90.666901 -744.408813
14.652600 89.546997 -740.201904
14.641800 91.212997 -745.094727
14.621300 93.408600 -747.771729
14.608000 89.421501 -738.195496
14.591600 92.122498 -745.922119
14.584300 90.146400 -743.264587
14.571700 89.419296 -738.730286
14.565900 91.663498 -745.455872
14.559400 89.698700 -737.035828
14.556600 92.606400 -746.551819
14.551700 90.513298 -743.902588
14.484200 89.422600 -742.625183
14.470200 89.805702 -740.852478
14.441100 93.264900 -747.244385
14.434800 94.001198 -748.417419
14.426000 90.023697 -742.558777
14.425200 89.625099 -737.592773
14.401700 89.704002 -739.704712
14.392600 91.080704 -744.594788
14.361000 89.902199 -741.728088
14.357300 93.058197 -746.749390
14.305200 90.118103 -736.602722
14.265700 89.646599 -743.104614
14.265100 89.885002 -740.361328
14.263100 90.551804 -743.464722
14.262700 92.535301 -746.083618
14.255200 93.851799 -747.949524
14.222900 91.536003 -744.972229
14.217500 90.918900 -744.078613
14.215000 89.757599 -738.123230
14.195500 92.108398 -745.578796
14.193900 89.795601 -739.213623
14.161600 90.336800 -742.961914
14.140000 93.645103 -747.477295
14.133600 90.014198 -741.233826
14.118100 89.713402 -738.648193
14.107900 90.274696 -742.171875
14.084800 93.010803 -746.257813
14.045300 94.379501 -748.491882
14.000300 93.425697 -746.952515
13.995300 90.056900 -739.849487
13.980200 90.328499 -736.962891
13.962600 91.322197 -744.429016
13.938500 90.968697 -743.619812
13.929800 90.024597 -737.382202
13.914000 90.170097 -740.628418
13.895400 94.298302 -747.992981
13.891500 91.916199 -745.168518
13.855100 92.603500 -745.743286
13.840900 90.759399 -743.141174
13.831800 90.560898 -742.616699
13.818600 90.356300 -741.703186
13.813800 89.855499 -742.896790
13.773100 94.028397 -747.465027
13.736300 93.367401 -746.497925
13.725500 90.070099 -739.371582
13.724200 90.015503 -738.850830
13.695300 94.746902 -748.351501
13.674000 89.825302 -738.319519
13.666200 91.712997 -744.647888
13.654600 90.349701 -741.069702
13.650300 90.071297 -737.835815
13.639500 91.298897 -743.919312
13.624300 90.653297 -742.137817
13.621300 92.381599 -745.320129
13.620900 93.107300 -746.002686
13.585200 93.856102 -746.937622
13.583800 90.338402 -740.243103
13.573700 90.422699 -736.587097
13.516000 94.494003 -747.668030
13.503500 91.148903 -743.338379
13.479500 90.378799 -737.137512
13.424400 90.977997 -742.802429
13.410400 92.862099 -745.504089
13.396600 90.575699 -740.677307
13.385000 90.273300 -738.347778
13.381600 90.389503 -739.688904
13.373100 90.696098 -741.506775
13.363700 94.284897 -747.161987
13.346100 91.971497 -745.062683
13.334200 93.691002 -746.416321
13.321700 95.146400 -748.383789
13.319100 91.697899 -744.126892
13.278600 90.322800 -739.129578
13.273800 91.535896 -743.603271
13.254500 90.766098 -736.828796
13.230300 90.980904 -742.316223
13.197200 93.477501 -745.905579
13.189000 94.929298 -747.900513
13.187300 90.445099 -737.637085
13.158000 90.654999 -740.076172
13.153800 92.468697 -745.072021
13.128800 94.120796 -746.721924
13.114500 92.066101 -744.523987
13.078100 91.353798 -743.022095
13.057300 94.686096 -747.421387
13.026600 91.029602 -741.805481
12.990200 90.824402 -741.147583
12.968200 90.895103 -740.529785
12.956800 90.806198 -742.963379
12.953600 90.664703 -739.481323
12.949500 93.102303 -745.371582
12.935300 90.493599 -738.707092
12.930000 95.526001 -748.404175
12.927300 94.025200 -746.250671
12.923900 91.897499 -743.777588
12.851400 91.339302 -742.471619
12.841100 94.592499 -746.931030
12.832200 90.577202 -738.081177
12.831100 90.785698 -737.153870
12.813900 95.280602 -747.787476
12.808400 91.021202 -736.507629
12.807900 91.784698 -743.255493
12.757000 92.594704 -744.726501
12.725400 92.177696 -744.171570
12.719400 93.681396 -745.837830
12.673400 90.989502 -740.020874
12.664700 92.680801 -745.257996
12.656500 91.381798 -741.982727
12.638400 94.985100 -747.216675
12.615500 91.197899 -741.275574
12.588400 91.179001 -740.749023
12.576200 91.214600 -743.100586
12.572100 95.838600 -748.177979
12.567700 90.890800 -737.628418
12.553800 90.860298 -739.164124
12.532000 94.397102 -746.357483
12.526100 91.306099 -736.875793
12.520300 93.405403 -745.427124
12.518000 92.203102 -743.578186
12.496200 91.732101 -742.833191
12.441800 90.829102 -738.370300
12.397600 92.571503 -744.327576
12.395100 94.809898 -746.662720
12.390600 95.594902 -747.751526
12.378300 92.936203 -744.885681
12.376600 94.084702 -745.948914
12.297900 91.265900 -740.304626
12.273900 91.625298 -742.270386
12.269500 91.178398 -739.715271
12.261700 91.470901 -741.574585
12.253600 95.344803 -747.311890
12.230800 91.861000 -743.287598
12.218100 91.455101 -736.445007
12.192700 91.064301 -737.243774
12.179600 92.567299 -743.777527
12.163700 93.824203 -745.401978
12.159300 91.510002 -741.047180
12.158000 91.108498 -737.934021
12.145400 96.230301 -748.169983
12.098500 91.110901 -739.105286
12.066900 91.987099 -742.661072
12.065900 93.375702 -745.066528
12.061700 94.726501 -746.219971
12.055700 91.421204 -742.900818
12.032300 92.486702 -744.696106
12.012600 92.954201 -744.453918
12.008100 95.182899 -746.788025
11.994100 95.976799 -747.612671
11.992800 92.378098 -743.303772
11.926600 91.021400 -738.531006
11.904000 94.245399 -745.722107
11.902700 91.610199 -740.428284
11.899700 91.891197 -741.882874
11.881600 92.015900 -736.739319
11.865400 95.687401 -747.159180
11.848000 91.511803 -739.880310
11.829100 91.783203 -741.355713
11.787000 92.882896 -743.914490
11.753100 91.616096 -737.115417
11.750200 91.476601 -739.242371
11.696600 96.328003 -747.891113
11.681900 93.736099 -744.955872
11.681700 93.342796 -744.599670
11.679500 95.165703 -746.385010
11.653800 92.368301 -742.857117
11.641600 91.293297 -738.025208
11.640100 92.184097 -742.357727
11.635900 92.798798 -743.417419
11.609600 96.644302 -748.313477
11.604400 94.741997 -745.834717
11.593500 91.848000 -740.857178
11.584200 91.707199 -742.849426
11.578500 92.018997 -736.289978
11.576000 94.138100 -745.322083
11.564900 96.188301 -747.374512
11.562400 95.645699 -746.733887
11.533900 91.509201 -738.504700
11.503300 91.845703 -740.192017
11.453100 92.160599 -741.680420
11.416400 93.264000 -744.016479
11.396100 91.743500 -739.523376
11.312600 91.866302 -737.331482
11.294000 93.673203 -744.426270
11.284600 96.652702 -747.815613
11.262400 92.381401 -736.657898
11.261400 92.742798 -742.877625
11.250800 94.586998 -745.457581
11.236100 93.136597 -743.471497
11.232200 95.287102 -746.091187
11.229200 94.065102 -744.867493
11.220600 91.821098 -737.888672
11.214300 92.516602 -742.401428
11.196000 92.165298 -741.188782
11.190900 91.848503 -739.011108
11.171500 95.913498 -747.132690
11.135500 92.101601 -740.575012
11.122500 92.154297 -742.883484
11.106100 97.034500 -748.184692
11.102900 92.053902 -739.925781
11.084700 95.401299 -746.587524
11.055000 92.456703 -741.874023
11.040700 96.397003 -747.292175
11.021800 91.718803 -738.474426
11.007500 94.999199 -745.675415
10.988500 92.278900 -737.100830
10.981200 93.561996 -743.994019
10.971100 95.948799 -746.651123
10.952500 94.516800 -745.020874
10.913400 92.776100 -743.263306
10.887900 92.138199 -737.612671
10.873200 93.997902 -744.442688
10.836300 96.936096 -747.640503
10.835500 92.571701 -736.298401
10.823200 92.150902 -739.423279
10.820000 92.110603 -738.164978
10.818700 92.838699 -742.590576
10.811600 93.472801 -743.502686
10.803200 92.491302 -741.385315
10.797200 95.704300 -746.218384
10.768000 92.097900 -738.803711
10.753400 92.393204 -740.833984
10.753100 92.363800 -740.174072
10.715800 97.396202 -748.126282
10.688300 95.471603 -745.746216
10.654500 94.836800 -745.306519
10.654000 92.754097 -742.080872
10.620000 96.705902 -747.180115
10.606600 93.206497 -743.085571
10.589700 96.301399 -746.761292
10.543500 94.407600 -744.673218
10.532700 92.840897 -736.703918
10.528600 93.850502 -743.928589
10.486900 92.330902 -737.322205
10.473700 92.459900 -739.653687
10.471900 92.677902 -742.966919
10.418200 92.352600 -738.452393
10.403800 92.450104 -739.101807
10.400600 92.633904 -740.469177
10.392200 92.705498 -741.057129
10.385100 97.248596 -747.596375
10.381600 93.776901 -743.425598
10.373700 96.064400 -746.301270
10.323300 92.811501 -741.635376
10.322400 93.079300 -742.413025
10.305100 95.298103 -745.368225
10.299400 94.236298 -744.219971
10.257200 94.793503 -744.949524
10.253200 97.706703 -748.182190
10.242200 95.752403 -745.885681
10.241100 93.031303 -736.275024
10.204300 92.611000 -737.699280
10.185600 96.617897 -746.879883
10.180500 93.488197 -742.927124
10.160000 92.709503 -739.985901
10.091200 92.694298 -738.687683
10.090800 97.113098 -747.170227
10.073400 94.056297 -743.747375
10.067900 93.032402 -736.901123
10.055100 92.769897 -739.479004
10.005200 94.620697 -744.461975
9.992300 92.919403 -742.864319
9.983800 92.920998 -740.727112
9.978100 92.852798 -738.180908
9.976000 93.010201 -741.301514
9.968800 97.624298 -747.754578
9.964400 93.051300 -741.992126
9.943200 96.452797 -746.406982
9.913700 95.218697 -745.011475
9.905300 93.917198 -743.255981
9.890600 95.678596 -745.470398
9.878500 93.009201 -737.412415
9.860100 93.435097 -742.494690
9.856700 96.112297 -745.909424
9.840700 93.311897 -736.490479
9.759000 94.464600 -743.881592
9.745500 92.948799 -739.060913
9.733800 96.942596 -746.809082
9.727800 93.024902 -740.131409
9.663700 97.480698 -747.226929
9.661800 98.007698 -747.978271
9.645400 95.047600 -744.599670
9.635800 93.425201 -743.051025
9.592600 93.333504 -736.976013
9.588200 93.089203 -739.539673
9.579300 93.030998 -738.491089
9.570700 93.131302 -737.857117
9.563800 93.254799 -741.609192
9.554600 93.201500 -741.007019
9.551500 93.933701 -742.834595
9.536400 94.284302 -743.391785
9.491800 96.094398 -745.450684
9.488700 96.589302 -746.165894
9.488400 93.447601 -742.117371
9.484400 95.378998 -745.308228
9.425200 93.581596 -736.241882
9.399600 97.887001 -747.543518
9.395700 94.846901 -744.126770
9.363700 93.265404 -740.425781
9.300700 93.257103 -738.926392
9.293400 97.088997 -746.561890
9.253900 95.410797 -744.624512
9.223400 96.441597 -745.740417
9.222500 98.347397 -748.168091
9.213400 93.321098 -739.891724
9.212400 93.801003 -742.442871
9.206400 97.639503 -747.025879
9.203800 94.660896 -743.648499
9.200900 93.618301 -736.781982
9.181500 95.814301 -745.113708
9.172600 93.455399 -737.474182
9.133500 94.244400 -743.063477
9.132200 93.616302 -741.732422
9.125500 93.455200 -740.858826
9.105300 93.452400 -742.851318
9.103100 93.382103 -738.406677
9.048300 96.895599 -746.126709
9.048000 98.287498 -747.680786
9.013900 94.939102 -744.514282
8.947100 93.498802 -739.406189
8.946600 95.088501 -743.938904
8.938800 93.860199 -736.262329
8.914200 96.227699 -745.303406
8.874300 93.583099 -740.214722
8.865700 97.488998 -746.655823
8.835200 98.050301 -747.252991
8.834700 93.614197 -741.299683
8.810100 94.687401 -743.295471
8.803400 93.528297 -738.861877
8.800900 95.712196 -744.754272
8.796600 98.710197 -747.948914
8.791400 93.900803 -742.131897
8.769000 93.873901 -742.950928
8.768700 95.367699 -744.348206
8.748300 96.673302 -745.664001
8.739900 93.594398 -737.740112
8.674800 93.689400 -740.728699
8.640900 97.219803 -746.196716
8.637200 93.669998 -738.323181
8.635900 94.485703 -742.841980
8.579600 93.950600 -736.915222
8.563200 93.718201 -739.735779
8.559200 98.453697 -747.473022
8.552600 97.908699 -746.820984
8.534700 95.032997 -743.612122
8.514600 94.179001 -736.120422
8.497900 96.126297 -744.967590
8.452000 93.896202 -741.516724
8.424000 93.768402 -739.206177
8.419500 93.859596 -737.421021
8.409600 94.255997 -742.354492
8.394900 95.508499 -744.010620
8.393100 96.593597 -745.226624
8.369800 93.839600 -740.271301
8.342700 95.766899 -744.478882
8.334900 97.592796 -746.456909
8.328600 98.899300 -747.750671
8.324100 97.072601 -745.805176
8.278100 93.913200 -741.023315
8.268600 94.848198 -743.086182
8.224400 94.166199 -742.941711
8.221300 93.866898 -738.640808
8.216100 98.277901 -747.039185
8.190200 94.127701 -736.529907
8.160800 94.244598 -741.828613
8.149000 93.964302 -738.034485
8.089400 95.290298 -743.520691
8.080600 94.563499 -742.622314
8.076400 93.915901 -739.743713
8.058100 94.055199 -737.101074
8.041100 98.654099 -747.362305
8.039800 96.138100 -744.681396
7.989900 97.425301 -746.002075
7.973600 96.767799 -745.559387
7.964200 94.038902 -740.588501
7.962500 97.996399 -746.554871
7.942300 93.979401 -739.206116
7.931000 94.477402 -736.136719
7.930400 95.787300 -744.157776
7.895700 96.554298 -745.012024
7.881900 99.288498 -747.928772
7.840000 94.297699 -741.410522
7.807300 97.274597 -745.526978
7.786400 94.490898 -742.151672
7.780300 95.065300 -743.007019
7.768200 94.129898 -738.651184
7.745100 98.428200 -746.818176
7.724800 94.438103 -736.617615
7.710300 94.216003 -740.020081
7.701500 95.702103 -743.622925
7.687100 99.039299 -747.412170
7.671700 94.230904 -737.480408
7.653300 97.807899 -746.169678
7.613600 94.486504 -742.892578
7.612500 96.403099 -744.526428
7.595800 94.856300 -742.477112
7.567000 94.331902 -740.854797
7.561600 94.173897 -738.049072
7.520400 94.278900 -739.363281
7.501300 96.917000 -745.160583
7.466100 94.614098 -741.633728
7.458300 96.021103 -744.036316
7.447600 98.833900 -746.981323
7.433100 97.590302 -745.728394
7.429700 98.059402 -746.581482
7.416000 99.517799 -747.822998
7.413600 94.599602 -736.232483
7.394200 94.418800 -737.025024
7.390700 95.461998 -743.228577
7.383400 96.425903 -744.998474
7.347600 94.396004 -740.380920
7.321300 94.377296 -738.502014
7.259400 95.219498 -742.748718
7.205500 94.391197 -739.872986
7.193700 94.611900 -741.091919
7.180100 97.305099 -745.328674
7.175000 98.015404 -746.076782
7.173600 94.893898 -742.162415
7.173300 96.692802 -744.591370
7.173200 99.101997 -747.511902
7.169700 95.944901 -743.524780
7.169100 98.534897 -746.608582
7.106500 94.460701 -739.082825
7.094400 94.586304 -742.688416
7.056800 94.535797 -738.029419
7.027300 96.323196 -744.200012
7.020500 94.693497 -736.592712
7.002000 99.723396 -748.080872
6.982000 94.532898 -737.446411
6.946200 99.014603 -746.917603
6.935400 94.619598 -740.625488
6.910400 99.567703 -747.501099
6.909800 94.821198 -741.573120
6.903800 94.751503 -736.044006
6.903500 97.059196 -744.954285
6.896800 95.634300 -743.063171
6.880700 97.711998 -745.584473
6.813600 98.413002 -746.244873
6.810100 94.611702 -738.560913
6.806800 95.243599 -742.467224
6.791700 94.618103 -739.619995
6.744100 96.239197 -743.732178
6.670200 94.779099 -740.174927
6.670100 96.776802 -744.479187
6.666000 94.887100 -741.088989
6.650700 95.184097 -741.963074
6.636100 99.942001 -747.779419
6.634800 97.485802 -745.154175
6.618400 98.976501 -746.508728
6.611100 99.164001 -747.330688
6.607700 94.655701 -739.094482
6.595700 94.767097 -737.781006
6.592100 94.813599 -737.213623
6.586300 98.181198 -745.831421
6.536800 95.970100 -743.279480
6.524300 94.922401 -736.363098
6.466800 95.096100 -742.843323
6.430100 95.613602 -742.753479
6.428400 95.012604 -740.597473
6.417900 97.163498 -744.759216
6.405200 99.315399 -746.871582
6.393300 99.741096 -747.335815
6.392100 94.727402 -738.266785
6.382500 95.185799 -741.421204
6.373400 96.587898 -743.930481
6.366000 98.662697 -746.096191
6.361200 97.684097 -745.617676
6.359800 94.901901 -739.557190
6.254900 94.997398 -736.831787
6.232700 95.456200 -742.165405
6.198500 100.198502 -747.942078
6.187100 95.047798 -740.084778
6.165900 94.889900 -738.886230
6.145500 97.736099 -745.117676
6.132300 96.310699 -743.407288
6.130600 94.986099 -737.442322
6.129500 96.763603 -744.448425
6.117800 99.153603 -746.444580
6.104200 98.156601 -745.635193
6.080900 95.164398 -740.971680
6.058700 95.943398 -742.936523
6.055400 95.153999 -736.371887
5.975700 95.029099 -737.997986
5.966800 97.262100 -744.420227
5.942100 99.659103 -746.988770
5.936300 100.096199 -747.475220
5.927000 95.418999 -741.588684
5.924500 95.258598 -742.739197
5.922400 96.848999 -743.965393
5.919200 98.639297 -745.807129
5.862600 95.255997 -740.435974
5.857800 95.087898 -739.620422
5.800100 95.793900 -742.461121
5.746800 95.184700 -736.803284
5.728500 98.091499 -745.176575
5.726100 100.427399 -747.856018
5.713300 95.127899 -738.617920
5.703600 99.055000 -746.093811
5.689300 96.375298 -743.084229
5.679000 97.669800 -744.868286
5.666300 99.449501 -746.486023
5.650200 95.169701 -735.997681
5.639000 95.676201 -741.968811
5.628400 96.681000 -743.556519
5.619800 95.183800 -737.486023
5.607700 95.446701 -741.130615
5.594500 95.165604 -739.126892
5.544400 100.039902 -747.100281
5.537600 95.241501 -740.005493
5.535700 97.147003 -744.148376
5.514900 95.232903 -738.136719
5.485400 98.502403 -745.546326
5.421700 96.138901 -742.632874
5.373900 95.477303 -740.659180
5.351000 95.544197 -742.676880
5.347500 97.496300 -744.491516
5.333400 95.308197 -736.467407
5.311700 100.342499 -747.453430
5.296200 95.295898 -737.065125
5.285900 98.027397 -744.888672
5.275500 95.369904 -739.532288
5.260800 95.695297 -741.436890
5.260600 98.914902 -745.799072
5.235600 96.994499 -743.731323
5.207400 95.533897 -735.973694
5.201100 95.300499 -738.749329
5.201000 99.330902 -746.127930
5.199800 96.000702 -742.157227
5.198500 99.755203 -746.693176
5.195600 96.340500 -743.294312
5.152400 95.395302 -737.648376
5.147600 100.704498 -747.792419
5.069400 98.365501 -745.256226
5.063000 95.530998 -740.013184
5.041000 97.462502 -744.017029
5.029400 95.761902 -740.967773
5.025200 95.421097 -738.164917
5.024800 100.115799 -747.039917
4.979000 96.438301 -742.796387
4.920200 96.850899 -743.315918
4.902700 97.893799 -744.465881
4.878600 95.801697 -742.661377
4.875400 95.547203 -736.830200
4.854700 96.018204 -741.755127
4.839100 95.490997 -739.091675
4.823800 100.574898 -747.400818
4.795700 98.826500 -745.376526
4.789300 99.148003 -745.799988
4.788300 99.617897 -746.316772
4.785900 95.510399 -736.281921
4.742700 97.201302 -743.669617
4.741400 95.776199 -740.357727
4.732200 98.202003 -744.874512
4.713200 95.665199 -739.596313
4.709000 96.309898 -742.370117
4.669300 95.579697 -737.361023
4.657800 100.005699 -746.650085
4.654500 100.898201 -747.826294
4.614400 95.512398 -738.485718
4.570200 96.026901 -741.308472
4.563900 96.725098 -742.950378
4.541000 97.655899 -744.091614
4.476400 100.406197 -747.029419
4.463000 95.975700 -740.761230
4.445000 95.582703 -735.875610
4.419600 95.636597 -737.995117
4.412000 98.564697 -745.087891
4.378000 95.742401 -739.199890
4.376700 96.243896 -741.926086
4.376400 96.027496 -742.668518
4.367400 98.085701 -744.394470
4.367200 95.716698 -736.954773
4.365200 95.826599 -739.982300
4.330400 99.431396 -745.932312
4.318600 97.137901 -743.262329
4.312300 99.865799 -746.226318
4.305200 100.823303 -747.445679
4.290800 99.103104 -745.409424
4.286200 95.671204 -736.362976
4.258100 96.606796 -742.472900
4.216100 97.549797 -743.611328
4.162800 95.745300 -738.621216
4.143900 100.268204 -746.618103
4.142400 95.718803 -737.439270
4.112000 96.278999 -741.370605
4.089300 96.055901 -740.398376
4.066500 98.494797 -744.656982
4.051200 96.891800 -742.875916
4.026800 95.916199 -739.566772
4.013400 97.938202 -744.011230
4.011200 101.166397 -747.812683
3.975200 100.649200 -746.958496
3.957500 96.534599 -742.033630
3.935500 98.714798 -745.313416
3.919100 95.774101 -738.125122
3.868000 99.388100 -745.650574
3.857500 96.221497 -742.699402
3.846200 98.019203 -744.565186
3.836900 95.828300 -736.747986
3.832600 97.372803 -743.231812
3.831900 95.964600 -739.029724
3.815300 95.417099 -736.275391
3.811800 96.228996 -740.903870
3.806500 99.783501 -746.065125
3.764500 101.052200 -747.355774
3.744900 97.477600 -743.833801
3.725200 96.833397 -742.446716
3.708700 99.164497 -745.169312
3.704800 96.185799 -740.056519
3.691300 100.216103 -746.342407
3.690200 95.898003 -737.671814
3.639100 98.708801 -744.878418
3.636400 96.488503 -741.617981
3.597000 95.914299 -736.109375
3.546600 97.961197 -743.723877
3.542300 97.191902 -742.827515
3.536400 96.120201 -739.499512
3.532000 98.205597 -744.186218
3.528400 95.978401 -738.456970
3.526600 100.595398 -746.696777
3.519900 101.384399 -747.755981
3.411000 99.508400 -745.429688
3.409400 96.286301 -740.489014
3.401500 95.942703 -737.171997
3.399700 96.796997 -742.040710
3.386500 96.499901 -741.105530
3.360000 97.587303 -743.339417
3.328600 96.069801 -738.928406
3.317000 99.896500 -745.916016
3.305800 100.940697 -747.061829
3.257000 96.014603 -736.671021
3.256500 98.343201 -744.606384
3.220600 96.725403 -742.724915
3.210200 96.348396 -739.955383
3.201400 96.038597 -737.802307
3.196500 100.384598 -746.251221
3.190400 99.199799 -745.018372
3.160500 101.413696 -747.369385
3.116500 97.935699 -744.021912
3.109900 97.311401 -742.542908
3.107000 96.748100 -741.568909
3.076100 96.103401 -736.041321
3.038100 98.786102 -744.435181
3.037100 96.283302 -739.396973
3.020800 96.204002 -738.484680
3.012500 96.564697 -740.739014
2.989300 100.602997 -746.806580
2.955100 97.802803 -743.076721
2.933400 97.004601 -742.159302
2.926300 99.690102 -745.577820
2.917300 101.624100 -747.808472
2.912200 96.134300 -737.043884
2.908300 97.657501 -743.604614
2.832000 101.151703 -746.895874
2.831500 98.338203 -743.799622
2.819900 100.223000 -745.889282
2.772800 97.197601 -742.931274
2.753300 96.140503 -736.466919
2.745800 96.288696 -737.755981
2.742700 96.514397 -740.235901
2.724500 99.430099 -745.137573
2.721000 100.667000 -746.350403
2.699600 96.795197 -741.157715
2.697700 96.367401 -738.914917
2.661100 99.020897 -744.718811
2.644000 96.473099 -739.725098
2.632500 101.561203 -747.344421
2.613200 96.972198 -741.701721
2.574300 98.633499 -744.253174
2.565300 98.008598 -743.378174
2.558100 97.503197 -742.545288
2.529100 96.303001 -738.278503
2.499300 96.210701 -736.007874
2.461300 99.863602 -745.405396
2.460700 96.274101 -737.266174
2.453600 96.761703 -740.655884
2.420000 101.806297 -747.872498
2.410200 100.822098 -746.795471
2.363600 97.223999 -742.132202
2.350900 96.319000 -736.753113
2.347500 100.440300 -746.024475
2.339300 96.522697 -739.298218
2.313900 98.437798 -743.791321
2.313500 101.337303 -746.889771
2.303800 97.730202 -742.950073
2.260900 96.683502 -740.067810
2.253500 99.542099 -744.874817
2.237700 96.977699 -741.337830
2.232500 96.377197 -737.742188
2.195700 98.974899 -744.478027
2.182900 96.449402 -738.689880
2.167400 100.939301 -746.335571
2.104900 101.667297 -747.315491
2.081700 100.001900 -745.774414
2.063800 97.609596 -742.401184
2.055600 98.150703 -743.389587
2.042500 96.312599 -736.240173
1.986700 97.251701 -741.722473
1.983900 96.566399 -738.201599
1.952500 96.730598 -739.611206
1.938200 96.955299 -740.865417
1.934400 98.755501 -744.077881
1.930800 99.985901 -745.269226
1.929900 101.956001 -747.759399
1.922100 96.393097 -737.070801
1.920900 96.717300 -739.055725
1.869900 101.308998 -746.577881
1.857700 100.482300 -746.207581
1.822900 97.450401 -742.865723
1.813000 99.279099 -744.686584
1.801000 96.867302 -740.323120
1.748200 99.489899 -745.167175
1.739900 98.486198 -743.663696
1.735800 98.063004 -742.931702
1.724500 96.505203 -737.669495
1.678800 101.664398 -747.010376
1.676400 100.332100 -745.660278
1.668600 97.521301 -742.036987
1.665300 96.466301 -736.570984
1.646400 96.658501 -738.616516
1.626200 101.001503 -746.152100
1.616000 97.233902 -741.322205
1.523500 99.037903 -744.289490
1.482200 96.756302 -738.058777
1.480900 97.877899 -742.466492
1.474500 96.845901 -739.328491
1.466100 101.954399 -747.478882
1.457800 96.643303 -736.053772
1.446200 96.886597 -739.941406
1.441400 97.048103 -740.720398
1.418900 99.852997 -744.897400
1.386300 96.589600 -737.163086
1.369700 98.340103 -743.326721
1.351500 101.388199 -746.583313
1.346500 98.754204 -743.877502
1.315500 100.765900 -745.776917
1.304700 97.650398 -742.915710
1.284000 100.113403 -745.377014
1.249100 97.473000 -741.697998
1.242000 102.185898 -747.924683
1.239900 99.412003 -744.610229
1.176600 101.517799 -747.122192
1.158200 96.664902 -736.669312
1.156500 97.299698 -741.076111
1.148200 96.828697 -738.875671
1.142400 96.749100 -737.630188
1.099500 97.796600 -742.103271
1.095100 101.067497 -746.157410
1.080100 97.085403 -740.304016
1.074700 98.120499 -742.934998
1.017300 99.189499 -744.095886
1.012200 97.061897 -739.670227
0.997200 96.865097 -738.297974
0.995200 96.349602 -736.244080
0.974100 98.652901 -743.528625
0.964000 102.112801 -747.291199
0.944800 99.666199 -745.074097
0.939200 97.439201 -742.607971
0.920900 100.338203 -745.761108
0.906800 101.728600 -746.685913
0.813700 96.738098 -737.092773
0.811800 100.339500 -745.199097
0.786900 99.671997 -744.507080
0.771600 97.539001 -741.437378
0.762800 96.902199 -736.077576
0.749300 97.270798 -740.684082
0.732900 101.237701 -746.504028
0.731600 97.070503 -739.110779
0.723400 102.353699 -747.783386
0.718700 97.925598 -742.438293
0.679000 98.213898 -743.291016
0.671400 100.869400 -745.852905
0.661500 96.854698 -737.849976
0.629800 98.934700 -743.825684
0.624100 97.833298 -741.847290
0.613600 97.183403 -740.027222
0.587900 96.783798 -736.584229
0.561600 101.773300 -747.198486
0.550700 99.170998 -744.432373
0.523500 96.991096 -738.592712
0.516400 99.936203 -744.870972
0.452100 100.679100 -745.396729
0.447100 97.565002 -741.000183
0.445700 98.704697 -743.345520
0.425300 98.212502 -742.809082
0.410300 102.266701 -747.366272
0.402500 96.966202 -737.389404
0.395600 101.287598 -746.016418
0.389900 97.108101 -739.514526
0.378600 101.718399 -746.645813
0.287200 97.329399 -740.430786
0.251800 97.704697 -742.648071
0.239600 98.021400 -742.231018
0.236300 97.090897 -738.100586
0.235900 99.616997 -744.517578
0.235400 100.139603 -745.270630
0.209400 99.189400 -744.015320
0.197300 97.156998 -738.985107
0.190300 96.849602 -736.187073
0.175600 102.152100 -746.897888
0.156100 97.740501 -741.614624
0.150000 96.987000 -736.828003
0.108900 100.988701 -745.663818
0.103600 102.557701 -747.718506
0.080200 97.346901 -739.934509
0.038900 98.974800 -743.570374
0.002900 98.459702 -743.015076
-0.000500 101.568001 -746.209778
-0.015900 100.002403 -744.797180
-0.039800 97.606796 -740.800110
-0.058500 100.577797 -745.312378
-0.088900 97.016602 -737.663513
-0.104200 97.302597 -739.407593
-0.122600 102.350098 -747.282288
-0.135000 97.191399 -738.460083
-0.189200 101.844002 -746.635315
-0.203700 98.200401 -742.446106
-0.206500 99.473900 -744.273376
-0.206700 97.968002 -741.921814
-0.225000 97.835602 -741.242371
-0.269400 98.982597 -743.998108
-0.269600 96.954803 -736.439575
-0.272800 97.020897 -737.154480
-0.288700 97.462196 -740.285583
-0.291600 101.118896 -746.065125
-0.362200 97.338303 -738.955383
-0.384800 102.741203 -747.775696
-0.399800 98.746300 -743.204895
-0.401600 100.443398 -744.936279
-0.431700 101.122398 -745.545715
-0.462100 97.148697 -738.044373
-0.479000 99.870598 -744.549927
-0.489900 102.227600 -746.924377
-0.494500 97.530197 -741.723511
-0.500400 101.641098 -746.082275
-0.545100 97.417297 -739.676880
-0.573400 97.603203 -740.766418
-0.578500 98.538002 -742.736877
-0.593300 99.102097 -743.590271
-0.634400 100.580399 -745.453491
-0.650600 98.234802 -742.026611
-0.651900 102.566597 -747.318726
-0.686400 99.454697 -743.998596
-0.689900 102.026398 -746.403320
-0.699400 97.095802 -736.780212
-0.699700 97.076500 -737.515625
-0.710200 97.256699 -738.567383
-0.724300 97.899597 -741.377991
-0.807000 97.529503 -740.141174
-0.828700 100.315903 -744.618408
-0.866200 97.108398 -736.262024
-0.878300 102.933998 -747.823486
-0.883800 97.433899 -739.208130
-0.906500 101.324303 -745.794373
-0.907600 98.892899 -743.214600
-0.925100 100.976097 -745.280884
-0.943800 97.327103 -737.926575
-0.947900 99.860199 -744.318176
-0.980200 98.052498 -742.531616
-0.988200 101.583298 -746.322083
-0.988600 102.427696 -746.877930
-1.015000 97.859596 -740.875977
-1.082900 99.300499 -743.686401
-1.086300 97.311699 -737.184326
-1.093800 100.516899 -745.023926
-1.102000 98.629204 -742.739685
-1.102100 97.531502 -739.705017
-1.110600 98.078400 -741.765686
-1.149600 102.841301 -747.261108
-1.191700 97.434799 -738.784302
-1.213900 99.420502 -744.207825
-1.234900 97.190002 -736.644287
-1.235100 102.181503 -746.426086
-1.243100 98.377602 -742.203186
-1.268700 97.692802 -740.430481
-1.292500 101.698700 -745.901123
-1.322300 97.943100 -741.293823
-1.323300 100.145798 -744.626892
-1.371600 97.443398 -738.266602
-1.376200 103.081299 -747.667419
-1.383500 99.072601 -743.077393
-1.384300 101.020897 -745.670410
-1.437500 97.292801 -737.701599
-1.480100 102.383904 -747.098022
-1.480800 99.893303 -744.109985
-1.494100 97.542397 -739.311279
-1.534900 98.987503 -743.614624
-1.542300 100.926399 -745.128113
-1.547400 97.673698 -739.971313
-1.553700 97.236900 -736.218079
-1.601200 99.484200 -743.774292
-1.608200 98.673698 -742.608093
-1.611200 97.367599 -737.147278
-1.662500 98.142303 -741.760986
-1.668600 101.848000 -746.356079
-1.669100 97.861198 -740.903625
-1.675000 102.703003 -746.735779
-1.676800 100.403603 -745.072571
-1.685400 102.958603 -747.235596
-1.706100 97.567001 -738.687683
-1.719200 101.494499 -745.610596
-1.741400 98.125198 -742.297424
-1.782100 98.740097 -743.156677
-1.831200 97.357002 -736.646301
-1.844700 97.419998 -738.001282
-1.854400 100.245300 -744.387207
-1.868800 97.870903 -740.368408
-1.888700 103.227997 -747.702576
-1.907000 99.260201 -743.370178
-1.918600 99.617996 -744.229919
-1.939900 102.333199 -746.353088
-1.949600 97.760101 -739.586304
-1.961100 101.850304 -745.914429
-1.965000 98.151497 -741.290771
-1.978300 100.953796 -745.498230
-2.020500 100.769501 -744.871277
-2.029700 98.681503 -742.180481
-2.039100 97.568298 -739.100708
-2.039300 97.397797 -737.448181
-2.087900 99.726601 -743.720886
-2.101600 98.882698 -742.751526
-2.116700 102.662300 -747.141479
-2.166800 97.370102 -736.229797
-2.184000 97.906700 -740.815613
-2.195300 97.917000 -741.793701
-2.200500 97.604599 -738.523987
-2.236700 101.457802 -745.702026
-2.270000 98.897797 -743.245178
-2.281300 97.414803 -736.936584
-2.284800 97.807503 -740.010925
-2.286100 102.666702 -746.579712
-2.301500 100.359802 -744.648315
-2.302400 100.117500 -744.123230
-2.313500 103.228996 -747.339417
-2.364700 103.406998 -747.860779
-2.367200 97.551804 -737.881470
-2.384900 102.076698 -746.151428
-2.385800 98.418800 -741.825684
-2.388400 101.210999 -745.169312
-2.405100 98.461998 -742.680481
-2.450800 99.383003 -743.435425
-2.454100 97.673302 -739.493774
-2.504600 98.106201 -741.326721
-2.509000 100.576797 -745.107483
-2.526700 99.625801 -744.121887
-2.583500 102.959503 -746.982300
-2.590100 101.871300 -745.696228
-2.590500 98.764801 -742.178101
-2.615500 97.888802 -740.446716
-2.621800 99.003304 -742.804871
-2.634100 97.653503 -738.812683
-2.648800 97.644997 -736.645386
-2.674300 97.534103 -737.312073
-2.695200 102.277298 -746.530212
-2.701200 99.791603 -743.658386
-2.727400 100.010498 -744.520020
-2.746700 101.413696 -745.489197
-2.769900 100.614998 -744.640381
-2.779200 97.731400 -738.196411
-2.782400 103.398903 -747.530823
-2.829700 97.814796 -739.880676
-2.840500 98.099503 -740.928406
-2.867800 98.329399 -741.643188
-2.897900 99.504898 -743.198730
-2.924300 102.241898 -746.013672
-2.925100 100.917603 -745.077087
-2.968000 97.883202 -739.276428
-2.980600 102.709999 -746.628723
-3.014100 98.400497 -742.222778
-3.014400 100.190300 -744.053223
-3.035700 97.755997 -737.628906
-3.055400 98.925598 -742.395081
-3.066000 99.427200 -743.731079
-3.079400 103.278603 -747.042175
-3.109700 98.901802 -743.069824
-3.121500 103.599503 -747.923584
-3.146500 97.804199 -738.644287
-3.146700 98.026398 -740.486328
-3.147500 101.831703 -745.769897
-3.148000 97.399101 -736.630615
-3.185700 100.302299 -744.685974
-3.218200 97.588898 -737.117126
-3.242100 97.971901 -741.560730
-3.268700 101.281303 -745.318176
