76.709801 161.212097 -859.962280
76.679001 158.387802 -839.362976
76.661201 245.532303 -746.842773
76.633102 158.106094 -835.760071
76.632797 235.900208 -751.440308
76.628899 159.272003 -881.871216
76.620399 161.240799 -869.511108
76.616898 224.332596 -760.189087
76.606003 233.353500 -752.429382
76.603302 241.283005 -749.554382
76.585899 247.007599 -745.461792
76.574898 249.795700 -742.842224
76.560898 158.541199 -842.858093
76.536797 226.256897 -759.574585
76.523598 161.617401 -863.651611
76.519203 230.262497 -756.890320
76.514099 232.303894 -755.062805
76.500900 239.947403 -750.443115
76.498901 161.576202 -867.392273
76.495499 217.501099 -761.736816
76.492599 159.778793 -855.055725
76.483704 253.605698 -740.384094
76.475502 159.301407 -850.584900
76.457397 156.119003 -830.600830
76.454803 157.744293 -834.649780
76.449898 161.789597 -865.831970
76.442001 154.228394 -826.248901
76.427696 210.940796 -763.438721
76.424004 252.324203 -740.816772
76.422302 227.811005 -758.415527
76.411400 159.817093 -853.688782
76.407600 223.214096 -760.520386
76.390404 158.649994 -844.571411
76.363297 160.721298 -856.937317
76.351402 158.125305 -837.930420
76.333702 237.012497 -751.532288
76.318604 161.209198 -858.735779
76.303200 232.639297 -753.931274
76.282303 159.977707 -877.756470
76.246498 244.520096 -747.375183
76.241898 159.553299 -880.785583
76.238998 221.051804 -760.816223
76.238899 158.776093 -845.896484
76.221397 155.686600 -829.367493
76.211899 157.371399 -833.549377
76.196999 214.123596 -762.311829
76.196503 231.208206 -755.461975
76.183800 238.160294 -751.144470
76.183296 232.208099 -752.785522
76.182404 248.778397 -743.472229
76.181900 160.168106 -874.964722
76.170998 160.471100 -873.623413
76.160400 158.298798 -841.705688
76.142799 212.893600 -762.638611
76.117203 216.062103 -761.749390
76.115303 246.107697 -745.940674
76.115196 159.098694 -849.434875
76.104103 234.403595 -751.927185
76.098503 222.137100 -760.451721
76.092796 226.741592 -758.638977
76.089203 247.457596 -744.442688
76.086601 158.973602 -848.164429
76.071198 243.024506 -748.399902
76.070702 153.650208 -825.318726
76.063797 229.237900 -756.919922
76.063004 219.546906 -761.031128
76.046097 225.118195 -759.393311
76.038300 161.925201 -864.698486
76.036301 250.649399 -741.820984
76.022102 160.808701 -872.034302
76.016800 161.832001 -862.573181
76.003700 160.679398 -855.538330
76.000999 152.207703 -823.276672
75.987396 158.215393 -840.231018
75.987000 156.840500 -832.523071
75.937103 160.120697 -876.560181
75.935799 231.625000 -754.289185
75.933701 209.911301 -763.808472
75.931198 159.741592 -852.586426
75.918098 157.793304 -836.579285
75.887199 155.106400 -828.404114
75.848801 228.228699 -757.505310
75.848801 230.088593 -755.943420
75.838997 161.908005 -861.239990
75.835197 161.146698 -870.511475
75.819702 161.567993 -868.726318
75.814796 160.495499 -854.424316
75.798203 230.883698 -753.206909
75.783897 159.955200 -879.410828
75.779999 154.514999 -827.106201
75.773804 223.546204 -759.611572
75.766502 241.845703 -748.905884
75.765999 161.266006 -857.731812
75.756897 218.289597 -761.188721
75.739098 161.833099 -860.056213
75.735298 158.787903 -846.934082
75.729103 156.369202 -831.418823
75.724503 159.081299 -851.675415
75.721901 152.993607 -824.399109
75.699699 235.492401 -751.945374
75.693802 240.624893 -749.554016
75.684502 249.526993 -742.176575
75.683502 211.675705 -762.810913
75.679802 238.953400 -750.505188
75.679497 214.984604 -761.779175
75.654602 157.967804 -839.070496
75.653503 245.146606 -746.539612
75.640701 162.064697 -866.771973
75.613297 158.493301 -843.515381
75.606003 230.540497 -754.775085
75.596298 157.455795 -835.369690
75.560997 251.397507 -741.003418
75.535301 217.078003 -761.237671
75.507301 243.643402 -747.599670
75.502098 233.165298 -752.672607
75.501701 246.533600 -744.689026
75.472504 162.304398 -863.805786
75.439003 208.797806 -764.290527
75.432404 162.286697 -865.614502
75.395302 220.394806 -760.377014
75.392700 247.975296 -743.429871
75.390602 225.563400 -758.388428
75.388603 155.890793 -830.124084
75.387199 161.801407 -858.974915
75.386101 161.352905 -856.607788
75.384300 160.476807 -853.320679
75.374199 158.480301 -845.222717
75.371101 158.850693 -850.456787
75.364799 157.148407 -834.306274
75.363998 227.127197 -757.716003
75.347000 153.989502 -826.115112
75.307198 228.374405 -756.520874
75.306801 222.262100 -759.655823
75.295799 224.301498 -758.840698
75.289200 157.580597 -837.521729
75.279800 229.526001 -753.566772
75.274696 237.396500 -751.285217
75.268600 160.679092 -872.984314
75.264999 158.164795 -842.379211
75.261002 229.179504 -755.640625
75.247704 213.529495 -762.107117
75.247498 160.462997 -874.333984
75.225700 157.979904 -841.087219
75.219498 160.230804 -875.575500
75.197899 160.204895 -877.987183
75.190002 160.075699 -851.720520
75.178497 210.427399 -763.087280
75.167297 219.031799 -760.529297
75.147102 161.933197 -867.845276
75.133904 245.722900 -745.515930
75.128098 161.781601 -869.665710
75.111000 152.088501 -822.599609
75.101196 248.569397 -742.490723
75.095299 162.484802 -862.443787
75.090500 158.549301 -849.077820
75.082298 231.778503 -753.172180
75.057999 161.170700 -855.053406
75.051201 215.851196 -761.340027
75.048103 239.729401 -749.970703
75.038597 250.339005 -741.404480
75.019997 161.053802 -871.476990
75.014702 155.383102 -829.078918
74.987602 207.723007 -764.585693
74.978699 151.235992 -821.720581
74.977097 244.141205 -746.712830
74.962502 157.737198 -839.944519
74.949898 212.386597 -762.269470
74.943199 158.858398 -847.841980
74.937599 242.398605 -748.278198
74.925400 223.123093 -758.918579
74.923203 157.340698 -836.333374
74.920502 226.119202 -757.466309
74.911903 156.460098 -832.485596
74.911697 236.305603 -751.699524
74.907501 228.965195 -754.568726
74.896103 159.518204 -849.681580
74.895897 234.103104 -752.500427
74.891296 162.414703 -860.821411
74.890701 153.500305 -825.189209
74.864403 221.120499 -759.664307
74.850700 154.834396 -827.819580
74.844101 217.837601 -760.628784
74.801903 241.260803 -748.988770
74.798500 158.439804 -846.361511
74.796303 152.492096 -823.625183
74.795700 161.945496 -857.389587
74.757896 246.917007 -743.853516
74.748299 227.404602 -756.439026
74.727303 162.760498 -864.554993
74.712700 209.179901 -763.454224
74.712303 230.482605 -753.130127
74.706200 158.098007 -844.264771
74.697403 155.995697 -831.166626
74.691498 159.996002 -850.695801
74.681801 214.317200 -761.414429
74.677299 211.297897 -762.447510
74.677200 157.499207 -838.675781
74.661102 238.358093 -750.601685
74.647598 162.462402 -859.503418
74.634003 162.490601 -866.499390
74.612000 160.690399 -852.537170
74.590698 161.016205 -853.938721
74.590599 156.971603 -835.189514
74.589401 224.946701 -757.894897
74.581200 156.570099 -833.578125
74.574699 235.154099 -752.024475
74.572800 150.782394 -820.650879
74.572601 249.359207 -741.881775
74.571503 227.468704 -754.198608
74.566200 206.664703 -764.913086
74.541496 219.806793 -759.820618
74.533600 216.719498 -760.713928
74.528198 227.791397 -755.408081
74.500900 244.928497 -746.047424
74.496803 161.842194 -855.965515
74.473900 247.661896 -742.808716
74.457298 162.912399 -863.296387
74.445602 243.290497 -747.485413
74.434097 162.391006 -858.397522
74.431801 161.362793 -870.570496
74.405197 157.849899 -843.079529
74.404404 245.945007 -744.654419
74.392799 232.966095 -752.753723
74.390701 154.368500 -826.888611
74.386902 228.480301 -753.643982
74.378502 221.878006 -758.909424
74.358002 161.917694 -868.648010
74.347099 150.653702 -819.203796
74.326599 223.774002 -758.168213
74.325401 159.469604 -848.639893
74.304298 155.542206 -830.039185
74.301201 160.970001 -872.417175
74.301003 208.167206 -763.735107
74.299400 157.863998 -841.825928
74.285599 162.955002 -861.765320
74.231796 213.211105 -761.614014
74.229599 158.446701 -845.373230
74.229301 153.200897 -824.331116
74.218803 157.153900 -837.461182
74.210098 215.196396 -760.898987
74.204399 240.300095 -749.325989
74.198502 237.072006 -751.023682
74.192802 205.542496 -765.547729
74.175301 225.875000 -756.663513
74.173203 210.215805 -762.628296
74.166298 159.161407 -846.976318
74.155899 226.608902 -755.650024
74.154099 218.484299 -759.903625
74.147903 160.716599 -851.441711
74.137199 226.261398 -754.481018
74.131699 157.477295 -840.685974
74.104401 163.063095 -860.345886
74.095200 161.782700 -854.785583
74.065002 239.191895 -749.941589
74.061897 162.770294 -865.558777
74.052902 151.841095 -822.074707
74.044701 153.981293 -825.777527
74.021004 160.222702 -849.484680
74.005898 162.250504 -867.630310
73.977203 162.610199 -856.924622
73.965897 231.573196 -753.226807
73.958298 150.219299 -817.904297
73.955399 241.759399 -748.329529
73.947197 212.081894 -761.845825
73.930801 155.944794 -832.013611
73.930298 161.586197 -853.129578
73.929604 155.056198 -828.452209
73.902397 229.842606 -753.755127
73.894600 248.444107 -742.032288
73.877998 220.461807 -759.158325
73.873497 163.220200 -859.194702
73.872200 156.802795 -836.081726
73.865601 243.769104 -746.570923
73.850700 207.098801 -764.164307
73.845200 225.137695 -754.810120
73.844902 161.737396 -869.634888
73.823700 246.644302 -743.265198
73.817497 152.568497 -823.045288
73.810204 222.770706 -758.162720
73.800301 157.379395 -839.570801
73.796997 233.972305 -752.304871
73.795502 217.367996 -760.064575
73.782799 236.047806 -751.547119
73.772202 224.372299 -757.367188
73.757301 156.457001 -834.445496
73.730301 162.695801 -855.740723
73.723297 163.277405 -864.329529
73.723198 216.040802 -760.340820
73.690399 244.964005 -745.153625
73.682701 149.629700 -816.871582
73.680702 151.338394 -821.142212
73.676804 209.253296 -762.941284
73.658897 163.647705 -862.631775
73.650398 224.864594 -756.351013
73.646301 163.278397 -858.087280
73.640404 156.114807 -833.136230
73.627800 214.047394 -760.911987
73.627502 158.562805 -844.154724
73.614998 155.639999 -830.964111
73.612099 237.908203 -750.559082
73.597000 157.080505 -838.428528
73.595901 219.385605 -759.310730
73.576897 163.632294 -861.197571
73.575996 206.006500 -764.719971
73.573601 150.936005 -820.054688
73.567902 159.207504 -845.996887
73.549004 204.507599 -765.757324
73.547600 160.740494 -850.464172
73.539101 210.932693 -762.020081
73.512100 159.834106 -847.679199
73.503601 242.563202 -747.582520
73.495598 162.776901 -866.595886
73.484299 227.729004 -754.369080
73.458900 221.305099 -758.550903
73.450500 161.457199 -852.085022
73.436203 245.698502 -744.134399
73.426804 162.488495 -854.079224
73.403999 149.547806 -815.711975
73.396698 223.830902 -755.126099
73.394600 240.870300 -748.741577
73.391998 234.904694 -751.818115
73.381203 155.089798 -829.469421
73.380203 154.448807 -827.391174
73.378998 158.030502 -842.622620
73.367798 247.447693 -742.475586
73.319603 163.810501 -860.043274
73.313400 232.462402 -752.903015
73.295502 157.923492 -841.289490
73.294098 153.515305 -825.076111
73.281700 163.497101 -856.666626
73.279404 150.445496 -818.841919
73.273201 228.912903 -753.901672
73.262398 212.833206 -761.121216
73.251602 223.739594 -756.550415
73.232101 207.815704 -763.357727
73.217300 230.683899 -753.469971
73.196198 156.674103 -837.123108
73.181503 218.152496 -759.438416
73.172897 243.953796 -745.637573
73.170799 239.767303 -749.441406
73.161400 153.136398 -823.922791
73.154701 215.037796 -760.463928
73.149696 160.293304 -848.676086
73.103302 163.980301 -858.885498
73.088699 203.502197 -766.247681
73.071098 149.046600 -814.625488
73.068497 226.552399 -754.283020
73.047897 236.756302 -751.017212
73.039597 222.580002 -757.269470
73.037498 154.019806 -826.319397
73.008797 222.636505 -755.344116
72.994698 162.248901 -852.935120
72.993202 163.268005 -865.426819
72.992500 156.286407 -835.561584
72.983498 152.218506 -821.997925
72.982399 238.770905 -749.978699
72.979698 209.936600 -762.254578
72.951500 243.131104 -746.757996
72.949799 157.342300 -840.316528
72.944901 216.677704 -759.829712
72.944702 219.964798 -758.583130
72.938400 163.500198 -855.320801
72.897102 204.959503 -764.956421
72.886398 155.517105 -832.087280
72.885696 149.146896 -813.073914
72.884102 164.045105 -857.774414
72.875801 159.333099 -845.022888
72.875099 159.799500 -846.665283
72.867897 154.637604 -828.422302
72.861000 163.667999 -863.636414
72.859596 161.445496 -851.037415
72.859398 241.625198 -747.995178
72.846397 158.778702 -843.363281
72.825104 160.968597 -849.520386
72.824203 206.489105 -763.864075
72.819099 224.688004 -754.494629
72.811401 150.181793 -817.834717
72.769699 246.119507 -743.317505
72.762199 233.460693 -752.304688
72.751602 164.002594 -861.969910
72.748703 208.614105 -762.618530
72.746201 155.956696 -833.967773
72.743698 211.533203 -761.353088
72.715202 221.326797 -757.626282
72.710503 157.065903 -839.162903
72.662102 244.548904 -744.759521
72.659599 155.087204 -830.586487
72.645897 163.174896 -853.657288
72.642700 151.347900 -820.550781
72.625198 152.688904 -823.034912
72.618301 221.553497 -755.603882
72.617302 235.810501 -751.448486
72.599899 213.732697 -760.530579
72.584602 202.434097 -766.601501
72.580002 164.236694 -860.886414
72.569397 149.760101 -816.686096
72.551804 160.496796 -847.717773
72.531601 218.831802 -758.762573
72.528397 237.619904 -750.457581
72.524200 162.480194 -851.771790
72.521896 203.870605 -765.340576
72.509499 231.521393 -753.104126
72.493797 150.953094 -819.499207
72.483200 158.511002 -841.999329
72.456200 164.472000 -859.767273
72.429604 164.287399 -856.476074
72.424301 228.066498 -754.235718
72.417397 156.848099 -837.961487
72.403603 148.791199 -811.661316
72.392899 240.301407 -748.773804
72.377098 217.361801 -758.963989
72.374100 215.525101 -759.784912
72.336403 225.705307 -754.709229
72.332397 229.998703 -753.623718
72.331497 242.132294 -747.038208
72.325302 220.362396 -755.868774
72.317902 220.198303 -757.671021
72.302902 149.414597 -815.388428
72.301201 245.156799 -743.815430
72.300797 212.433594 -760.689575
72.281898 234.670303 -751.858582
72.275398 158.187607 -840.866211
72.275398 207.231995 -763.200623
72.271797 243.196701 -745.799316
72.264297 212.277802 -802.710815
72.259300 154.050293 -827.165405
72.245796 205.370804 -764.121521
72.233002 223.991394 -755.165894
72.230598 153.553299 -825.530884
72.223801 210.362701 -761.441223
72.218498 157.981705 -839.720276
72.217300 156.411301 -836.449829
72.215202 215.281296 -806.150513
72.207199 154.691895 -829.485779
72.197701 213.848602 -804.773071
72.181801 163.845795 -854.429993
72.161102 161.762894 -850.126221
72.147301 210.403198 -800.656616
72.140900 164.479202 -855.388489
72.137001 239.316299 -749.391479
72.121498 153.154297 -824.386719
72.115303 155.491501 -833.042419
72.100304 161.085602 -848.575317
72.096497 159.847900 -845.661316
72.093002 232.592407 -752.534973
72.090202 149.217102 -814.072693
72.076103 216.430206 -807.568787
72.068497 211.220306 -801.745972
72.066704 159.285706 -844.210571
72.051102 201.433594 -766.874329
72.049797 202.892105 -765.641113
72.033897 226.959198 -754.498474
72.020699 148.544601 -810.467407
72.017700 163.441101 -852.696228
72.014000 213.124496 -803.781311
72.002602 151.872101 -821.318298
71.989899 155.790497 -834.982300
71.987396 217.585098 -808.777527
71.967796 155.097000 -831.599304
71.967598 209.223694 -761.860229
71.963898 209.295502 -799.792114
71.941803 208.192200 -798.839478
71.925400 236.707794 -750.906982
71.895897 218.506393 -809.838074
71.880203 222.561798 -755.213684
71.862602 150.592804 -818.350220
71.855103 207.946899 -762.447815
71.842796 214.320694 -759.806885
71.838799 204.327499 -764.564880
71.838097 159.172302 -843.032593
71.809402 238.380005 -749.956970
71.808998 206.169907 -763.438782
71.808296 218.994797 -757.819885
71.807800 228.915802 -753.798279
71.806900 241.286301 -747.703979
71.804703 154.231400 -828.448181
71.797699 148.772705 -812.722229
71.797501 206.435806 -797.768677
71.783501 219.595398 -756.786072
71.772400 157.502594 -838.603210
71.748100 243.803894 -744.907471
71.722603 218.542999 -756.235596
71.707397 160.686996 -846.849976
71.707100 216.336502 -759.067871
71.689301 211.479599 -760.753479
71.684303 204.949600 -796.750671
71.644699 233.654800 -752.124512
71.636803 152.274597 -822.302979
71.625702 162.658005 -851.081177
71.623199 219.411804 -810.959229
71.618301 214.634705 -805.376282
71.588501 148.275101 -809.306213
71.585297 203.824600 -795.567993
71.575500 151.458496 -820.061707
71.569603 221.307205 -755.931580
71.569397 150.210205 -817.260681
71.567902 200.328705 -767.298218
71.564102 230.889801 -753.127686
71.561501 152.788498 -823.389587
71.560402 217.780502 -758.191101
71.555901 213.018600 -760.085022
71.531303 154.548599 -830.471924
71.515999 201.928497 -765.906311
71.506699 220.183594 -811.807922
71.505798 157.113098 -837.105530
71.500702 149.772507 -816.220520
71.495102 219.501602 -755.504578
71.472900 161.910706 -849.229126
71.466202 216.043198 -806.647400
71.456902 242.511307 -746.255920
71.455597 235.630203 -751.378479
71.452003 203.031097 -794.776978
71.437202 158.732193 -841.630310
71.427200 153.571396 -826.508911
71.420799 163.824707 -853.606689
71.413803 225.113602 -755.061890
71.412697 156.738098 -835.488220
71.403702 155.636200 -834.013794
71.390800 217.420700 -756.482910
71.367996 221.397797 -813.320313
71.347900 202.182907 -793.943481
71.341499 217.257095 -807.880676
71.341400 203.158096 -764.757385
71.338997 222.369095 -814.304016
71.338303 215.283005 -759.188904
71.338203 148.432907 -811.578430
71.337502 240.389694 -748.357727
71.329102 244.200302 -743.895508
71.323799 204.969696 -763.623413
71.306198 207.401001 -798.344421
71.297897 159.949799 -844.854980
71.284599 211.888000 -802.294006
71.281097 206.866699 -762.602417
71.279099 227.753006 -754.157410
71.275101 158.211395 -840.309387
71.264198 209.773499 -761.174377
71.237099 149.376205 -815.022827
71.207100 147.899307 -807.851807
71.202599 153.047394 -825.031006
71.200699 226.187302 -754.667786
71.199203 200.861496 -766.254517
71.192902 213.746796 -804.269592
71.189499 237.382706 -750.396423
71.173302 154.134094 -829.395874
71.168701 201.182007 -792.968384
71.166298 212.717499 -803.112976
71.160202 161.306198 -847.945618
71.158798 154.970093 -832.386475
71.154999 223.502502 -755.369080
71.149002 210.008698 -800.197876
71.148598 223.496307 -815.367004
71.121002 210.878006 -801.005188
71.118103 234.570999 -751.751770
71.112503 216.794998 -757.777588
71.104698 208.368393 -761.656311
71.102501 149.025299 -813.570313
71.089401 218.418701 -808.981812
71.074799 208.856796 -799.228577
71.073196 199.166107 -767.640015
71.071701 163.080307 -851.974121
71.070999 150.929001 -819.207581
71.068001 160.431595 -845.870789
71.067497 229.888702 -753.527588
71.067299 238.895401 -749.102783
71.028900 205.897995 -797.091797
71.022499 216.374802 -756.666809
71.016701 162.415100 -850.150024
71.012802 219.294907 -809.996887
71.006699 215.588104 -805.715881
71.002998 241.539001 -746.964478
71.001404 231.863693 -752.713684
70.968903 242.850998 -745.286316
70.964203 148.146698 -810.335815
70.952003 224.741302 -816.343079
70.951401 200.118896 -791.932190
70.944397 210.640396 -760.524170
70.925400 203.885895 -763.971619
70.924400 153.685104 -828.017578
70.914001 221.060699 -812.329529
70.907097 151.683701 -821.108704
70.905800 213.789703 -759.347412
70.901604 225.775101 -817.152222
70.899399 159.459702 -843.705383
70.899399 220.318298 -756.044373
70.894302 227.292892 -818.666382
70.884201 157.947006 -839.165710
70.881897 205.648499 -762.801025
70.846497 222.268204 -755.644775
70.814598 159.039505 -842.557495
70.784599 204.610596 -795.919495
70.783798 215.561005 -758.201477
70.777802 147.453705 -806.763611
70.775497 211.783493 -760.090576
70.771400 198.838593 -790.642517
70.767899 202.095398 -765.086670
70.757698 236.425903 -750.920715
70.738998 216.901306 -806.953979
70.736900 150.506393 -817.980103
70.725304 215.271103 -756.897095
70.724503 154.588699 -831.258606
70.719398 199.654205 -766.681702
70.718102 157.580795 -838.102173
70.710297 220.194794 -810.963013
70.697701 222.386200 -813.371887
70.693001 156.323303 -834.733276
70.684097 228.668594 -753.818115
70.666397 223.425797 -814.289978
70.659103 156.949997 -836.321228
70.655098 152.544098 -824.121887
70.648903 206.860901 -797.585571
70.645302 207.347198 -761.699524
70.639801 161.038498 -846.853394
70.629303 226.847702 -817.665283
70.620796 232.916702 -752.338623
70.616997 148.804993 -812.454590
70.616402 152.337006 -822.783691
70.616402 198.016998 -767.880920
70.616203 214.853897 -804.846375
70.614998 218.708206 -756.466187
70.612099 224.512100 -815.226074
70.582199 228.435394 -819.700317
70.564201 153.018402 -825.960083
70.559700 147.709396 -808.793579
70.549797 155.862701 -833.152771
70.523201 241.792496 -745.966919
70.501701 150.086304 -816.869690
70.499802 240.506897 -747.519775
70.484497 197.849304 -789.475525
70.480499 203.741501 -795.076721
70.480301 239.712997 -748.608521
70.475502 214.427307 -758.442627
70.464798 218.101898 -808.077881
70.449997 202.859604 -764.132507
70.448097 200.803604 -765.420105
70.437599 226.932999 -754.276123
70.435402 161.871002 -848.708618
70.433502 230.768799 -753.178772
70.418098 158.552399 -841.083374
70.418098 204.567795 -763.049500
70.410896 211.637894 -801.585815
70.408798 162.764999 -851.031799
70.407097 149.691696 -815.786316
70.406502 214.175598 -756.984985
70.398102 208.165298 -798.503174
70.396500 151.322601 -820.095581
70.391296 198.596497 -766.913330
70.390503 209.217606 -760.719788
70.381897 237.967300 -749.857483
70.373596 224.695099 -754.995789
70.358002 147.104599 -805.759277
70.354103 212.522202 -759.361694
70.346001 202.791107 -794.479492
70.342796 225.620605 -815.886902
70.338303 222.085098 -812.301086
70.326103 196.987701 -788.713623
70.315102 229.177505 -820.696777
70.311600 213.499603 -803.455200
70.308098 201.916702 -793.544373
70.304802 221.163498 -811.390625
70.300797 196.718506 -767.834290
70.282799 148.199707 -811.281677
70.252602 154.303802 -830.060486
70.242203 206.182297 -762.024292
70.235497 149.188599 -814.360901
70.231003 235.498398 -751.351624
70.219902 217.251099 -756.340698
70.215202 200.788498 -792.513123
70.211899 212.489899 -802.475525
70.210800 155.585098 -832.085327
70.207802 209.612396 -799.729980
70.206497 219.228500 -809.189026
70.205803 221.272095 -755.851013
70.174896 225.786102 -754.341309
70.163498 216.294998 -806.109497
70.154503 153.299698 -827.084900
70.147697 153.722595 -828.992371
70.135803 159.984299 -844.661621
70.133598 233.904205 -752.000488
70.133499 227.942795 -818.075684
70.130699 205.437698 -796.539673
70.130096 199.663406 -791.246521
70.120300 196.070999 -787.846619
70.106102 208.122299 -761.051880
70.098297 147.387604 -807.780396
70.096298 223.369293 -813.269470
70.095596 213.029602 -757.151428
70.083603 223.069794 -755.411804
70.081703 199.680496 -765.628113
70.078903 213.115601 -758.437378
70.058899 210.570999 -800.604919
70.052002 203.431900 -763.213318
70.049301 161.383896 -847.753113
70.048897 210.771698 -759.862610
70.036400 201.639801 -764.296021
70.029198 151.675507 -822.043579
70.024498 146.376602 -804.885925
70.018898 158.432007 -840.024475
70.017303 157.307007 -837.215027
70.013702 220.189896 -810.055176
70.010002 241.040894 -746.635681
69.984802 226.698303 -816.660278
69.950104 150.718597 -818.974426
69.947403 160.697403 -845.983093
69.943802 224.516205 -814.221985
69.940598 152.457703 -825.113403
69.933899 238.742996 -749.044373
69.924500 147.808304 -810.023621
69.913803 219.817505 -756.229797
69.909103 155.337708 -830.889771
69.908203 194.958603 -787.010620
69.903503 162.119797 -849.721008
69.902298 217.628403 -807.222900
69.901001 214.324295 -804.164673
69.890099 195.250198 -768.112427
69.883904 197.468094 -767.076721
69.881599 156.931702 -835.456116
69.873703 148.702499 -813.304626
69.860603 229.445801 -753.546997
69.849899 205.096603 -762.191772
69.841202 236.854599 -750.440125
69.835403 156.346207 -833.965271
69.831200 215.559601 -805.247986
69.830002 231.688202 -752.717773
69.828300 157.844894 -838.756897
69.813904 230.138107 -821.634583
69.806999 159.333603 -843.225098
69.797897 152.019608 -823.576172
69.795303 158.941299 -842.077271
69.793503 229.246994 -819.563416
69.776703 227.953705 -753.995789
69.757599 198.384796 -790.171875
69.753304 198.586594 -765.884583
69.740501 194.110794 -768.210510
69.740501 215.759201 -756.643921
69.732498 207.040207 -761.013489
69.726402 204.470795 -795.474915
69.726303 207.492798 -797.873474
69.720200 194.205399 -786.019775
69.709999 206.373505 -797.020691
69.707703 211.803604 -758.697327
69.704102 145.832397 -803.905701
69.693100 200.431900 -764.645691
69.684402 211.824600 -757.322876
69.682503 151.287994 -821.034973
69.663399 209.539398 -759.840088
69.641800 146.871399 -806.714722
69.600899 225.398895 -815.039978
69.600197 208.779800 -799.119324
69.595299 192.496704 -768.377380
69.580498 150.296494 -817.615479
69.578598 222.211395 -811.478821
69.574699 148.421402 -812.242310
69.572403 239.851593 -747.953430
69.571602 218.819901 -808.125000
69.562401 227.629700 -817.148315
69.558800 202.421097 -763.230896
69.556503 230.098694 -820.421387
69.547501 218.151703 -756.575500
69.545601 193.115005 -785.012085
69.542503 228.782898 -818.529724
69.540901 195.884598 -767.101379
69.512703 221.404099 -810.599304
69.506897 152.686005 -826.235474
69.502998 153.597702 -827.946594
69.492401 147.385101 -808.905273
69.488899 222.992203 -812.398926
69.486000 232.927795 -752.354004
69.462196 191.365494 -768.383789
69.451401 204.048706 -762.153870
69.448898 145.210999 -802.848816
69.442200 149.399307 -815.176025
69.440498 149.632507 -816.382019
69.413597 156.143997 -832.789124
69.411301 192.003403 -784.418030
69.408302 200.281799 -791.924194
69.405800 205.892197 -761.218506
69.405296 202.500900 -793.874573
69.400597 208.315796 -760.117004
69.389198 203.518494 -794.755310
69.388397 210.475693 -757.790527
69.388298 213.893204 -757.402588
69.383202 234.781494 -751.585083
69.380699 197.479996 -789.287170
69.377403 210.456696 -758.957520
69.373001 213.225906 -802.843628
69.372498 226.350098 -815.591797
69.356903 230.982498 -822.246094
69.353600 225.158203 -754.820984
69.349701 211.352493 -801.258118
69.347702 201.224197 -763.455017
69.342598 197.306793 -766.054810
69.335899 219.956100 -809.089478
69.335503 199.168304 -764.917114
69.333099 161.653702 -848.686279
69.332397 201.565308 -793.119019
69.322998 230.458206 -753.270813
69.317902 150.834396 -820.001526
69.315002 154.643906 -829.389221
69.311699 237.659302 -749.716370
69.308701 158.442093 -840.904175
69.304802 160.862793 -846.912903
69.297501 189.998199 -768.377930
69.292801 194.603699 -767.264282
69.292198 216.982101 -806.374390
69.290604 235.965302 -750.956604
69.283600 224.214706 -813.294922
69.282898 196.577301 -788.605103
69.275902 226.564804 -754.394714
69.270798 157.351395 -836.360718
69.270401 223.835907 -755.100708
69.249100 191.114700 -783.536804
69.233299 212.224106 -801.970215
69.229401 231.546997 -823.444214
69.225098 221.919495 -755.625305
69.215897 146.461197 -805.731201
69.215202 199.206497 -790.745483
69.215103 217.073196 -756.802612
69.196899 155.888702 -831.703308
69.192497 160.096405 -845.260681
69.189499 144.347198 -801.948730
69.186501 240.150299 -746.891479
69.174698 147.924194 -811.182617
69.170998 220.744705 -755.977112
69.165001 210.034607 -800.054871
69.162102 193.413101 -767.510315
69.152298 188.628006 -768.347290
69.125900 157.574097 -837.883972
69.125397 151.233795 -822.557800
69.124298 205.221802 -796.054688
69.113800 187.279404 -768.526978
69.092300 200.068100 -763.763123
69.092201 231.044495 -821.128723
69.086098 195.451096 -787.642090
69.078598 215.060501 -804.518799
69.075203 227.386200 -816.162720
69.051903 202.837799 -762.225586
69.043098 148.934601 -814.153870
69.036301 151.937195 -824.432678
69.022598 238.909607 -748.386780
69.017303 207.242706 -760.164673
69.015999 197.913803 -765.085571
69.015297 146.887207 -807.817688
69.011902 159.577499 -844.001282
69.000603 204.769806 -761.395325
68.997902 195.986206 -766.094482
68.995102 156.813095 -834.679016
68.975601 229.968796 -819.172424
68.973000 143.410904 -800.891724
68.971802 219.165695 -756.368530
68.967697 158.007996 -839.616272
68.964798 209.355499 -758.963379
68.944702 208.803497 -757.888306
68.942299 185.962204 -768.337891
68.939697 218.203094 -807.158325
68.935204 228.659698 -753.766296
68.929901 216.253403 -805.407593
68.916000 192.259995 -767.470886
68.911301 212.703201 -757.448120
68.908897 228.681595 -817.596375
68.905502 220.919296 -809.788391
68.878799 225.017700 -814.095520
68.878502 193.337799 -786.027222
68.877502 214.026901 -803.555420
68.874298 190.914307 -767.537109
68.872803 208.117706 -798.377502
68.870399 155.210602 -830.374817
68.866600 189.996506 -782.832520
68.859596 194.629105 -786.732483
68.845497 184.695908 -768.270508
68.843002 153.706100 -827.020203
68.839203 201.684601 -762.552185
68.837997 145.715897 -804.707886
68.831802 233.856506 -752.000671
68.821404 150.102707 -818.473022
68.818703 147.496399 -809.849487
68.817703 215.326904 -757.270081
68.814796 152.891800 -825.322815
68.814301 207.008102 -797.437988
68.811897 232.001907 -822.347229
68.789200 198.702698 -764.033875
68.753304 230.947906 -820.026611
68.750999 231.400208 -752.928528
68.748001 156.787994 -833.528809
68.740799 148.495499 -813.087830
68.739799 158.990402 -842.548706
68.734703 183.053696 -767.986023
68.726196 150.801300 -821.510315
68.722801 222.962494 -811.487793
68.717796 232.579803 -823.691772
68.711304 196.808701 -765.252686
68.706100 236.802704 -750.215088
68.702599 181.694107 -767.970581
68.687798 208.109604 -759.277405
68.684303 194.939697 -766.354675
68.670303 226.190598 -814.672974
68.658096 193.820496 -766.528625
68.651901 211.227798 -757.327209
68.651199 142.621399 -800.113892
68.645500 223.804703 -812.233093
68.645500 198.004501 -790.035217
68.637497 145.235596 -803.623291
68.637199 189.782593 -767.421692
68.633301 227.449005 -754.084473
68.632500 205.938705 -796.807129
68.629501 149.648193 -817.232727
68.626900 146.322006 -806.724121
68.623802 203.678802 -761.495300
68.617699 154.483704 -828.148010
68.612297 206.004196 -760.316284
68.606598 222.138107 -810.587585
68.601601 219.520493 -808.176392
68.596397 188.800003 -781.913330
68.591103 204.244797 -795.288086
68.589302 160.219803 -846.254028
68.586304 180.394897 -767.803772
68.575302 201.003494 -792.510620
68.557098 200.389206 -762.751709
68.548302 207.675003 -758.052124
68.519096 192.320297 -785.138306
68.509003 187.862396 -767.647522
68.503403 179.274506 -767.644226
68.499001 222.870697 -755.417297
68.494003 232.454300 -752.585327
68.491096 146.872406 -808.912903
68.489403 210.790100 -800.653870
68.484901 149.200699 -815.738525
68.483803 141.811295 -798.963501
68.483200 209.108704 -799.375427
68.471100 228.321503 -816.608887
68.463997 232.018295 -821.131897
68.459099 151.088898 -823.466797
68.452797 224.873596 -812.920715
68.452698 209.768204 -757.558899
68.447403 186.725693 -767.679688
68.446899 150.154404 -819.756897
68.444199 147.933502 -812.057373
68.438301 216.265594 -756.784180
68.436996 199.607697 -791.534912
68.431000 229.659302 -817.998413
68.428200 237.846405 -748.998474
68.426498 202.997101 -794.431091
68.421204 232.465897 -824.849182
68.416801 229.783005 -753.526611
68.414001 227.170807 -815.182617
68.411301 217.863495 -756.612610
68.407402 192.694595 -766.507324
68.404900 191.266296 -784.280029
68.393600 177.235596 -767.429382
68.381302 235.330002 -751.181519
68.378700 224.472595 -754.828918
68.376701 156.501297 -832.276978
68.376297 157.280197 -835.529175
68.371002 195.536301 -765.246399
68.360397 232.991394 -822.697815
68.354500 202.114304 -793.741577
68.352097 191.552399 -766.588318
68.350800 239.434204 -747.192810
68.341904 157.703094 -838.709900
68.341103 197.018906 -789.359192
68.337303 197.205399 -764.196716
68.328796 157.332199 -837.100525
68.323196 217.538101 -806.275513
68.318604 158.502502 -841.498901
68.317001 159.436203 -844.902527
68.316101 220.018402 -755.751282
68.308296 211.821701 -801.474121
68.307404 199.085495 -763.076721
68.300102 187.785202 -781.341309
68.285004 185.416000 -767.557922
68.281197 212.738297 -802.340515
68.278999 202.182999 -761.523987
68.277496 214.201096 -757.340576
68.277397 144.485596 -802.735291
68.274002 204.442703 -760.519470
68.273102 195.803802 -788.350220
68.254700 155.024994 -829.398682
68.242798 206.615799 -759.432129
68.240997 230.894897 -818.981628
68.232002 175.870407 -767.232788
68.215599 155.825394 -831.083679
68.215599 226.135193 -754.499390
68.210701 220.395096 -808.809998
68.210503 233.773102 -823.800110
68.194901 221.432404 -755.636475
68.189903 198.658401 -790.833008
68.181000 143.663300 -801.653320
68.169899 147.356903 -810.817627
68.168503 215.723099 -804.714417
68.163696 184.051102 -767.658203
68.134903 152.198395 -823.706177
68.133698 214.868698 -803.944397
68.129097 194.050598 -765.446472
68.124802 226.049896 -813.679321
68.119202 190.365707 -766.603027
68.101898 158.214905 -840.328613
68.100998 188.818298 -766.949280
68.098602 206.303802 -758.310486
68.097801 238.361893 -747.831421
68.095200 194.916107 -787.617126
68.092796 174.511703 -767.077271
68.073997 158.955399 -843.505920
68.062798 148.760193 -814.752197
68.061401 234.253296 -824.917419
68.058899 218.897797 -807.389221
68.057602 186.667801 -780.629578
68.049004 153.631500 -826.163391
68.048401 232.943405 -821.622009
68.045799 140.925293 -798.344727
68.038101 231.966705 -820.047913
68.036301 190.129395 -783.617676
68.029900 204.973801 -796.116577
68.029800 145.739105 -805.973511
68.027397 233.508194 -825.785889
68.022598 197.802902 -763.223389
68.021103 150.814102 -822.398682
68.011497 201.000397 -761.941528
68.011200 193.810303 -786.725098
67.992599 189.239807 -782.812622
67.990799 209.985306 -799.922974
67.977798 172.993301 -766.923218
67.965500 146.363907 -807.830872
67.959503 229.423096 -816.951172
67.945297 228.230896 -815.542480
67.942101 196.042099 -764.255371
67.935799 207.473602 -798.040283
67.933701 150.432495 -820.766602
67.920197 221.606506 -809.585327
67.914200 235.910004 -750.294128
67.903397 213.638397 -802.966309
67.898598 178.276001 -767.220581
67.893097 205.403305 -759.581116
67.891197 156.953796 -834.350403
67.875603 182.592606 -767.420715
67.874397 203.216202 -760.707825
67.870399 199.734894 -762.119385
67.865898 145.141006 -804.665588
67.862900 228.290298 -753.870422
67.853798 192.182602 -765.616089
67.852898 187.369598 -766.791077
67.852303 192.813904 -785.986206
67.846802 236.943893 -749.428406
67.844704 216.642502 -805.395020
67.843102 154.241806 -827.152588
67.841698 171.522995 -766.707214
67.837898 208.931595 -758.276917
67.826401 185.346100 -779.926575
67.826202 149.509903 -818.576721
67.825302 230.728302 -753.164612
67.823601 218.990402 -756.241699
67.820000 140.151901 -797.291199
67.814003 212.547195 -757.693787
67.809799 181.087708 -767.342102
67.800499 223.726807 -811.443481
67.799896 200.207199 -792.301697
67.780197 142.975296 -800.782471
67.779297 206.485397 -797.320190
67.778000 148.188904 -813.687317
67.772003 152.898605 -824.736694
67.756302 146.970505 -809.802002
67.747597 204.577499 -758.486877
67.727501 233.934799 -822.760986
67.723198 169.894897 -766.508911
67.718903 230.602798 -817.806274
67.715302 210.586304 -757.882874
67.714401 194.689804 -764.374329
67.712097 215.404495 -757.082214
67.711502 201.421494 -793.099426
67.709396 222.881393 -810.692810
67.705299 234.206894 -751.730103
67.690002 149.096298 -816.842407
67.682999 234.424698 -826.614929
67.675697 191.559097 -785.124329
67.669998 226.933701 -814.274475
67.667000 186.009705 -766.827087
67.659798 142.190704 -799.742798
67.654404 232.926697 -820.527283
67.653000 208.489502 -798.776428
67.648300 224.691406 -812.122070
67.647499 196.728195 -763.184509
67.636803 193.094299 -764.904602
67.602898 144.641403 -803.631470
67.597504 191.059006 -765.531616
67.596199 203.628998 -794.942505
67.587700 168.633698 -766.194214
67.585602 231.826797 -819.024170
67.584702 155.686096 -830.086182
67.584000 184.736801 -766.903625
67.580498 204.171997 -759.621277
67.580002 189.456604 -766.009583
67.577797 234.730606 -823.864929
67.574799 179.910095 -767.135681
67.572601 235.508194 -825.774780
67.571602 151.871002 -822.684021
67.566902 158.585693 -842.567078
67.563599 188.332108 -782.309204
67.553001 198.552399 -762.336670
67.545601 156.753204 -833.035217
67.542198 154.906799 -828.396118
67.533897 219.779800 -807.940979
67.526299 207.369293 -758.563782
67.521896 139.487106 -796.290771
67.521400 151.360596 -821.521912
67.502197 197.636795 -790.164490
67.495499 176.728699 -766.918823
67.495102 231.801605 -752.843628
67.488098 216.935806 -756.739075
67.484802 148.697601 -815.814270
67.483498 149.655396 -820.073975
67.478104 218.192398 -806.617920
67.475800 233.915298 -821.550903
67.474503 232.927002 -752.373230
67.474197 157.200394 -836.228821
67.470200 229.218704 -815.949890
67.462196 188.251007 -766.165283
67.460503 157.753204 -839.534973
67.459602 157.379303 -837.961914
67.459297 225.583298 -812.861084
67.458199 211.292496 -800.933411
67.457298 183.566406 -766.849670
67.443100 201.439606 -761.015686
67.442497 225.170303 -754.652100
67.441399 147.671097 -812.545288
67.436401 186.984497 -781.541016
67.423401 167.247299 -766.120972
67.416000 226.915894 -754.208618
67.409599 183.978699 -778.942078
67.407501 196.412094 -789.153687
67.404297 145.731598 -806.978027
67.402901 195.229797 -763.427002
67.402496 222.437103 -755.278015
67.382500 202.581604 -794.320618
67.382004 199.127197 -791.523682
67.375900 223.955902 -754.894287
67.372498 156.412796 -831.601074
67.351196 157.999695 -841.223877
67.338699 229.363998 -753.638123
67.337799 203.091797 -758.804382
67.322899 143.809601 -802.392273
67.319298 175.308701 -766.799988
67.315598 237.519394 -748.485107
67.312698 235.938599 -827.071899
67.310501 212.477798 -801.843323
67.305397 213.531403 -757.462280
67.296204 194.116196 -787.553406
67.292397 220.707108 -755.669189
67.286499 235.104401 -751.047607
67.270203 235.619202 -824.553711
67.266602 195.290802 -788.393799
67.260498 197.225800 -762.134888
67.247498 190.408295 -784.425476
67.243500 200.199799 -761.308899
67.240799 218.037399 -756.407410
67.237396 205.689194 -796.631287
67.233704 211.597595 -757.877686
67.229599 147.178604 -811.501282
67.228401 173.933701 -766.650024
67.223396 181.912506 -766.781006
67.220901 193.760498 -763.775696
67.220901 205.558899 -758.196228
67.217201 202.230392 -760.228088
67.214798 146.239105 -808.698730
67.210899 182.646103 -778.131470
67.210197 227.876907 -814.669495
67.195198 141.472000 -798.827026
67.184196 235.000702 -822.632019
67.177200 148.001495 -814.616272
67.172798 189.405807 -783.737915
67.169502 230.578903 -816.818909
67.166199 165.864807 -765.750183
67.163597 220.994202 -808.891479
67.161003 186.034698 -780.968323
67.159302 138.653397 -795.595215
67.151604 204.449799 -795.595581
67.151398 214.450699 -803.362122
67.111702 186.717194 -766.026611
67.108597 145.156601 -805.674683
67.107300 231.887894 -817.966187
67.105103 153.776306 -825.175171
67.102898 192.165405 -764.404114
67.100899 233.095596 -819.427124
67.096298 190.141403 -765.105408
67.093201 153.129593 -823.695618
67.088203 215.682404 -804.237488
67.076698 217.356003 -805.806519
67.071297 222.316803 -809.801880
67.064499 226.541794 -813.389099
67.045097 172.487503 -766.539612
67.043701 178.919098 -766.867371
67.036003 233.936905 -820.352905
67.035500 209.491394 -799.591980
67.031601 193.241898 -786.870117
67.030296 177.768097 -766.707886
67.024399 157.100494 -835.164429
67.015198 150.802795 -820.198914
67.015198 236.182907 -749.551025
67.012901 192.015106 -786.005615
67.010201 236.497299 -825.724487
67.006699 184.381607 -779.923096
67.005096 209.683105 -758.178284
67.004303 170.762497 -766.463318
67.002296 164.239304 -765.538086
66.996597 181.693405 -777.506287
66.981102 198.907394 -761.287415
66.980003 154.152603 -826.231079
66.978798 150.022797 -819.119873
66.976700 149.388397 -817.854126
66.969101 236.963501 -827.497986
66.966202 185.366806 -766.094971
66.951797 235.292603 -827.929382
66.948402 143.160202 -801.552124
66.942398 188.677902 -765.264587
66.930603 196.040298 -762.596680
66.913597 236.213593 -828.782288
66.911499 210.459000 -800.311523
66.911102 201.641296 -759.003113
66.909798 203.312500 -760.108215
66.899002 154.813507 -827.406677
66.894897 207.132202 -797.711182
66.893303 140.568298 -797.785583
66.890099 229.180099 -814.969116
66.887497 219.212906 -807.185303
66.883499 200.573303 -792.869812
66.883102 214.598602 -757.154175
66.876900 137.743896 -794.114990
66.873398 234.855392 -821.122803
66.867500 213.454300 -802.547913
66.866096 198.269394 -790.974792
66.863098 157.093994 -833.870117
66.855598 208.315704 -758.388672
66.853302 219.429596 -755.881775
66.850197 180.604095 -766.570374
66.849197 155.511597 -829.094116
66.840698 162.970901 -765.322876
66.826103 224.493698 -811.322083
66.819199 227.895294 -753.763672
66.818298 201.738800 -793.804810
66.812897 230.225601 -815.805603
66.809303 152.297302 -821.973083
66.807404 200.979095 -760.203979
66.806503 233.010300 -818.284119
66.803703 188.446503 -783.273987
66.799004 187.335403 -782.392883
66.792297 182.847305 -766.277222
66.791298 156.342896 -830.552185
66.787804 147.492706 -813.453613
66.775200 190.952393 -785.469788
66.775002 235.754700 -823.482727
66.774399 223.505600 -810.696777
66.769302 146.411896 -809.724609
66.766998 169.394302 -766.129883
66.764999 184.262299 -766.107483
66.743500 215.963303 -756.815613
66.731400 144.519501 -804.647583
66.725304 225.433807 -812.004822
66.723396 194.360794 -762.887695
66.719704 143.981995 -803.382874
66.718002 191.107300 -764.261475
66.716202 142.402893 -800.408325
66.710999 187.480301 -765.295593
66.700302 204.808395 -758.986511
66.698402 206.551407 -758.535828
66.687599 157.168503 -837.041870
66.685997 231.667801 -816.865479
66.685699 230.889999 -753.175598
66.685097 216.452301 -804.978821
66.679604 233.598694 -751.737671
66.676697 208.034103 -798.435181
66.674202 236.843002 -824.634521
66.671898 196.875504 -789.978821
66.666603 180.608398 -777.027527
66.664200 157.257797 -838.742126
66.660004 234.061600 -818.855103
66.641403 168.051895 -765.974915
66.640602 183.139603 -779.316223
66.639702 236.061203 -822.347107
66.634598 235.002701 -819.920288
66.634300 145.682007 -807.893921
66.610703 226.004196 -754.400513
66.607399 237.353699 -826.384888
66.604698 200.559296 -759.076721
66.600197 228.354706 -813.841614
66.600098 148.823502 -816.872681
66.597801 212.524796 -757.407593
66.584602 237.508102 -828.834595
66.584396 176.205002 -766.503113
66.577599 192.843903 -763.460510
66.572304 199.618607 -792.211487
66.560204 220.357407 -808.010681
66.553200 161.456802 -765.136230
66.548698 197.871399 -761.434875
66.539803 136.858093 -793.434387
66.538803 185.012695 -780.799316
66.536499 151.583405 -820.908630
66.528297 139.893295 -796.691406
66.524803 223.223907 -755.021179
66.519203 199.706497 -760.496521
66.514702 146.584595 -810.842285
66.513397 203.165802 -794.782227
66.513000 181.805298 -778.526306
66.505096 156.824097 -832.519287
66.503502 227.463699 -813.078613
66.499802 235.932495 -821.161377
66.496201 189.735703 -784.916687
66.490700 199.347794 -759.433716
66.484802 235.334900 -750.085388
66.477997 238.024506 -827.588989
66.475998 186.118607 -781.910583
66.474197 194.488205 -788.256775
66.473701 148.211899 -815.879578
66.466400 221.770203 -755.328674
66.460999 211.733398 -801.292786
66.460403 195.664795 -789.171387
66.450699 232.281097 -752.697083
66.445702 179.676498 -776.424622
66.444603 196.446106 -761.644226
66.433403 189.282394 -764.393494
66.430496 179.572006 -766.155884
66.425301 145.179306 -806.874817
66.424301 204.968201 -796.310791
66.424004 174.616592 -766.256470
66.423798 181.496094 -765.987671
66.415901 166.907196 -765.755127
66.412003 217.121506 -756.481018
66.405403 186.080093 -765.305115
66.392799 218.241302 -806.200623
66.389397 226.596802 -812.353516
66.383003 210.626602 -758.126526
66.382698 237.013397 -822.931091
66.377197 233.229599 -817.262085
66.353500 224.501495 -754.748413
66.350998 203.598007 -758.560730
66.349403 173.331802 -766.265625
66.336800 146.858597 -812.209229
66.335602 155.589294 -827.989319
66.331497 234.540802 -751.205811
66.319397 194.703003 -761.890381
66.319000 236.932999 -821.706482
66.316200 221.888306 -809.035889
66.309196 152.764603 -822.951416
66.308899 206.074097 -797.211304
66.306900 229.835999 -753.507019
66.297203 236.112198 -820.019287
66.294098 136.109406 -792.550781
66.288300 171.593399 -766.087585
66.278099 165.215103 -765.507813
66.273399 143.297699 -802.467529
66.264198 231.262894 -815.643311
66.260696 202.606094 -759.081177
66.258598 141.796097 -799.564392
66.256302 237.692001 -829.946289
66.253403 229.957794 -814.433716
66.247704 178.285599 -766.092529
66.247299 153.524399 -824.359314
66.242500 183.607101 -780.290100
66.240799 138.280197 -795.061401
66.231400 184.928802 -765.312988
66.227699 208.850998 -799.129517
66.226799 237.959305 -825.476501
66.226700 215.039902 -803.773682
66.217697 193.396103 -787.706787
66.215103 160.001495 -764.944824
66.214203 238.599106 -829.139221
66.212799 218.458801 -755.985474
66.210800 212.671707 -802.026978
66.209503 235.316299 -818.687500
66.204399 192.250793 -786.814575
66.202698 180.795807 -778.093628
66.198898 220.410202 -755.553406
66.198303 237.703003 -823.955078
66.191399 150.246597 -818.320313
66.186096 227.004501 -754.066223
66.185501 234.253693 -817.808289
66.169701 150.876099 -819.345520
66.168701 198.645706 -760.416382
66.156502 178.538605 -775.857605
66.151001 191.265503 -763.297180
66.149902 222.971802 -809.744629
66.149803 157.046494 -835.865601
66.116699 187.959198 -764.442383
66.115601 141.238098 -798.575684
66.114304 237.989304 -822.090576
66.111801 139.135803 -795.968201
66.109001 156.668594 -831.387207
66.107300 203.951508 -795.607971
66.106697 213.794403 -757.229126
66.106201 183.411896 -765.496277
66.104897 144.502502 -805.583191
66.102097 145.732101 -808.892029
66.101799 187.425903 -783.370728
66.085800 237.550003 -820.779785
66.076302 190.129196 -763.715576
66.073700 193.378601 -762.559998
66.067596 232.677399 -816.302307
66.067596 177.135605 -766.058899
66.059303 156.164795 -829.658630
66.051804 197.984406 -759.492981
66.049698 170.437897 -765.925781
66.046799 188.602798 -784.120789
66.041199 197.524200 -790.790100
66.038696 147.917007 -814.440918
66.027603 198.586105 -791.706787
66.026497 224.373398 -810.539612
66.024300 154.561005 -825.730225
66.014999 207.618805 -758.765015
66.011803 238.575302 -823.196777
66.008003 158.678101 -764.946777
65.997200 179.779694 -777.504272
65.995499 237.130096 -819.603882
65.995201 142.507202 -801.342896
65.994797 182.197495 -779.617920
65.994003 238.438797 -826.536621
65.992599 197.308105 -760.639404
65.988998 225.598297 -811.132080
65.984596 214.067993 -803.075623
65.982101 177.560699 -775.312805
65.981796 228.602905 -753.522705
65.978104 157.008408 -834.748718
65.976196 149.708603 -817.196716
65.976196 217.271103 -805.408081
65.975998 238.782501 -831.030090
65.970001 186.829803 -764.532410
65.969398 239.021606 -827.760986
65.960403 180.532806 -765.600525
65.954399 202.285294 -794.301575
65.951500 135.267899 -791.794312
65.947601 210.936295 -800.628723
65.946701 191.286301 -786.221985
65.942497 209.202698 -758.169922
65.935799 209.940903 -799.863281
65.933998 185.087097 -781.800171
65.925102 219.799194 -807.208618
65.923798 201.033798 -793.369995
65.915001 143.790894 -804.180481
65.909897 229.147293 -813.398621
65.908096 205.766602 -758.768616
65.902496 238.824905 -824.761108
65.902100 239.158798 -821.890503
65.902100 163.746704 -765.278320
65.889297 175.663498 -765.809692
65.877701 239.732605 -829.526672
65.875999 215.104507 -756.885376
65.859703 238.703796 -820.784973
65.859398 192.270493 -762.750610
65.851898 231.021103 -814.611816
65.847099 155.052094 -827.070801
65.834099 201.311493 -759.426514
65.827003 182.282898 -765.403687
65.824203 239.833694 -822.946411
65.814903 168.829193 -765.792908
65.814598 195.584106 -761.246582
65.808701 162.388596 -765.036072
65.803497 207.350906 -797.970398
65.795403 221.175293 -808.219116
65.790199 186.394608 -782.774475
