39.914299 152.340607 -759.395020
39.911598 51.173100 -750.231201
39.909199 14.840500 -744.409729
39.908298 56.976002 -750.950623
39.907799 0.912900 -742.101624
39.903400 122.562500 -781.629211
39.902100 35.000198 -747.728027
39.900200 123.930496 -763.781372
39.897499 114.358704 -775.192017
39.896999 1.403500 -737.712524
39.896801 138.290405 -760.695313
39.894299 134.201004 -761.087585
39.892399 150.770905 -759.796326
39.889500 49.602200 -749.881104
39.888000 -2.289300 -737.427612
39.886902 32.267700 -743.763672
39.886501 13.962000 -740.322083
39.885899 140.824799 -762.562012
39.883999 139.971405 -760.603577
39.881901 54.482300 -749.212280
39.881699 10.944200 -739.883301
39.880798 87.263397 -746.105286
39.879902 55.931702 -750.359924
39.879299 39.344398 -760.406616
39.876999 16.837700 -744.768372
39.875801 125.498596 -763.962830
39.872200 108.434502 -769.404419
39.871899 55.009899 -750.540894
39.870602 20.966499 -745.506897
39.869999 157.829300 -758.304321
39.866798 -1.645500 -741.674927
39.866501 16.162901 -740.727478
39.865898 35.213501 -744.379272
39.862598 11.443100 -737.511719
39.862499 127.699402 -761.478577
39.860100 23.225800 -745.986023
39.856701 113.096397 -773.586670
39.856602 69.136703 -750.884583
39.855701 142.158707 -760.480774
39.855301 53.349300 -749.334717
39.852901 49.388401 -747.605286
39.851002 30.681601 -751.022827
39.849800 128.162506 -764.475830
39.845501 12.144700 -743.756287
39.845100 53.055801 -750.228882
39.844501 15.292400 -740.518188
39.838501 6.961900 -742.772400
39.838100 47.535099 -749.482117
39.837898 115.955200 -776.751770
39.836601 143.244797 -761.021729
39.833801 2.904400 -742.110229
39.832901 131.618301 -764.707581
39.829498 71.436996 -749.977478
39.827599 123.344902 -763.127991
39.826302 135.699295 -761.012329
39.825901 130.379807 -761.399109
39.823601 23.616400 -742.149597
39.823101 50.451900 -749.682678
39.822601 39.008301 -745.193420
39.818600 48.479198 -747.373230
39.818199 87.729797 -759.246216
39.813000 52.207699 -749.925293
39.811199 42.480301 -748.753723
39.810101 46.068100 -749.104675
39.808998 19.296301 -745.280029
39.808701 -3.795700 -737.000977
39.805500 122.409698 -762.263489
39.804501 40.629002 -745.586975
39.803799 44.030701 -749.131104
39.802601 32.374001 -753.365479
39.801498 51.468899 -748.698181
39.796600 -1.216000 -737.534119
39.796101 10.485500 -737.847107
39.794800 120.327797 -780.034790
39.789101 112.180702 -772.528870
39.786900 28.717800 -747.518982
39.785400 94.790497 -763.749084
39.785099 31.282101 -752.330017
39.785099 36.560501 -747.869812
39.782501 101.813797 -767.030518
39.781898 100.615196 -766.525696
39.778900 123.932701 -762.198730
39.777901 41.569801 -748.577820
39.777500 81.605797 -747.849609
39.777199 7.213700 -738.402405
39.776100 145.515900 -760.353882
39.774502 77.292000 -748.814880
39.769199 46.920399 -747.036804
39.769100 22.351299 -745.934326
39.768799 1.771800 -741.894287
39.767799 30.197800 -746.666626
39.766998 27.843599 -742.986572
39.765400 91.875198 -745.330383
39.763599 129.036606 -764.559998
39.760601 9.124900 -736.877686
39.759300 6.394200 -737.072693
39.757599 48.826801 -749.221680
39.753502 50.682400 -748.299988
39.747799 39.838200 -748.211182
39.747101 121.909500 -781.104614
39.744900 73.219398 -749.309998
39.743099 21.615101 -741.761475
39.742699 146.636398 -760.256287
39.739201 124.798302 -762.095703
39.738300 24.051701 -746.155579
39.737000 26.352800 -746.188171
39.735802 49.696602 -748.445679
39.731701 38.108601 -747.883118
39.730801 132.829605 -761.295593
39.730000 45.908100 -746.840698
39.728401 137.478500 -760.983215
39.723999 30.493601 -743.501099
39.722900 67.800400 -752.271729
39.718102 126.766602 -764.051697
39.717300 118.044899 -778.642883
39.716000 34.283600 -744.247803
39.715801 35.236900 -755.371582
39.715698 110.148903 -770.189209
39.707600 80.421303 -748.131714
39.696301 33.096699 -747.038208
39.693199 20.541401 -741.529175
39.692600 27.224800 -747.310120
39.689999 27.722000 -746.046570
39.688499 48.756802 -748.231812
39.686001 10.005900 -739.210205
39.685699 126.440697 -762.042297
39.684101 38.945900 -759.633118
39.683899 131.439301 -761.487183
39.677601 124.869400 -763.366272
39.675701 29.249701 -746.298706
39.673199 84.262497 -747.079773
39.672798 70.046600 -751.052429
39.671902 25.664000 -742.514282
39.670601 106.023697 -768.647888
39.664299 138.173706 -762.673584
39.663700 5.622800 -737.500000
39.662102 140.867996 -760.792786
39.661800 144.524002 -762.901428
39.658501 47.670502 -747.590271
39.657101 58.733398 -750.636292
39.654800 31.568001 -746.709412
39.652802 104.359703 -767.951782
39.651199 132.566498 -764.605408
39.649601 43.480701 -746.279785
39.648800 29.204000 -743.277771
39.644798 153.941406 -759.349670
39.641602 47.117901 -748.755920
39.635399 43.343102 -748.601929
39.632702 44.772202 -748.681213
39.631699 92.696297 -762.322083
39.630699 97.598099 -765.275330
39.627499 44.826000 -747.003418
39.623501 128.890900 -761.738892
39.621799 39.055199 -747.745789
39.621700 28.431999 -748.494629
39.621601 36.844501 -744.831787
39.614101 109.498199 -769.569885
39.610500 12.762700 -740.114197
39.609600 35.732201 -747.328003
39.605701 3.963800 -737.521729
39.605000 136.911407 -762.737183
39.602501 34.377602 -747.006409
39.601501 3.092200 -737.701416
39.598701 40.687000 -748.115784
39.597801 86.210197 -758.209778
39.597301 125.617401 -762.361023
39.595501 15.752900 -744.372375
39.592400 48.011799 -748.752930
39.591900 151.653503 -759.825989
39.588902 129.998993 -764.380981
39.588200 8.584800 -742.866272
39.587601 147.580307 -762.166626
39.585800 149.915604 -760.112305
39.585098 133.528000 -764.671692
39.584400 29.877701 -750.255127
39.582802 128.143402 -762.183105
39.582401 45.617599 -748.405029
39.580299 66.616501 -753.247620
39.577801 37.306400 -747.490479
39.575298 127.604500 -763.845276
39.569901 69.256500 -751.780273
39.564201 41.551998 -747.735718
39.563801 90.393204 -761.046509
39.559898 74.728798 -749.005615
39.556999 34.195801 -754.792480
39.555698 46.622200 -748.013916
39.553600 11.381300 -743.443909
39.549599 125.966003 -763.328674
39.545399 139.529495 -762.790588
39.544102 36.351002 -756.392029
39.542500 127.255898 -762.264221
39.540798 134.940399 -761.321777
39.539799 24.877701 -746.093323
39.536900 10.215000 -743.128418
39.534302 24.579000 -742.321411
39.533501 139.061798 -761.068909
39.531300 96.267899 -764.801025
39.530499 17.375099 -740.982788
39.529999 111.232803 -771.114197
39.528999 42.192001 -746.471497
39.528599 135.294006 -762.817383
39.526100 89.162804 -760.129822
39.525002 92.891403 -745.157471
39.522499 8.219600 -739.010986
39.520302 -0.400700 -737.579102
39.519100 159.029602 -758.230530
39.517799 126.992401 -763.255371
39.516300 56.441700 -749.674927
39.515499 4.760600 -736.981018
39.514400 70.968102 -750.740479
39.511902 44.461102 -747.858826
39.510601 89.375504 -745.686584
39.509998 42.524399 -747.835327
39.509499 128.763000 -763.786621
39.508598 83.690697 -756.559082
39.508202 26.843100 -745.529175
39.505600 156.045303 -758.962219
39.504398 -0.934000 -741.378479
39.502701 17.677000 -744.666382
39.494900 113.987999 -774.233826
39.491402 -3.448900 -741.586121
39.490101 129.758698 -761.892822
39.485500 146.196899 -761.056580
39.485100 43.624901 -747.283203
39.484200 94.075401 -763.286926
39.483700 35.960602 -744.689026
39.482700 145.325104 -761.164673
39.482399 130.938202 -764.015930
39.481400 140.510803 -763.246399
39.479900 14.310100 -743.836426
39.479500 3.742700 -742.001587
39.476101 156.894806 -758.681213
39.474400 142.551804 -763.137085
39.470798 8.313000 -736.990295
39.467098 30.910000 -746.175781
39.466999 82.535698 -747.744385
39.466400 32.846802 -753.994812
39.459499 38.179100 -745.327515
39.459000 40.140202 -747.461121
39.459000 39.539200 -745.822021
39.458000 78.855202 -748.420776
39.457500 9.736400 -738.201721
39.456299 133.676193 -761.605103
39.455601 142.247192 -761.464294
39.446201 87.039398 -758.697571
39.442799 32.327999 -746.379700
39.440800 25.644501 -745.095215
39.438099 6.211500 -742.411072
39.436001 107.748901 -769.096680
39.434700 38.275902 -758.690796
39.434200 85.220703 -746.828613
39.434101 136.609100 -761.540588
39.428398 35.181499 -746.679504
39.428101 7.774000 -742.664978
39.427601 0.401500 -741.555725
39.424900 132.225800 -761.823608
39.424198 8.237000 -738.104980
39.419300 128.548599 -762.965576
39.418499 38.196701 -747.091003
39.417099 31.566000 -753.196411
39.414299 41.329498 -746.304626
39.411301 147.393799 -760.549316
39.411201 36.367298 -746.711792
39.410801 18.678801 -744.847595
39.410500 20.190500 -744.956116
39.404499 6.528600 -738.047607
39.403801 72.323700 -750.012512
39.401699 33.507702 -746.260071
39.393501 153.014999 -759.728821
39.387299 39.194901 -746.841370
39.386002 10.794400 -738.792786
39.381199 145.981201 -762.471191
39.377201 130.645004 -762.074524
39.376598 30.032101 -745.856079
39.373100 90.614304 -745.472595
39.372700 28.719801 -745.604980
39.370499 76.539001 -748.748230
39.369400 93.707199 -744.775513
39.367599 134.503906 -764.239990
39.365799 31.393400 -743.772583
39.364399 12.967300 -743.703979
39.360802 33.491600 -744.372070
39.360199 30.447001 -751.689575
39.353600 138.239700 -761.478088
39.353500 140.175903 -761.261780
39.348999 117.361298 -778.123718
39.348000 144.380096 -761.299683
39.347401 -3.066200 -737.260376
39.345901 86.052200 -746.520813
39.343601 11.960800 -740.002380
39.340698 132.018707 -764.012573
39.340698 37.514999 -746.557190
39.337601 130.031403 -762.721924
39.336399 143.736496 -762.239075
39.333199 91.860497 -761.971313
39.331100 31.726200 -745.716370
39.328499 40.131001 -746.538330
39.328098 14.594800 -740.449829
39.327000 93.269501 -762.974792
39.323898 22.006001 -745.191223
39.319099 36.854500 -745.894287
39.317402 135.692200 -761.756897
39.316299 38.451500 -746.239075
39.314098 4.888500 -742.082520
39.312599 18.393600 -741.189819
39.304401 34.532299 -746.137390
39.300800 129.625595 -763.643921
39.296902 19.755600 -741.448181
39.294399 16.596100 -744.099182
39.290001 159.876801 -758.080017
39.286701 0.727200 -737.602783
39.286400 99.692398 -766.487000
39.285900 34.699600 -744.887207
39.285801 85.079201 -757.380920
39.280800 105.080399 -768.279785
39.280602 95.353302 -764.226074
39.279499 32.806900 -745.695190
39.278400 131.500000 -762.460876
39.274300 23.032400 -745.307373
39.271801 98.266899 -765.954895
39.270100 2.092300 -737.533630
39.261902 141.305603 -761.412903
39.261200 27.475000 -744.966125
39.260300 32.609699 -744.302185
39.259899 135.446701 -763.975281
39.252300 30.887300 -745.265686
39.252102 32.959301 -754.869995
39.250500 148.508606 -760.681213
39.246498 28.961800 -749.189819
39.245201 -2.131000 -741.229980
39.243500 29.491800 -745.153015
39.241001 11.130000 -738.018799
39.238098 26.655600 -742.884827
39.236698 7.532500 -737.324524
39.234100 35.990299 -745.871277
39.231300 33.945999 -745.486572
39.229301 71.860802 -750.803894
39.228500 78.044403 -748.540283
39.226601 9.441900 -742.631226
39.226200 74.166801 -749.639587
39.224400 155.109497 -759.348328
39.220299 70.308296 -751.788574
39.218399 23.949499 -745.394714
39.217300 15.119900 -743.745972
39.216301 2.388500 -741.695923
39.215000 112.720901 -773.074707
39.209702 101.094398 -766.999573
39.206299 132.941605 -762.297302
39.204300 37.575001 -757.903320
39.203999 29.740900 -743.875916
39.202801 134.455399 -761.980530
39.202099 96.914398 -765.748718
39.196999 133.032104 -764.053284
39.194698 27.788700 -748.122192
39.190701 42.922298 -746.894470
39.188999 31.908501 -753.959412
39.186501 150.940903 -760.280212
39.185001 73.178101 -749.960022
39.183498 130.865097 -763.201172
39.182400 136.814407 -764.091492
39.181198 21.021999 -744.830505
39.179699 102.371300 -767.412170
39.179199 137.353104 -761.971375
39.177299 68.557800 -752.236328
39.177101 67.257004 -752.782776
39.176998 26.367800 -744.630188
39.175400 142.746399 -762.362183
39.170601 79.630501 -748.210327
39.168499 141.439194 -762.713379
39.166000 30.754499 -752.674377
39.164101 1.291200 -741.530273
39.157001 40.855099 -746.978027
39.155102 31.635099 -744.680786
39.154202 28.684799 -743.806213
39.152699 88.191704 -759.604309
39.150299 13.475100 -740.266724
39.147900 108.848801 -769.221313
39.146999 25.690800 -745.970398
39.146099 12.293500 -743.141602
39.144501 111.864700 -771.835693
39.142101 89.757103 -760.630310
39.136101 86.878304 -746.328125
39.135899 88.228302 -746.004089
39.134102 25.201401 -744.405029
39.133801 23.059799 -742.180603
39.132702 75.708000 -748.815796
39.128899 91.138603 -761.504272
39.126999 16.578100 -740.875183
39.122700 27.877199 -743.542175
39.121101 36.945202 -757.199829
39.121101 7.062700 -742.223083
39.120701 35.491299 -755.964478
39.111900 106.711502 -768.871521
39.111500 28.437401 -744.803711
39.110600 83.353798 -747.361816
39.110199 133.336502 -763.155823
39.104801 30.794800 -744.330627
39.102299 115.254097 -776.161377
39.100601 143.432907 -761.414917
39.097301 13.737000 -743.277222
39.095600 5.911300 -738.552917
39.093300 19.460899 -744.649902
39.091702 6.887900 -738.947205
39.088600 15.642100 -740.743225
39.085999 139.567993 -761.831787
39.084702 34.505402 -755.445496
39.083500 10.608300 -739.646790
39.082500 30.004601 -751.015625
39.079399 132.279007 -763.131409
39.077900 149.480698 -760.693970
39.076401 26.856600 -743.925781
39.075100 157.710800 -758.676025
39.070801 25.793800 -743.786377
39.069500 134.654495 -763.231812
39.069099 -1.983400 -737.433289
39.067902 71.338501 -751.484619
39.066101 136.294006 -762.479187
39.066002 24.217699 -744.199524
39.065498 8.866300 -739.330994
39.062099 94.900101 -744.161011
39.056099 23.768299 -742.656006
39.052601 137.731094 -763.231384
39.051998 24.933399 -743.008606
39.048401 80.984299 -747.942383
39.047298 22.189600 -742.196411
39.045799 10.807800 -742.748230
39.040100 72.722000 -750.729370
39.031399 26.535000 -746.743530
39.029598 152.286896 -760.140686
39.028599 -3.052600 -740.956787
39.027901 23.667900 -743.503418
39.020599 138.651794 -763.105713
39.011799 20.991800 -741.890625
39.007500 140.615906 -761.911499
39.003502 94.038300 -764.096985
39.003201 -0.211900 -741.100281
38.998901 16.005400 -743.543884
38.996399 103.259300 -767.918396
38.996101 92.213203 -745.098022
38.984501 24.815201 -745.351685
38.983501 17.691200 -743.898682
38.976700 22.388100 -743.130310
38.973598 84.481598 -756.734314
38.972900 8.547600 -742.257629
38.972000 9.761300 -739.623230
38.970798 138.442505 -762.239685
38.966301 20.393700 -742.670776
38.965401 136.309097 -763.338928
38.963402 5.819800 -741.815430
38.958099 77.238701 -748.475098
38.955002 35.116901 -745.595276
38.951599 23.128500 -744.199890
38.942600 3.475500 -741.388916
38.937500 95.714302 -743.452820
38.928200 21.325399 -743.121277
38.925400 21.846001 -744.437622
38.917198 154.311493 -759.713318
38.914700 18.518200 -741.992188
38.912201 4.988800 -737.629089
38.908001 18.887100 -744.034912
38.897999 86.697403 -758.086426
38.897202 7.741000 -739.451294
38.891800 20.520901 -744.120300
38.889900 19.536900 -742.366821
38.889599 11.706000 -742.562378
38.883499 17.265200 -741.592529
38.881802 3.409000 -737.368530
38.881100 33.708500 -755.224121
38.878300 -1.011200 -737.543823
38.876499 14.753700 -743.054321
38.863300 10.127300 -742.255676
38.862000 91.291496 -745.263184
38.861301 146.800598 -761.205688
38.857101 141.852005 -761.941895
38.856998 75.089699 -749.435486
38.855099 -1.163200 -740.853027
38.841202 147.807404 -761.115784
38.840302 14.921800 -741.153076
38.834000 16.889000 -743.335571
38.831200 10.358200 -738.311584
38.830601 84.551598 -747.001526
38.830399 7.780900 -741.823975
38.818100 12.309500 -740.600281
38.815399 12.967900 -742.678528
38.813099 13.920900 -740.981018
38.812901 92.237900 -762.602173
38.812000 74.011902 -750.378723
38.810398 29.207500 -749.922180
38.805801 139.986496 -763.487183
38.797501 16.424299 -741.762024
38.795101 5.040900 -741.425476
38.789001 11.120600 -740.300476
38.787498 69.564102 -752.125122
38.784100 19.740999 -743.770996
38.769798 144.952393 -761.552917
38.768299 9.317300 -741.907288
38.767799 90.007599 -745.608582
38.765202 145.926102 -761.439697
38.761398 0.621600 -741.075623
38.747898 10.027400 -740.425415
38.739498 139.999100 -762.572693
38.738899 1.890800 -741.069092
38.737301 18.570499 -743.192688
38.734402 150.352493 -760.718872
38.733700 17.617201 -742.469421
38.726200 156.606094 -759.065430
38.725101 27.019300 -747.376709
38.723000 1.360800 -737.447327
38.720001 88.966904 -745.786316
38.717300 -0.012000 -737.480713
38.712299 4.832600 -738.461182
38.709202 13.002400 -741.242126
38.708401 72.155098 -751.436096
38.707001 15.668700 -742.612183
38.702301 93.125198 -744.844482
38.701000 6.950000 -741.492371
38.700802 13.964900 -742.463074
38.686401 -3.623800 -737.304077
38.686100 87.643303 -758.972717
38.685101 153.283798 -760.149780
38.682499 9.024900 -740.206726
38.680302 10.996200 -741.904724
38.678600 -2.359800 -740.594788
38.665199 5.570600 -739.253418
38.664299 14.728000 -741.967590
38.660999 148.589996 -761.542603
38.653900 12.166300 -741.807617
38.652500 30.242800 -752.131897
38.646702 95.528702 -764.883606
38.641300 82.133698 -747.604919
38.638199 88.998596 -760.036987
38.634102 93.686600 -763.328186
38.623001 2.814200 -740.940674
38.622101 6.940600 -737.746277
38.621601 73.421799 -750.999695
38.618099 78.939003 -748.094482
38.614899 8.748000 -741.280884
38.611401 10.361500 -741.290771
38.606701 90.259201 -761.138977
38.598301 144.511993 -762.367920
38.597000 66.734497 -753.405701
38.595299 143.328400 -762.117676
38.588600 94.170700 -744.500488
38.580502 -2.751600 -737.455627
38.576199 8.181900 -740.132080
38.567501 67.952599 -752.841614
38.566799 96.662201 -742.591675
38.561298 76.590599 -749.238525
38.559601 6.680500 -739.581970
38.558601 87.518303 -746.167114
38.557598 80.182701 -747.982117
38.548100 6.090000 -741.085815
38.538700 74.846298 -750.220825
38.532799 151.526794 -760.557312
38.529900 3.999900 -738.314575
38.526901 7.898100 -740.944885
38.513199 4.492500 -740.839783
38.503700 2.560100 -737.424805
38.501900 11.551400 -741.054321
38.500599 85.993500 -746.647827
38.493401 -0.484100 -740.438171
38.492901 140.790604 -762.953674
38.481800 6.995100 -740.668823
38.478100 75.785400 -749.904907
38.477100 28.033600 -748.624084
38.451099 145.578201 -762.173584
38.437199 4.267500 -739.227173
38.435699 142.174103 -762.656677
38.431000 -1.632500 -740.230713
38.430500 5.988300 -740.077087
38.423401 16.496000 -742.695984
38.423401 1.293400 -740.517029
38.418701 70.863098 -751.911987
38.417400 5.108600 -739.951477
38.383999 3.817900 -740.325012
38.380199 68.809502 -752.426270
38.378899 149.345093 -761.220520
38.371601 83.783897 -747.149414
38.366199 -3.483100 -740.628174
38.363499 78.135399 -748.753784
38.353298 2.107600 -740.239319
38.335400 0.455500 -740.301697
38.334999 147.308395 -761.722290
38.316601 29.588499 -750.886108
38.312099 13.643200 -741.662109
38.302101 28.393700 -749.396729
38.299599 3.364400 -739.568115
38.286701 91.493896 -762.028625
38.252399 3.209100 -738.487793
38.241798 -1.780800 -737.646301
38.240101 74.419601 -751.029297
38.238800 90.659302 -745.442200
38.232101 97.471603 -741.932129
38.231300 27.315201 -748.093689
38.227001 95.210899 -743.905212
38.202202 85.167000 -746.883911
38.191101 81.127296 -747.600525
38.189899 96.052299 -743.185425
38.174900 77.446098 -749.660278
38.169701 1.384200 -739.619507
38.169102 5.391100 -740.737610
38.167198 146.485703 -761.856812
38.147999 76.592400 -750.171814
38.145901 92.008003 -744.991028
38.143700 0.656600 -737.574219
38.139400 2.552900 -739.325684
38.131802 72.861603 -751.610779
38.123299 86.815102 -746.406799
38.073399 -0.560400 -737.672913
38.061100 -0.190800 -739.708130
38.055599 78.989601 -748.762512
38.050098 70.064301 -752.185425
38.045601 88.185501 -745.961670
38.038502 1.695300 -738.690186
38.037498 2.434600 -738.154785
38.030102 89.505898 -745.704773
38.015400 -2.538800 -740.070801
38.014702 75.561798 -750.651184
37.997501 98.100197 -741.329712
37.995899 26.542200 -747.267090
37.974400 82.735397 -747.246582
37.970699 93.505501 -744.625427
37.968601 71.855598 -751.775696
37.945400 0.704500 -739.043579
37.929901 -3.408600 -737.696411
37.909901 -1.170200 -739.647705
37.908699 73.678497 -751.516174
37.906799 1.650700 -737.748108
37.898399 79.748802 -748.315918
37.891399 78.252502 -749.618591
37.844898 94.458504 -744.167419
37.805599 -2.526100 -737.730774
37.776600 -0.128000 -738.890686
37.759899 84.380699 -746.947510
37.740700 96.903297 -742.461609
37.736198 68.228897 -752.772522
37.715199 -2.046600 -739.315002
37.699501 -3.126000 -739.485413
37.683800 0.164400 -738.097717
37.653301 -0.967400 -738.808594
37.647202 82.026703 -747.612976
37.639099 80.787399 -748.361023
37.614799 74.973396 -751.217407
37.609001 98.941200 -740.607605
37.601398 86.071198 -746.589905
37.593300 91.284500 -745.126770
37.588799 77.264603 -750.261780
37.585098 79.112000 -749.535522
37.565498 -1.316900 -737.885071
37.559399 70.983002 -752.026489
37.540401 76.338501 -750.776123
37.527302 92.560600 -744.776306
37.514301 95.444199 -743.490723
37.503799 69.380402 -752.367371
37.500000 87.437401 -746.231079
37.493000 80.197098 -749.135925
37.474602 90.225403 -745.434021
37.462002 -1.979800 -738.420227
37.455502 99.636398 -739.944092
37.448002 88.786201 -745.762085
37.429001 -2.828700 -738.728027
37.385899 72.501503 -751.840088
37.382500 97.513397 -741.972412
37.372799 1.846900 -739.421509
37.346802 96.221100 -743.034180
37.341801 85.127403 -746.698120
37.292702 81.607597 -748.303528
37.278900 83.667900 -747.166626
37.219101 74.201698 -751.643127
37.209599 78.306198 -750.129272
37.207500 93.848801 -744.198425
37.179798 98.344299 -741.151123
37.176701 73.332298 -751.825928
37.159599 82.750801 -747.757324
37.110901 -3.780100 -739.449829
37.084801 75.755096 -751.206116
37.083900 -3.537900 -737.665283
37.077202 71.690102 -752.025208
37.067902 81.046700 -749.061218
37.030998 100.283997 -739.470276
37.028500 94.786400 -743.737915
36.976101 86.585999 -746.296875
36.945599 76.951599 -750.750122
36.942699 91.847000 -744.878479
36.935501 93.039703 -744.384521
36.909100 84.436996 -747.146118
36.888302 75.073303 -751.727478
36.875198 88.014000 -745.929688
36.874699 79.635498 -749.719116
36.869400 96.790100 -742.460083
36.843800 82.322197 -748.734009
36.823799 90.726898 -745.146606
36.811798 99.258797 -740.518005
36.787399 -3.623600 -738.468628
36.777100 83.584198 -747.867676
36.761799 89.285202 -745.559021
36.695702 101.007103 -738.981689
36.676300 95.595703 -743.281006
36.615200 -2.978600 -739.027710
36.603600 85.743401 -746.658875
36.598999 97.859001 -741.686829
36.580898 80.430099 -749.544922
36.559601 78.957703 -750.146729
36.481602 81.716904 -749.208984
36.473000 -2.897400 -738.053589
36.470402 77.804703 -750.605896
36.454300 83.130203 -748.562927
36.418400 76.366302 -751.270691
36.398998 87.234398 -746.148621
36.394199 74.158897 -751.949585
36.393799 84.327499 -748.126587
36.381302 98.650597 -741.084717
36.380100 99.877800 -740.031799
36.378799 85.242500 -747.328674
36.371700 94.223000 -743.906677
36.322399 101.837097 -738.371277
36.261700 90.005699 -745.297424
36.248001 92.508598 -744.518616
36.218899 91.328903 -744.901184
36.206299 75.705101 -751.894470
36.202999 96.328400 -742.778381
36.197800 88.561203 -745.678223
36.172001 97.261803 -742.143616
36.130001 86.623703 -747.039795
36.105900 100.572197 -739.516174
36.096699 94.991898 -743.501770
36.040600 82.540298 -749.119690
36.039600 103.030701 -737.606201
36.021999 79.746696 -750.010315
36.019798 85.112900 -748.129822
36.000301 77.151299 -751.072388
35.945099 81.128098 -749.556580
35.923000 99.309601 -740.627930
35.910999 85.952202 -747.614014
35.888599 93.247398 -744.233887
35.875500 83.915604 -748.705017
35.842999 101.330101 -738.912781
35.840401 87.549202 -746.941528
35.835400 87.917702 -746.143799
35.772800 78.666901 -750.402405
35.713402 95.692497 -743.088379
35.706902 97.965302 -741.653809
35.703499 90.660400 -745.001709
35.687401 102.324203 -738.070923
35.615398 77.879601 -750.793884
35.604599 91.876801 -744.597290
35.590000 89.059402 -745.329712
35.536598 88.419899 -746.807495
35.527000 86.835800 -747.659607
35.503201 100.084503 -740.138428
35.501301 94.397598 -743.766418
35.484200 98.654602 -741.176025
35.473598 83.200996 -749.087830
35.470901 96.801003 -742.474182
35.467098 103.623100 -737.246399
35.446301 84.653801 -748.677612
35.419102 80.401901 -749.890015
35.386398 81.859200 -749.535828
35.365700 89.048203 -746.182922
35.321098 89.886703 -745.058899
35.312500 86.083504 -748.211182
35.302700 100.861603 -739.506470
35.252201 79.332100 -750.148193
35.212200 101.874100 -738.693604
35.202000 92.597801 -744.265381
35.201099 104.504097 -736.646301
35.200699 87.645203 -747.590881
35.146900 102.962097 -737.762512
35.103001 95.177597 -743.413330
35.099899 97.510696 -742.073730
35.085701 91.153801 -744.673218
35.073200 93.494400 -744.016479
35.068901 99.492699 -740.658386
35.051800 90.071198 -745.889221
34.980301 105.463600 -736.188416
34.972500 85.441498 -748.700317
34.968800 83.979202 -749.115784
34.926102 90.958298 -745.509827
34.924900 89.418503 -746.971313
34.910099 95.970001 -742.989380
34.901600 82.698402 -749.476990
34.865501 88.658203 -747.365112
34.863701 86.978798 -748.174927
34.847301 98.307503 -741.643311
34.826500 81.186302 -749.729309
34.749802 91.932602 -744.823486
34.686100 90.435402 -746.569885
34.683899 101.381798 -739.213379
34.681999 100.381897 -740.061584
34.637901 104.030197 -737.100830
34.633099 96.786301 -742.632874
34.631100 106.160698 -735.670471
34.615101 94.360497 -743.698730
34.600899 102.471199 -738.415283
34.580601 80.096298 -750.010376
34.550301 87.773804 -748.178101
34.548500 86.303902 -748.591614
34.538898 84.817001 -749.093201
34.529701 99.015999 -741.190430
34.493698 91.749496 -745.739014
34.416801 104.945999 -736.612976
34.415901 92.746803 -744.572388
34.360001 103.320702 -737.807922
34.340401 89.369499 -747.591309
34.338001 81.861198 -749.505127
34.323002 83.483002 -749.475891
34.298801 99.879700 -740.636475
34.260799 95.313904 -743.206726
34.258301 97.617302 -742.210815
34.256199 91.462898 -746.513184
34.233501 88.623703 -748.028015
34.232201 93.608498 -744.162170
34.178600 85.660400 -749.094971
34.168400 90.364197 -747.354187
34.163799 92.628403 -745.546570
34.103001 106.993797 -735.179016
34.085300 101.047897 -739.744873
34.082199 105.592796 -736.137573
34.075802 87.312798 -748.716614
34.045898 101.952599 -738.974182
34.005199 98.426003 -741.794373
33.996700 82.664703 -749.561218
33.967800 96.187500 -742.948608
33.942501 93.376999 -744.999695
33.883598 84.417999 -749.466370
33.858898 104.427696 -737.063171
33.843498 102.902100 -738.370117
33.824902 92.253799 -746.269226
33.823399 94.722298 -743.785217
33.775200 91.356598 -747.287415
33.755600 100.530998 -740.333618
33.752102 107.645897 -734.721619
33.741901 106.278099 -735.718872
33.734798 89.470398 -748.274597
33.734402 86.591202 -749.075500
33.705502 99.512802 -741.132324
33.702702 88.171303 -748.660583
33.678902 94.102600 -744.629028
33.660301 93.243797 -745.922729
33.606400 97.143501 -742.504028
33.600700 90.774803 -747.968811
33.588699 103.782402 -737.706299
33.486198 95.630402 -743.497681
33.480499 108.463600 -734.118530
33.465302 105.188499 -736.617798
33.463699 92.307701 -747.139587
33.452599 101.655899 -739.575623
33.421101 85.860603 -749.541016
33.386501 94.267502 -745.456421
33.380100 97.965103 -742.156372
33.345901 89.021301 -748.892212
33.331001 95.047997 -744.426819
33.326199 87.602203 -749.197571
33.303699 91.780998 -747.904602
33.297600 102.485001 -738.973877
33.243500 93.088898 -746.809509
33.240200 106.934196 -735.354675
33.203602 98.999001 -741.665222
33.196301 90.125702 -748.652893
33.166302 100.164101 -740.933228
33.137501 96.471497 -743.221375
33.091400 105.877502 -736.220886
33.085800 101.119797 -740.260925
33.072201 89.693901 -749.423218
33.070301 103.270897 -738.329224
33.067299 109.084000 -733.701477
33.066002 93.814102 -746.144226
33.021702 96.118500 -744.178528
33.008598 91.257797 -748.678894
32.997398 104.489998 -737.393311
32.907902 107.940002 -734.595581
32.868401 95.073898 -745.231689
32.867298 92.546402 -747.768982
32.820801 97.361702 -742.858276
32.729000 92.221199 -748.559082
32.704201 93.388100 -747.502197
32.701599 102.166901 -739.686096
32.678398 99.604301 -741.347229
32.647499 105.179001 -736.954895
32.645802 94.574402 -745.984802
32.643299 96.836098 -743.874878
32.638302 98.473297 -742.097717
32.552898 102.956299 -738.976379
32.547798 95.824997 -744.971497
32.542500 107.431801 -735.189880
32.540901 109.770401 -732.892883
32.528301 108.581001 -734.159973
32.513901 106.586899 -735.813110
32.477501 93.936501 -746.819092
32.463501 104.033798 -738.001221
32.406799 100.763397 -740.704712
32.389400 98.091301 -742.942322
32.333500 92.982101 -748.269714
32.296501 101.496002 -740.271484
32.291500 105.930199 -736.514221
32.206200 109.211502 -733.475830
32.156101 99.232803 -742.195129
32.147301 97.636299 -743.678711
32.139000 95.305000 -745.674927
32.117199 104.754799 -737.522278
32.094898 103.651398 -738.697876
32.090801 93.974998 -747.624817
32.087299 96.696899 -744.612976
32.037601 94.627403 -746.590576
32.003300 108.117500 -734.716919
31.976200 100.238503 -741.307678
31.924700 102.578903 -739.664978
31.918501 110.553802 -732.054993
31.882700 98.849197 -742.917725
31.825600 107.197403 -735.649719
31.798000 93.640503 -748.480103
31.784401 105.491402 -737.122375
31.723900 96.084503 -745.464417
31.719999 106.547096 -736.239685
31.686100 109.871201 -732.905884
31.663099 108.705101 -734.174927
31.638599 100.065102 -742.168518
31.629999 104.381500 -738.221680
31.620501 98.295403 -743.563171
31.619499 101.000198 -741.103516
31.573500 103.275299 -739.297180
31.562799 94.585701 -747.316589
31.537901 95.321800 -746.345825
31.523100 97.433601 -744.403320
31.515900 101.976303 -740.177673
31.366501 109.391899 -733.541626
31.357500 99.526398 -742.907715
31.327801 107.782799 -735.254700
31.285900 105.037697 -737.788513
31.282301 110.914902 -731.575317
31.239500 106.125900 -736.875183
31.222900 100.757301 -741.818970
31.168699 96.975197 -745.032715
31.151501 104.003601 -738.876404
31.085899 110.277496 -732.382324
31.081400 101.851799 -741.015381
31.047199 102.613297 -739.850830
31.039301 96.014000 -746.089478
31.029200 108.412201 -734.708130
31.004801 95.234299 -747.018921
30.977301 98.065903 -744.200012
30.970301 106.962502 -736.214172
30.919701 100.283096 -742.608826
30.898300 99.039299 -743.558594
30.817499 111.342400 -730.976929
30.780199 109.144699 -734.200989
30.754101 109.945801 -733.178223
30.748800 105.764503 -737.531372
30.697100 102.615799 -740.750000
30.689699 101.454002 -741.897278
30.677200 103.478996 -739.562927
30.645399 104.895500 -738.374573
30.599800 96.665901 -745.755676
30.595600 97.589302 -744.854980
30.575800 99.771698 -743.230103
30.535801 107.755203 -735.599976
30.413401 110.886398 -731.770203
30.411900 102.190697 -741.452515
30.411400 106.540604 -737.007813
30.409201 95.835098 -746.698425
30.318600 111.798103 -730.408203
30.289700 104.156700 -739.032715
30.270300 103.357803 -740.312988
30.253300 98.749702 -744.075378
30.230801 108.817497 -734.804871
30.230200 110.429199 -732.586182
30.226801 100.832497 -742.629883
30.212299 107.349800 -736.315430
30.176901 109.663101 -733.844116
30.089399 105.497002 -738.128784
30.032400 104.196297 -739.929504
30.006901 102.901299 -741.176270
29.973700 97.276398 -745.398010
29.921499 96.413101 -746.218689
29.914900 99.574303 -743.748596
29.905399 98.234200 -744.660522
29.901199 101.679604 -742.140991
29.899599 108.355797 -735.455383
29.894600 111.446098 -731.062988
29.852900 106.224800 -737.577820
29.841499 112.437897 -729.540100
29.817400 104.892899 -739.127319
29.779100 110.258102 -733.289917
29.753700 100.415398 -743.409973
29.675501 106.983200 -736.988403
29.660801 103.894501 -740.697571
29.658400 111.023399 -732.236572
29.621599 109.311699 -734.444214
29.566099 102.514900 -741.799622
29.537901 107.847099 -736.131714
29.464100 111.884102 -730.456177
29.455099 104.977699 -739.928406
29.448099 101.083603 -742.866882
29.447001 98.951202 -744.253906
29.423401 105.775200 -738.663574
29.349199 96.950302 -745.874573
29.306601 108.926399 -735.219788
29.293600 97.889297 -745.148010
29.283501 103.351196 -741.308105
29.246000 110.076599 -733.963684
29.199600 111.461403 -731.631592
29.138000 102.035797 -742.512329
29.125401 110.765602 -732.908081
29.120600 106.740997 -737.632080
29.068300 99.930603 -743.768005
29.067301 112.651299 -729.185181
29.045900 105.822304 -739.499329
29.043600 104.525703 -740.605713
29.014299 107.651398 -736.772827
28.957100 108.450104 -735.876892
28.948900 106.492798 -738.722717
28.840000 109.551102 -734.828979
28.839199 100.722603 -743.404480
28.806900 102.916702 -742.031128
28.780100 111.924400 -731.003418
28.767000 98.629097 -744.668518
28.717899 113.063698 -728.397278
28.699600 103.995003 -741.238281
28.666901 112.502800 -730.028870
28.663601 101.463402 -743.010498
28.649500 105.274399 -740.223206
28.644600 111.393402 -732.340210
28.590700 107.181999 -738.341980
28.582199 110.599297 -733.681030
28.556999 107.545097 -737.492188
28.452600 99.384300 -744.254517
28.422600 109.143501 -735.459473
28.365601 106.491096 -739.525818
28.350700 108.289101 -736.671021
28.341900 102.344200 -742.680481
28.329100 110.236900 -734.449829
28.319099 104.747101 -741.075989
28.261101 111.900803 -731.707703
28.233601 100.142197 -743.913025
28.221901 112.896004 -729.074280
28.187500 111.126900 -733.114014
28.176201 113.457397 -727.860229
28.117701 103.429901 -742.100830
28.076900 112.444000 -730.925720
28.038300 105.965202 -740.430481
28.034500 107.299698 -738.997498
28.010500 101.130600 -743.443420
28.009501 108.030602 -738.266785
27.942400 109.927002 -735.148987
27.922400 104.252502 -741.663513
27.911301 109.098503 -736.192383
27.887400 108.401604 -737.378906
27.883101 111.839203 -732.572021
27.873899 112.823799 -729.943787
27.784401 111.019203 -733.956421
27.717300 106.752502 -740.036987
27.717100 101.862396 -743.108215
27.662001 105.470497 -741.030518
27.590401 102.901901 -742.607971
27.567200 113.773697 -727.305786
27.538500 113.300903 -728.534119
27.498501 108.835999 -738.064392
27.491800 112.454300 -731.544128
27.452600 111.561501 -733.269226
27.450199 109.210098 -736.954529
27.446800 108.069298 -739.007996
27.437000 100.578903 -743.780884
27.395000 110.569199 -734.681213
27.372900 109.651299 -735.747986
27.357901 107.501999 -739.720215
27.337999 104.875603 -741.609314
27.319599 103.874496 -742.240173
27.310200 106.408203 -740.710571
27.263700 112.979103 -730.611816
27.109400 113.212502 -729.340576
27.089800 110.085098 -736.507629
27.070700 112.188499 -732.667419
27.017300 110.567001 -735.583313
26.991699 102.431503 -743.115479
26.984200 108.798500 -738.822388
26.975901 101.584900 -743.474487
26.973101 109.734901 -737.664001
26.965200 111.368797 -734.036621
26.900700 105.662003 -741.376221
26.896099 114.347099 -726.489380
26.889200 113.879898 -727.849915
26.878500 107.204903 -740.438599
26.815100 103.363701 -742.781372
26.810600 113.043404 -731.360413
26.786301 108.325104 -739.517029
26.703199 104.494499 -742.215027
26.599501 110.838402 -736.425476
26.589199 113.691803 -728.625793
26.586800 110.994102 -734.788330
26.577000 113.407402 -730.003784
26.572901 110.525803 -737.223083
26.571199 112.695000 -732.099670
26.565901 109.676498 -738.526611
26.508900 106.570900 -741.133728
26.493700 112.208801 -733.498718
26.464800 107.952301 -740.271606
26.418501 109.113998 -739.388428
26.411501 111.381798 -735.768982
26.399401 114.324600 -727.180725
26.298201 105.411102 -741.945313
26.219101 110.541496 -738.195679
26.197100 111.648804 -734.319519
26.182100 114.903503 -726.095703
26.140400 104.092003 -742.718872
26.117001 113.518997 -730.779175
26.102301 111.470901 -736.731873
26.068100 112.698502 -732.810181
26.061100 107.342003 -740.917480
26.015400 113.913803 -729.240173
25.990499 108.712303 -740.047180
25.975201 113.194099 -731.669983
25.962099 111.968597 -735.317627
25.958200 110.194603 -738.956787
25.946301 106.154701 -741.718018
25.924700 111.103897 -737.496277
25.871401 114.246696 -727.842285
25.806801 115.443199 -725.541321
25.750900 108.139999 -740.713013
25.749001 112.299896 -733.949524
25.731199 109.712601 -739.694397
25.721300 104.927200 -742.364502
25.697201 112.206200 -736.332275
25.662201 114.720001 -727.013184
25.640900 111.104698 -738.503174
25.589399 112.570198 -734.799377
25.582500 112.007202 -737.486877
25.576099 114.059502 -730.232117
25.567801 106.975304 -741.587524
25.492001 113.285599 -732.455505
25.465401 114.356400 -728.581482
25.404800 113.778000 -731.164978
25.357201 112.654404 -735.634583
25.356001 112.897697 -733.272095
25.355801 115.230797 -726.242493
25.337200 115.884399 -724.860107
25.309099 110.550201 -739.424316
25.305500 109.417503 -740.373230
25.251101 111.964699 -738.268677
25.240299 107.855499 -741.362183
25.205799 112.667397 -736.942871
25.163200 112.710899 -737.847229
25.151501 113.198097 -734.257080
25.128300 111.406700 -739.176086
25.126600 114.693901 -727.815186
25.100700 108.752800 -740.925171
25.015301 114.481201 -729.405273
24.993299 113.298103 -735.098511
24.990200 113.167297 -736.268188
24.964300 113.854698 -731.916077
24.939699 115.734596 -725.682129
24.911301 113.702103 -732.970520
24.902700 110.332100 -740.155884
24.797300 114.469398 -730.357178
24.781200 112.660400 -738.619812
24.762300 115.146301 -726.985901
24.733999 113.334198 -737.323425
24.701099 114.842201 -728.579895
24.685499 116.457001 -724.528076
24.657101 109.492897 -741.085571
24.649401 114.313004 -731.235229
24.631800 113.829002 -733.831177
24.606100 111.331703 -740.014709
24.594900 113.819397 -735.661987
24.583799 112.165199 -739.437683
24.581400 113.981903 -736.662720
24.516500 113.966202 -734.812622
24.426100 113.321098 -738.209229
24.412800 110.386002 -740.929688
24.412201 114.288399 -732.463806
24.394400 115.640503 -726.342285
24.332701 115.051903 -729.338318
24.319300 115.220901 -727.726929
24.303900 113.035698 -739.243591
24.295099 116.209702 -725.302124
24.234200 114.040604 -737.610779
24.211800 116.815300 -723.751526
24.208099 114.380997 -733.286316
24.204000 114.562698 -736.162598
24.109301 112.115997 -740.161377
24.101400 114.970703 -730.325073
24.073400 114.752403 -731.716370
24.070000 114.526398 -734.326721
24.066401 114.697998 -737.049011
24.063299 114.593201 -735.312988
24.030500 114.029297 -738.974121
23.934200 115.416397 -728.547607
23.917801 115.679604 -727.083923
23.897800 116.801003 -724.580017
23.831301 114.814102 -738.044373
23.777201 114.913399 -732.770996
23.768101 115.229599 -735.826721
23.723801 113.630096 -739.694275
23.716600 116.142197 -726.043884
23.662001 115.004402 -733.674194
23.617599 115.152199 -734.827820
23.597799 115.453201 -729.715515
23.596300 115.340897 -736.682983
23.582399 117.304298 -723.278687
23.578800 115.277298 -731.261475
23.545401 114.788803 -738.848694
23.505100 115.786797 -727.825317
23.431801 116.623901 -725.325623
23.430401 115.458504 -737.508972
23.326200 115.816299 -735.320496
23.301600 117.188797 -724.074829
23.277500 116.040001 -738.176575
23.274799 115.434799 -732.316772
23.239700 116.183098 -726.785522
23.205200 115.902603 -728.628296
23.204800 116.025597 -736.329590
23.157400 115.618202 -733.992615
23.134199 115.585701 -730.433411
23.059099 115.616997 -733.146179
23.025700 116.136200 -737.187683
22.918400 115.941803 -729.478394
22.904800 116.614899 -726.067627
22.897301 117.717796 -722.562683
22.875500 115.800003 -731.565186
22.869301 116.248497 -734.704285
22.822701 116.883102 -737.636780
22.811100 116.275902 -727.527710
22.785400 116.489601 -735.539612
22.750401 117.094398 -724.734497
22.691099 116.063599 -732.511902
22.689100 117.616203 -723.461487
22.672501 116.728401 -736.403687
22.596800 116.283401 -733.842529
22.512699 116.191399 -730.463623
22.486500 116.387802 -728.629883
22.433100 116.665298 -726.810425
22.370399 116.940697 -734.591187
22.350401 116.438400 -731.828613
22.276400 117.169098 -735.791382
22.269501 117.107002 -725.445007
22.261700 117.142303 -737.038818
22.245899 118.121201 -722.052002
22.188999 116.433098 -729.591370
22.178600 116.543999 -733.013123
22.125601 117.570000 -724.204224
22.117800 117.998703 -722.886475
22.104300 116.738899 -727.900024
22.100300 116.993301 -733.735107
21.940100 117.542000 -735.019775
21.918800 116.687500 -730.872803
21.885599 117.616798 -736.437378
21.847700 117.178398 -726.376282
21.776199 116.893097 -732.261780
21.741600 117.744003 -737.350220
21.740999 116.819702 -728.710205
21.634899 117.758003 -734.043274
21.619499 117.068497 -727.237122
21.604000 117.209198 -733.062927
21.584299 117.573196 -725.187683
21.571301 117.964302 -723.556519
21.546101 116.823402 -730.087402
21.543100 118.059601 -735.575500
21.493200 117.205704 -731.512817
21.421000 118.328400 -722.253418
21.417200 118.328499 -736.618713
21.396999 118.190598 -734.748413
21.383801 118.424004 -721.369812
21.326799 117.824699 -724.379822
21.266800 117.999802 -733.313782
21.231899 117.352097 -730.698975
21.204399 117.172401 -728.088623
21.190201 117.184601 -729.274170
21.179199 117.582497 -726.025818
21.153700 117.552498 -732.291626
21.000000 118.723000 -735.421021
20.937300 118.567299 -733.977417
20.896200 117.482903 -727.006287
20.880301 118.290298 -722.946411
20.844299 117.824898 -731.447998
20.824301 117.957802 -725.086914
20.788200 117.536400 -729.973816
20.773701 118.307800 -732.645203
20.726000 119.076302 -736.295471
20.693701 118.169502 -723.861572
20.678499 118.639397 -721.968628
20.632200 117.521103 -728.635803
20.618700 119.112900 -734.562683
20.532900 118.900200 -733.274414
20.512899 118.011902 -730.635803
20.501499 117.643303 -727.794495
20.488600 119.406502 -735.473572
20.475201 118.836197 -720.575195
20.435400 117.986702 -725.859314
20.328300 118.488701 -731.913818
20.310499 117.941902 -729.346619
20.176701 119.476601 -733.810486
20.149401 117.908699 -726.741394
20.128300 119.112198 -732.457886
20.115601 118.614998 -722.623596
20.096901 118.331802 -724.761475
20.037201 118.444000 -730.062317
20.026899 120.102097 -735.110779
20.016001 118.904404 -721.315918
20.015400 118.617996 -731.098083
19.983500 118.521004 -723.485474
19.959200 118.088097 -728.481079
19.807199 119.767700 -733.045715
19.776100 118.978600 -719.946716
19.772499 118.152603 -727.539124
19.721399 119.233902 -731.658813
19.718201 120.140404 -734.227417
19.669001 118.569603 -729.145386
19.668301 118.398201 -725.675903
19.521999 118.939201 -722.061890
19.509501 119.078598 -730.529175
19.447399 119.877800 -732.282227
19.394100 118.396004 -726.512817
19.388700 120.705002 -734.783813
19.363600 119.145401 -720.750183
19.354900 118.712898 -724.102600
19.320000 120.381699 -733.481628
19.311300 118.845901 -723.029724
19.256100 118.591698 -728.118225
19.221901 119.115402 -729.678528
19.190500 119.702301 -731.161926
19.180401 118.704498 -725.049622
19.019600 118.606400 -727.272278
19.017401 121.148399 -734.099915
18.996401 120.571999 -732.676880
18.988501 119.108902 -728.821411
18.927099 119.296898 -719.331421
18.905199 120.334198 -731.759888
18.883200 119.665703 -730.334595
18.881300 119.194000 -721.496826
18.812901 118.831497 -726.064575
18.731300 119.125198 -722.441284
18.703699 121.147499 -733.284485
18.638700 119.152496 -727.823975
18.636600 119.119904 -723.555115
18.626801 120.289101 -730.904480
18.579000 119.673897 -729.343506
18.578600 119.071198 -724.510986
18.512699 119.353600 -720.718384
18.444099 121.035896 -732.112122
18.390800 119.121498 -726.928894
18.364100 119.125099 -725.353516
18.300501 121.675301 -734.027588
18.249599 120.178802 -729.964783
18.230000 119.774597 -728.308411
18.177900 120.959702 -731.192871
18.158400 119.579300 -719.593384
18.150400 121.654297 -732.844421
18.066200 119.389099 -722.907288
18.050400 119.424500 -721.802002
18.010401 119.552597 -718.616577
17.926500 119.326302 -726.100830
17.901699 119.603500 -727.468018
17.889700 120.919502 -730.382324
17.887800 119.381401 -723.880615
17.867599 120.102402 -729.126526
17.867001 121.572403 -731.723328
17.796301 119.430496 -724.771606
17.705000 119.660698 -720.339722
17.689600 122.244301 -733.372375
17.594900 122.101601 -732.367798
17.568800 120.805801 -729.590881
17.565001 120.211502 -727.962280
17.489300 121.562103 -730.951294
17.439199 119.769302 -726.642212
17.313101 120.734001 -728.675781
17.307899 119.698196 -723.211426
17.297899 119.748299 -719.070313
17.277500 119.699402 -722.190430
17.274900 122.248199 -731.552307
17.261299 121.490898 -730.129028
17.252399 119.758499 -725.664673
17.237700 119.849197 -718.214905
17.231800 119.724098 -721.090271
17.182400 119.780197 -724.292725
17.108101 122.887901 -732.668213
17.035999 120.353203 -727.163025
16.932899 121.359100 -729.180908
16.906401 120.769997 -727.916504
16.897499 119.929497 -719.819397
16.867599 122.080498 -730.617188
16.792299 123.071297 -731.828430
16.758600 120.188103 -726.291687
16.702299 120.021202 -725.015320
16.648100 121.952103 -729.723083
16.575600 120.018204 -723.600220
16.528500 119.991203 -718.759521
16.509600 120.022102 -722.499512
16.482700 120.030899 -721.397888
16.461100 122.739304 -731.027710
16.410200 121.356003 -728.336914
16.392700 120.956703 -727.172485
16.384199 119.927299 -717.692871
16.368500 120.068703 -720.546875
16.262400 122.010902 -728.915771
16.202801 122.664101 -729.987976
16.194700 120.266800 -724.347900
16.163300 123.502403 -731.355896
16.157900 120.478302 -725.731628
16.103500 120.114700 -719.550781
15.950500 121.582199 -727.604492
15.909000 123.279503 -730.530212
15.899900 121.118202 -726.488892
15.823400 120.418198 -723.520081
15.769800 122.803001 -729.173218
15.738900 120.262497 -721.763611
15.722900 120.149696 -718.273315
15.713300 120.628502 -724.985229
15.709200 120.333603 -722.626587
15.702300 122.147697 -728.227478
15.672600 120.121002 -717.151611
15.573800 120.332802 -720.821289
15.461000 123.927299 -730.894897
15.449900 121.175797 -725.762207
15.408700 123.395699 -729.679382
15.359600 121.786003 -726.807190
15.329300 120.293404 -719.022278
15.245200 120.782997 -724.129211
15.232900 120.340797 -719.871277
15.219300 122.235497 -727.518677
15.153500 122.801201 -728.429321
15.085800 121.225700 -724.934082
15.085300 120.722397 -723.177612
14.965700 120.345398 -717.658203
14.959000 120.622002 -722.069580
14.958400 124.290398 -730.241821
14.894400 121.815102 -725.976624
14.819300 120.258904 -716.683716
14.815000 123.445702 -728.907776
14.791700 120.588402 -721.087830
14.719100 122.952301 -727.714478
14.648200 120.481499 -718.531616
14.641800 122.300598 -726.646179
14.593500 124.129601 -729.434570
14.495500 121.074097 -723.690491
14.495500 120.556602 -719.402527
14.485600 121.766197 -725.199402
14.343500 120.950600 -722.629822
14.342600 123.679703 -728.141113
14.296600 120.655899 -720.272217
14.257900 121.483704 -724.404785
14.215800 123.002403 -727.002808
14.193400 122.332397 -725.766785
14.174900 120.426804 -717.328430
14.167500 124.710602 -730.173401
14.083500 120.911797 -721.585022
14.068000 120.320099 -716.132324
14.034900 124.253098 -728.703430
13.816600 120.630898 -718.774475
13.805600 123.681801 -727.449585
13.804400 124.717499 -729.381714
13.800800 121.309601 -723.248230
13.716500 122.156799 -724.890076
13.683100 120.782501 -719.644226
13.678200 123.001297 -726.155273
13.630100 121.207497 -722.240417
13.588600 120.906700 -720.774597
13.552700 121.889503 -724.045410
13.528900 120.596298 -716.732727
13.527200 120.702202 -717.880188
13.508700 124.331703 -727.929626
13.316600 120.576698 -715.813904
13.304800 123.641800 -726.617310
13.290500 125.122002 -728.763489
13.281100 122.785103 -725.421814
13.112700 121.265198 -721.408386
13.095300 121.624001 -722.801819
13.059000 122.542198 -724.510925
13.035100 124.302498 -727.155212
12.982200 120.881203 -718.893127
12.879700 120.786003 -717.255676
12.872500 124.889397 -728.024170
12.848700 120.964600 -719.785278
12.844600 123.390800 -725.929382
12.775900 122.154602 -723.403015
12.656200 120.731102 -716.401611
12.635300 123.203499 -724.982117
12.578100 124.149597 -726.306885
12.544800 120.682899 -715.214600
12.536200 121.256897 -720.614014
