56.572800 119.055099 -780.523682
56.570400 136.820099 -804.552124
56.568298 208.843796 -798.594421
56.565399 224.730896 -807.130371
56.563000 142.157593 -811.689880
56.562401 317.688110 -783.289673
56.554798 134.306595 -909.963623
56.554600 204.553101 -791.249023
56.553600 185.833801 -785.707092
56.551399 190.776093 -787.246277
56.549099 152.697205 -881.845276
56.548599 192.886993 -791.526123
56.544800 146.249893 -819.207520
56.544701 212.343796 -792.383118
56.542801 155.421494 -856.741272
56.534801 235.045700 -812.339417
56.534698 155.877808 -859.997192
56.534302 249.469604 -826.016785
56.533798 288.169312 -872.852112
56.531898 166.709702 -783.704529
56.526402 130.335999 -767.958923
56.525299 215.720901 -792.568604
56.524899 173.324402 -781.784912
56.522202 153.949203 -844.154419
56.521801 184.448898 -788.770874
56.518799 201.470703 -794.855713
56.518700 217.517303 -802.413330
56.517899 286.991089 -868.567383
56.515900 187.922394 -786.577515
56.515701 271.216797 -840.895508
56.511002 266.661804 -836.936890
56.509998 222.939194 -805.849976
56.508801 172.789597 -785.157593
56.507401 127.299599 -773.685181
56.495201 139.899002 -808.076416
56.489601 143.731094 -814.056519
56.489399 116.306702 -768.072998
56.487301 154.507507 -774.153809
56.484798 153.589798 -842.351501
56.484798 154.453293 -782.328186
56.482700 231.814194 -810.893188
56.481800 242.898300 -818.924622
56.479900 139.618393 -778.314087
56.479698 264.419006 -835.337280
56.478901 194.794403 -791.992188
56.477798 275.838104 -846.710327
56.476398 282.772705 -858.463501
56.476398 236.831696 -813.248413
56.474899 285.846100 -865.304382
56.473900 138.173798 -805.259277
56.472000 138.772705 -769.044312
56.468498 197.111496 -789.002197
56.468399 121.683296 -771.584106
56.465199 192.380096 -787.906616
56.462200 240.457108 -816.016296
56.458900 34.120701 -761.551819
56.457298 123.796501 -766.428589
56.456200 178.432205 -786.809204
56.455101 36.460999 -776.563416
56.453999 156.305099 -781.577271
56.451000 183.994797 -785.613892
56.450699 185.988800 -788.960083
56.445499 246.167404 -822.902283
56.442600 141.306702 -768.604675
56.441601 181.205795 -784.771912
56.439499 158.480896 -781.706421
56.433800 320.206299 -784.344482
56.429501 191.333801 -790.489075
56.426102 171.346603 -784.635681
56.418800 169.261307 -784.032227
56.418598 207.563400 -797.482483
56.418301 149.609299 -827.458618
56.415001 210.370605 -798.801697
56.413601 178.963104 -784.031921
56.412601 156.274002 -865.522278
56.412102 154.163406 -846.028198
56.410400 205.960693 -792.105896
56.409199 219.698395 -803.877319
56.408001 189.909607 -789.690491
56.407700 200.222397 -790.455688
56.406601 116.648201 -766.603577
56.405800 124.093102 -772.866882
56.400002 188.261093 -789.159302
56.398899 210.001205 -792.609375
56.395199 152.458603 -781.929199
56.393398 141.300400 -809.974426
56.392899 154.325394 -848.052185
56.390900 284.358307 -861.639526
56.388401 255.047104 -829.506409
56.387100 111.062103 -773.130676
56.386700 260.954315 -833.071228
56.384701 212.944199 -799.934814
56.381302 230.401306 -810.235718
56.379601 176.377808 -783.184814
56.377399 175.025497 -785.474426
56.377300 273.050903 -842.644775
56.376202 151.481796 -774.756470
56.374901 162.190994 -782.294617
56.374401 144.391998 -772.632507
56.373001 185.374496 -787.550171
56.367802 216.499298 -801.293091
56.366901 155.831497 -776.173523
56.364899 127.148804 -767.314697
56.363602 188.944107 -787.635315
56.360600 174.730194 -782.709778
56.359402 152.459000 -837.005615
56.359402 165.982605 -779.252930
56.355999 182.277496 -787.508728
56.350800 156.074203 -861.775818
56.350700 35.385101 -767.461304
56.349098 146.161407 -780.335388
56.344299 150.106094 -887.979614
56.343102 205.059097 -796.244873
56.343102 180.506195 -786.968018
56.339600 187.105606 -787.833374
56.338299 182.337097 -785.717102
56.338100 183.826294 -787.459412
56.338001 131.715607 -775.354675
56.337799 167.809006 -780.200012
56.336800 201.595795 -791.126709
56.334702 203.103394 -794.992004
56.333302 142.305801 -772.117188
56.333199 281.792206 -856.420227
56.328602 128.973694 -792.926025
56.324699 323.964996 -785.034973
56.322800 149.311493 -781.452087
56.320301 134.710205 -801.356812
56.319401 120.958801 -765.973694
56.303699 207.414505 -792.717102
56.301498 194.122498 -789.111023
56.298901 192.411697 -789.434570
56.298500 160.227097 -777.398499
56.297798 243.813904 -820.068787
56.294498 140.446198 -771.557312
56.293098 114.845802 -767.285889
56.292599 154.891907 -780.914490
56.289700 200.083099 -793.703613
56.287800 196.268295 -792.049377
56.287201 156.278900 -870.231018
56.286301 213.572800 -793.185791
56.283600 125.919998 -788.390808
56.280899 279.843201 -852.400024
56.276699 191.102005 -788.705872
56.270699 193.993500 -790.579224
56.270100 221.849106 -804.882690
56.262299 128.895004 -774.221619
56.261398 135.601898 -776.958191
56.255299 214.761795 -800.126770
56.254200 179.793594 -785.648621
56.253502 36.436298 -773.684326
56.247101 117.726097 -779.100586
56.246601 203.124802 -791.870728
56.244099 198.777298 -792.636230
56.243301 151.414795 -833.385071
56.241402 217.070801 -793.379517
56.236900 145.999100 -766.733582
56.226101 155.503296 -873.186584
56.218102 128.855606 -767.750305
56.216499 164.845093 -782.583008
56.205898 156.292206 -863.408325
56.202000 195.953293 -789.866577
56.201302 119.910202 -771.186279
56.196499 147.943100 -822.872986
56.195801 117.736298 -765.548584
56.195301 274.830902 -845.018188
56.190399 247.662796 -824.017883
56.189800 178.113907 -785.273987
56.188400 136.489304 -802.537415
56.183399 158.733093 -777.234924
56.176998 201.913696 -793.427185
56.175201 171.076996 -781.760193
56.175201 153.311203 -780.689819
56.166801 129.785095 -769.297913
56.166500 197.784500 -790.434875
56.164501 206.659302 -796.344727
56.164101 109.569504 -772.096619
56.160500 36.558399 -778.088684
56.153801 252.845200 -828.000305
56.152401 141.685303 -902.058289
56.151600 108.237999 -771.388916
56.144100 277.403015 -848.622192
56.141899 176.258102 -784.625000
56.140800 215.044800 -793.814819
56.138401 208.550903 -793.676575
56.137901 115.250198 -769.068420
56.137299 242.289703 -817.627319
56.135101 145.520004 -817.041199
56.125599 113.378700 -766.973816
56.125500 200.199203 -791.909302
56.125401 211.149994 -793.551025
56.122700 118.255600 -770.681091
56.122101 136.198395 -907.796021
56.118500 173.932602 -784.218506
56.111198 319.120911 -783.337830
56.111099 204.511200 -792.665527
56.110901 152.970200 -773.710999
56.110298 104.673302 -768.012573
56.106602 167.995605 -783.153687
56.104000 172.566696 -783.687012
56.100899 116.488098 -769.844116
56.099899 209.769608 -797.465210
56.098301 211.781693 -798.557800
56.097401 115.326797 -765.878113
56.086899 226.261002 -807.357605
56.084900 160.832794 -781.442810
56.080898 238.296295 -813.502930
56.077301 122.576500 -772.680420
56.075500 269.831085 -838.852295
56.075401 134.938507 -770.111328
56.072701 35.949100 -769.711792
56.068401 258.776398 -831.558716
56.067200 127.384300 -790.999878
56.064098 139.245407 -806.390381
56.063099 206.047104 -793.573120
56.053799 151.755493 -780.316895
56.052799 245.510696 -821.574402
56.052601 152.106201 -835.239990
56.050301 137.214096 -769.383423
56.050201 164.503098 -779.418274
56.046700 149.430496 -889.896301
56.042400 150.044495 -774.641479
56.042099 169.577393 -781.767883
56.040199 170.919098 -783.213928
56.039101 155.673096 -858.106506
56.035400 116.317497 -778.005798
56.033699 34.561798 -764.205688
56.033001 122.081902 -784.005920
56.030102 217.912094 -801.041077
56.027599 153.444504 -840.734375
56.027599 213.956497 -798.875671
56.023800 162.162399 -778.614380
56.019501 154.393799 -775.914185
56.009201 288.300507 -874.279785
56.008499 210.074707 -794.564026
56.008400 250.703003 -826.601074
56.008400 157.317596 -780.555176
56.008099 216.156296 -799.684814
56.007000 111.935699 -767.222778
56.004299 212.368103 -794.420288
56.003201 224.306702 -805.625122
56.002499 113.728401 -768.401794
56.000900 156.820404 -867.665527
56.000099 204.356293 -794.185425
55.999699 208.291199 -796.192688
55.999401 136.911896 -777.602173
55.998901 283.507904 -859.748779
55.993599 218.953995 -802.483398
55.989399 206.970901 -794.766479
55.980801 107.014801 -770.468628
55.980099 262.328186 -833.554382
55.978500 152.909805 -838.571106
55.974098 134.153305 -776.645630
55.972401 287.662994 -871.377808
55.968201 143.086197 -767.758911
55.965599 234.499802 -811.095276
55.959702 289.802094 -880.412720
55.958000 148.086807 -780.548828
55.956501 156.272400 -871.841492
55.955700 124.495102 -786.927673
55.953999 166.649399 -782.350525
55.950802 125.707100 -767.097900
55.944698 216.568695 -794.796875
55.939201 143.346603 -812.695801
55.937302 143.159698 -779.910522
55.936798 125.343903 -773.482788
55.936600 228.515793 -808.650085
55.936401 36.361198 -779.831726
55.926899 113.665001 -765.499023
55.925701 166.515701 -780.748108
55.925598 221.100800 -803.632080
55.924702 325.355988 -784.723083
55.924000 140.083801 -903.742676
55.917500 163.329498 -781.440674
55.917400 214.148102 -795.027893
55.911598 159.478394 -780.669189
55.910198 155.385193 -875.302979
55.909901 265.889587 -835.779114
55.908401 218.490601 -794.227112
55.904598 209.805893 -796.005676
55.904598 144.767899 -779.827087
55.901901 211.756195 -797.053528
55.899799 274.242493 -843.584412
55.898499 239.975006 -814.541077
55.890701 322.876892 -784.150879
55.888000 212.777695 -795.829407
55.887600 122.453499 -766.150818
55.880001 149.869202 -779.688721
55.876900 123.297302 -785.565796
55.876400 213.459702 -797.497681
55.872398 154.231400 -878.824707
55.869099 138.522598 -771.140686
55.855400 148.662796 -891.652588
55.850498 155.113098 -854.434387
55.847698 215.177307 -798.022400
55.847698 155.968002 -779.932007
55.833599 214.823303 -796.349182
55.830200 35.851398 -781.598572
55.827202 112.149597 -765.765076
55.819599 36.400501 -772.184021
55.813702 217.611603 -799.613586
55.813400 156.819794 -777.136902
55.811100 236.353104 -811.945374
55.810699 286.398407 -867.106079
55.810398 272.588287 -841.278076
55.810398 268.027313 -837.154724
55.809101 110.652603 -766.518677
55.806702 151.079193 -831.979309
55.805302 134.658295 -799.658020
55.804798 167.980698 -781.663025
55.801102 154.234406 -779.616577
55.800201 35.447300 -783.413879
55.796200 140.876801 -779.203125
55.786999 142.721893 -900.804626
55.782398 217.244598 -796.109619
55.772202 241.771194 -816.230896
55.771801 139.986298 -768.522583
55.768101 147.179092 -894.922302
55.767601 133.257401 -769.749695
55.764999 163.141998 -779.963379
55.762600 148.684906 -824.085388
55.757801 141.201599 -808.500793
55.745800 137.727600 -803.619324
55.742100 160.556198 -778.747681
55.739101 120.898300 -782.962097
55.736099 145.973495 -896.995117
55.736000 151.181305 -779.006287
55.732601 222.948196 -803.995972
55.729801 248.895798 -824.909790
55.724098 161.658096 -780.235107
55.723301 233.129303 -810.567017
55.721199 216.503006 -797.419983
55.719700 119.662102 -765.470276
55.716999 148.304199 -779.079773
55.716000 120.682503 -772.406128
55.714500 152.675095 -779.212891
55.714001 154.878799 -877.437317
55.708401 220.259598 -801.859619
55.697800 130.525208 -795.460388
55.696098 130.343796 -775.462280
55.690899 218.753693 -795.679321
55.688999 150.960403 -773.397400
55.685902 35.049099 -766.061218
55.684502 147.712601 -821.327026
55.684299 154.541595 -852.120178
55.679401 151.879395 -883.853088
55.677898 288.663300 -876.411072
55.665798 144.691696 -814.912598
55.664001 165.018906 -780.795776
55.660801 152.311905 -775.731873
55.659401 271.112793 -839.695313
55.658001 105.985298 -769.402771
55.653500 144.163803 -899.412781
55.650200 112.221603 -768.653870
55.648899 153.364594 -880.907227
55.647202 219.180298 -800.396118
55.645401 225.928101 -805.947693
55.643700 116.499100 -764.996826
55.643299 281.320587 -854.644714
55.635601 158.812103 -778.626526
55.634399 145.083298 -898.195129
55.633701 256.276215 -829.858521
55.632301 217.828995 -798.162476
55.631699 147.616302 -774.198730
55.624401 132.697296 -776.278015
55.622799 119.436699 -781.574585
55.618599 147.114899 -819.947083
55.612598 150.182907 -828.587830
55.610100 110.525597 -765.043274
55.604900 279.423309 -851.054871
55.604698 114.137199 -776.108215
55.591099 36.625099 -775.177673
55.590500 142.357300 -810.604004
55.589100 263.863007 -834.206482
55.587200 220.208405 -795.119873
55.586700 146.789398 -778.842590
55.585201 109.084000 -766.060730
55.583599 138.025406 -905.575317
55.578201 227.687302 -807.487305
55.576401 230.145599 -809.035217
55.576302 137.003403 -906.619629
55.572701 218.940506 -797.130615
55.571701 276.917511 -847.279602
55.567001 157.276794 -869.440613
55.560501 110.496696 -768.016174
55.558399 278.448608 -849.483215
55.546700 154.350693 -850.422424
55.542599 260.209198 -832.104309
55.536999 135.966599 -801.036316
55.534801 244.071701 -818.740906
55.531898 149.323105 -826.214294
55.530201 114.803398 -764.584717
55.529499 157.429001 -779.142517
55.527401 231.716797 -809.684387
55.526901 149.526901 -778.233887
55.521198 113.979599 -769.761108
55.520199 219.361603 -798.946777
55.508301 321.197296 -783.729675
55.507000 137.113007 -770.990112
55.506401 146.340607 -818.176575
55.506001 154.863297 -777.246216
55.503601 254.214005 -828.591125
55.497601 133.479904 -797.814880
55.496700 150.990005 -885.776123
55.495800 221.971298 -802.470825
55.493401 115.297897 -770.555786
55.491402 112.686996 -764.338074
55.489700 224.457703 -804.209778
55.478500 287.137085 -869.612793
55.463299 157.179596 -866.321472
55.455299 112.728203 -774.835022
55.448101 33.882000 -760.106995
55.445301 118.903198 -771.932983
55.441898 155.944901 -778.473389
55.431801 107.558098 -765.595703
55.431099 285.521698 -864.275818
55.424198 145.652603 -777.832581
55.423401 156.737396 -873.145203
55.422901 154.184204 -843.176514
55.418098 142.523804 -778.683594
55.416801 245.016098 -819.854675
55.416302 237.864502 -812.221191
55.414501 140.373306 -807.165527
55.412399 220.391907 -796.562927
55.410702 150.855499 -830.527100
55.403400 34.222099 -762.864197
55.401501 118.200401 -780.331177
55.400902 108.964996 -767.552124
55.395000 220.578201 -800.014099
55.394699 116.986702 -771.199585
55.394199 247.354996 -822.785217
55.391102 155.416504 -855.840088
55.390598 148.175293 -892.971924
55.387199 145.852295 -774.057617
55.384201 157.061707 -864.836975
55.377899 138.207108 -777.935181
55.370098 251.954895 -827.101685
55.366600 153.561905 -778.008118
55.361500 149.453796 -773.133301
55.358299 148.778107 -775.129517
55.357201 276.055389 -845.755127
55.352501 220.747498 -798.004883
55.351200 135.997498 -768.920288
55.350201 280.802887 -853.307312
55.347500 143.994202 -778.515991
55.347500 148.102203 -777.614380
55.331501 127.739998 -774.773804
55.330898 109.117996 -764.407776
55.323399 132.194595 -796.942383
55.319302 141.203094 -772.466675
55.319199 150.569504 -775.846680
55.317001 154.404297 -847.054871
55.309898 222.012604 -796.345276
55.307999 156.427002 -860.708374
55.305599 138.943604 -804.806580
55.305401 257.772491 -830.564270
55.304401 151.788406 -777.734009
55.298401 284.915405 -862.659119
55.296501 282.692688 -857.596924
55.287800 157.335098 -870.941589
55.287701 222.003494 -800.988525
55.273399 227.354904 -805.932983
55.269299 226.584305 -804.656982
55.251701 221.813202 -799.222473
55.250900 141.474792 -767.743713
55.245098 241.337402 -814.846985
55.244598 269.425293 -837.592529
55.244099 229.409607 -807.663879
55.241798 326.701111 -784.025085
55.241501 154.401794 -848.978882
55.238800 144.257507 -777.022522
55.238098 152.610901 -882.541870
55.235699 273.895294 -842.023071
55.235401 324.191315 -784.003418
55.230301 154.370102 -845.172424
55.222900 239.515503 -813.237976
55.221001 223.455994 -802.637085
55.212898 105.931297 -765.183716
55.205898 35.601700 -768.520325
55.205799 267.166412 -836.028320
55.195702 107.403603 -767.029297
55.184799 225.031906 -802.841980
55.176498 146.840607 -776.879578
55.175201 243.370895 -817.168823
55.172901 124.385300 -766.958130
55.172501 140.240295 -777.850891
55.170101 144.267807 -813.596375
55.166901 111.336304 -763.648682
55.164398 139.490494 -772.085205
55.157398 107.097801 -764.229370
55.153801 149.295807 -776.744019
55.145199 142.767502 -776.766296
55.144901 123.536499 -773.399475
55.131699 111.403000 -773.809082
55.129200 156.407593 -874.545471
55.128300 223.500504 -801.118591
55.127399 150.457703 -887.109924
55.125999 143.933105 -773.802979
55.121201 36.111198 -770.910889
55.117100 156.740097 -862.296204
55.110401 114.907799 -777.278198
55.107800 222.484894 -797.745972
55.104900 104.456596 -766.767212
55.103401 250.145798 -825.579224
55.103298 275.406311 -844.174500
55.101799 145.731293 -816.024719
55.100498 127.927002 -768.057617
55.100300 116.826500 -779.306824
55.098301 287.891907 -873.013123
55.088100 112.320099 -769.998474
55.086899 137.976501 -768.574829
55.083500 135.695297 -770.986694
55.081699 149.867096 -888.765076
55.075298 139.082993 -904.409729
55.072701 152.680298 -836.181396
55.072102 235.856003 -810.668701
55.071800 265.274200 -834.650696
55.071400 146.845901 -775.356323
55.056801 261.652100 -832.532410
55.055500 156.071899 -859.141113
55.047401 137.438995 -802.346313
55.047298 104.430702 -765.303528
55.047001 153.613602 -839.610779
55.046902 154.020599 -841.737183
55.045101 284.123199 -860.678711
55.044899 36.725101 -777.058472
55.043400 110.247398 -772.847229
55.038799 141.301498 -776.833313
55.031200 140.800095 -902.737793
55.027302 110.751198 -769.377319
55.012199 129.893097 -770.198792
55.011299 130.170700 -794.156799
55.007999 128.463303 -792.336182
55.007198 145.565598 -776.187012
55.000702 246.541397 -821.361023
54.992699 125.299103 -788.870789
54.992500 282.113495 -855.763672
54.987000 105.071999 -763.969177
54.980900 151.963699 -834.064819
54.973900 248.429596 -823.716614
54.973099 131.812607 -795.276428
54.971500 234.350403 -809.890076
54.968399 132.037506 -769.970886
54.967999 272.390686 -839.897278
54.952499 231.196198 -808.193909
54.951599 143.311707 -811.577087
54.950802 140.137894 -775.851196
54.935101 224.972900 -801.345276
54.923698 286.694489 -868.308289
54.923401 223.724106 -799.609375
54.914902 143.849304 -775.245605
54.907600 102.736900 -765.596130
54.902901 147.261307 -772.919983
54.902699 270.923401 -838.427979
54.900299 285.988708 -866.026611
54.899601 141.998505 -773.652893
54.895302 105.911301 -766.658997
54.892899 226.606506 -803.167480
54.891800 103.541901 -764.118896
54.888699 224.210800 -798.140015
54.887798 228.545395 -805.109009
54.885799 153.180496 -837.590576
54.885101 155.865799 -876.261597
54.881802 134.503494 -768.886780
54.881100 33.964802 -761.497009
54.880600 232.832306 -808.947571
54.871601 148.548798 -822.590027
54.869400 278.028503 -847.924072
54.866600 117.882599 -764.906616
54.863998 157.814499 -867.630005
54.863400 120.880600 -766.143921
54.862099 155.567596 -857.213196
54.861599 139.917404 -805.852478
54.855099 142.050995 -809.309326
54.853401 136.364502 -776.738220
54.848000 134.058701 -770.577820
54.841599 126.753700 -790.319214
54.838799 105.381104 -768.251892
54.837502 108.985703 -771.875671
54.827900 138.671906 -776.275024
54.827801 242.625900 -815.453430
54.826000 108.154099 -763.169128
54.823898 134.632507 -798.469910
54.821499 237.266907 -811.000183
54.821301 149.894608 -827.384216
54.821201 154.610901 -853.308289
54.812500 121.687401 -773.005188
54.812000 36.662701 -773.785217
54.808399 141.895004 -775.495300
54.799900 154.133194 -879.919495
54.794498 140.368393 -773.566711
54.792702 138.069504 -772.018921
54.790798 146.667099 -895.991089
54.788399 129.142303 -768.838623
54.784599 36.547001 -778.939270
54.784302 149.170807 -890.602783
54.781399 107.864304 -770.862671
54.780201 108.105202 -768.612671
54.777802 101.317703 -765.166626
54.777699 259.347290 -831.123596
54.772701 121.131401 -784.482727
54.769501 34.726501 -764.935120
54.764999 126.505302 -767.785889
54.749699 280.385712 -851.891479
54.744900 109.977203 -763.319397
54.742699 135.751099 -799.755310
54.726501 137.300095 -775.603027
54.716499 36.107601 -780.668823
54.714500 255.456100 -828.850708
54.705502 106.274803 -763.048401
54.704201 124.746002 -774.158081
54.700802 229.815903 -806.337585
54.697498 225.211899 -799.843872
54.694199 103.026901 -767.034424
54.691299 226.418503 -801.151184
54.690601 268.533905 -836.358826
54.688599 253.405701 -827.675903
54.685902 228.069794 -803.696411
54.684399 102.174004 -763.634521
54.682301 141.929092 -901.551697
54.677399 149.185898 -824.938782
54.675900 328.480591 -784.019592
54.667099 138.870804 -774.808716
54.658001 129.275696 -775.586121
54.653900 129.876907 -792.497070
54.642899 114.050903 -770.932678
54.635101 134.960907 -776.212524
54.633499 123.019402 -766.820007
54.627399 239.108398 -811.889221
54.624199 263.340790 -833.203308
54.623001 122.606796 -785.896973
54.620602 131.379700 -775.577515
54.616100 240.885498 -813.516418
54.611198 123.943199 -787.212219
54.610500 138.264008 -773.460510
54.610199 275.012787 -842.736389
54.605900 145.618195 -772.774292
54.604900 157.621506 -872.310486
54.599701 155.042999 -878.400085
54.598801 99.890999 -764.526917
54.597500 147.682297 -894.154785
54.595901 226.592499 -799.346985
54.594101 283.359314 -858.700378
54.592300 35.623901 -782.485413
54.574699 147.322800 -818.802124
54.573299 135.703201 -774.630798
54.568802 104.178001 -762.594788
54.564701 128.031693 -790.973083
54.564499 140.171402 -767.607117
54.562000 35.357300 -766.962830
54.559299 143.268997 -900.178284
54.554901 119.662201 -783.017029
54.543098 157.198395 -863.637817
54.534302 126.557899 -774.446472
54.531799 101.603302 -766.652771
54.523602 112.926102 -775.989319
54.513901 138.572800 -803.565430
54.511501 146.597107 -817.085876
54.506100 136.529907 -772.077881
54.503700 133.458206 -796.687805
54.502899 277.255798 -846.226379
54.501801 141.379898 -807.741577
54.500401 151.556396 -832.639587
54.499699 227.684296 -802.229187
54.498199 133.458405 -775.672119
54.495201 100.623497 -763.211670
54.491699 151.496506 -884.839111
54.477501 136.767700 -773.615784
54.475899 148.003296 -820.226013
54.461899 98.510498 -764.058716
54.460400 113.750099 -764.084778
54.458099 245.130005 -818.697815
54.456600 231.201508 -806.800171
54.447601 150.541901 -829.408386
54.443600 109.377502 -769.440125
54.433899 134.079803 -774.168518
54.433300 251.403900 -825.969727
54.433102 246.092194 -820.078796
54.430199 145.304901 -814.378174
54.425301 229.904999 -804.686279
54.416100 119.936096 -772.617676
54.406799 119.096901 -765.805725
54.402500 279.413208 -849.851929
54.399502 118.212700 -781.615723
54.397598 135.367706 -772.979675
54.382900 115.234299 -778.531677
54.382301 266.687195 -834.905579
54.380501 115.750198 -764.767700
54.374500 257.045013 -829.516479
54.373299 145.916107 -897.525818
54.372398 148.684494 -892.006775
54.367001 154.773102 -854.768188
54.366600 273.483002 -840.663513
54.360699 117.926201 -772.164673
54.360600 99.850502 -765.998230
54.360401 154.209595 -851.392029
54.342300 36.303699 -772.132874
54.339699 144.654205 -898.817627
54.325001 232.466797 -807.571228
54.324402 136.875900 -801.000610
54.320801 235.631805 -809.366089
54.308102 33.682499 -759.158325
54.307499 229.093002 -802.672791
54.301701 153.339203 -881.660706
54.296001 97.120300 -763.584412
54.292999 132.641495 -773.741272
54.286301 276.586700 -844.833679
54.284100 281.591187 -853.963318
54.282902 143.028305 -810.302917
54.269199 35.862701 -769.667114
54.267601 132.817398 -771.128418
54.266102 228.271896 -800.575989
54.258499 143.199799 -772.654114
54.257599 98.357002 -765.584900
54.248199 99.199600 -762.725525
54.244400 106.771698 -768.927124
54.243099 131.474792 -793.924072
54.240501 157.346695 -873.760681
54.238300 102.667503 -762.266724
54.237499 115.574402 -771.345703
54.235699 247.691193 -821.928772
54.229801 133.520294 -772.509583
54.225498 249.807205 -824.294678
54.219501 260.735596 -831.559387
54.216801 154.524399 -844.124023
54.204700 36.815399 -775.607788
54.199402 264.673615 -833.638977
54.199299 126.471901 -788.485291
54.190102 131.036102 -770.695129
54.189499 234.339706 -808.624084
54.189098 144.342606 -812.377930
54.182598 125.072502 -767.883423
54.177898 270.450592 -837.231079
54.168400 131.178207 -773.424377
54.164101 152.289597 -883.487671
54.159199 157.634293 -865.558289
54.159199 95.599503 -763.549316
54.156601 244.429901 -817.071716
54.148701 272.241913 -838.655029
54.133900 111.383797 -774.987976
54.133202 103.018097 -768.397888
54.132599 154.280197 -847.956726
54.125900 34.434399 -763.596313
54.117199 96.983299 -765.036621
54.116299 151.086304 -831.236816
54.110901 110.333099 -773.970886
54.101002 154.436401 -846.168701
54.094299 136.893295 -768.454285
54.091400 130.044403 -774.442871
54.085602 154.093704 -849.821106
54.083401 133.252701 -768.982422
54.080502 152.575104 -835.089478
54.061699 127.612396 -789.419312
54.059101 282.772491 -856.814209
54.057598 237.191498 -809.753723
54.057598 128.376602 -774.287720
54.050999 116.960503 -780.390686
54.047501 231.511093 -805.403015
54.041698 242.316895 -813.882874
54.033600 258.436401 -830.200073
54.026001 123.959198 -785.867981
54.024200 97.530296 -762.176514
54.022099 129.806305 -772.772278
54.018101 138.843903 -767.997620
54.014301 101.204002 -761.906128
53.999100 154.251602 -840.725220
53.998402 94.384804 -762.712097
53.997398 139.550903 -804.547424
53.987400 111.153702 -770.390076
53.982201 230.479294 -803.326782
53.981998 122.360001 -784.557007
53.979099 129.370499 -791.223022
53.979099 112.266899 -763.879578
53.977901 127.703598 -768.975830
53.976601 330.027802 -783.598389
53.975601 113.678703 -777.546875
53.974201 150.857697 -886.269226
53.972198 240.835800 -812.191772
53.969501 156.733398 -875.478882
53.965401 156.557693 -861.340027
53.965302 153.822495 -838.547119
53.964699 104.391602 -768.941589
53.959801 149.042404 -823.643188
53.957199 238.730103 -810.598572
53.954899 109.120697 -773.072021
53.949600 155.875793 -877.391785
53.940601 121.020500 -783.155273
53.934502 154.920898 -856.165405
53.930901 100.206596 -767.400085
53.928600 141.705093 -772.436707
53.928299 125.366203 -787.109619
53.921902 140.848602 -806.503174
53.908001 154.463898 -842.588501
53.898300 128.306396 -772.606018
53.897800 132.845901 -795.368774
53.881500 150.102295 -887.957214
53.880699 155.549698 -858.410828
53.865601 94.604599 -764.591797
53.862099 131.800797 -772.136719
53.860001 105.404099 -762.066895
53.858501 121.763199 -767.031616
53.852699 149.647507 -826.110474
53.851799 327.364014 -783.463623
53.844501 116.957199 -765.454529
53.842899 95.730904 -762.086487
53.842701 232.893402 -806.188782
53.836102 101.578499 -768.161316
53.835701 146.416901 -815.760681
53.835602 149.564896 -889.559814
53.828499 129.671600 -771.211487
53.814701 112.771400 -770.700989
53.813599 262.494293 -832.254028
53.813599 233.959793 -807.230530
53.807598 243.804504 -815.645508
53.802700 139.209900 -772.688721
53.797901 98.751297 -766.978882
53.791901 148.636200 -821.435730
53.790298 131.700500 -769.020081
53.787399 254.563705 -827.757813
53.784801 92.459999 -762.315674
53.784199 268.148010 -835.210083
53.775501 99.734802 -761.433472
53.774700 119.668198 -781.781677
53.768799 36.514400 -777.754517
53.767899 155.927994 -859.926819
53.762402 248.938705 -823.073303
53.755501 126.531502 -773.169678
53.751301 123.651901 -767.891113
53.745098 252.934097 -826.619995
53.734798 107.204102 -762.425903
53.731499 134.535599 -797.465210
53.731201 128.925293 -769.825500
53.729599 35.545101 -768.273010
53.729401 93.063797 -763.704773
53.714802 107.634903 -771.861389
53.708302 123.811203 -773.605530
53.708099 138.047104 -802.248291
53.708099 120.053299 -766.676514
53.706200 230.179001 -801.904114
53.698299 109.067596 -762.811584
53.695499 126.239899 -768.799377
53.694099 97.320503 -766.481384
53.681301 33.657200 -760.518311
53.677200 95.749901 -765.813477
53.675701 153.093201 -836.547791
53.663799 232.339600 -803.635376
53.659801 147.496902 -895.443726
53.652302 269.540314 -836.145508
53.641102 34.993599 -765.876282
53.638699 150.309906 -828.179626
53.622200 135.396194 -768.738586
53.621399 126.872498 -771.598389
53.604599 108.146301 -769.679871
53.602100 130.907394 -792.648376
53.595001 91.144402 -761.667175
53.593700 125.287300 -772.405029
53.592300 142.353500 -808.522583
53.587799 247.270493 -820.557129
53.583900 93.714203 -761.441711
53.582600 135.387604 -798.657410
53.574501 154.056107 -852.677612
53.564701 148.377899 -893.236084
53.556999 122.474297 -772.854187
53.555401 36.266300 -779.714722
53.553299 96.779198 -760.931091
53.550499 147.535004 -817.665527
53.549999 235.446594 -807.643372
53.541199 154.842697 -879.492676
53.517101 34.052502 -762.224182
53.515701 152.116501 -833.795776
53.512901 35.899601 -781.474182
53.512100 265.979309 -833.813416
53.502899 98.280998 -760.945984
53.496601 116.617104 -772.115784
53.493000 91.051498 -763.125916
53.490101 236.682495 -808.473877
53.488400 103.947899 -761.631775
53.473801 36.036598 -770.908386
53.468601 143.962402 -811.080383
53.459301 118.346001 -780.494019
53.452301 331.205597 -782.766113
53.450600 246.190796 -818.709290
53.445599 256.130096 -828.531677
53.442299 251.059204 -824.937683
53.436798 36.593601 -774.292419
53.428600 128.820999 -789.977783
53.426800 121.031898 -772.662170
53.426399 105.571198 -770.318787
53.421902 93.293198 -765.122498
53.417599 89.460602 -761.699219
53.417400 137.655807 -772.376587
53.416100 116.676804 -778.998413
53.410301 145.280396 -813.325989
53.389301 259.761688 -830.622925
53.387100 148.246002 -819.275085
53.366001 233.920700 -804.869507
53.355099 154.090500 -880.770386
53.353401 95.122398 -760.779419
53.338100 136.306396 -799.868713
53.334801 114.330101 -764.921326
53.317799 240.235199 -810.850281
53.313301 149.236893 -890.938782
53.305599 119.070900 -772.134277
53.296398 112.137703 -776.063171
53.292702 92.286301 -760.803223
53.289799 124.481499 -769.014893
53.286301 123.886703 -771.761902
53.285500 118.336502 -766.383911
53.285500 33.364700 -758.134827
53.269600 238.337799 -809.305298
53.263699 126.758202 -770.109985
53.263401 137.741394 -767.369080
53.259300 263.918915 -832.610229
53.255699 91.451302 -764.567871
53.241199 88.144203 -761.026917
53.237400 242.011597 -812.677124
53.213600 115.381302 -777.641113
53.187199 243.493103 -814.227112
53.185699 150.625900 -830.191406
53.184700 114.152603 -771.602722
53.180599 89.276199 -763.179199
53.174000 102.318298 -761.261719
53.173401 109.424301 -770.273499
53.171902 122.337997 -768.278015
53.161301 134.991394 -772.161621
53.161098 140.576202 -805.255981
53.160301 245.390106 -816.546204
53.159901 115.642403 -765.584778
53.158798 235.639099 -806.169617
53.156799 123.628899 -784.657288
53.155899 139.073502 -803.270325
53.150799 128.195602 -771.091980
53.134701 126.812202 -787.540283
53.119900 152.983307 -882.652100
53.114300 111.026398 -763.934875
53.113701 151.907593 -884.489014
53.108799 90.289902 -760.497925
53.102299 125.084396 -770.335815
53.096600 146.235107 -814.493286
53.095001 149.336899 -824.791199
53.077801 122.310097 -783.355774
53.077499 113.832603 -776.264282
53.072201 151.464600 -832.223328
53.070801 133.805298 -796.249878
53.061199 141.881195 -807.228577
53.059700 87.329399 -762.265503
53.056702 132.284302 -794.264282
53.046299 36.446098 -772.805176
53.030499 257.721313 -829.262329
53.029800 102.185799 -769.254028
53.027802 125.106499 -785.913574
53.020699 154.430099 -839.494385
53.010700 34.676701 -764.577576
53.004700 100.907501 -760.831482
52.995701 86.343597 -760.926819
52.979900 121.141899 -781.982971
52.977100 261.678589 -831.346985
52.976700 121.773003 -771.425171
52.974499 94.572998 -766.337708
52.963001 36.559299 -776.490479
52.960800 267.312805 -834.187927
52.959999 248.383194 -821.361023
52.956699 120.511398 -767.864685
52.954300 236.754807 -807.094971
52.954300 130.794800 -769.828613
52.951401 154.433807 -844.921021
52.951401 100.200699 -768.572327
52.945400 250.250900 -823.680481
52.925301 93.694099 -760.093811
52.920799 122.326698 -769.774902
52.914101 143.261093 -809.560425
52.904099 127.940300 -788.468872
52.903900 96.170898 -767.119324
52.890999 118.048698 -771.139221
52.889500 89.083702 -759.675903
52.886299 137.312500 -801.017578
52.872898 35.216900 -767.109314
52.866901 252.289597 -825.519470
52.866901 130.389694 -791.336975
52.856098 112.718803 -764.698425
52.853600 90.046799 -764.741516
52.852299 87.224503 -759.602478
52.846401 116.776604 -766.511597
52.840500 120.290398 -771.385620
52.831001 149.032898 -822.558289
52.828400 110.741898 -774.621582
52.826500 98.588501 -768.069397
52.823299 154.173706 -847.053528
52.815701 239.753601 -809.380920
52.810600 147.425293 -816.256287
52.806702 115.640198 -770.954895
52.800800 134.103394 -768.884094
52.794300 120.736000 -769.559570
52.791401 133.065399 -771.983521
52.790901 85.236099 -759.926086
52.790600 35.766399 -769.510620
52.784500 96.085503 -759.554871
52.781101 153.806396 -837.668396
52.761700 144.895493 -812.058228
52.761002 87.773003 -763.690125
52.745701 136.340195 -767.930298
52.730701 254.122192 -826.827881
52.729301 85.239799 -761.872375
52.719101 119.660797 -780.729309
52.714500 109.621803 -773.684387
52.712898 104.098900 -769.665283
52.701000 241.745804 -811.203186
52.695000 84.028603 -760.880920
52.693298 119.031700 -767.695313
52.688702 148.878403 -820.481873
52.671799 91.661598 -759.525696
52.655899 92.325500 -765.997070
52.655300 152.488693 -835.554199
52.648399 132.652802 -769.125671
52.645802 99.488800 -760.438782
52.644100 111.757202 -770.508972
52.637699 149.860794 -827.045776
52.636799 119.133102 -769.455322
52.635399 247.208603 -819.424988
52.618500 86.170898 -763.077820
52.616600 265.209686 -832.910278
52.616001 118.071503 -779.148315
52.610500 107.875397 -763.219971
52.608002 244.675400 -815.215515
52.580601 249.433594 -822.372620
52.562500 83.432999 -759.471619
52.557301 112.224899 -774.779907
52.552898 255.439102 -827.534485
52.544201 36.435902 -778.578979
52.506401 113.672501 -770.398926
52.500702 33.383099 -759.681580
52.483002 109.706100 -764.038879
52.465698 117.656197 -769.545715
52.464298 97.660698 -760.037415
52.462898 106.889702 -771.535522
52.458099 108.427498 -772.268799
52.455601 114.286301 -766.100281
52.452099 82.474503 -760.590576
52.425598 117.341003 -767.825684
52.421398 150.178696 -828.979004
52.413300 33.085098 -756.945007
52.407700 116.666702 -777.846313
52.405899 148.412094 -818.021973
52.405300 259.072510 -829.694702
52.404099 90.309799 -758.764282
52.396099 104.872398 -762.325317
52.372700 83.776802 -762.309570
52.372501 263.014313 -831.755920
52.359901 81.669998 -759.272827
52.353802 115.495499 -767.075623
52.352699 36.181499 -780.563171
52.351898 246.319305 -817.481018
52.343498 135.006104 -797.927185
52.342800 131.766602 -792.979126
52.333698 33.741798 -761.341919
52.307899 126.328796 -786.410828
52.307400 115.476997 -769.582520
52.295200 88.658501 -765.062683
52.289902 34.242500 -763.256470
52.289001 138.431503 -802.188416
52.283501 139.959503 -804.070679
52.269600 86.086197 -758.569885
52.264599 150.536301 -831.321899
52.253502 90.773201 -765.863281
52.248901 129.673904 -789.825012
52.247700 80.954201 -760.546387
52.236900 243.215393 -812.817688
52.233898 36.775600 -775.136475
52.230999 88.366501 -758.265991
52.229698 141.427505 -806.021179
52.228001 133.142105 -795.154907
52.222500 115.114098 -776.495789
52.220299 142.800705 -808.132080
52.218201 92.947304 -758.903320
52.204102 256.864014 -828.293518
52.195801 260.688202 -830.483276
52.191299 106.449699 -763.077881
52.174198 82.245796 -762.020813
52.172401 36.271500 -771.622803
52.171902 110.397301 -769.656311
52.164501 110.928497 -773.317322
52.160999 123.450203 -783.556030
52.157600 80.070602 -759.257385
52.151798 112.831497 -765.987122
52.133900 34.798698 -765.767029
52.133099 94.673302 -759.302612
52.119701 145.981201 -813.437012
52.117901 84.919197 -763.668213
52.107601 144.208206 -810.401123
52.107101 113.676804 -775.063477
52.100800 112.539299 -769.379578
52.100601 124.732300 -784.712402
52.094501 114.666496 -768.333923
52.073200 86.809502 -764.598572
52.072800 111.478203 -765.358276
52.059299 248.383606 -820.197021
52.045601 108.923698 -769.481506
52.043900 84.302299 -758.403198
52.035301 251.737106 -824.333130
52.027000 106.130798 -770.174072
52.022900 147.166901 -814.985413
52.017300 93.509003 -766.719971
52.001202 113.257202 -767.422424
51.996899 102.900497 -761.940186
51.987000 97.153503 -767.707214
51.986698 82.304703 -757.999390
51.985001 79.243797 -760.469727
51.982101 127.710899 -787.313721
51.964500 253.456894 -825.726685
51.958801 135.964096 -799.477905
51.957901 246.071594 -815.950806
51.955799 102.958199 -768.460327
51.936600 35.570099 -768.302612
51.933701 78.309303 -759.332520
51.905300 80.727203 -761.983826
51.905201 149.455704 -823.925476
51.903599 109.873802 -772.259399
51.877102 105.139900 -768.847229
51.869900 36.514599 -773.734070
51.868801 122.037498 -782.491089
51.868301 80.825798 -757.983398
51.849602 79.129700 -758.096924
51.834301 95.175697 -767.288818
51.828602 129.064301 -788.560730
51.827499 82.836304 -763.361877
51.821701 111.074997 -768.391113
51.818802 111.576500 -766.857910
51.778198 107.332199 -769.031311
51.776600 134.084396 -796.936584
51.763901 108.081299 -771.014099
51.762798 101.351601 -769.078186
51.759800 109.711700 -765.323120
51.749599 108.085403 -764.433289
51.745800 77.432297 -758.141479
51.709099 247.592896 -817.979919
51.702900 250.743195 -823.012695
51.695900 119.044197 -779.833801
51.688499 76.633301 -759.389221
51.680302 131.163696 -791.750122
51.676899 101.034500 -761.486511
51.674301 77.796700 -760.702820
51.673801 109.617897 -768.220581
51.668999 249.399399 -821.198914
51.663502 131.570099 -769.311523
51.637501 36.509602 -777.349487
51.634201 32.828602 -758.162720
51.623402 120.795700 -781.451172
51.611099 262.041412 -830.970215
51.609001 110.132401 -766.792908
51.575699 75.814598 -758.112976
51.569801 79.182800 -761.947021
51.557400 99.245598 -768.475220
51.549000 132.359802 -794.116882
51.535599 112.289299 -773.631470
51.535301 254.933395 -826.470215
51.529800 143.677704 -809.117004
51.526901 32.333401 -755.939819
51.488098 87.060501 -757.771973
51.474499 142.362701 -806.928406
51.468201 96.589104 -760.106628
51.460201 140.850204 -804.886414
51.457699 75.130203 -759.478577
51.457401 85.372200 -757.558289
51.456200 108.001297 -767.739075
51.453499 104.987297 -763.448120
51.444302 108.511597 -766.205383
51.434898 91.662399 -758.525330
51.432800 106.598999 -764.480713
51.428501 136.988495 -800.856812
51.426498 35.992298 -769.982910
51.417801 81.292297 -763.259888
51.401501 139.095703 -803.142883
51.375999 74.095703 -758.379517
51.374298 258.170013 -828.770203
51.373402 105.903503 -767.706421
51.372601 117.531700 -778.602417
51.363602 99.281601 -761.162170
51.349800 76.374901 -760.865112
51.328800 81.030296 -756.603821
51.325001 35.151699 -767.032898
51.311699 76.412201 -756.779480
51.307999 125.881599 -785.330872
51.301498 74.685204 -757.024414
51.293499 83.836700 -757.195923
51.284901 78.246696 -757.006287
51.266399 106.971298 -765.977417
51.249500 91.818802 -766.330688
51.247398 36.367901 -779.349182
51.242500 116.129402 -777.142578
51.230400 34.336498 -764.289124
51.219799 256.177307 -827.371277
51.216599 33.705700 -762.364685
51.191502 252.920502 -824.538879
51.173199 72.663002 -758.701172
51.150799 259.951691 -829.716675
51.149502 130.574295 -790.444580
51.148399 89.446098 -765.626587
51.139999 103.132401 -763.204895
51.128399 72.994301 -757.237427
51.126701 77.356598 -761.983398
51.121201 89.314003 -757.981201
51.120300 73.642303 -759.792786
51.091099 109.487701 -771.050720
51.079498 127.245598 -786.068726
51.068901 114.458000 -775.809204
51.066299 252.074600 -823.169922
51.036201 248.305099 -819.115112
51.033199 105.296898 -765.292419
51.017300 84.083199 -764.364685
51.016300 87.902496 -765.465576
51.015999 101.704597 -762.610229
51.015900 74.878899 -760.954407
51.010899 135.135101 -798.626709
51.009201 71.488602 -757.835571
51.000801 111.190102 -772.460022
51.000599 33.408501 -760.776917
50.987499 36.739201 -775.921570
50.982601 97.866699 -760.882813
50.978802 79.891502 -763.244080
50.976799 36.408401 -772.489197
50.973301 133.334106 -795.939087
50.962898 128.879898 -787.393127
50.948200 101.743599 -767.872498
50.946098 137.813797 -801.973999
50.933300 93.824799 -759.463013
50.912800 71.759300 -756.385681
50.903999 85.933998 -764.856628
50.889599 124.236603 -784.019287
50.886700 103.943497 -767.945923
50.869202 103.845100 -765.005188
50.854099 131.736694 -792.818909
50.851101 31.272200 -755.098328
50.846600 70.244904 -756.967529
50.839802 95.219398 -760.167419
50.830601 98.005898 -767.409424
50.828499 100.161499 -762.366699
50.814800 123.020203 -783.118896
50.812698 72.211304 -760.148987
50.797100 119.829201 -780.727112
50.797100 71.020699 -759.266174
50.792099 100.320198 -767.568970
50.791801 79.669403 -756.384399
50.791302 96.599998 -767.002380
50.784000 73.593697 -755.801086
50.778099 113.368500 -774.510986
50.775700 130.104599 -788.989929
50.730301 69.265900 -758.110291
50.706799 250.537598 -821.878174
50.698898 102.234901 -764.480408
50.682800 94.346001 -766.772827
50.682701 254.167099 -825.357483
50.679199 104.958298 -766.825623
50.672699 34.711102 -765.692688
50.667500 32.113098 -757.206299
50.638302 68.903099 -756.189026
50.631901 75.823402 -762.098022
50.619499 135.919495 -800.093384
50.611801 75.034203 -755.287720
50.585300 82.675301 -764.175110
50.581001 107.813202 -769.751221
50.571800 36.576000 -774.503418
50.571800 100.736702 -763.719971
50.569199 67.926201 -757.392273
50.561501 82.734100 -756.396484
50.557800 73.313698 -761.122681
50.539600 72.120796 -754.990479
50.533401 102.480797 -766.621277
50.524101 70.561302 -755.557312
50.505901 77.417503 -755.998474
50.504501 96.519997 -761.256714
50.503502 35.699200 -768.845276
50.481400 90.415497 -758.704712
50.462200 32.483398 -759.130188
50.460499 36.158501 -771.102905
50.430801 121.717003 -782.096130
50.423199 98.047997 -762.250122
50.420200 134.109207 -797.490479
50.405701 69.536903 -759.558899
50.400002 118.203201 -779.598877
50.398399 67.105797 -756.099121
50.362099 78.266701 -762.943420
50.355000 66.505898 -757.711975
50.352299 88.034401 -757.912598
50.338299 36.508301 -778.037476
50.325001 92.504204 -759.642273
50.305000 101.048302 -765.323608
50.291000 132.846695 -794.700684
50.262798 67.584099 -758.957397
50.237499 131.348602 -791.438599
50.227299 65.459999 -756.582214
50.225800 98.846100 -766.292114
50.223000 68.095703 -754.991882
50.222599 116.538803 -778.217529
50.220600 29.920900 -753.950012
50.212601 106.197998 -768.783813
50.186401 90.580902 -765.578125
50.161499 70.645798 -760.530579
50.152100 99.514999 -764.408875
50.145100 69.401703 -754.342712
50.119499 84.916000 -757.053528
50.115898 65.729698 -755.119812
50.098000 66.835999 -751.969482
50.092602 125.360497 -784.526001
50.089401 92.697601 -765.941284
50.086899 94.067398 -760.706970
50.065102 115.104599 -776.805420
50.064098 110.622498 -771.441772
50.058201 81.242699 -764.060425
50.055401 112.329498 -773.434021
50.053200 64.001404 -755.833923
50.050900 97.216301 -765.875977
50.017300 64.396301 -757.601074
50.010201 80.863297 -755.882019
49.997700 98.206497 -763.696411
49.974499 68.118401 -751.214294
49.948399 78.835899 -755.494019
49.947601 96.841599 -763.046387
49.938301 95.254700 -765.775879
49.936501 35.406200 -767.419800
49.927799 95.387703 -762.084229
49.917301 86.629097 -757.724670
49.911701 33.847099 -763.619324
49.874298 109.279099 -770.236206
49.864101 32.880699 -761.673889
49.855499 65.588097 -758.829590
49.845299 62.947201 -756.913330
49.838902 62.556801 -755.204407
49.804901 76.375801 -755.101990
49.788399 31.034901 -756.127686
49.783401 89.120598 -758.877075
49.781300 91.142303 -759.793823
49.775700 89.056900 -765.029175
49.769798 64.556702 -754.141785
49.752102 68.407997 -760.256714
49.750801 87.567802 -764.818481
49.748699 84.859001 -764.768372
49.741901 73.421097 -754.759888
49.722099 36.715698 -776.689392
49.707901 60.998199 -755.908875
49.698299 66.956398 -754.098328
49.695099 96.745003 -764.499329
49.689098 36.545799 -773.321289
49.671001 113.974403 -775.581177
49.666401 76.769501 -762.722412
49.660301 120.457100 -781.605591
49.633400 92.660896 -761.125671
49.617100 69.773102 -750.586975
49.612202 74.664497 -762.259521
49.595699 118.910400 -780.592773
49.563801 60.911900 -754.368591
49.554600 31.589001 -758.019775
49.550701 70.840599 -754.489502
49.534901 93.497299 -764.806213
49.530499 59.613300 -755.217896
49.524601 63.149502 -753.537598
49.520401 71.667198 -761.407471
49.517300 105.275299 -767.765686
49.503300 95.382698 -763.930420
49.497002 66.648804 -759.818176
49.471298 61.301899 -757.361328
49.466599 93.981499 -762.227600
49.464401 35.923199 -769.953674
49.451900 91.837196 -764.871887
49.451199 34.554798 -764.853271
49.431599 117.114197 -779.371216
49.414200 62.684799 -758.332703
49.379601 64.008797 -758.953918
49.355099 73.041199 -761.987671
49.347000 65.865898 -753.159729
49.334801 80.141403 -763.302917
49.332500 74.986099 -754.532288
49.326099 71.181297 -750.142090
49.310501 58.164001 -755.074219
49.306499 32.061001 -760.067810
49.294300 83.421600 -764.245178
49.290401 60.011200 -753.204529
49.289101 59.483200 -756.667603
49.288399 112.961601 -774.544617
49.273899 61.740299 -753.003784
49.270901 36.616798 -775.299316
49.266998 111.569000 -772.331909
49.254902 82.857399 -757.064270
49.244099 29.142700 -753.103516
49.235699 90.306396 -764.465088
49.226799 89.927002 -760.425781
49.223598 87.766998 -759.130310
49.200401 58.363400 -753.550720
49.189800 85.202599 -758.162598
49.189701 91.173401 -761.201111
49.187698 92.762703 -763.109619
49.185200 107.180702 -769.129578
49.172699 36.513901 -771.878784
49.168701 56.759800 -754.497986
49.131699 69.569199 -760.958374
49.123299 29.912100 -754.989685
49.103802 85.955902 -763.992004
49.075699 72.652496 -749.742676
49.074902 58.018902 -756.569275
49.071899 68.575401 -753.729614
49.070301 35.055199 -766.275696
49.062401 72.324097 -754.051575
49.055500 91.302803 -763.338318
48.986301 56.612202 -756.061829
48.978600 55.438000 -753.901611
48.978600 64.378700 -752.835388
48.972900 110.451103 -770.436584
48.968899 79.747597 -756.093384
48.957901 74.197601 -749.376404
48.949600 35.646801 -768.480286
48.942699 56.577202 -752.929871
48.941200 88.377998 -763.795715
48.935699 59.986500 -757.995178
48.929901 77.667702 -755.283691
48.928398 78.608803 -763.232178
48.910198 82.087303 -763.438171
48.878502 55.288601 -755.437683
48.871899 89.771698 -762.054382
48.857800 88.459602 -760.502075
48.839401 68.934097 -751.705688
48.819000 59.013500 -752.152283
48.815701 75.704597 -748.977600
48.805500 53.978100 -754.482300
48.803699 65.288200 -759.850830
48.802399 33.378502 -762.639893
48.802200 81.095398 -756.786499
48.784000 86.351097 -759.189880
48.753601 55.092499 -752.272522
48.751900 70.700401 -751.403076
48.751801 83.786499 -758.216003
48.720901 77.136803 -748.695923
48.720600 79.124199 -748.301514
48.699501 61.480499 -758.985229
48.688499 84.367203 -763.282227
48.661900 53.130600 -753.275024
48.658401 70.120499 -753.562195
48.656799 67.108902 -752.384399
48.655701 30.572800 -757.082886
48.613098 87.067200 -763.102173
48.593498 83.007599 -747.380188
48.583401 87.905701 -761.844177
48.565399 62.963100 -752.392029
48.541500 51.536098 -753.516724
48.540100 80.606003 -747.744202
48.537701 60.533001 -752.050720
48.533798 67.291100 -760.729492
48.533600 75.796600 -762.299622
48.522202 52.653702 -755.140808
48.504902 85.690300 -762.556396
48.489399 53.979599 -755.974670
48.486099 53.647800 -751.590027
48.477798 58.307800 -757.957275
48.452301 57.612301 -751.727173
48.442001 52.169399 -751.984314
48.422298 34.132999 -763.856323
48.416199 81.966698 -757.912170
48.406700 56.916100 -757.519470
48.404499 72.145500 -750.978577
48.397499 31.027800 -758.886475
48.392399 86.336899 -760.699219
48.385399 36.550900 -774.036011
48.382702 76.028702 -755.136292
48.360901 84.714401 -759.303894
48.328201 55.296799 -756.845215
48.311001 82.919998 -762.393372
48.310398 50.456799 -752.059692
48.299500 77.438004 -762.421814
48.297501 50.069698 -753.598389
