46.296101 109.415298 -751.195496
46.293900 208.006607 -776.451721
46.293900 218.428696 -774.437317
46.291401 249.087997 -877.593994
46.290100 224.595703 -833.941528
46.289299 225.805893 -835.643005
46.284901 176.983200 -793.494385
46.284500 144.843994 -770.007324
46.282700 213.694000 -821.949524
46.276100 157.956894 -773.475830
46.273300 157.739700 -781.249573
46.263500 152.794495 -766.849182
46.257900 197.166000 -782.374207
46.251499 99.796700 -753.376587
46.251301 126.159500 -762.634583
46.247299 171.335907 -769.064880
46.242802 139.572403 -768.106628
46.241600 133.883301 -764.735596
46.226101 164.690796 -768.190918
46.224400 93.280701 -755.976013
46.215000 191.999405 -806.135376
46.211700 186.188995 -779.704529
46.210800 223.643204 -832.645813
46.206799 195.324799 -808.875183
46.200199 157.865601 -767.408875
46.199699 98.043701 -754.864075
46.198898 168.687805 -768.736023
46.194901 239.311493 -860.475830
46.193298 199.102600 -783.234192
46.192001 204.002304 -772.931580
46.188499 161.585205 -783.198425
46.186600 214.693100 -777.450378
46.186401 191.281906 -771.984680
46.181499 209.590805 -773.469788
46.179901 250.279694 -878.939087
46.169300 231.994202 -845.315613
46.168900 190.356995 -804.736816
46.167301 216.075104 -823.995483
46.165901 211.200302 -773.492615
46.164398 136.831696 -766.617676
46.162701 222.786499 -831.340027
46.161301 159.221100 -782.090088
46.160198 206.265305 -773.245605
46.154400 163.278793 -768.083496
46.153702 176.271103 -769.995117
46.141399 238.183899 -857.567322
46.141399 214.819702 -822.804016
46.139801 189.534897 -771.848022
46.139099 182.502304 -771.001404
46.138401 113.414200 -750.565491
46.132401 138.389206 -771.454773
46.128300 132.544403 -764.368408
46.128101 151.298492 -766.570984
46.125599 138.249207 -767.846924
46.125198 221.116699 -829.293030
46.123901 156.723495 -773.124084
46.122700 143.434402 -769.698425
46.122299 156.210495 -780.510376
46.121601 197.938599 -811.330017
46.115002 183.835403 -799.146973
46.112499 178.758804 -778.126221
46.105701 169.612701 -775.967529
46.096600 181.025299 -796.961914
46.088600 150.584198 -771.862488
46.084301 163.274994 -783.969971
46.083000 209.484406 -776.521301
46.080399 217.340393 -825.182373
46.080101 150.065506 -766.453613
46.078701 165.409607 -775.071472
46.077000 239.943405 -861.858582
46.077000 189.367203 -780.300720
46.073799 102.947998 -751.679077
46.073502 196.725296 -810.320374
46.072300 135.428802 -766.159485
46.066200 188.645294 -803.248230
46.065701 236.077499 -852.244202
46.065201 241.210403 -865.274109
46.062901 209.039795 -819.247681
46.056499 204.162399 -816.010620
46.053699 218.914200 -826.539307
46.047600 140.859207 -773.138123
46.042301 147.723801 -776.453186
46.036999 220.384293 -828.348511
46.035198 251.054398 -879.975708
46.033699 198.792694 -772.625183
46.032799 124.672997 -762.341370
46.031601 166.278503 -785.216125
46.030800 149.271393 -771.604309
46.030399 179.261307 -770.639709
46.029900 237.694107 -856.359924
46.028801 176.898804 -777.666992
46.027199 237.094803 -854.955322
46.019299 204.481003 -775.882874
46.015099 195.256195 -781.735474
46.014500 235.375504 -850.815613
46.014000 130.429703 -762.747375
46.008598 141.872604 -769.313782
46.003502 171.159302 -776.313477
46.002102 133.812500 -765.959778
46.001202 131.174103 -764.339783
46.000000 238.843994 -859.245728
45.997501 201.657501 -814.319702
45.996799 149.158295 -777.175903
45.989700 106.126801 -751.667114
45.981098 221.974304 -830.273621
45.973099 184.377502 -779.234192
45.965199 205.353806 -816.843018
45.964500 150.421402 -777.809204
45.960201 216.204605 -777.929321
45.951000 193.572296 -807.601685
45.948898 172.789703 -790.110229
45.947800 147.331497 -765.177002
45.933701 136.963699 -767.861877
45.929699 153.546097 -779.273193
45.928902 195.756607 -775.242188
45.927601 210.653900 -776.690186
45.927200 195.575806 -772.347229
45.926399 132.313293 -765.581909
45.925400 146.460205 -775.922119
45.924702 167.352295 -768.560730
45.921501 98.629402 -753.790588
45.915501 96.710800 -755.082703
45.912601 224.817795 -835.049805
45.910999 141.315796 -764.413513
45.903900 156.531097 -767.224182
45.897598 134.781097 -763.416382
45.896999 99.097504 -752.196899
45.895401 229.304901 -841.928406
45.894402 154.820404 -779.940613
45.891499 251.789307 -880.998108
45.886501 241.930298 -867.000610
45.884998 240.863205 -864.042786
45.883801 132.206604 -762.912476
45.882999 230.125397 -843.048706
45.882702 160.466003 -782.875122
45.881302 216.290207 -774.160217
45.878899 164.516998 -784.608521
45.871101 236.569504 -853.728394
45.870201 134.498093 -766.985718
45.863300 213.864502 -773.896729
45.861500 192.376694 -780.934570
45.855801 232.957794 -847.072388
45.855499 187.525101 -779.884216
45.855202 129.779099 -764.228027
45.851200 147.883194 -771.307800
45.850899 140.264694 -769.064575
45.843899 208.384506 -773.540222
45.842400 193.678802 -772.272522
45.838001 148.739502 -766.070923
45.833900 206.972397 -818.052124
45.833599 128.562897 -763.616272
45.832199 234.716904 -849.760193
45.829700 167.094406 -775.400513
45.829102 230.833801 -844.166382
45.822399 161.603607 -767.893005
45.822102 133.593903 -763.275208
45.818699 136.029999 -763.649719
45.814701 227.639206 -839.460999
45.813801 233.710907 -848.231995
45.809399 247.947693 -876.606201
45.804001 177.595200 -770.583618
45.799301 170.791702 -788.428223
45.798901 205.127808 -773.318970
45.794998 170.203995 -769.056519
45.792801 202.646896 -815.078430
45.792702 243.061707 -869.443726
45.786900 118.861801 -762.832275
45.784500 210.268799 -820.206116
45.781399 130.974197 -765.579224
45.778301 161.502304 -774.159119
45.778198 132.896606 -766.695129
45.770100 120.245697 -764.385986
45.768200 181.698898 -778.694397
45.767601 228.540802 -840.960327
45.766899 139.264999 -764.101013
45.765701 252.594101 -881.958618
45.764900 123.171402 -761.877319
45.763000 125.851898 -766.644775
45.762798 171.752594 -789.338013
45.757000 181.035202 -771.033630
45.755600 175.071304 -770.011414
45.746399 129.094894 -762.496704
45.743000 114.912498 -750.986694
45.732399 127.235199 -762.170776
45.729301 200.252396 -775.530823
45.727699 145.129593 -775.194580
45.724201 107.984398 -751.568726
45.722599 202.526199 -773.080383
45.720001 202.749802 -775.632385
45.718899 187.187103 -802.118591
45.718399 137.297501 -763.827271
45.716301 169.861099 -787.583923
45.710899 141.888901 -773.736389
45.710201 127.127197 -763.478882
45.707001 217.418396 -778.185486
45.703800 184.177307 -771.398315
45.696899 198.372406 -775.442505
45.696701 186.034393 -801.137024
45.693699 127.206802 -767.122620
45.693501 197.601303 -772.681274
45.693100 218.762802 -778.447876
45.688702 155.231201 -772.787292
45.687099 129.608597 -765.469727
45.684502 95.515999 -755.457092
45.682598 168.756607 -786.940186
45.679798 155.139999 -767.033386
45.667198 184.710693 -799.976501
45.663898 146.047394 -764.934326
45.659302 253.263702 -882.943298
45.654400 143.483505 -764.721680
45.652199 159.319702 -773.667419
45.652100 205.671600 -775.802917
45.650501 128.506897 -764.854980
45.649200 112.270302 -750.869080
45.649101 212.697403 -821.637573
45.645199 190.595001 -780.463928
45.643101 176.017899 -793.209900
45.642899 174.566803 -791.918030
45.641899 226.518707 -837.959412
45.639999 223.530197 -833.740723
45.637798 219.541595 -827.526978
45.634998 189.409195 -804.078125
45.633499 243.729507 -870.588928
45.633099 192.304199 -772.250183
45.627399 124.626297 -766.199829
45.626400 97.470703 -753.984375
45.622601 211.330399 -820.975281
45.619499 167.746201 -786.297180
45.615501 164.366501 -774.645081
45.610199 121.720100 -765.148926
45.607201 173.184006 -769.728516
45.602600 101.810898 -751.919678
45.597301 211.974396 -776.931702
45.593102 125.465202 -763.407104
45.592499 98.028603 -752.775696
45.591301 225.597397 -836.596313
45.589699 139.216507 -772.476013
45.577702 123.139900 -765.676025
45.575600 191.023804 -805.539978
45.572899 186.156601 -771.694397
45.572102 215.118607 -774.340820
45.567699 175.752899 -777.348694
45.567200 178.332001 -795.059021
45.555801 144.679993 -764.889771
45.551201 127.079903 -764.721313
45.550598 138.672897 -768.887024
45.542198 153.598801 -772.390015
45.541401 253.707794 -884.052490
45.540901 118.445297 -761.731323
45.540699 135.854095 -768.119019
45.537102 201.126602 -773.059204
45.532600 193.711594 -781.221130
45.528400 179.439896 -796.081787
45.523800 165.725906 -768.446716
45.522499 121.326103 -761.308411
45.521801 131.404099 -766.709900
45.518200 182.886597 -798.717529
45.510399 192.593903 -806.948975
45.507801 245.109497 -872.796570
45.503300 212.432602 -774.000427
45.499100 172.801605 -776.650330
45.494598 222.565903 -832.372925
45.493401 104.923698 -751.932678
45.491299 173.382202 -791.080688
45.488701 122.202698 -762.534790
45.484699 124.075203 -763.243591
45.479099 160.180496 -767.794617
45.479000 216.333206 -824.937683
45.473400 213.817596 -822.897278
45.469299 220.709198 -779.176514
45.466099 194.389404 -808.374512
45.464802 110.287804 -751.298584
45.462700 125.773102 -764.558289
45.455200 143.766296 -774.653625
45.453602 197.938797 -782.853271
45.453201 214.967804 -823.836670
45.447498 162.181107 -783.994873
45.440701 195.883102 -809.752625
45.437302 125.797798 -761.829529
45.434101 217.840897 -826.064514
45.433399 201.428299 -775.536682
45.431999 221.789505 -831.332581
45.431000 162.950897 -774.499878
45.424500 254.898697 -885.774414
45.417198 207.336700 -775.952515
45.413601 207.822998 -818.973816
45.411999 122.781700 -764.070313
45.411499 187.868500 -771.961121
45.411400 117.684898 -762.646484
45.406799 149.945297 -765.428772
45.406601 127.710602 -765.737427
45.401299 196.328796 -782.171509
45.400501 156.875504 -781.232788
45.398399 136.631195 -770.944397
45.397301 123.924301 -764.739624
45.394001 246.786301 -875.224609
45.392700 245.928604 -874.072083
45.387699 152.459106 -779.037476
45.386600 199.653595 -812.956421
45.385300 94.194801 -755.461914
45.384998 200.627594 -813.873474
45.380199 119.097702 -764.002014
45.373600 120.733398 -762.429626
45.372898 220.940994 -830.244202
45.366199 158.306793 -782.005920
45.364601 183.345093 -778.784912
45.358601 213.502502 -777.367310
45.342400 177.291901 -794.424072
45.340401 133.558105 -767.653076
45.336201 181.566299 -797.782471
45.335201 232.114304 -846.381775
45.330399 207.289703 -773.767090
45.329399 196.804703 -775.383301
45.328098 172.020203 -769.717896
45.327999 96.193298 -754.174377
45.327499 185.447601 -779.240479
45.323299 151.865097 -765.899902
45.323002 179.660599 -778.353577
45.322201 124.179802 -761.376709
45.321499 199.672699 -773.128784
45.318298 151.339493 -778.425171
45.311100 91.027802 -756.095825
45.310902 137.447006 -768.794617
45.306198 153.497101 -766.739624
45.306000 116.598900 -761.841614
45.302200 130.018402 -766.611694
45.299702 168.455505 -775.569885
45.294399 177.875198 -777.753296
45.288200 210.309494 -773.930115
45.285301 190.364395 -772.185974
45.280102 205.943695 -817.783386
45.276402 231.207001 -845.335327
45.271801 174.234497 -776.939514
45.263699 198.448105 -812.032471
45.261600 220.244293 -829.248901
45.261002 121.601898 -763.676025
45.258099 129.123505 -768.077515
45.256401 203.513596 -773.590820
45.255001 240.531494 -863.065186
45.250198 158.566696 -767.603516
45.249599 242.430496 -867.907471
45.248402 223.360901 -779.758911
45.244099 96.816803 -753.063721
45.239399 213.676895 -775.179077
45.235298 164.053894 -768.380615
45.231800 165.174606 -785.432800
45.228401 218.413193 -827.259827
45.225101 255.478897 -887.174500
45.218601 183.070694 -771.526917
45.217499 203.188202 -816.005676
45.215302 188.569504 -779.871094
45.215199 115.588303 -760.548218
45.211399 160.358505 -774.085876
45.208900 120.044701 -761.408875
45.206001 122.489601 -761.054321
45.203701 208.616302 -776.145081
45.201401 115.313103 -761.986084
45.197601 126.290100 -765.661194
45.194401 238.399597 -858.317322
45.194199 179.919693 -771.181519
45.192699 166.427704 -786.146606
45.189301 168.177795 -769.111572
45.188999 249.559097 -878.646118
45.186798 223.784698 -834.879211
45.184399 224.553894 -835.973877
45.183800 140.271698 -764.374573
45.180698 197.139496 -811.047119
45.174500 175.979401 -770.632019
45.174301 142.317001 -764.783203
45.172100 116.600098 -763.222717
45.165600 222.181396 -779.295593
45.165100 178.505798 -771.007385
45.164101 187.835907 -803.064087
45.163399 215.248001 -777.759399
45.159000 117.404503 -760.612183
45.157799 244.367798 -871.519287
45.157799 159.483307 -782.781616
45.156200 204.413101 -816.960815
45.155701 137.957001 -772.040222
45.155499 194.729904 -772.678772
45.153301 155.443405 -780.676819
45.150299 100.355499 -752.237488
45.140701 163.335403 -784.773682
45.139900 162.613998 -768.224487
45.139301 109.036797 -751.582275
45.127899 196.531204 -772.840027
45.127102 131.259598 -762.687073
45.124802 114.103699 -761.476624
45.123001 112.882797 -760.286377
45.118698 206.094803 -773.897278
45.117298 235.445206 -851.829529
45.098598 226.620499 -839.015076
45.095901 157.481400 -773.138489
45.095200 209.218201 -820.019775
45.085300 106.896004 -751.868286
45.083599 186.646301 -779.501770
45.083199 148.278107 -777.002014
45.081299 256.362915 -888.579895
45.077999 174.147003 -770.379028
45.076500 180.350693 -796.926819
45.068298 241.587006 -865.954285
45.068100 161.063904 -783.767578
45.068100 94.896202 -754.443787
45.063702 237.260498 -855.747986
45.060902 219.207504 -828.563110
45.060200 236.019699 -853.042419
45.057098 134.722595 -768.323425
45.056900 152.077393 -771.975586
45.052601 157.370697 -767.425476
45.051601 103.725899 -752.172729
45.049900 229.244003 -843.063599
45.043098 203.771606 -775.497925
45.037899 239.481400 -860.718018
45.033901 189.093201 -772.259094
45.029099 233.978394 -849.151917
45.028301 112.962196 -761.883789
45.026699 134.856995 -770.867615
45.025700 237.879807 -857.109619
45.022301 138.266205 -764.065796
45.021099 149.654602 -777.699280
45.018200 227.572800 -840.443970
45.017799 183.721405 -799.604492
45.016399 170.199402 -775.872925
45.015099 190.009796 -805.024292
45.010502 170.660507 -769.850281
45.009201 148.046600 -765.511230
45.002399 180.973007 -778.127808
45.001999 198.497101 -773.217285
44.995201 172.080795 -790.202026
44.994701 169.382507 -769.479370
44.993500 166.320999 -774.965820
44.991798 128.242096 -762.123230
44.990398 113.944702 -762.720215
44.988300 191.598099 -806.454773
44.985699 93.065804 -755.457214
44.979000 111.622597 -759.853027
44.978500 128.404007 -766.644714
44.975601 228.522705 -841.913208
44.974300 166.695908 -768.909912
44.969002 201.734802 -814.961609
44.967499 146.970901 -776.416321
44.966900 130.472107 -768.564575
44.960899 110.213799 -759.629395
44.956902 153.976303 -779.950378
44.955502 115.087097 -763.229126
44.942902 229.977402 -844.050415
44.942402 211.757004 -821.855530
44.934799 234.799393 -850.782471
44.934601 181.771301 -771.544800
44.934601 111.249397 -760.999084
44.933201 95.434799 -752.943787
44.931301 170.858505 -789.343689
44.930099 216.670303 -825.947327
44.926300 194.819504 -781.520081
44.922600 225.577805 -837.817383
44.922001 209.005600 -774.031494
44.919998 156.197906 -773.125671
44.919998 120.698601 -765.376099
44.918301 119.041496 -760.795471
44.915401 139.992203 -773.178284
44.913502 236.695999 -854.599792
44.911900 248.496506 -877.182373
44.910099 232.867203 -847.865417
44.905800 211.442307 -774.386719
44.904800 222.551300 -833.484924
44.904499 169.889694 -788.519226
44.903900 150.566605 -771.686096
44.903702 206.742706 -818.770081
44.901001 212.729507 -822.608215
44.900902 167.990295 -787.419983
44.899101 204.692993 -773.983215
44.896099 114.041397 -759.967712
44.895802 185.151993 -771.891113
44.892200 250.783905 -880.242981
44.891399 212.515503 -775.404785
44.889099 257.144897 -889.642700
44.879200 174.930496 -792.772583
44.878601 171.671097 -776.225830
44.876099 185.175903 -800.855530
44.872299 146.844406 -765.472778
44.870098 224.908203 -780.232788
44.869801 176.753693 -777.273621
44.866100 148.954300 -771.305481
44.865700 118.013901 -764.430176
44.863899 110.062401 -761.354309
44.856899 210.299194 -821.074585
44.855598 191.710297 -780.497681
44.854000 145.803299 -775.916016
44.851799 132.966003 -770.196716
44.849400 209.801193 -776.540222
44.847900 109.054497 -759.246521
44.845299 254.236496 -884.936829
44.845200 132.292892 -767.873108
44.842499 216.534500 -778.359314
44.838501 132.906494 -763.089722
44.836399 193.154602 -807.757019
44.832699 109.103600 -760.492188
44.829399 111.492897 -751.363525
44.828300 193.203003 -772.759277
44.826801 201.921494 -773.734619
44.825802 141.077805 -773.744324
44.825001 131.912003 -769.376099
44.821999 247.510193 -876.066223
44.821201 111.900597 -762.467529
44.820301 154.524399 -766.258423
44.812801 191.390396 -772.590088
44.811001 135.312698 -763.618286
44.807999 142.452606 -774.357910
44.806801 215.234894 -824.799683
44.806702 238.854401 -859.368286
44.806000 177.223404 -771.138489
44.803001 119.076202 -765.060486
44.799198 125.262100 -767.068909
44.795200 186.428299 -802.019775
44.788200 90.345596 -756.953918
44.785099 219.449799 -778.809692
44.773300 123.864304 -766.641785
44.773201 107.120399 -760.648926
44.771500 155.966904 -766.485413
44.764900 251.815704 -881.609375
44.762798 213.977203 -823.915222
44.756599 211.111496 -777.011414
44.748199 218.135498 -778.814819
44.738400 220.820908 -831.249573
44.737099 221.485596 -832.262329
44.736801 122.170898 -766.077698
44.735100 241.054001 -864.454529
44.731899 99.190300 -752.475220
44.726799 102.574203 -752.311523
44.723499 147.461395 -770.944519
44.716000 178.968704 -777.553772
44.709801 108.779602 -761.631470
44.701801 194.716797 -809.263611
44.701599 150.777802 -766.055115
44.698399 136.614304 -763.879578
44.697800 188.628906 -803.940430
44.697601 186.786804 -772.211914
44.695400 172.944107 -770.569824
44.693802 217.352997 -827.017273
44.693298 129.645996 -762.396118
44.691898 127.461700 -767.987427
44.687302 161.213806 -768.248230
44.685799 200.598907 -773.708130
44.685600 165.189102 -774.654785
44.684898 189.707703 -779.960388
44.682899 257.721008 -890.891418
44.674702 106.185204 -759.862122
44.671398 208.075500 -819.887573
44.671101 154.390503 -772.577026
44.664799 176.310806 -793.963013
44.664101 126.916199 -766.545471
44.663799 173.709305 -791.956604
44.655300 107.724800 -759.575989
44.655102 242.959595 -868.867920
44.647900 178.591904 -795.840576
44.645000 145.324600 -765.307129
44.642899 120.507301 -760.459106
44.639400 224.705307 -837.048584
44.629398 164.989304 -768.942627
44.628799 144.689896 -775.494080
44.622799 184.306503 -778.713318
44.619701 104.276703 -759.757813
44.614101 110.219299 -762.508118
44.612400 182.588196 -778.214478
44.610802 210.962601 -775.545227
44.609299 135.855392 -771.581299
44.608601 167.442902 -775.172485
44.603199 158.804794 -773.323303
44.602299 206.347397 -775.708130
44.602001 126.913399 -761.826416
44.601501 105.178902 -760.587219
44.596001 143.997406 -765.247925
44.595901 116.024002 -764.225098
44.591702 162.292007 -773.892578
44.590599 212.417404 -777.417786
44.588600 149.188004 -766.009521
44.587299 105.788399 -752.038513
44.586800 183.955399 -772.060120
44.583599 219.842896 -830.182617
44.582500 93.781700 -754.098206
44.581699 163.783798 -774.264709
44.576698 193.005600 -780.928101
44.571301 102.831802 -759.817871
44.569599 171.586304 -770.573486
44.569500 114.182404 -764.368774
44.568901 182.139008 -798.590515
44.565201 252.668594 -882.870483
44.554401 214.243896 -778.000305
44.550999 105.236603 -759.023071
44.548100 240.081299 -862.198425
44.547401 163.999100 -785.588013
44.530499 129.221298 -769.054993
44.525101 218.103195 -828.195374
44.523399 108.067902 -751.905579
44.520401 152.576706 -766.433228
44.515999 107.501503 -761.756714
44.513199 226.872101 -780.569824
44.507599 166.844406 -787.091125
44.507000 197.394699 -773.498718
44.505901 159.502899 -768.005127
44.498798 134.030304 -763.380310
44.497299 116.484100 -760.011719
44.496399 101.713203 -759.066772
44.496101 138.850296 -772.817627
44.494900 205.007294 -817.782776
44.492599 112.599800 -759.270325
44.490398 195.590698 -773.208374
44.488998 157.441696 -782.041382
44.485500 167.446793 -769.747620
44.484600 196.171799 -810.512512
44.477200 175.032806 -771.060425
44.476398 106.125801 -761.342712
44.474201 112.991699 -764.142395
44.467701 165.422806 -786.316711
44.467201 101.343597 -752.623291
44.458500 230.348007 -845.160522
44.457401 150.419098 -778.421875
44.451900 205.006607 -775.531311
44.451199 198.839493 -812.846191
44.446899 258.482513 -892.404480
44.446800 245.630203 -873.343079
44.445202 175.595200 -776.845398
44.444000 89.527397 -756.153870
44.443100 156.126907 -781.387207
44.442200 168.593201 -788.371216
44.441601 153.184494 -772.203186
44.441299 207.398697 -776.985229
44.439602 100.384201 -759.170471
44.438000 162.001801 -784.618225
44.436100 81.108704 -753.614319
44.435398 199.839706 -813.732178
44.433601 180.670593 -771.765930
44.433102 124.983002 -761.541809
44.432301 103.718102 -758.628479
44.425499 231.220093 -846.314575
44.424999 177.561996 -795.197021
44.424099 187.751694 -779.381470
44.423199 207.870895 -774.281677
44.422199 111.438904 -763.825195
44.420101 172.657104 -791.149414
44.420101 92.082603 -755.007629
44.419201 209.970093 -774.701416
44.416801 173.506805 -776.532471
44.416698 123.403297 -761.198730
44.415298 152.853897 -779.696228
44.413399 106.967201 -758.208801
44.411900 97.756798 -752.635620
44.411098 139.351700 -764.406128
44.410900 110.027397 -751.787476
44.410500 103.577797 -760.818604
44.409100 141.390106 -764.755371
44.408600 246.400208 -874.602722
44.408501 222.792404 -834.594727
44.404099 94.189301 -752.918884
44.403099 151.769897 -779.161621
44.402100 254.753204 -886.432190
44.399300 243.720200 -870.343079
44.399101 121.628098 -760.831421
44.395302 126.107597 -767.806580
44.393902 88.719002 -754.479126
44.391602 203.137604 -774.321472
44.388199 98.604202 -758.795471
44.387901 190.682297 -805.855774
44.383499 88.080597 -755.698792
44.376301 223.560699 -835.760071
44.372898 202.277893 -815.860718
44.372501 130.543304 -769.684875
44.366798 189.962601 -772.883484
44.365501 221.227905 -779.424500
44.365299 90.739899 -755.341797
44.363400 188.115799 -772.671326
44.363201 86.926498 -754.188721
44.360901 199.235397 -773.957581
44.359100 76.122902 -752.862488
44.357601 77.976898 -753.013306
44.355400 101.551003 -760.316223
44.354000 141.147003 -769.798828
44.353199 203.531799 -816.897522
44.350601 73.793701 -752.500488
44.349300 136.909393 -772.078796
44.343800 163.320496 -768.861511
44.343800 79.587303 -753.273987
44.342098 71.830498 -752.128906
44.334801 86.733101 -755.831116
44.331001 115.283401 -759.791809
44.330601 197.615494 -811.834717
44.325500 161.070404 -773.448730
44.325298 158.511200 -782.632202
44.324699 102.574898 -758.175110
44.324600 168.520294 -770.257324
44.319099 105.496498 -757.869385
44.313801 212.834396 -823.645630
44.313801 179.337601 -771.784912
44.309502 83.220001 -753.644470
44.307800 169.908493 -770.522705
44.307400 97.404701 -758.693909
44.306999 104.670998 -752.348694
44.305401 117.138199 -765.099182
44.304501 121.063103 -766.334900
44.303600 109.359596 -763.386780
44.303101 100.916603 -758.071716
44.301498 227.626694 -841.455200
44.300098 111.265800 -758.914673
44.299599 209.249603 -820.970398
44.298801 180.276993 -777.466492
44.294399 180.856400 -797.740417
44.292400 143.659607 -770.299622
44.286499 119.874001 -765.965515
44.284901 99.591797 -758.138000
44.281700 159.917603 -783.477112
44.276501 144.899506 -770.635376
44.276501 85.240402 -753.808716
44.276100 179.481003 -796.731506
44.276001 253.233200 -883.894470
44.275799 169.062195 -775.424805
44.273800 99.185699 -759.871826
44.271301 226.473404 -839.872986
44.269100 83.867203 -755.381714
44.266998 108.395203 -758.384888
44.266899 192.245895 -807.240417
44.266399 85.200104 -755.276611
44.265499 215.591202 -825.843506
44.261299 250.094696 -879.178406
44.257900 146.325699 -770.646118
44.254902 177.963898 -777.004028
44.254200 96.352501 -758.106018
44.254002 194.300095 -773.378174
44.252998 142.420593 -770.101074
44.239498 210.867294 -822.228394
44.238998 88.635101 -756.932129
44.238899 82.802399 -754.788391
44.238201 143.504303 -774.964417
44.237701 165.960999 -769.612976
44.237499 218.911697 -829.408508
44.235500 133.866394 -770.962219
44.225300 171.128998 -790.368713
44.225101 259.311310 -893.444824
44.223598 69.320503 -751.573181
44.220501 139.838806 -769.493896
44.219299 182.686600 -772.189575
44.219101 97.964500 -757.551025
44.218700 78.981796 -754.301514
44.218601 81.204399 -754.876587
44.216900 185.738998 -778.752991
44.212200 215.337799 -778.548279
44.208801 92.649498 -753.966919
44.207802 217.034103 -779.284302
44.204899 77.093903 -753.961182
44.204700 118.119598 -760.254578
44.197201 255.693100 -888.079224
44.196499 187.146698 -802.901428
44.183899 95.925003 -756.707886
44.182400 94.657700 -757.680481
44.181000 249.159698 -878.056885
44.180801 209.140106 -775.635620
44.179901 184.245697 -800.437988
44.179199 85.577400 -756.426270
44.177799 104.849403 -761.735718
44.176800 225.703293 -838.838318
44.175999 131.933304 -770.489929
44.173199 67.446999 -751.270325
44.168400 223.923096 -779.853699
44.167301 222.742996 -779.624573
44.165401 108.057404 -763.145203
44.165001 244.902298 -872.159912
44.164799 205.692001 -774.503723
44.163898 154.707397 -780.772827
44.163200 122.795601 -767.028625
44.162399 95.337196 -758.846375
44.161701 241.955704 -866.688110
44.160999 124.369202 -767.576721
44.159401 109.756500 -758.556580
44.158401 97.125397 -756.676880
44.156200 169.784393 -789.515381
44.153599 96.366798 -752.888977
44.151001 74.953499 -753.656799
44.147598 90.027702 -754.335388
44.142700 100.209999 -760.499817
44.140499 93.470398 -757.800415
44.139500 157.099701 -772.445923
44.139198 103.653503 -762.130127
44.139099 233.760193 -849.980591
44.138000 158.162598 -767.442017
44.135300 131.890503 -762.980591
44.133598 153.745895 -766.844177
44.130199 236.009903 -853.984192
44.128700 175.303497 -793.618408
44.128201 188.933197 -778.005981
44.127701 233.063904 -848.820923
44.123199 87.140099 -756.952271
44.122200 102.432404 -761.139771
44.120899 155.115799 -767.018677
44.118301 214.260193 -825.028320
44.112900 97.765404 -759.849426
44.112301 235.366898 -852.684326
44.112000 148.791702 -777.765625
44.109798 216.243103 -826.853027
44.109798 79.726402 -755.238770
44.106201 104.105301 -757.482788
44.105701 106.808197 -762.942078
44.105000 156.610107 -767.262695
44.103802 82.639999 -756.052673
44.102901 192.152893 -773.250305
44.101700 228.398697 -842.740112
44.100300 200.900497 -814.772278
44.098701 177.934601 -771.822021
44.096298 176.380798 -771.705872
44.093899 92.082001 -757.368774
44.093601 173.777100 -771.270081
44.088200 193.871399 -808.669922
44.086102 142.701401 -765.275879
44.084202 240.642593 -863.513916
44.083000 73.548103 -753.640686
44.081501 162.098297 -768.851379
44.075802 98.820503 -756.507874
44.071800 205.841705 -818.686584
44.067501 237.415207 -856.543518
44.063099 182.935394 -799.514282
44.060600 147.671707 -777.301575
44.060001 207.088699 -819.568604
44.056499 118.211899 -765.568726
44.054199 190.828400 -780.091309
44.054199 151.523895 -766.744629
44.052200 207.915894 -775.708374
44.050900 151.432693 -771.566406
44.050598 221.646103 -833.398987
44.050301 65.727303 -750.896484
44.046101 127.727203 -768.952087
44.045101 155.425201 -772.099487
44.044701 76.008003 -754.541626
44.044601 211.844894 -823.013611
44.043301 201.516602 -774.611023
44.041199 170.783096 -775.458984
44.037998 137.555099 -764.209595
44.035900 189.328796 -804.696411
44.034401 187.223801 -777.718872
44.029701 185.610306 -772.625183
44.028000 185.598694 -801.599182
44.024502 89.643997 -757.615723
44.024101 71.396004 -753.247681
44.023800 229.130493 -843.907715
44.021301 162.876801 -785.348877
44.021301 70.535797 -751.516418
44.019501 148.134995 -766.192505
44.019199 100.186798 -757.105286
44.015499 96.587601 -759.510193
44.014900 90.979103 -757.818298
44.014400 181.490204 -777.487305
44.013699 78.042801 -755.016418
44.012001 172.575195 -775.897522
44.010101 84.266296 -756.519897
44.007000 149.818207 -771.198608
44.007000 114.247803 -759.058472
44.003502 174.670197 -776.181824
44.000500 234.601303 -851.495178
43.998299 242.520096 -867.771423
43.995701 99.077103 -761.164124
43.987499 100.220001 -752.813721
43.986801 70.291702 -752.747009
43.985401 93.973000 -758.886475
43.983601 238.105392 -858.103394
43.983101 75.149696 -751.946594
43.980900 159.857697 -773.122498
43.977600 141.647995 -774.671875
43.969501 190.192505 -777.923523
43.968899 259.738586 -894.741577
43.966900 232.049606 -847.644470
43.963001 202.518906 -775.963684
43.961498 172.366898 -771.335205
43.961300 130.676407 -762.676025
43.958599 66.910301 -752.322083
43.958500 140.204407 -774.031677
43.957600 134.739594 -771.767212
43.954300 256.438812 -889.316772
43.952400 167.488602 -788.097107
43.951500 217.098404 -827.913025
43.945599 220.586594 -832.184814
43.944199 204.275406 -774.719604
43.934700 146.105896 -765.877808
43.929001 200.132095 -774.629028
43.926498 190.970795 -773.348083
43.925701 146.386703 -776.797485
43.924702 241.495697 -865.249084
43.922798 106.814301 -752.263977
43.922699 256.871887 -890.441284
43.922100 224.810196 -838.031372
43.922100 196.288406 -774.031677
43.920300 103.510399 -752.617615
43.919102 164.230499 -769.653320
43.918701 64.136497 -750.431885
43.918499 115.129898 -764.751892
43.915901 148.372604 -770.693604
43.915798 92.752899 -758.752686
43.912800 197.895905 -774.400513
43.912399 174.048904 -792.831421
43.910900 170.810501 -771.257080
43.910400 236.674896 -855.328613
43.909901 101.597099 -757.105225
43.909199 68.752502 -752.845703
43.909100 166.322403 -774.464783
43.907799 206.899307 -774.913513
43.903702 149.979401 -766.633606
43.902699 239.152405 -860.298828
43.899899 247.995895 -876.682495
43.899700 210.198196 -777.217529
43.896900 81.386200 -756.085083
43.895699 160.869003 -784.232300
43.892899 137.781403 -773.074524
43.892601 208.692398 -776.828674
43.891399 219.821503 -831.209778
43.887402 78.966499 -752.342407
43.886600 101.194504 -761.360107
43.882900 145.250595 -776.353394
43.876598 81.885399 -752.893921
43.875702 73.072899 -751.641113
43.871498 188.984695 -779.431274
43.871101 187.000198 -773.101196
43.869900 176.731293 -776.510620
43.865501 128.543198 -762.477905
43.864101 119.380402 -760.351929
43.860901 183.613007 -777.868530
43.855598 91.216599 -756.374329
43.855099 91.257103 -754.196777
43.850498 72.414703 -754.093628
43.848400 65.620796 -752.147400
43.839401 191.579300 -777.614380
43.834801 257.620392 -891.852417
43.832199 223.829407 -836.967224
43.828899 97.243202 -760.896118
43.826000 195.269394 -809.874390
43.826000 166.900406 -770.690002
43.824799 247.124802 -875.520630
43.819500 158.288803 -772.581177
43.817699 62.855999 -750.151978
43.816898 160.450500 -767.756897
43.816101 138.472107 -769.131714
43.804501 110.392097 -763.707825
43.804401 88.332497 -753.440796
43.803501 86.201202 -753.265930
43.799702 164.713898 -774.000793
43.797798 74.223503 -754.619019
43.795101 140.331406 -764.853699
43.789600 184.382706 -772.865601
43.778400 135.766403 -764.070374
43.777599 80.632401 -752.453613
43.772900 135.930298 -772.565674
43.771301 187.870605 -803.754700
43.770802 165.844894 -787.347473
43.769402 181.557800 -772.525330
43.761600 68.513901 -750.730408
43.759102 172.965698 -792.227905
43.757599 169.067596 -771.242126
43.757500 254.091095 -885.520203
43.756100 129.543396 -770.074829
43.755501 175.255798 -772.009521
43.755402 126.306602 -768.835327
43.752602 105.738098 -762.552612
43.749802 76.896202 -752.174622
43.746700 196.590607 -776.892212
43.744999 193.396194 -777.389404
43.744701 260.593811 -895.602478
43.743698 95.171898 -753.116089
43.741901 143.919693 -775.969482
43.740398 63.587399 -751.552673
43.739101 98.769600 -753.056091
43.737900 88.243698 -757.973083
43.735901 163.159302 -773.656921
43.734600 208.161102 -820.653992
43.732300 196.726700 -811.283875
43.731998 191.382507 -806.590393
43.729801 78.706001 -755.969971
43.729000 179.450195 -776.771423
43.725800 154.280197 -771.843018
43.722599 188.899200 -773.361572
43.721802 176.375000 -794.821472
43.720600 144.693497 -765.804504
43.718700 251.335999 -881.201416
43.717999 213.177597 -824.618774
43.717701 86.218697 -757.604919
43.715599 203.714294 -776.120178
43.715599 84.114403 -752.898926
43.711102 102.872299 -757.177979
43.706799 180.086197 -772.517212
43.706200 195.082596 -774.112915
43.702499 125.966797 -761.996521
43.700100 164.342499 -786.461914
43.700001 153.485901 -780.423279
43.697399 95.060501 -760.433472
43.688702 217.875900 -829.139282
43.688202 133.135101 -763.547180
43.686699 136.818695 -768.648376
43.685299 167.740707 -774.401123
43.684799 195.172104 -777.246582
43.681702 76.698898 -755.474182
43.681499 132.893799 -771.541870
43.674400 70.506897 -753.992371
43.672199 130.759094 -770.720581
43.670300 226.741898 -840.883972
43.670200 125.061699 -768.450012
43.670101 162.085602 -773.086304
43.668598 138.978104 -773.877014
43.655399 193.414093 -773.949524
43.653599 152.530106 -767.285889
43.650398 239.765594 -861.432922
43.646900 142.626495 -775.569519
43.646400 152.934494 -771.315674
43.645599 192.964905 -807.989319
43.644798 147.267502 -770.232178
43.637199 92.864899 -760.007385
43.635899 64.444000 -752.480225
43.634602 177.967896 -796.129089
43.631500 71.610298 -751.134583
43.624298 178.755402 -772.581299
43.622200 91.327103 -758.972717
43.613300 221.897293 -834.483582
43.611500 90.049698 -758.682007
43.611000 80.038498 -756.369385
43.610500 168.707596 -789.284485
43.609901 209.863495 -821.939270
43.604900 150.695999 -779.209290
43.604599 83.081596 -757.109375
43.603298 184.779602 -777.962830
43.602600 204.173492 -817.783325
43.597000 85.025101 -757.459290
43.596600 252.228500 -882.275024
43.592300 186.150208 -777.372925
43.591999 112.118301 -764.353516
43.585999 122.317497 -761.380798
43.585602 62.384701 -751.531677
43.585201 156.633194 -782.240112
43.582901 238.556503 -859.247620
43.576698 222.677704 -835.541687
43.575699 120.654099 -761.008911
43.569199 171.633896 -791.232300
43.568802 186.208893 -802.522583
43.567001 181.408905 -798.750916
43.566002 199.014603 -775.026001
43.565300 183.028107 -773.124695
43.562901 127.242996 -762.390930
43.562302 61.655102 -750.489807
43.560299 75.200996 -755.302979
43.559299 230.358398 -845.981628
43.557301 155.832397 -767.992676
43.556400 158.614304 -768.386780
43.553902 169.812698 -774.800903
43.552200 214.552505 -826.076477
43.552101 244.345505 -870.959412
43.548000 67.619202 -753.313293
43.545799 128.347794 -769.895081
43.537800 218.694397 -830.389526
43.533600 124.253304 -761.836975
43.532902 157.081497 -768.233093
43.532001 134.455704 -763.976074
43.523899 177.289307 -772.667786
43.523899 138.605103 -764.692017
43.520500 102.200203 -752.917603
43.518200 173.766006 -775.541626
43.513802 243.303802 -869.083923
43.511600 145.555603 -769.845276
43.506100 72.413597 -755.327881
43.504200 261.075287 -896.854492
43.503300 154.133408 -767.792114
43.501301 173.121902 -772.258728
43.499599 69.295197 -753.898987
43.499401 121.369400 -767.244690
43.494598 149.617996 -778.604187
43.489700 158.949600 -783.492310
43.486198 60.704201 -751.277222
43.484001 179.918304 -797.602295
43.482700 198.116394 -812.595276
43.478001 159.812393 -768.718018
43.471699 116.350197 -765.461426
43.471001 151.922104 -779.987183
43.469700 201.523697 -776.593628
43.469700 171.906906 -775.035400
43.468498 144.187607 -769.581726
43.468201 202.717407 -816.604370
43.461899 201.540497 -815.602600
43.458900 155.231903 -781.595581
43.455601 129.557404 -762.981873
43.449799 105.651100 -752.532593
43.447899 60.161701 -748.973816
43.446098 175.665802 -775.746826
43.444302 123.220596 -767.978210
43.443802 66.532501 -750.196777
43.443199 113.209702 -759.344421
43.440300 180.674606 -776.715576
43.439400 178.320602 -776.208130
43.439098 199.143097 -813.539612
43.438099 69.773903 -750.744873
43.438000 82.957802 -752.453003
43.434200 61.371899 -749.177307
43.433300 196.855606 -775.015320
43.429798 254.875595 -887.128113
43.429001 113.412102 -764.583984
43.428902 141.774597 -769.330811
43.426800 141.666107 -765.407410
43.424999 161.048996 -768.847717
43.421101 187.523300 -778.761230
43.420601 156.553406 -771.582520
43.418999 229.581604 -844.837708
43.418800 148.884399 -766.904480
43.417900 184.522995 -801.319702
43.416698 59.099998 -750.721802
43.413898 190.000793 -805.577087
43.413502 167.709900 -771.555603
43.413200 66.333504 -753.290283
43.412701 150.596603 -770.520691
43.411701 93.504700 -753.225525
43.410400 90.106102 -753.377380
43.405499 97.475800 -753.249573
43.405102 189.926895 -773.942383
43.404701 205.301300 -776.055603
43.396099 157.799194 -782.935120
43.395500 146.982300 -766.557129
43.394402 140.554703 -775.083679
43.391499 184.979599 -776.804993
43.390900 188.238007 -777.248108
43.389500 160.887894 -772.619385
43.387199 191.887207 -774.200623
43.386700 231.050705 -847.008606
43.386002 119.749603 -766.746399
43.382198 212.011703 -824.072021
43.381699 171.492798 -772.129089
43.377602 62.915199 -753.074524
43.376999 246.082397 -873.828186
43.376999 58.651600 -748.637817
43.376801 200.152405 -776.781128
43.375500 102.375000 -762.103821
43.374802 148.016296 -778.309326
43.373798 74.195396 -751.414978
43.371799 87.298302 -752.975403
43.369400 186.024796 -773.671875
43.369099 116.035004 -759.930420
43.368698 220.659103 -833.246704
43.365398 71.060303 -755.124084
43.363998 210.838593 -823.115417
43.363998 170.241302 -790.436401
43.361099 92.115997 -753.304688
43.357700 227.527802 -842.353699
43.355999 106.449699 -757.867676
43.355801 57.947701 -750.355713
43.354599 258.444885 -893.496521
43.354301 100.109703 -761.911621
43.351700 201.060806 -775.489075
43.351299 225.625000 -839.885376
43.341599 146.840897 -777.817078
43.339600 182.765701 -777.176392
43.339500 117.294601 -760.208374
43.339199 169.846802 -772.064575
43.338402 194.201294 -774.917480
43.337502 143.004593 -769.437073
43.336700 159.489594 -772.095520
43.332901 165.669907 -773.367126
43.331699 183.407806 -800.358887
43.330898 136.859802 -773.619019
43.330799 78.097900 -751.638428
43.328098 215.331604 -827.099976
43.327801 168.857300 -774.109985
43.326099 175.973999 -772.968689
43.325699 81.620697 -757.117798
43.325298 161.731506 -785.042725
43.321301 252.757797 -883.322083
43.319698 57.434399 -748.884888
43.319000 143.432007 -765.878723
43.317299 77.604103 -756.155884
43.313202 262.045593 -898.143677
43.310299 150.766205 -767.344727
43.310101 245.453400 -872.778687
43.310101 140.546204 -768.948486
43.308399 163.146500 -769.497620
43.307800 170.981201 -774.290710
43.300701 198.104095 -776.934998
43.297401 75.934196 -751.354919
43.296600 253.424301 -884.585510
43.290901 64.828796 -753.660828
43.285400 64.958199 -749.727112
43.280701 135.413101 -768.104614
43.276299 56.322899 -749.721375
43.275799 56.420799 -748.129578
43.274899 187.693604 -773.895020
43.271099 85.318703 -752.651001
43.271000 183.717407 -776.335205
43.270802 107.625801 -758.125793
43.270199 173.019394 -774.555481
43.268002 61.469002 -752.273682
43.267700 149.358597 -770.287170
43.265499 206.145203 -819.512207
43.264702 232.107407 -848.616089
43.264301 199.987198 -814.365479
43.261101 144.400497 -776.992371
43.260899 195.498901 -775.365479
43.260101 174.177597 -772.762085
43.256500 87.170799 -758.515930
43.256302 111.854301 -758.953003
43.249500 165.223801 -769.605103
43.247398 167.082306 -773.475830
43.246899 88.556000 -759.079102
43.246300 110.530602 -758.780029
43.243000 179.993698 -773.718628
43.235500 104.432098 -762.603577
43.231998 155.347595 -771.226685
43.231098 228.307297 -843.569580
43.229900 189.537201 -777.252625
43.229000 175.361099 -794.398071
43.228802 240.088303 -862.515991
43.227001 161.788193 -769.843384
43.226700 250.276093 -879.848328
43.224300 184.632401 -773.978882
43.223400 204.987701 -818.617004
43.219700 59.810398 -752.462524
43.218498 181.985306 -773.598694
43.215900 96.136703 -760.741882
43.215199 232.980194 -849.942078
43.214802 164.113403 -773.117798
43.211700 54.546501 -749.070496
43.210602 136.784500 -764.590698
43.208900 152.046997 -770.611816
43.208401 178.853699 -797.053284
43.207600 73.699898 -755.580505
43.207199 78.456001 -757.024414
43.206699 109.112503 -763.821716
43.205399 224.783203 -839.034180
43.201698 56.881001 -750.914612
43.200298 83.826698 -758.073120
43.200199 131.354004 -763.582275
43.200100 160.473999 -769.870422
43.199402 167.905304 -770.400696
43.198502 216.198395 -828.174500
43.198002 127.183502 -769.841309
43.197899 145.661301 -777.745422
43.195499 194.226593 -809.380615
43.193600 182.530502 -775.941284
43.192699 153.991501 -770.721375
43.191002 63.750099 -749.369690
43.189701 105.106201 -757.498596
43.186798 55.144699 -747.825317
43.184299 240.953506 -864.289673
43.183899 143.096802 -776.645325
43.177601 157.881393 -771.659729
43.177200 219.624695 -832.173523
43.175301 67.740601 -749.964600
43.172298 192.703506 -775.114380
43.171299 177.141098 -775.569397
43.171200 134.152298 -772.664124
43.170300 233.793701 -851.042908
43.169800 53.530899 -748.421204
43.165798 55.002399 -750.250122
43.164902 186.951508 -776.603088
43.164200 195.844696 -810.695129
43.162701 177.825195 -773.692200
43.159100 159.830994 -784.278381
43.157799 158.801498 -769.515930
43.157799 114.761902 -759.740173
43.156601 139.341904 -768.635315
43.156601 72.626999 -750.726074
43.155499 154.055695 -781.480530
43.154499 164.453003 -770.573608
43.154099 174.903595 -774.856079
43.151199 188.484497 -804.574280
43.149200 141.579895 -776.012329
43.148399 101.081001 -753.106384
43.147099 139.250595 -774.938171
43.145401 197.878098 -775.623474
43.145199 190.840302 -774.850586
43.144199 131.791794 -771.713623
43.142502 170.069901 -773.477478
43.142200 93.923599 -760.608887
43.141998 108.793404 -758.445984
43.138901 52.906898 -747.393616
43.136700 79.787598 -751.674011
43.135700 168.988403 -772.889099
43.135201 163.302399 -786.136780
43.133202 162.907394 -772.320374
43.132999 165.921204 -770.601013
43.130199 191.866898 -807.536987
43.129398 148.287903 -769.700623
43.129200 208.687302 -821.595520
43.121300 91.419403 -760.049377
43.121101 104.468399 -752.744080
43.120800 98.247002 -761.301697
43.119400 145.498596 -766.620483
43.119301 192.356598 -776.991516
43.119301 137.945999 -768.281494
43.117500 167.650497 -788.938416
43.116199 67.258202 -754.382080
43.115898 52.936501 -749.543030
43.112499 58.179600 -751.570313
43.111401 263.194397 -902.377319
43.108002 157.540604 -769.276428
43.106300 118.460098 -760.710022
43.105999 207.036804 -820.335693
43.100800 237.516800 -857.489380
43.100101 166.495407 -788.182373
43.099701 262.544312 -899.257385
43.098202 153.082703 -768.239075
43.097801 213.509506 -825.633179
43.095001 163.217896 -770.713196
43.095001 51.953098 -748.346497
43.092999 194.210205 -776.702820
43.092899 190.929993 -776.946228
43.091400 235.383698 -853.664795
43.091301 185.729599 -775.812988
43.090500 166.504898 -771.883118
43.089500 263.980713 -904.499023
43.088402 176.945099 -795.681396
43.088299 96.169197 -753.408325
43.087601 183.292801 -774.297974
43.085800 51.577499 -747.072510
43.085602 234.713806 -852.498413
43.078899 199.156097 -776.157776
43.076500 248.780396 -877.610596
43.074001 188.649796 -774.588379
43.070900 184.430801 -775.301880
43.069199 181.520798 -775.174072
43.069199 164.479797 -771.980286
43.068901 90.000198 -759.780090
43.068699 50.525200 -748.277405
43.066002 85.932297 -758.890686
43.064899 146.552704 -769.287170
43.064400 255.730301 -888.837219
43.063801 156.136993 -769.096985
43.063400 122.405899 -766.766113
43.063301 223.933594 -838.073730
43.061199 182.284698 -799.705200
43.061199 82.592003 -758.183289
43.055599 81.371902 -751.854797
43.054001 236.016693 -854.738770
43.048401 53.830002 -750.451782
43.048100 222.914703 -836.601807
43.047298 154.616196 -768.810120
43.046001 139.567505 -765.388916
43.042999 55.937801 -751.739380
43.041599 151.779007 -768.046082
43.039101 189.628296 -775.353821
43.035400 62.665901 -748.744629
43.034401 107.805397 -763.709595
43.032101 264.067108 -906.288818
43.025501 149.598999 -779.772522
43.025398 186.973999 -775.275818
43.021702 179.669495 -775.750000
43.019798 172.062500 -773.885376
43.019100 118.579597 -766.109680
43.018002 135.609100 -773.435913
43.017899 76.342499 -756.627991
43.017399 70.844002 -750.249817
43.016602 236.771896 -856.122314
43.015202 51.336201 -749.388489
43.013599 161.330002 -771.028320
43.013500 262.987396 -900.397095
43.012299 174.322205 -793.627319
43.011398 264.444000 -907.730774
43.006699 49.271599 -747.670288
43.003799 164.871201 -787.271729
43.003300 50.020699 -746.697693
43.002998 175.004303 -773.614685
42.999802 128.093903 -763.209290
42.998901 242.176193 -866.922974
42.993698 137.699493 -774.394714
42.990299 179.194107 -774.586426
42.989399 68.981796 -749.934326
42.987701 125.286903 -762.662109
42.984798 152.513306 -780.950012
42.980099 159.348602 -770.602173
42.978600 47.740799 -746.327026
42.977699 142.495804 -768.390381
42.977402 99.661697 -753.268127
42.976299 145.125000 -768.769714
42.975800 186.812805 -803.394897
42.969299 129.587997 -770.998230
42.961899 217.591995 -830.062683
42.957500 123.177299 -762.182312
42.957298 191.719406 -775.834473
42.956699 176.322098 -774.668579
42.954399 256.809509 -891.413086
42.946400 103.935699 -757.140320
42.943699 49.485802 -748.912476
42.941200 188.150208 -775.748413
42.940601 48.355999 -748.442383
42.938400 147.896194 -767.405029
42.938301 69.940201 -754.953491
42.934399 68.485603 -754.571777
42.933300 197.150803 -812.101685
42.932400 135.655502 -765.000671
42.931801 121.174896 -766.096680
42.929199 77.094398 -751.065796
42.927502 100.847504 -756.366516
42.925701 149.514297 -767.818787
42.924500 102.175301 -756.588623
42.923199 150.881500 -780.189697
42.923100 133.541199 -764.459229
42.920399 156.589005 -770.435181
42.919899 153.024796 -769.774719
42.917999 47.275902 -747.937988
42.917801 158.139404 -770.510620
42.915001 151.404907 -769.489624
42.914902 259.255188 -895.031982
42.911999 256.274689 -890.127625
42.910900 144.280807 -766.617615
42.910900 106.637100 -763.131714
42.907299 190.518204 -806.644409
42.903099 80.097397 -757.419678
42.895802 137.833801 -765.470093
42.893902 220.951401 -834.403625
42.893398 119.567398 -761.104492
42.893002 143.837097 -768.512024
42.892799 149.815399 -769.228088
42.889599 195.697998 -776.525818
42.885799 114.438499 -765.010681
42.882702 51.564899 -750.781311
42.882599 185.228897 -802.210815
42.882099 148.233704 -779.466187
42.876202 57.897499 -747.748230
42.873199 45.861698 -747.755310
42.870701 155.361496 -782.727600
42.869499 155.189194 -770.069580
42.867199 54.083401 -747.248596
42.866100 140.829605 -766.081604
42.865200 247.671402 -875.998779
42.860298 66.332497 -749.141724
42.859600 173.232407 -793.063477
42.856701 74.703697 -756.194275
42.854099 111.078796 -764.139709
42.853500 243.743103 -870.007019
42.851101 142.389297 -766.234314
42.850800 121.412498 -761.895874
42.845299 130.178497 -763.905029
42.845001 264.853790 -909.218384
42.842499 172.072693 -792.109985
42.840099 98.467003 -755.843628
42.838600 156.678696 -783.226318
42.837799 216.708694 -829.266113
42.832600 169.179794 -790.152893
42.832199 126.498497 -763.160828
42.829300 50.266800 -749.890381
42.828499 246.864594 -874.877625
42.828201 136.450699 -767.668579
42.827000 140.242203 -767.807373
42.823200 226.623993 -841.723022
42.818100 44.833801 -747.048401
42.817501 103.317902 -753.090271
42.815201 132.306503 -764.347473
42.814301 146.959900 -778.900085
42.813099 147.815704 -768.603882
42.811901 134.064301 -767.399902
42.809700 101.282700 -762.085876
42.808998 146.423599 -767.618591
42.807201 180.521805 -798.425415
42.805401 124.225098 -768.461975
42.805401 46.451900 -745.994080
42.800301 218.425598 -831.306580
42.797600 89.115501 -753.070801
42.793800 212.358398 -825.085571
42.793400 125.850800 -768.207520
42.787498 117.389503 -765.617371
42.785999 143.259506 -767.380676
42.784599 160.590897 -785.196716
42.784500 193.154007 -808.805115
42.777599 59.465599 -747.906677
42.776600 209.713501 -822.815430
42.776299 60.677101 -748.088806
