38.014900 153.628296 -782.189575
38.011902 35.707699 -747.135376
38.007401 5.107900 -738.564514
38.004101 152.421707 -781.580811
37.981998 236.942398 -788.471375
37.944302 271.178101 -787.130615
37.942299 201.392395 -813.390320
37.938702 21.460100 -742.297424
37.936001 17.836700 -741.418274
37.922401 145.897293 -777.503418
37.918201 143.987900 -775.997192
37.912300 239.009094 -787.368408
37.905701 40.081799 -759.398621
37.896801 163.410294 -786.670776
37.890701 260.154510 -786.268677
37.889900 138.203400 -771.334412
37.884998 141.902100 -774.095886
37.876999 135.128403 -768.831482
37.849300 5.429500 -734.321716
37.841400 140.774597 -773.037415
37.840000 136.406799 -769.989014
37.837700 276.065613 -788.939880
37.836700 -0.106000 -737.392883
37.828701 245.261902 -787.440796
37.822800 173.357193 -792.058289
37.821999 193.544006 -806.774292
37.820702 11.183300 -740.069214
37.813702 159.539093 -785.005371
37.813599 30.118999 -744.986023
37.810200 255.499100 -786.512207
37.810200 27.462299 -744.109985
37.806400 247.378998 -787.482971
37.804401 197.386093 -809.872925
37.799198 24.869101 -743.396606
37.783100 35.512901 -749.703613
37.777302 143.258606 -774.946777
37.765301 202.556503 -814.457275
37.763901 238.159302 -788.730591
37.756901 281.067688 -789.984619
37.746601 35.773701 -748.457520
37.735298 253.759293 -786.991882
37.726700 139.419403 -771.942322
37.713699 33.475800 -746.208618
37.690899 19.326099 -742.078979
37.681900 7.832100 -739.575806
37.681198 145.144699 -776.512207
37.680199 147.896698 -778.601624
37.666698 184.349701 -799.406006
37.653099 194.537994 -807.615417
37.645802 273.762085 -788.013672
37.640900 31.301100 -745.490417
37.634899 240.206894 -788.314819
37.630402 13.404000 -740.827881
37.624001 22.940599 -743.124573
37.619801 164.687103 -787.439514
37.578999 15.794200 -741.335205
37.575199 204.057297 -815.851685
37.572399 154.811493 -782.884827
37.568199 252.409805 -787.207825
37.567799 38.226898 -752.715271
37.554699 169.548004 -789.946472
37.547298 248.696396 -787.656921
37.537601 195.915207 -808.831482
37.514400 277.507507 -789.128479
37.509102 147.099106 -777.240479
37.508900 175.917694 -793.681580
37.506100 251.166794 -787.530518
37.499901 134.011597 -767.065796
37.498199 174.607803 -792.903198
37.479801 40.387901 -757.352173
37.469700 190.067703 -804.077026
37.467800 149.043594 -779.084229
37.467201 9.918000 -740.293884
37.461201 167.680206 -789.004822
37.456501 242.394196 -788.560974
37.453701 282.274994 -790.248230
37.450001 3.996400 -739.055420
37.439098 205.214798 -817.061584
37.414501 185.445908 -800.349121
37.392700 243.809204 -788.237793
37.386902 20.304701 -742.880676
37.376499 177.129303 -794.476379
37.375000 151.804901 -780.648376
37.366402 198.387802 -811.185181
37.359600 144.584595 -775.023071
37.359100 180.960297 -796.951172
37.358200 191.680496 -805.321777
37.346298 132.977493 -766.007202
37.341599 -1.303600 -737.247986
37.330799 166.149307 -788.460815
37.329601 257.957001 -786.514221
37.327702 28.910601 -744.868713
37.326900 0.915200 -738.720093
37.326401 161.319000 -786.366821
37.323898 143.100006 -773.732483
37.321499 137.665802 -770.237915
37.316601 36.855202 -750.595825
37.302299 5.884400 -739.724426
37.278400 39.201302 -754.029419
37.263901 279.118713 -789.549377
37.263302 171.366302 -791.164307
37.252800 -0.561100 -738.422974
37.252300 178.516800 -795.352478
37.244999 21.456100 -743.379211
37.244598 11.972500 -740.976318
37.221001 182.314102 -798.013794
37.217800 150.345596 -779.788208
37.213902 146.492493 -776.158875
37.194302 155.886703 -783.445679
37.183300 246.343796 -788.057617
37.178001 17.404900 -742.425720
37.177601 135.059601 -767.767822
37.176998 206.093307 -817.994812
37.176498 160.134506 -785.957825
37.171700 136.312698 -768.900574
37.165100 141.927994 -772.960327
37.163700 14.467000 -741.661072
37.160999 199.290802 -812.060303
37.156700 186.444504 -801.306030
37.152401 179.695694 -796.241577
37.151199 183.326401 -798.850708
37.143200 188.820908 -803.324585
37.136101 148.783203 -777.869080
37.116901 192.653107 -806.133911
37.114700 256.500000 -786.951904
37.112598 39.991199 -760.501709
37.081200 140.669800 -772.006775
37.071899 283.500793 -790.572571
37.061501 163.443695 -787.627625
37.060200 -1.580100 -739.227478
37.054901 250.037506 -787.915405
37.045502 36.746799 -748.884399
37.030701 207.292099 -819.218872
37.029099 139.359604 -770.839111
37.025002 157.389297 -784.337524
37.024399 158.506104 -785.017090
37.010300 153.212204 -781.415527
37.010201 6.799000 -734.234619
36.999802 187.740799 -802.427673
36.977100 8.276600 -735.367981
36.976601 39.973400 -755.344971
36.975101 200.546097 -813.197327
36.960201 40.567902 -758.713379
36.947201 172.433594 -791.900879
36.942200 254.902603 -787.305115
36.907700 203.041000 -815.293030
36.896000 164.949402 -788.484070
36.893902 37.465099 -751.895020
36.883400 239.182098 -788.936218
36.875900 148.073502 -776.746887
36.859699 196.568802 -809.668884
36.859402 201.646698 -814.163513
36.857498 247.806305 -788.414917
36.845001 162.447906 -786.873413
36.841202 168.289505 -789.920410
36.794998 244.983398 -788.318420
36.793400 36.146702 -747.683472
36.784000 145.728195 -775.145996
36.758400 208.227493 -820.070129
36.751301 150.570999 -778.567017
36.742401 241.108902 -788.816223
36.732300 197.459396 -810.577576
36.731098 144.251694 -773.980286
36.722900 173.575607 -792.679688
36.715401 154.323303 -781.986328
36.701801 284.938812 -790.892029
36.683899 280.142609 -790.028076
36.681801 169.834106 -790.829285
36.678902 209.468399 -820.926819
36.676899 195.063705 -808.328186
36.672798 151.495804 -779.524780
36.666500 253.210205 -787.737305
36.664799 193.777695 -807.393799
36.663502 190.722198 -804.874512
36.637100 166.901306 -789.657471
36.566898 37.926498 -750.727112
36.565701 184.400208 -800.088501
36.564400 137.441299 -768.924316
36.550098 152.768494 -780.291870
36.518501 204.197601 -816.537598
36.503601 181.281097 -797.830322
36.488499 149.916000 -777.508972
36.484501 175.142700 -793.770874
36.452499 138.676407 -769.784180
36.452202 147.417007 -775.551025
36.442699 40.440800 -756.619629
36.439201 142.946304 -772.709595
36.404800 40.287102 -761.682495
36.394402 136.095505 -767.853821
36.379902 38.626801 -753.262329
36.373699 176.274200 -794.463684
36.355701 281.381104 -790.346802
36.347301 180.153000 -797.112305
36.327999 210.460999 -821.722229
36.325699 155.682693 -782.488892
36.315601 156.802002 -783.391174
36.307999 37.708801 -749.421082
36.306000 189.500000 -804.083374
36.305099 185.529297 -801.067505
36.286900 177.589005 -795.434326
36.277699 205.108795 -817.587830
36.271099 154.055298 -780.732178
36.265099 141.828705 -771.826782
36.261200 140.401001 -771.053223
36.248901 182.351700 -798.814819
36.241501 40.790100 -759.968018
36.226700 170.926697 -791.839172
36.215000 165.685196 -789.333923
36.183399 198.516907 -811.734985
36.179401 206.518494 -818.675781
36.176201 191.700302 -805.833130
36.171902 149.102295 -776.410400
36.139301 178.906204 -796.362671
36.136799 151.673203 -778.323914
36.131199 186.799896 -802.091370
36.111500 168.698303 -790.984070
36.108898 145.445297 -774.036316
36.107300 163.978394 -788.266602
36.106701 211.512299 -822.490173
36.097401 286.626190 -791.348572
36.097198 39.591202 -754.500488
36.076801 158.206497 -784.171875
36.072498 183.326797 -799.594604
36.062599 38.420799 -751.877930
36.042500 161.743301 -787.603882
36.027599 159.856293 -785.211792
36.025902 192.686096 -806.776917
36.018799 152.778900 -779.074829
36.004601 282.831787 -790.520020
35.983700 195.721603 -809.303223
35.978298 40.845200 -757.873901
35.969299 172.366592 -792.804688
35.960999 188.276001 -803.272095
35.953499 36.956501 -748.169373
35.947601 173.988495 -793.586304
35.940601 202.092499 -814.905029
35.916901 155.154099 -781.379272
35.894100 212.908905 -823.431885
35.892300 167.515503 -790.518127
35.867500 199.542206 -812.643127
35.863800 200.746902 -813.767273
35.806702 169.719696 -791.850098
35.800301 146.612106 -774.758972
35.798199 203.275208 -816.010498
35.790600 161.159195 -785.950378
35.776501 144.292297 -773.099121
35.751999 38.696499 -750.067871
35.730301 284.135895 -790.695129
35.726398 207.364197 -819.495789
35.711498 196.757507 -810.282776
35.708099 156.722000 -782.022888
35.707001 208.609497 -820.692505
35.690899 139.672501 -770.072327
35.670601 40.356899 -755.590271
35.666302 154.046600 -779.605286
35.641701 40.360600 -762.730286
35.632500 150.487793 -776.773315
35.626400 287.810089 -791.546997
35.577202 213.906693 -824.200195
35.576801 285.515411 -790.790588
35.564899 148.454605 -775.447510
35.552399 194.180405 -808.052124
35.531399 163.046906 -787.015381
35.530602 157.790497 -782.947571
35.520100 164.561600 -789.440674
35.499699 41.189701 -761.187683
35.498299 174.736298 -794.515076
35.493599 138.257904 -769.049377
35.480099 39.589699 -751.427612
35.477901 190.148804 -804.916992
35.457199 176.408096 -795.445129
35.452499 39.386501 -752.694519
35.447399 41.190701 -759.014587
35.445900 142.646698 -771.320313
35.425098 209.528000 -821.509521
35.413898 181.418900 -798.448486
35.397202 159.294907 -783.981018
35.395000 184.395706 -800.652710
35.382900 171.152405 -792.963074
35.372799 141.383194 -770.978516
35.339100 289.869995 -791.854004
35.310001 179.417297 -797.169983
35.291698 185.913605 -801.725708
35.288200 38.488998 -748.900879
35.284100 152.548203 -777.941528
35.281300 155.196594 -779.974121
35.279400 40.988098 -756.769226
35.276100 204.342606 -816.933472
35.268700 143.808105 -771.961670
35.257801 214.894394 -824.968079
35.256302 197.648605 -811.160400
35.252998 205.695099 -818.199280
35.209099 173.024002 -794.105103
35.207600 177.399200 -796.184082
35.204300 210.576797 -822.282227
35.187698 188.860901 -804.087280
35.155300 187.192001 -802.791016
35.138500 166.737396 -789.837219
35.134998 161.089401 -784.873230
35.131100 164.779800 -788.256287
35.103100 182.478897 -799.367615
35.099201 191.037796 -805.785828
35.074600 211.910706 -823.296387
35.070599 149.572906 -776.015991
35.039299 151.682907 -777.043091
35.035702 156.279694 -780.981628
35.033100 193.200500 -807.416992
35.024601 215.938004 -825.653809
35.023602 162.124298 -786.279724
35.019501 153.671005 -778.471191
34.997898 145.458405 -773.288330
34.996601 194.958206 -808.963501
34.993900 39.729801 -750.015076
34.992199 173.719604 -795.167603
34.980301 198.738907 -812.203613
34.976799 167.751099 -791.470093
34.961201 192.021896 -806.589722
34.944901 39.818901 -753.971619
34.936298 180.298996 -798.017578
34.921902 201.343597 -814.553711
34.893700 40.489601 -763.804382
34.885201 200.062393 -813.301025
34.868301 147.695694 -774.619324
34.862701 202.427902 -815.470581
34.860401 157.580399 -781.455200
34.857601 174.900497 -795.677612
34.856602 41.352100 -762.309021
34.841999 165.982300 -788.853577
34.834999 41.499100 -757.945618
34.818501 41.574902 -760.047119
34.805099 158.838303 -782.632385
34.803699 216.908005 -826.441223
34.792400 164.105804 -786.979004
34.760502 168.950897 -792.343811
34.743099 207.901001 -820.224976
34.680801 178.317703 -797.322876
34.677601 146.539993 -774.068481
34.665798 213.031601 -824.239990
34.662300 206.503601 -819.268677
34.655800 160.436295 -783.837524
34.619900 195.901703 -809.871887
34.606201 175.727493 -796.692078
34.581299 172.113693 -793.151672
34.576099 203.396606 -816.464417
34.565899 183.483200 -800.360718
34.560200 167.830200 -790.241211
34.539299 40.056599 -752.140503
34.525101 155.004501 -778.964478
34.519501 218.053101 -827.151428
34.508900 40.559399 -754.928589
34.497002 170.262405 -793.171997
34.496700 163.186905 -785.604370
34.488998 150.882401 -776.125671
34.475800 168.858200 -790.974670
34.431301 181.158600 -799.295288
34.390400 149.141006 -774.990601
34.365898 184.995697 -801.436401
34.361599 204.869507 -817.696716
34.358002 156.471100 -779.901611
34.355999 208.833801 -821.082886
34.341801 193.883408 -808.335327
34.340900 41.787800 -761.233215
34.339901 165.642700 -787.590271
34.332401 187.826996 -803.533081
34.331402 177.031296 -797.116089
34.330601 179.221100 -798.314087
34.325298 189.539902 -804.826416
34.314201 186.282394 -802.455688
34.302601 170.112503 -791.869629
34.302299 162.072998 -784.986877
34.299900 153.271698 -777.461975
34.292400 196.835800 -810.754578
34.290001 214.070602 -825.032593
34.262798 209.705505 -822.064514
34.202599 42.004398 -758.954590
34.195400 210.979904 -823.009583
34.162998 219.085999 -827.935303
34.154099 197.892593 -811.764282
34.139702 40.968201 -756.077515
34.116501 152.324097 -776.391724
34.115700 40.294601 -750.887512
34.110298 40.855099 -764.898315
34.108501 40.683399 -753.436890
34.097698 166.902496 -788.375488
34.083599 41.399502 -763.344604
34.066898 158.544693 -781.631470
34.056900 215.158401 -825.894470
34.054001 182.289703 -800.081299
34.012501 173.923401 -794.370422
33.979301 200.628403 -814.103516
33.979000 154.571594 -777.857788
33.953999 192.470398 -807.425293
33.949501 165.006500 -786.430115
33.946701 205.665894 -818.655029
33.943501 171.255402 -792.473816
33.941101 190.504303 -805.751282
33.909100 159.725296 -782.476379
33.894901 199.157593 -812.780396
33.888901 167.973297 -789.055908
33.848000 211.971298 -823.746094
33.842098 220.089600 -828.711304
33.829899 157.638596 -780.672424
33.827900 161.416397 -783.745422
33.824200 194.986298 -809.501282
33.818802 180.009796 -799.321899
33.791500 41.591599 -757.186890
33.784698 201.741104 -815.166992
33.780499 156.140396 -778.816895
33.757801 183.823395 -801.299316
33.746700 42.292999 -760.209412
33.743698 216.225098 -826.521912
33.742001 168.988998 -789.810181
33.738098 178.086105 -798.159119
33.713799 169.985504 -790.762085
33.713200 175.352097 -795.400330
33.668201 42.163300 -762.236206
33.664799 207.134903 -820.000183
33.655701 188.562103 -804.383423
33.618599 172.767593 -793.672913
33.613098 41.363800 -754.427612
33.612202 191.401398 -806.608521
33.609200 157.372803 -779.338013
33.604599 203.860992 -817.177185
33.596298 176.391800 -796.220886
33.592800 217.164307 -827.349487
33.572701 164.064499 -785.610718
33.546101 221.251602 -829.633118
33.545502 186.797806 -803.346619
33.522099 180.949905 -800.149414
33.481998 185.225403 -802.383301
33.456299 162.919006 -784.569275
33.444901 212.936493 -824.696899
33.419201 202.847305 -816.197510
33.418098 40.735500 -752.223328
33.399700 166.703705 -787.204529
33.348000 208.057297 -820.825073
33.325199 41.728001 -764.296387
33.280201 41.948700 -755.606079
33.274899 222.396194 -830.661926
33.266701 210.163605 -822.739624
33.264999 182.524902 -801.062012
33.263302 209.001297 -821.718872
33.260601 218.193695 -828.076721
33.255299 193.231796 -808.276978
33.250900 167.854599 -787.941528
33.242100 171.163300 -791.287781
33.233101 172.308502 -792.487427
33.220299 195.783798 -810.288025
33.220299 42.303501 -758.207886
33.210800 197.034897 -811.397278
33.184700 159.470795 -781.311401
33.182701 189.536606 -805.385498
33.172798 213.970795 -825.650513
33.101299 177.248306 -797.317322
33.090500 179.032303 -798.921997
33.083801 198.231995 -812.419983
33.054298 42.751099 -761.187927
33.048199 199.639404 -813.579712
33.040501 204.872696 -817.905212
33.026199 187.470703 -804.475281
33.009602 184.055298 -802.433105
33.006802 168.985703 -788.644470
32.994400 42.447899 -763.286987
32.987499 41.167400 -766.156006
32.986801 160.645401 -782.424011
32.982601 206.180893 -819.415771
32.935299 174.587097 -794.549377
32.930599 41.298698 -753.266113
32.923599 170.261505 -789.815430
32.921001 215.017303 -826.481628
32.918301 42.873501 -759.392273
32.898998 223.192200 -831.594116
32.888599 158.555298 -780.478882
32.887100 200.881302 -814.689514
32.881199 165.770706 -786.421326
32.873402 220.171707 -829.537598
32.866299 219.093094 -828.867798
32.842098 185.726593 -803.432312
32.839100 211.099197 -823.695129
32.836800 42.383499 -756.719727
32.818401 191.919006 -807.443115
32.812199 194.167099 -809.064819
32.796398 173.738205 -793.605103
32.794399 162.227203 -783.570618
32.775902 190.472198 -806.331116
32.759899 224.361801 -832.762573
32.739201 178.595795 -797.521484
32.690102 216.264297 -827.321899
32.659401 180.526306 -799.331116
32.622799 201.985794 -815.730591
32.595100 221.032593 -830.430176
32.586201 164.850693 -785.319702
32.575100 181.481903 -800.805786
32.563900 188.352600 -805.355103
32.532299 42.033001 -754.412415
32.529400 175.850098 -795.400024
32.513599 211.993698 -824.615112
32.506599 172.220703 -791.131592
32.490200 225.355103 -833.595276
32.457199 203.376205 -816.922485
32.429001 163.839996 -784.526184
32.425598 43.105099 -762.312683
32.411701 207.233093 -820.211792
32.401901 167.459106 -786.936523
32.384399 173.258408 -792.449219
32.378601 176.880905 -796.285278
32.334400 42.511799 -764.771606
32.334099 213.057007 -825.328125
32.308998 171.284607 -790.281372
32.299801 209.401703 -822.430725
32.298100 186.408295 -804.584229
32.273899 205.327698 -818.797424
32.268600 183.330093 -801.538330
32.267899 43.435501 -760.353027
32.267200 217.436905 -828.406982
32.261200 221.808594 -831.366089
32.235802 170.008606 -788.734924
32.228901 226.973602 -835.465515
32.216702 168.566803 -787.621582
32.215099 42.644699 -755.601685
32.207802 195.035706 -810.134888
32.205700 208.244705 -821.468018
32.187099 43.069099 -758.087280
32.181000 41.119400 -752.111328
32.163601 196.160904 -810.997620
32.118401 189.163406 -806.260681
32.108501 192.645294 -808.302185
32.091301 41.419399 -767.026611
32.082100 175.225204 -793.706909
32.078899 227.895706 -836.386414
32.076199 190.746597 -807.461487
32.071602 214.053696 -826.287720
32.070202 198.747894 -813.169678
32.062000 197.344101 -811.976807
32.049301 179.425598 -798.259521
32.048302 184.780899 -802.994019
32.012100 226.029999 -834.591980
32.008499 166.075394 -785.404724
31.986500 223.367004 -832.801086
31.983101 178.078705 -796.653198
31.928801 199.737000 -814.185303
31.918400 219.116196 -829.712585
31.913000 204.284195 -817.896606
31.902500 43.107498 -763.649719
31.895100 215.239395 -827.212830
31.891199 43.271099 -756.732483
31.872499 171.186707 -789.064087
31.868500 228.853104 -837.610229
31.855700 174.372803 -792.782104
31.832701 41.955898 -753.224426
31.817600 182.518204 -800.534790
31.796700 177.330093 -795.058472
31.793501 201.077103 -815.355103
31.785200 42.255600 -765.902283
31.760000 193.472198 -809.325195
31.750900 173.302094 -790.913025
31.745100 206.196106 -819.669983
31.737499 43.844299 -761.473083
31.722300 210.492493 -823.510681
31.718201 181.301697 -799.802917
31.715500 162.157104 -782.863525
31.711901 229.628601 -838.682678
31.699400 220.129593 -830.482422
31.693300 177.259995 -799.005127
31.681000 165.021896 -784.413330
31.665100 169.676804 -787.343323
31.648701 167.649796 -785.928772
31.637800 202.380798 -816.484619
31.627199 216.230698 -828.032471
31.614300 43.648102 -759.153015
31.608700 224.207108 -833.765381
31.578800 163.404999 -783.665405
31.574699 187.556107 -805.752686
31.574600 176.226807 -794.414124
31.572300 185.492004 -803.987976
31.564301 230.416000 -840.018677
31.524599 180.623596 -798.654175
31.519100 172.268799 -790.205322
31.498699 179.277100 -797.112488
31.487400 191.520798 -808.319092
31.471500 42.789299 -754.488770
31.465500 217.969193 -829.248230
31.438200 222.088699 -832.340088
31.412300 231.080597 -841.099609
31.412001 170.809097 -787.862427
31.396400 189.594696 -807.200989
31.367300 207.415207 -820.937683
31.361799 174.322296 -791.614075
31.359400 43.891899 -762.729187
31.303499 226.867706 -836.431396
31.292700 211.873993 -824.930786
31.289600 194.172302 -810.263123
31.275000 43.218800 -765.014282
31.263300 169.095703 -786.225098
31.246099 195.293900 -810.953125
31.227100 232.204300 -842.845276
31.223000 208.811905 -822.119812
31.222700 184.205307 -801.798218
31.222300 224.934006 -834.738525
31.219299 43.985600 -758.003479
31.211300 178.430695 -795.455811
31.200001 41.887001 -768.091614
31.195601 175.653793 -792.816284
31.182400 43.406200 -755.691528
31.175301 197.827194 -812.803284
31.172600 225.970093 -835.550476
31.165600 203.264206 -817.368896
31.155899 227.802307 -837.367798
31.136000 44.052399 -760.317017
31.133600 196.339203 -811.771179
31.125900 213.105103 -825.733276
31.094101 187.028503 -804.609009
31.078300 204.923996 -818.831482
31.062799 172.120499 -788.642700
30.973801 233.104004 -844.242676
30.972000 192.271301 -809.223877
30.943800 199.002502 -813.862488
30.940800 180.506699 -797.291382
30.927401 228.564499 -838.510986
30.924200 214.122299 -826.903687
30.923901 200.233994 -814.912415
30.922701 220.454803 -831.503906
30.907400 222.849106 -833.219971
30.896700 209.701797 -822.959778
30.881100 181.702805 -798.842529
30.871901 190.412506 -808.160889
30.858299 218.735504 -830.328979
30.854799 185.478699 -802.885925
30.832600 43.877102 -763.943420
30.790400 43.103100 -766.178589
30.774500 231.166794 -842.257874
30.757099 229.112701 -839.655579
30.752600 182.720505 -799.805481
30.750500 201.491196 -816.013306
30.747999 176.980301 -793.813599
30.732800 215.205597 -827.830322
30.722000 44.064499 -756.703186
30.719801 173.472305 -790.150330
30.704800 44.658100 -759.173584
30.693899 230.040298 -840.936890
30.683300 44.586201 -761.853271
30.676201 210.938095 -824.273071
30.674000 206.404297 -820.334778
30.667700 188.595398 -805.883423
30.657101 42.574200 -753.483521
30.638500 216.485199 -828.843506
30.573099 179.488998 -796.015320
30.570101 183.573898 -800.913086
30.565901 234.665894 -846.621826
30.549500 192.893204 -810.244812
30.487700 223.918701 -834.607483
30.487499 233.791107 -845.390991
30.478201 203.962799 -818.232727
30.444901 173.263397 -788.672913
30.428699 207.868103 -821.783875
30.417700 196.772095 -812.762085
30.405001 175.350006 -791.690796
30.402300 43.448898 -754.357971
30.399200 221.276199 -832.563599
30.398600 194.460800 -811.513794
30.362499 202.403900 -816.883118
30.351900 231.921005 -843.741821
30.348801 226.043793 -836.635010
30.347000 177.807007 -794.743774
30.303900 186.457199 -803.673584
30.297501 225.008896 -835.600830
30.292700 44.727501 -763.180908
30.273100 174.648193 -790.562317
30.258101 45.034901 -760.525879
30.255100 227.205307 -838.121582
30.244801 191.363907 -808.735413
30.243999 42.734299 -767.619507
30.240900 205.431503 -819.624817
30.236900 236.599106 -849.741516
30.233700 195.562500 -812.198608
30.228600 217.556107 -829.794678
30.224199 212.153397 -825.546021
30.222601 185.357498 -801.688477
30.219200 197.671707 -813.737305
30.211700 44.744801 -757.926819
30.202200 219.423401 -831.239929
30.200300 189.341904 -806.819824
30.198500 42.160301 -768.854126
30.191299 235.281296 -847.963501
30.155001 43.857800 -765.322388
30.148701 176.349899 -792.697876
30.142799 181.393600 -797.789612
30.121401 44.215801 -755.476929
30.100100 182.780396 -798.688477
30.076099 199.232803 -814.764771
30.064301 213.238403 -826.512512
30.038799 222.000107 -833.582214
30.012199 187.758606 -805.018127
30.007500 228.102600 -839.354980
30.001699 200.481293 -815.741272
30.000601 230.161407 -842.086914
29.993799 232.588699 -844.967529
29.948700 208.798492 -822.755371
29.926600 209.871796 -823.747620
29.913300 180.616302 -796.563782
29.895500 174.144501 -789.392700
29.885300 183.770294 -799.558716
29.857500 190.836502 -807.456787
29.855301 237.450195 -851.104980
29.825199 228.880493 -840.539124
29.764900 214.379700 -827.514771
29.742701 44.913300 -756.596313
29.742399 178.929092 -795.194275
29.740700 220.230896 -832.303101
29.725901 233.507294 -846.421082
29.711599 187.615295 -803.605591
29.710400 45.449699 -759.060120
29.708599 43.645599 -766.785583
29.707399 44.627899 -764.374573
29.704000 218.227997 -830.757629
29.701401 238.913696 -853.364380
29.696800 206.844406 -821.010010
29.695400 45.424000 -761.636597
29.689800 230.827698 -843.195129
29.655500 222.725204 -834.550293
29.654600 203.034805 -817.794189
29.644899 201.369293 -816.788208
29.643700 177.683395 -793.686584
29.633801 193.791794 -810.593506
29.599501 186.464203 -802.141479
29.590900 211.136002 -824.989014
29.585800 204.448807 -819.178284
29.584101 215.354507 -828.482727
29.564501 235.637100 -849.146729
29.552799 192.394699 -809.498413
29.530399 226.002701 -837.605225
29.490700 223.881607 -835.468384
29.490400 184.724503 -800.767578
29.478001 189.095306 -805.748291
29.471600 198.098007 -814.763977
29.455400 196.027298 -813.160583
29.451099 175.709305 -790.868530
29.442801 225.093094 -836.559814
29.404900 234.365494 -847.544983
29.351299 237.958801 -852.162781
29.341900 188.791702 -804.511719
29.326900 45.918999 -760.404114
29.311899 45.669300 -757.839478
29.310200 216.253799 -829.374023
29.309401 239.533798 -854.642822
29.308201 220.988297 -833.386108
29.304100 45.569199 -763.340271
29.275101 231.643494 -844.435303
29.261900 43.999699 -754.421997
29.237000 227.109299 -838.888184
29.233200 43.014000 -768.415588
29.232901 199.234299 -815.743286
29.194099 191.909698 -808.012512
29.193800 194.905701 -811.486877
29.188601 207.774994 -822.142212
29.184500 229.339798 -841.564514
29.184200 236.171097 -850.308105
29.173401 190.128006 -806.666077
29.159800 205.700104 -820.309326
29.158400 176.562500 -791.898315
29.154900 44.373501 -765.893677
29.153299 179.988800 -795.675171
29.151100 182.214203 -797.820801
29.099100 219.093201 -831.940125
29.095800 42.361500 -769.618896
29.090700 212.370300 -826.242126
29.070700 217.151306 -830.273682
29.034100 200.166199 -816.585022
29.030100 227.814896 -840.209229
29.026800 240.220795 -855.871582
29.017300 232.502396 -845.820190
29.016701 181.512604 -796.580688
29.011700 241.223694 -857.171509
29.006100 44.928200 -755.452393
28.991800 197.161896 -813.657104
28.912600 178.626205 -794.278687
28.888901 201.723694 -817.733887
28.882000 209.157501 -823.397705
28.862000 213.445404 -827.311584
28.854000 185.834198 -801.323914
28.851601 46.384800 -761.915405
28.839001 236.742706 -851.414795
28.835501 229.977600 -842.736328
28.826401 184.523407 -799.492676
28.809299 210.144897 -824.314514
28.806101 234.668503 -848.715881
28.776600 45.783501 -756.608582
28.757099 203.055496 -818.681396
28.750700 177.582703 -792.789978
28.748899 193.404694 -809.779785
28.739500 46.319901 -759.175903
28.737499 187.235504 -802.761780
28.728701 221.812393 -834.589478
28.723900 45.515800 -764.541382
28.696400 224.034302 -836.466980
28.682699 233.125900 -847.085693
28.676600 222.849899 -835.378723
28.664400 189.907394 -805.075989
28.663200 241.875305 -858.388489
28.655300 214.502304 -828.224182
28.639000 238.228897 -853.432922
28.633301 44.014400 -767.455872
28.626101 224.986298 -837.611023
28.598200 230.541595 -843.925781
28.584499 226.008499 -838.492371
28.582701 191.228500 -807.018982
28.548300 204.414001 -819.915283
28.544800 195.904999 -812.182373
28.527100 218.104507 -831.369873
28.522400 242.549606 -859.688416
28.520599 206.555603 -821.440430
28.519300 183.555603 -798.737305
28.514000 211.425705 -825.590271
28.512501 219.728699 -832.888184
28.511600 188.249695 -803.651917
28.492701 243.116104 -861.051880
28.473101 235.206802 -849.808594
28.439800 215.355301 -829.173706
28.438499 192.731796 -808.679382
28.417801 194.333206 -810.649292
28.414600 179.903793 -794.633911
28.404100 46.830502 -760.419128
28.393499 228.296402 -841.236816
28.371599 46.508499 -757.896484
28.340300 46.379398 -763.118225
28.337000 237.297699 -852.513794
28.310101 198.413895 -815.247925
28.265699 226.714005 -839.600098
28.263399 45.287300 -765.711426
28.261700 231.375595 -845.260986
28.233500 43.366299 -769.157288
28.218201 178.667694 -793.219421
28.205200 220.639206 -834.020813
28.200800 238.826797 -854.601196
28.195499 228.901901 -842.395020
28.184999 180.786804 -795.525879
28.179001 182.406799 -796.991272
28.172300 243.516693 -862.232300
28.167500 207.999603 -822.845520
28.162800 190.633804 -805.975098
28.149599 185.349792 -800.322327
28.128201 205.200500 -820.957581
28.126301 198.075699 -814.046387
28.101200 233.724106 -848.165894
28.090700 243.949905 -863.422607
28.085899 200.755905 -817.237793
28.048201 186.764694 -801.749878
28.038099 192.216202 -807.587585
28.030100 199.410294 -816.125427
28.018801 196.741501 -812.965088
28.011600 240.406693 -856.813782
28.009501 235.670105 -850.962830
28.003401 42.647202 -770.263977
27.990101 212.582703 -826.852478
27.982700 239.449600 -855.729126
27.947701 216.857697 -830.789429
27.932400 193.999298 -809.021729
27.917500 47.245899 -761.698120
27.912600 232.260803 -846.410889
27.900499 47.251400 -758.922729
27.892000 244.441101 -865.031128
27.879200 223.051498 -836.402100
27.853500 189.281799 -804.242126
27.833099 203.094193 -819.588928
27.822100 195.426498 -811.217529
27.804001 227.230194 -840.699707
27.791599 223.874603 -837.393372
27.783400 46.396900 -764.751526
27.780300 218.650101 -832.344421
27.772499 46.270802 -755.806580
27.772301 209.428101 -824.262695
27.767000 210.428894 -825.135071
27.761700 202.137604 -818.353394
27.752899 229.637497 -843.483521
27.734100 241.139206 -857.934692
27.710899 185.211395 -799.104980
27.698999 225.042801 -838.512329
27.695900 213.684097 -828.002930
27.688400 181.882401 -795.942871
27.677200 183.489807 -797.695129
27.673201 234.321198 -849.243286
27.669800 221.603806 -835.252686
27.651199 206.741806 -822.406921
27.650000 187.952194 -802.387878
27.630400 45.110199 -766.886719
27.608500 244.913605 -866.586426
27.584200 46.875301 -756.947876
27.573799 215.818802 -830.018921
27.562500 241.815399 -859.181824
27.558100 44.567001 -768.071228
27.537600 237.694504 -853.781616
27.536100 194.950500 -809.848328
27.516399 47.339802 -762.960083
27.515301 47.787102 -760.074707
27.496099 230.492203 -844.619507
27.483900 242.437805 -860.454224
27.483000 232.814499 -847.511780
27.481800 191.716400 -806.190613
27.444901 225.680603 -839.599976
27.418200 190.523605 -804.942871
27.412600 219.500504 -833.605713
27.406700 227.656799 -841.896179
27.405001 186.331604 -800.704590
27.402399 196.815308 -811.695618
27.399099 217.575500 -831.737183
27.394800 193.200699 -808.077881
27.380400 211.587997 -826.356079
27.348499 236.494003 -852.252625
27.331800 183.332199 -796.169678
27.330000 245.358704 -868.085815
27.283501 198.841995 -814.594116
27.281099 214.852493 -829.238220
27.236799 47.638901 -757.917603
27.216400 184.774002 -797.919128
27.210501 207.804398 -823.655823
27.200701 242.943695 -861.596130
27.199600 188.778107 -803.275391
27.198000 231.103500 -845.914185
27.171000 43.868198 -769.623230
27.165400 234.774094 -850.404114
27.132700 205.724503 -821.771729
27.118299 204.367294 -820.920898
27.110201 245.873001 -869.628723
27.105900 197.608597 -812.793579
27.074200 46.312599 -765.836914
27.072701 238.359207 -854.911987
27.067101 228.546204 -842.889282
27.056499 48.114601 -761.345825
27.053900 243.353500 -862.825684
26.996700 220.316101 -834.572388
26.996599 200.580994 -816.501770
26.993999 199.768600 -815.413025
26.972500 222.142593 -836.200684
26.955799 243.967102 -864.288330
26.947399 212.535599 -827.590210
26.946699 47.423401 -764.146423
26.940599 239.621094 -856.620483
26.922501 226.304703 -840.565613
26.918800 187.411194 -801.420776
26.917299 192.459503 -807.060730
26.893700 233.213104 -848.559326
26.874399 246.454895 -871.090515
26.865499 209.546600 -825.274475
26.838400 231.798996 -846.907104
26.837400 48.145302 -759.056274
26.833300 43.121899 -770.718506
26.818399 196.158096 -810.486328
26.808201 224.160599 -838.367126
26.808201 203.924896 -819.781677
26.786200 229.312698 -844.353516
26.784500 186.125900 -799.019470
26.773300 235.552094 -851.508484
26.767300 240.333298 -857.669800
26.755199 223.032303 -837.228821
26.715900 48.314098 -762.728882
26.706900 201.795502 -817.643372
26.685101 184.064804 -796.979370
26.674200 218.486206 -832.963684
26.663500 236.890396 -853.303528
26.662300 194.187302 -808.722473
26.651100 44.839600 -768.931274
26.648701 216.648605 -831.239685
26.620600 213.835907 -828.750916
26.614401 210.416794 -826.181213
26.610300 198.569000 -813.464722
26.601801 241.075394 -858.812683
26.587400 244.520798 -865.928711
26.573400 45.981800 -766.981384
26.557600 189.872604 -804.128784
26.552000 206.491104 -822.995117
26.539301 241.751404 -859.926392
26.520700 221.036102 -835.539795
26.506001 233.850494 -849.694214
26.504900 48.864601 -760.265015
26.503201 208.467407 -824.469971
26.478701 188.370697 -802.164917
26.473200 230.113297 -845.310120
26.472401 191.161697 -805.535400
26.458799 224.891907 -839.375610
26.439699 226.842407 -841.675415
26.413500 215.277893 -830.129578
26.379801 203.078598 -818.873718
26.378700 187.137100 -800.211670
26.370001 246.932098 -873.095886
26.340799 199.689102 -814.119507
26.327999 211.228104 -827.158630
26.321800 238.670898 -855.888306
26.312099 49.124699 -761.710571
26.272100 232.295807 -847.956482
26.259001 195.284393 -809.644897
26.237000 237.527298 -854.356018
26.222000 193.495102 -807.516602
26.219999 47.576401 -765.249390
26.209900 197.356293 -811.682007
26.200899 227.600998 -842.727722
26.192900 219.389893 -834.049988
26.164600 44.197300 -770.386597
26.158899 185.533707 -798.028381
26.142401 48.437500 -763.890503
26.137800 189.520798 -802.899780
26.130699 242.269608 -861.115173
26.128000 245.099594 -867.744507
26.108299 235.970200 -852.517883
26.093901 247.358795 -874.471985
26.093500 205.099396 -821.056519
26.077600 228.428299 -843.680115
26.068899 49.150799 -758.521973
26.062401 230.717194 -846.401001
26.055300 234.548798 -850.957825
26.038601 46.970798 -766.340698
26.035400 200.848907 -815.679871
26.032200 212.728302 -828.541077
26.007401 242.802505 -862.295715
25.973200 225.478394 -840.397217
25.967899 245.510605 -869.046387
25.966801 188.220398 -800.732300
25.952999 45.712101 -768.129028
25.943300 217.148102 -832.167175
25.909901 243.531998 -863.701721
25.899700 246.422501 -871.926270
25.890499 192.185806 -806.310486
25.870300 222.137299 -836.968811
25.861700 43.372700 -771.578613
25.844000 239.562302 -857.250610
25.840401 223.234406 -838.128296
25.806299 201.956406 -816.309326
25.799400 247.911194 -876.035583
25.780199 246.074997 -870.578430
25.775801 213.832596 -829.703918
25.770500 49.299000 -762.947021
25.770201 198.185303 -812.544189
25.759701 215.720398 -831.232117
25.756599 186.849594 -799.111328
25.749100 202.658203 -817.630127
25.741100 232.926605 -849.214172
25.722401 220.172195 -835.008911
25.718700 204.578094 -819.956177
25.716200 209.077698 -825.590576
25.716000 207.320999 -823.501282
25.666500 190.901199 -804.568115
25.658001 240.334396 -858.404480
25.650200 206.205902 -822.064209
25.649500 49.869202 -760.835388
25.625500 45.236500 -769.628479
25.609301 244.124298 -865.116028
25.603701 229.245300 -844.897705
25.585800 231.321198 -847.505615
25.583900 196.201294 -810.219788
25.543699 248.342300 -877.275574
25.535601 224.052994 -839.180786
25.521999 48.721699 -765.004211
25.508499 241.107101 -859.562012
25.508101 217.988800 -833.298523
25.507900 236.413300 -853.716614
25.499500 194.701202 -808.744507
25.496300 49.746899 -759.575989
25.482000 237.824005 -855.334717
25.454300 244.636398 -866.525879
25.447201 221.079300 -836.202576
25.444500 189.179398 -801.571716
25.440701 199.105194 -813.356384
25.410101 203.949493 -818.889893
25.401600 233.589294 -850.304626
25.388901 46.737400 -767.515381
25.388599 226.154297 -841.565918
25.382299 211.473694 -828.023193
25.374901 235.020294 -851.985596
25.370399 210.335999 -826.905029
25.314800 200.421204 -814.510681
25.280300 190.288696 -803.456726
25.234699 248.808197 -878.425720
25.232401 47.976101 -766.077576
25.227800 238.595001 -856.550293
25.223900 208.526901 -824.510925
25.219801 44.472198 -771.296570
25.219700 50.052601 -762.087524
25.199301 214.315903 -830.716187
25.187700 49.556999 -764.074524
25.179701 193.196198 -806.830017
25.133900 232.000702 -848.512085
25.132500 197.200104 -810.879822
25.115601 227.636200 -843.374329
25.110201 218.834503 -834.437378
25.078899 229.918106 -846.133484
25.060801 216.104797 -832.221130
25.050900 246.988007 -873.249512
25.020399 241.617798 -860.778381
25.011299 212.727402 -829.307678
25.006100 205.785706 -820.866699
24.972900 191.916794 -805.369324
24.963800 249.341995 -879.569885
24.960199 224.676804 -840.240601
24.948299 194.060806 -807.800781
24.941099 201.443802 -815.415222
24.932301 242.210999 -861.913208
24.929001 222.377899 -837.838318
24.923599 46.132099 -768.740601
24.907101 242.927597 -863.068176
24.867001 247.493698 -874.937378
24.858999 245.086502 -867.705017
24.827700 235.503906 -853.062012
24.815100 228.325500 -844.405579
24.793699 239.461304 -857.974426
24.777800 190.085403 -802.251099
24.773001 202.573105 -816.700928
24.769600 203.605606 -817.768188
24.767500 246.367798 -871.368713
24.764900 195.645905 -809.382629
24.756599 207.097198 -822.243530
24.755600 43.896400 -772.497681
24.753799 234.165894 -851.265015
24.731300 243.530899 -864.230774
24.730301 245.713699 -869.383484
24.723700 50.408001 -763.208008
24.719101 226.679092 -842.618408
24.703300 219.770203 -835.728516
24.700500 236.769806 -854.851685
24.663000 47.733398 -767.223999
24.655600 209.821396 -825.643311
24.654600 208.062698 -823.332520
24.652599 205.243500 -819.526123
24.628300 198.756805 -812.365173
24.622601 249.963806 -880.882202
24.615999 51.025501 -761.041504
24.613400 240.245499 -859.108215
24.610201 223.196396 -838.817871
24.595301 217.103897 -833.644775
24.587000 230.600403 -847.205688
24.582500 191.405304 -803.898926
24.572001 45.517700 -770.462280
24.569201 232.795502 -849.708313
24.553101 248.113693 -876.526611
24.492100 221.377106 -837.187012
24.481400 49.217098 -765.607910
24.467800 225.327499 -841.213623
24.463200 211.203903 -827.200989
24.444099 244.162903 -865.596924
24.427601 229.061905 -845.473999
24.417101 199.796204 -813.673218
24.340900 51.216499 -762.268982
24.302999 237.485306 -855.822510
24.284000 250.686203 -882.041321
24.263100 212.185699 -828.320618
24.259501 215.110397 -831.978088
24.251301 195.121994 -808.168213
24.221901 248.500198 -877.727295
24.219700 209.331894 -824.521912
24.208799 47.176899 -768.376587
24.196600 217.975800 -834.818970
24.191799 206.750305 -821.076416
24.176100 193.151505 -805.639404
24.158501 204.522903 -818.383179
24.153799 213.806198 -830.137573
24.145901 44.907001 -771.942383
24.135700 240.742905 -860.244080
24.130800 234.708099 -852.295288
24.122499 238.421997 -857.177490
24.102800 200.916595 -814.452820
24.069300 197.875000 -811.072388
24.059099 231.307800 -848.160400
24.053101 236.039795 -854.021423
24.051500 196.695007 -809.674316
24.048100 50.425800 -764.452026
24.039700 193.921906 -806.897827
24.018400 192.367294 -804.578491
24.015900 223.863907 -840.011597
24.007299 251.595001 -883.471619
23.989300 220.213806 -836.723816
23.965099 48.853001 -766.769287
23.959200 233.340805 -850.707581
23.937201 244.672699 -866.857178
23.934200 227.366592 -843.818420
23.924500 241.471695 -861.482483
23.908800 247.372696 -874.016479
23.897499 202.078094 -815.857422
23.891500 229.716599 -846.521729
23.878401 246.905899 -872.601196
23.872101 46.376099 -769.563782
23.862200 210.785904 -826.088318
23.842501 249.125000 -878.896912
23.841700 222.136002 -838.505127
23.830400 44.506901 -773.187378
23.824900 246.207596 -870.457397
23.812300 216.213104 -833.158203
23.771999 218.809204 -835.929016
23.764799 247.886902 -875.420776
23.758699 225.851501 -842.171997
23.756901 242.873199 -863.739319
23.746700 252.300507 -884.528625
23.736099 208.052597 -822.407227
23.723301 205.859894 -820.125610
23.717800 51.414902 -763.379883
23.717300 232.014603 -849.170227
23.702400 239.276398 -858.618225
23.688900 245.428604 -868.606079
23.648701 203.325607 -817.192505
23.643801 249.674606 -880.114502
23.620300 228.253693 -844.927002
23.601500 220.854904 -837.914978
23.592300 214.749207 -830.971130
23.564699 222.718597 -839.609619
23.516199 213.353806 -829.103516
23.515900 46.009102 -771.005615
23.508600 212.031403 -827.262573
23.508499 224.487503 -841.158691
23.486900 199.403305 -812.816528
23.480400 50.306099 -765.699829
23.478100 253.124405 -885.679871
23.467699 236.621704 -855.213989
23.423700 243.494598 -864.887695
23.392700 217.175400 -834.223511
23.390600 235.079193 -853.248291
23.374701 48.389900 -767.855103
23.345400 250.290298 -881.257019
23.341200 198.625397 -811.822876
23.330900 242.095306 -862.780518
23.324100 230.415405 -847.603027
23.311600 239.936798 -859.689514
23.297300 237.591202 -856.602417
23.289000 233.795197 -851.711487
23.284800 248.309998 -876.510315
23.283100 254.079697 -886.747314
23.260599 209.320694 -823.380127
23.243299 195.814407 -808.570618
23.221399 205.353699 -819.034790
23.221399 194.818604 -807.455322
23.194599 210.214096 -824.578003
23.151800 215.729797 -831.959778
23.150101 226.379898 -843.142700
23.144199 200.432602 -813.765686
23.135201 232.515198 -850.215881
23.125999 228.911194 -845.917419
23.125200 47.679600 -768.992981
23.122299 207.420700 -821.336670
23.119301 51.311199 -764.706116
23.108601 213.035797 -827.923279
23.085699 246.650299 -871.599609
23.072201 201.663605 -814.830627
23.069300 204.287994 -817.788818
23.066700 49.563499 -767.305725
23.060699 193.753296 -806.086670
23.044399 240.639801 -860.976807
23.036200 238.438797 -857.863586
22.997801 223.314896 -840.704102
22.994400 197.598602 -810.475220
22.983101 248.809204 -877.644714
22.971201 243.976395 -866.161682
22.964500 45.716702 -772.111572
22.962900 254.860199 -887.765503
22.951401 219.354401 -836.722412
22.946899 251.211197 -882.798706
22.941099 214.508499 -829.628296
22.934299 218.403793 -834.959229
22.917400 221.417297 -839.067383
22.882401 235.745804 -854.398621
22.857700 231.168503 -848.649902
22.854799 224.963699 -842.157776
22.850901 245.741699 -869.711792
22.837999 211.657394 -825.972290
22.833799 44.942001 -773.827271
22.826599 227.302795 -844.543030
22.818100 244.677704 -867.588379
22.813801 202.693802 -816.088684
22.797600 46.919498 -770.004211
22.729000 52.268700 -763.859009
22.725901 247.255997 -873.359009
22.713900 206.574799 -820.441406
22.691200 247.809204 -874.711975
22.682501 255.527802 -888.850281
22.670500 229.576797 -846.907288
22.642401 241.311005 -861.978882
22.638901 216.874802 -833.033386
22.624201 252.050293 -884.004211
22.608101 249.417603 -878.931519
22.606600 196.880707 -809.057373
22.585501 242.619293 -864.128113
22.539400 234.295303 -852.640930
22.536900 208.429092 -822.544800
22.533400 220.166901 -837.607483
22.509399 50.791500 -766.341370
22.498100 215.369995 -830.856689
22.467699 222.154800 -840.040405
22.463800 239.139008 -858.904114
22.450899 236.823700 -855.932678
22.416800 223.806396 -841.831726
22.400801 46.563499 -771.307617
22.384199 225.376099 -843.336792
22.376900 256.249603 -889.922913
22.361601 233.023605 -851.099670
22.350500 199.461594 -812.112976
22.349800 252.781601 -885.059387
22.346600 227.997406 -845.523071
22.329300 49.113098 -768.283020
22.312799 245.100296 -868.681519
22.298000 212.365906 -826.945313
22.286200 231.791504 -849.624878
22.271999 250.810303 -881.755493
22.270800 195.690796 -807.611511
22.269199 198.548904 -811.007202
22.268101 203.717804 -816.948608
22.247299 213.980698 -828.538086
22.208200 217.870102 -834.055725
22.195400 219.286407 -835.603882
22.191099 201.358994 -813.929871
22.183300 206.044403 -819.317322
22.182699 205.231201 -818.325806
22.171301 230.218094 -848.114929
22.167500 209.937195 -823.848877
22.164000 51.878201 -765.364624
22.156099 239.926697 -860.300720
22.150400 250.322296 -880.539795
22.142200 210.897995 -825.172729
22.141899 226.170807 -844.370789
22.139700 246.119705 -870.845703
22.129200 248.295303 -875.918518
22.120001 237.586899 -857.107117
22.111799 241.856003 -863.121887
22.104799 234.951797 -853.757019
22.069300 257.050903 -891.008423
22.063200 253.693604 -886.299683
22.042200 216.537399 -831.778687
22.024799 221.190598 -838.191223
22.000900 197.857895 -809.625610
22.000000 45.815498 -773.317383
21.994801 202.563202 -815.003906
21.968100 207.992905 -821.371094
21.966299 48.385799 -769.315674
21.950399 246.727905 -872.220703
21.932699 243.058807 -865.130005
21.927000 50.476799 -767.536926
21.913900 200.478195 -813.068604
21.805799 222.985306 -840.966614
21.800699 228.613693 -846.786072
21.798201 244.066696 -866.940125
21.784000 248.863602 -877.096619
21.781500 235.955597 -854.985596
21.761400 214.962906 -829.873413
21.756001 224.402298 -842.774902
21.755199 238.300095 -858.159302
21.729000 254.571396 -887.497070
21.722900 257.742798 -892.182373
21.716600 240.549698 -861.342712
21.679899 220.023697 -836.604492
21.669201 47.578300 -770.403870
21.656401 233.518997 -852.106079
21.646799 46.071602 -774.655518
21.646000 52.961601 -764.441406
21.638599 251.527603 -882.692993
21.638599 226.929092 -845.437317
21.622499 213.232407 -827.708496
21.606501 222.112396 -839.034119
21.601999 247.507599 -874.019409
21.601999 207.225494 -820.339783
21.597200 217.587601 -832.956177
21.551100 245.468002 -869.638489
21.543699 232.095001 -850.638794
21.516800 230.853302 -849.161072
21.502100 51.706799 -766.494507
21.488400 46.722301 -772.236572
21.478701 255.245102 -888.564514
21.459299 249.992905 -879.499573
21.432600 209.046707 -822.345093
21.424700 211.947906 -826.098511
21.400101 203.388596 -815.979492
21.399300 218.778702 -834.666992
21.397499 239.147797 -859.600098
21.395399 204.664398 -817.115784
21.394899 258.572906 -893.444519
21.374500 242.228104 -864.076294
21.372601 252.342194 -883.941772
21.351700 229.244400 -847.987183
21.321301 49.696701 -768.818604
21.317301 199.455795 -811.088684
21.309999 215.908600 -830.909180
21.303301 249.443497 -878.281006
21.247400 244.604294 -868.107910
21.223499 236.658905 -856.302673
21.223101 225.255707 -843.841370
21.203699 234.206802 -853.195679
21.180500 241.137604 -862.574219
21.177799 256.475311 -890.305481
21.163300 248.007599 -875.116272
21.147600 223.837601 -841.811218
21.142500 227.501801 -846.552429
21.130501 210.682297 -824.338074
21.122700 253.107697 -885.121704
21.109800 200.134201 -812.144897
21.103300 250.983307 -881.300293
21.052000 214.310806 -828.818726
21.048599 220.857300 -837.413696
21.039499 52.952999 -765.567322
21.033501 205.901398 -818.712585
21.006300 202.115997 -814.326294
20.995899 246.243896 -871.530579
20.982201 201.332993 -813.008911
20.972700 259.306000 -895.021973
20.960699 235.063004 -854.402771
20.956499 247.014496 -872.997986
20.951799 226.064102 -844.819092
20.945801 50.818100 -768.305725
20.940001 239.723694 -860.650574
20.933599 243.359100 -866.000000
20.907600 219.586197 -835.546570
20.905001 48.738300 -769.934387
20.884001 237.420807 -857.436401
20.874399 248.489304 -876.297729
20.873100 232.643494 -851.616577
20.862801 222.822906 -840.007324
20.860001 254.022797 -886.520325
20.854900 47.424500 -771.397522
20.845400 216.958893 -832.129578
20.833900 231.032303 -850.314270
20.823200 47.150101 -775.014893
20.801001 229.783203 -849.148621
20.800501 212.808701 -826.795410
20.784201 46.659100 -773.375183
20.680401 228.210602 -847.539185
20.675900 51.863998 -767.510925
20.665100 208.180695 -821.181396
20.656799 206.860397 -819.572571
20.646700 259.856110 -896.142273
20.630800 257.291290 -891.578613
20.625799 210.080093 -823.293823
20.623501 235.711700 -855.503479
20.616199 255.777695 -889.322571
20.609301 215.583206 -829.787476
20.604300 221.769196 -838.327393
20.559799 238.198700 -858.710388
20.551800 211.571106 -825.022278
20.539499 224.728500 -842.661987
20.529400 254.868301 -887.812317
20.517300 240.338699 -861.719604
20.509899 245.798096 -870.444519
20.498501 218.421799 -833.796082
20.460600 257.870911 -892.739380
20.457001 243.941895 -867.222717
20.455700 245.060501 -869.087219
20.455000 251.966599 -882.939514
20.428101 220.385406 -836.399170
20.416300 250.552399 -880.279480
20.409500 205.501297 -817.589722
20.390301 50.351002 -769.380188
20.379700 232.992096 -852.786682
20.358200 226.857498 -845.597717
20.354700 204.255402 -816.385315
20.336000 242.559296 -865.170227
20.323799 223.629807 -840.874084
20.304100 247.481201 -873.972900
20.282900 203.428497 -814.780029
20.281099 249.161606 -877.577515
20.229200 231.484695 -851.354126
20.207701 260.615112 -897.608887
20.206499 213.943207 -827.814575
20.200100 252.793900 -884.115601
20.193300 258.769501 -894.090088
20.191299 48.484402 -770.947571
20.182800 239.006805 -859.908691
20.166901 241.326004 -863.345093
20.151899 53.218899 -766.468872
20.141800 216.504501 -831.174988
20.108400 233.822296 -853.859009
20.092300 228.927902 -848.426880
