45.807598 23.439400 -745.382019
45.792900 120.087402 -762.365112
45.789101 20.118601 -742.341919
45.788601 12.355100 -740.633484
45.784401 124.350998 -768.269714
45.782101 24.998199 -743.243286
45.780701 12.708300 -744.520813
45.772701 29.047001 -744.520203
45.768398 29.518400 -746.091187
45.746799 31.585400 -745.349915
45.746399 18.914600 -742.040527
45.728001 10.904900 -739.876587
45.708000 126.265503 -769.607788
45.705299 6.472200 -739.508728
45.699200 117.619301 -763.345886
45.693298 121.412498 -765.797607
45.691799 3.367200 -738.926208
45.676998 -0.339500 -737.882629
45.671200 27.683300 -744.326599
45.651402 15.754400 -744.322876
45.647301 17.044600 -744.497314
45.633900 28.556999 -745.880310
45.628201 29.890400 -745.052612
45.627399 0.798500 -738.167114
45.625500 32.541100 -745.776428
45.620499 23.351101 -743.328491
45.609699 7.739700 -743.230713
45.604801 123.142700 -767.207703
45.593800 4.584100 -739.141174
45.574902 16.517401 -741.404175
45.570099 121.427803 -762.561218
45.560101 25.687401 -745.511230
45.558701 115.858200 -762.875122
45.543301 4.516500 -742.968323
45.542400 8.031100 -739.958313
45.529400 27.599199 -745.518127
45.523102 125.424896 -760.866394
45.518501 21.276199 -742.803284
45.514500 24.343000 -743.983276
45.508301 123.047600 -761.974304
45.480999 119.643501 -764.798889
45.471001 21.848101 -744.889282
45.460602 124.401901 -761.468506
45.458599 26.262600 -744.398315
45.419701 15.047000 -741.597717
45.416199 14.806900 -744.020874
45.410999 19.708500 -744.650818
45.391701 125.339401 -768.575806
45.385101 13.420200 -743.939270
45.378799 25.263500 -744.484985
45.375301 21.953400 -743.537720
45.355999 18.172001 -744.311401
45.349602 10.226100 -743.472229
45.344898 12.153500 -743.747375
45.340801 17.424900 -742.311707
45.335499 127.246399 -770.052979
45.329899 9.078600 -740.062927
45.326302 2.498100 -738.504883
45.312000 13.057800 -741.281677
45.283298 19.122200 -742.915222
45.274101 11.475300 -740.699219
45.262901 23.437300 -744.468079
45.260101 119.025101 -763.362427
45.216900 122.789398 -766.326721
45.211700 15.935500 -742.179016
45.199200 30.553301 -745.662598
45.195400 19.991501 -743.408081
45.183300 124.147598 -767.475525
45.171299 20.724199 -744.180420
45.162399 120.775299 -765.158875
45.160599 1.978400 -742.910217
45.153702 19.072500 -743.935486
45.149399 2.968200 -742.994812
45.146702 5.562000 -739.103577
45.139000 7.275100 -739.299316
45.125198 120.693199 -763.058472
45.105000 5.829800 -742.974792
45.095200 0.902100 -742.774475
45.076698 10.162800 -740.206482
45.076401 122.316299 -762.749084
45.057800 126.296600 -768.809998
45.052700 16.436501 -743.921997
45.051601 9.217200 -743.650391
45.032398 4.238400 -739.910706
45.030399 2.926000 -739.647705
45.020100 17.522900 -743.267822
45.006401 6.394700 -740.276978
44.997101 -0.241900 -742.233582
44.991901 118.274498 -763.980774
44.984901 5.180700 -740.240479
44.971600 126.721199 -761.166687
44.963402 124.317398 -762.357117
44.960098 11.063200 -743.130371
44.933701 128.098801 -770.373291
44.904499 7.040700 -743.013306
44.903999 -0.118200 -738.542725
44.902000 15.217400 -743.271484
44.899300 1.637100 -738.867920
44.892700 7.764800 -740.692627
44.865200 125.150200 -767.755371
44.856998 9.270700 -740.989502
44.842098 12.912500 -743.293884
44.841000 0.605000 -741.619812
44.839100 125.941002 -761.781311
44.835999 119.907600 -764.037720
44.830601 121.802696 -765.506470
44.805801 10.282500 -741.155884
44.803101 14.192200 -743.511597
44.768799 123.779297 -766.584778
44.768799 1.948800 -740.268677
44.765701 14.027500 -741.247070
44.753399 0.983400 -739.615112
44.749599 22.598700 -744.254211
44.731300 1.933000 -742.027771
44.708900 3.473900 -740.485474
44.691898 5.807300 -741.044495
44.666500 3.732900 -739.149170
44.664299 4.131400 -743.533508
44.660900 6.845200 -741.196899
44.658699 2.712200 -741.418518
44.652802 11.386200 -741.517517
44.651699 8.068400 -743.016174
44.649899 123.203796 -763.020386
44.645500 16.332001 -743.023621
44.639702 4.044600 -741.681580
44.639198 127.719200 -769.406982
44.623001 -0.287000 -741.266785
44.621101 12.681800 -740.582214
44.615101 127.575203 -761.510620
44.612400 1.109900 -740.763672
44.612000 8.484300 -741.633484
44.610699 129.155106 -770.646973
44.589401 8.188200 -739.482483
44.580200 121.731796 -763.429321
44.576199 5.089200 -741.744385
44.571098 12.547400 -741.729492
44.569401 -0.570100 -739.348389
44.568199 11.987900 -742.944519
44.553600 14.725200 -742.035278
44.543900 10.130000 -742.759399
44.522999 125.234001 -762.460510
44.509499 5.040300 -742.989075
44.499901 124.209297 -763.240784
44.495899 126.048401 -768.012024
44.494999 124.669701 -766.896973
44.477501 6.325300 -742.067322
44.442299 120.861198 -764.432312
44.434101 10.955400 -740.308777
44.430302 9.526500 -739.755005
44.424801 122.724800 -765.722412
44.419201 13.536200 -742.646484
44.414799 9.321800 -742.133301
44.408001 15.652900 -741.499207
44.407101 14.778300 -740.220825
44.370800 126.965897 -768.525024
44.315201 6.097600 -743.658081
44.303600 128.684204 -769.766113
44.276798 126.840797 -762.107910
44.233398 0.082100 -740.140076
44.221901 130.087204 -770.944580
44.180199 4.136200 -742.604126
44.175400 129.149002 -761.658875
44.156601 -0.882300 -740.544373
44.104301 8.880600 -743.414429
44.097900 123.160500 -763.845276
44.069199 125.741699 -763.278076
44.036900 11.298300 -743.501282
44.029598 10.628000 -742.039673
44.000500 122.158798 -764.943115
43.969700 124.168900 -766.145630
43.967098 7.298300 -742.716797
43.957298 125.835999 -767.193970
43.916401 11.733200 -742.140015
43.912601 124.865799 -763.710876
43.902000 128.231094 -762.119812
43.887798 127.433998 -762.829224
43.886902 129.694397 -770.092224
43.838001 126.759804 -767.701599
43.834900 131.053802 -771.218811
43.830200 14.062100 -741.901611
43.822399 15.470700 -742.323914
43.809601 128.103302 -768.984497
43.809101 13.270000 -743.478821
43.775200 12.835700 -742.314575
43.735001 10.320900 -743.310791
43.733601 12.280700 -743.429993
43.682301 125.115997 -766.396484
43.676998 130.093506 -762.113525
43.667999 8.352200 -742.700195
43.662498 14.347600 -743.408508
43.615101 123.176300 -765.258118
43.598000 129.112503 -762.559875
43.590801 129.129807 -769.260620
43.552601 123.961098 -764.168823
43.537102 127.627098 -768.073486
43.498901 130.608795 -770.377075
43.492199 131.975494 -771.473572
43.479698 126.873100 -763.533630
43.468201 125.740799 -764.157227
43.272202 128.287292 -763.180786
43.262798 131.008499 -762.460327
43.255100 11.313500 -742.817017
43.197701 124.120300 -765.445618
43.156898 126.387802 -766.876404
43.150200 128.585297 -768.303528
43.121799 13.837900 -742.588074
43.098099 130.212402 -769.509888
43.065601 133.077103 -771.662720
43.049400 14.860300 -742.221680
43.047001 12.282500 -742.708618
43.028000 129.900604 -762.836426
43.017799 127.603897 -764.009399
42.970001 131.765106 -770.622375
42.958000 127.354698 -767.281372
42.940399 126.675400 -764.356384
42.931400 132.196594 -762.512695
42.921501 124.920403 -764.853394
42.869701 129.021698 -763.779785
42.849499 123.525497 -764.726074
42.818901 129.547104 -768.732910
42.815201 125.600899 -766.275879
42.679298 134.070099 -771.909912
42.671299 130.669907 -763.398376
42.633400 131.158707 -769.851013
42.591599 132.682602 -770.892395
42.529701 125.880302 -764.794006
42.506699 133.051697 -762.971130
42.493099 128.275803 -767.521729
42.460400 127.420799 -764.925598
42.423500 131.656906 -763.170776
42.326900 128.976898 -764.646606
42.319401 135.016296 -772.083618
42.307800 126.926003 -766.650513
42.276699 129.891403 -763.925476
42.249100 130.493195 -768.985413
42.246201 133.556107 -771.174194
42.222698 129.251907 -767.934387
42.221699 125.115196 -765.599426
42.217701 132.145004 -770.034485
42.196400 126.174103 -765.708008
42.117699 134.010193 -763.156921
41.980598 131.128693 -764.053589
41.968399 136.061996 -772.350220
41.950298 128.236298 -765.174011
41.917599 132.404404 -763.576477
41.869301 127.891502 -766.865906
41.827801 134.515701 -771.386475
41.824600 129.822098 -764.879028
41.808701 131.431305 -769.382507
41.681801 134.922501 -763.413086
41.679401 127.579002 -765.922607
41.633301 137.121307 -772.618225
41.632801 133.298798 -770.406982
41.629002 130.241104 -768.222290
41.596199 133.364594 -763.732117
41.587700 128.848801 -767.275391
41.570099 129.099197 -765.511780
41.526299 132.205002 -764.500916
41.523701 135.598602 -771.603882
41.427200 130.965805 -764.911926
41.377499 132.471497 -769.466003
41.321999 131.147797 -768.559387
41.312698 135.834000 -763.553711
41.284698 138.022400 -772.918701
41.242100 128.504303 -766.310303
41.205700 134.246399 -770.632629
41.128399 136.570999 -771.939209
41.122799 134.303299 -764.008423
41.053001 129.955093 -765.655273
41.042801 129.631195 -767.636780
40.983700 133.208496 -764.591675
40.978199 131.848007 -765.278015
40.887798 135.180099 -770.929321
40.881100 138.951797 -773.084717
40.812599 136.691101 -763.914673
40.808701 129.502899 -766.599182
40.808399 133.451904 -769.814270
40.776501 130.652206 -767.794983
40.757000 137.485001 -772.192322
40.706299 132.019806 -768.677429
40.695301 135.267197 -764.216187
40.658798 130.869598 -765.865173
40.541000 133.915802 -765.119080
40.472301 132.816406 -765.442383
40.450699 139.763199 -773.426819
40.417801 136.192307 -771.299683
40.408298 138.406998 -772.385193
40.375401 134.435699 -770.048523
40.322300 131.803696 -766.070129
40.316700 130.549194 -766.875610
40.291698 132.862000 -769.010376
40.260601 137.811401 -764.108521
40.214401 131.561600 -767.936523
40.141800 136.102798 -764.460083
40.129200 134.881607 -764.921814
40.051899 135.633102 -770.566284
40.015301 137.264603 -771.555420
39.992802 140.572098 -773.809875
39.978199 133.889999 -765.964783
39.937500 133.921402 -769.299927
39.855900 131.608704 -766.938416
39.855900 132.707108 -766.336182
39.800900 132.481003 -768.243713
39.738602 139.399597 -772.789673
39.734299 135.803299 -765.312805
39.658699 137.136703 -764.726379
39.629002 138.868393 -764.355103
39.587799 135.133698 -769.853210
39.524502 138.188004 -771.853271
39.521099 134.973602 -765.827576
39.509102 136.454102 -770.859009
39.427601 141.332504 -774.308777
39.409901 132.491501 -767.197876
39.368599 133.400208 -768.582214
39.355999 133.912399 -766.806274
39.319599 140.315002 -773.127075
39.129101 137.495499 -771.153198
39.095699 137.768707 -765.232117
39.059399 135.774506 -766.318115
39.056599 139.664001 -764.517273
39.048199 134.445206 -769.197327
38.999001 139.034805 -772.168823
38.988300 136.112305 -770.058472
38.942600 136.426804 -765.393494
38.940399 142.150894 -774.778687
38.931400 133.338104 -767.613892
38.851501 138.741592 -764.952087
38.838402 134.937607 -766.778992
38.718601 141.110596 -773.438721
38.679699 135.363297 -769.392517
38.575100 140.012207 -772.536316
38.550098 136.906693 -770.546570
38.540401 137.029602 -766.148010
38.488701 134.169296 -767.339417
38.464298 138.576797 -771.444885
38.453300 142.880096 -775.236084
38.435699 134.476196 -768.385376
38.431702 135.758301 -767.233521
38.431301 140.618805 -764.562927
38.347500 141.993896 -773.972717
38.334400 138.379898 -765.717896
38.247002 139.755707 -765.110229
38.239601 137.878403 -770.713501
38.128799 136.440308 -769.687927
38.098900 137.806305 -766.562378
38.008301 140.851303 -772.773193
37.994400 136.908096 -767.041382
37.979401 133.671295 -768.048096
37.968102 139.651306 -771.847412
37.948101 135.321899 -768.692505
37.873299 143.754501 -775.634277
37.785900 142.733200 -774.336182
37.768200 141.362503 -764.681519
37.754299 139.369995 -765.887329
37.659500 136.190704 -767.856628
37.653500 137.530899 -769.986389
37.644100 141.676407 -773.220398
37.633099 138.776794 -770.864014
37.573002 138.666901 -766.562195
37.554901 140.559799 -765.383423
37.532700 137.745804 -767.467773
37.411201 140.494797 -772.056091
37.410900 136.505203 -768.942017
37.336899 143.552002 -774.812683
37.220299 144.652802 -776.189026
37.188702 140.043701 -766.430786
37.188000 142.156799 -764.788391
37.174599 139.647507 -770.859985
37.137299 142.511093 -773.562988
37.033100 137.104706 -768.186401
37.011902 138.608307 -767.531921
37.009201 138.377808 -770.164185
36.996700 141.348297 -765.570984
36.934502 141.348495 -772.599976
36.921299 137.362396 -769.343872
36.891499 144.328506 -775.289307
36.689499 138.067993 -768.465515
36.662899 139.954605 -767.327087
36.645401 145.435699 -776.513306
36.630501 143.515106 -774.069824
36.621399 140.529999 -771.377014
36.566898 140.832001 -766.419678
36.542500 142.984802 -764.607117
36.488899 142.289093 -772.774170
36.467899 142.224594 -765.486328
36.410702 139.310699 -770.212280
36.294300 139.420898 -768.175415
36.269299 138.391907 -769.454712
36.210899 141.494507 -771.906921
36.191200 144.374496 -774.544922
36.146599 145.192307 -775.645508
36.072201 141.938507 -766.457520
36.052700 140.819397 -767.416870
36.036701 146.259201 -776.837585
36.023300 143.126297 -773.105225
35.984402 140.121597 -770.680603
35.946098 143.097305 -765.393372
35.851700 139.277496 -769.168091
35.823299 140.397293 -768.275330
35.786098 143.887405 -773.696594
35.759102 141.038498 -771.100281
35.659901 144.047699 -765.103699
35.613400 142.655304 -772.267578
35.588699 141.719299 -767.405090
35.570400 142.812103 -766.380127
35.559299 146.064301 -775.999878
35.498501 145.249207 -774.809387
35.440201 146.968704 -777.189026
35.410099 139.207596 -770.124817
35.373299 141.932297 -771.527588
35.248600 140.266602 -769.968628
35.224701 143.753098 -765.936584
35.216900 144.651794 -773.961670
35.214600 142.657898 -767.281128
35.205200 141.532700 -768.471802
35.139400 143.737503 -772.932373
35.035301 146.847900 -776.299316
34.969299 140.901001 -769.187195
34.964699 146.121201 -775.219788
34.946301 144.820007 -764.965698
34.864399 147.819199 -777.694702
34.854000 141.357407 -770.701416
34.843201 143.203293 -771.995178
34.806499 143.635300 -766.947571
34.725201 145.479401 -774.242004
34.699699 142.751999 -768.211487
34.618999 144.633102 -765.934021
34.597198 141.942795 -769.215088
34.582401 144.579407 -773.197876
34.529301 142.468002 -771.363525
34.496201 147.576706 -776.673523
34.334499 144.072098 -772.324280
34.325001 147.037796 -775.586182
34.306702 143.691101 -767.796509
34.277802 145.769897 -765.200806
34.216702 141.954300 -770.245483
34.216000 144.610199 -766.876282
34.197399 143.063202 -769.029724
34.183800 148.779694 -778.075317
34.181599 146.497101 -774.763672
34.074600 145.380905 -773.487427
34.046501 145.382095 -766.221680
33.978298 140.955399 -770.376404
33.910900 148.400101 -776.886230
33.899300 144.584702 -767.868591
33.846001 144.903397 -772.622314
33.844200 143.448196 -771.626526
33.811401 142.910706 -769.936829
33.804401 144.135696 -768.812622
33.773300 147.891006 -775.888184
33.661098 146.159897 -773.916870
33.591301 149.663803 -778.446411
33.573799 145.315994 -767.179016
33.519299 147.296906 -774.977112
33.505798 142.475998 -771.168274
33.371601 149.259201 -777.548828
33.365101 144.045197 -769.751282
33.325298 145.850098 -772.944214
33.295101 143.567902 -770.740173
33.261799 146.306793 -765.258606
33.229000 146.184402 -766.311829
33.212200 148.636902 -776.224915
33.185902 145.224594 -768.551514
33.101700 144.625107 -771.918274
33.036098 146.965195 -774.115723
33.035702 150.515305 -778.734497
32.965401 148.121597 -775.289673
32.868401 145.060898 -769.474670
32.855202 146.056503 -767.672424
32.824001 150.121597 -777.817017
32.776798 149.615005 -776.844116
32.725700 144.677094 -770.495117
32.677200 147.028198 -765.683777
32.663799 145.565308 -772.266174
32.600700 146.566803 -773.025208
32.567299 145.874100 -768.977722
32.531601 146.735001 -766.971619
32.465599 151.398407 -779.172607
32.462502 147.808807 -774.320496
32.455799 148.993500 -775.627319
32.354198 145.932907 -770.062622
32.339802 145.044907 -771.448914
32.241798 146.648697 -768.367920
32.214001 150.980698 -777.814026
32.153801 150.423599 -776.966309
32.136101 147.530396 -773.420776
32.038898 149.825699 -775.997620
31.961800 148.702499 -774.798096
31.925501 145.850098 -770.941223
31.906900 147.292099 -766.331726
31.887899 146.750198 -769.515320
31.874100 147.874207 -765.416992
31.870501 147.408707 -767.797302
31.847799 152.464706 -779.522217
31.844500 151.771393 -778.470520
31.815500 146.419693 -772.382507
31.643801 146.741302 -770.585388
31.546600 151.186996 -777.073120
31.517700 148.579193 -773.891724
31.501499 149.461700 -775.225586
31.484200 147.558807 -768.967896
31.446800 148.156906 -767.292297
31.430901 150.568604 -776.305481
31.335199 147.462097 -772.768494
31.313299 152.734299 -778.702576
31.269501 148.384903 -766.258484
31.234600 153.748398 -779.860596
31.224701 147.602097 -769.967773
31.210400 151.973099 -777.704224
31.117701 147.036606 -771.818481
31.068800 148.334198 -768.356018
30.994499 149.440506 -774.360901
30.960699 145.982300 -771.944702
30.903099 150.336700 -775.501282
30.876499 149.321503 -765.971924
30.847401 148.345901 -773.153625
30.841900 148.015793 -770.944824
30.818001 148.419693 -769.427612
30.801100 151.316696 -776.405518
30.783600 148.873703 -767.527710
30.768999 153.519806 -778.944824
30.684401 154.636307 -780.033325
30.631800 152.818802 -777.815430
30.478600 149.222000 -773.555176
30.452600 147.913101 -771.877014
30.435699 149.115906 -768.776123
30.430500 148.708496 -770.374573
30.400900 152.194199 -776.970581
30.376900 149.538101 -766.912476
30.372400 150.242798 -774.410278
30.273500 151.130005 -775.596375
30.224400 154.350800 -779.124329
30.177299 155.529800 -780.208130
30.164000 149.752106 -767.973389
30.115499 148.836807 -771.465515
30.099701 153.798294 -778.263184
30.094101 148.727402 -772.575500
30.051300 150.393097 -766.422485
30.042801 152.514694 -768.000977
29.984301 149.565201 -770.072693
29.909000 151.949997 -776.062988
29.863300 152.989807 -777.172913
29.851900 151.060303 -774.689575
29.845699 151.159698 -767.782715
29.800400 156.432800 -780.474670
29.731300 149.870407 -773.519714
29.702000 155.195206 -779.254517
29.679600 150.327103 -768.885071
29.646000 149.737198 -771.144104
29.618500 150.307800 -767.345520
29.520100 151.636307 -766.442322
29.511600 149.556305 -772.099670
29.469601 154.589401 -778.338623
29.399200 153.937393 -777.520874
29.377899 153.306900 -767.690125
29.375799 156.161301 -779.567383
29.369400 150.377701 -770.279419
29.345501 151.808395 -775.177185
29.330999 152.712708 -776.307678
29.310499 157.281693 -780.567078
29.280899 150.785507 -773.922974
29.228201 151.966202 -768.007019
29.113199 151.230392 -768.909912
29.111000 150.444000 -771.810425
29.103399 153.011093 -768.672119
29.015400 152.363007 -766.932190
28.986700 150.138107 -772.918213
28.938601 155.499100 -778.613525
28.883600 151.077805 -770.978577
28.879499 153.552399 -776.719116
28.877001 151.633194 -774.289978
28.831800 151.406097 -769.888123
28.822399 158.152405 -780.747375
28.804600 152.730499 -775.456177
28.759899 156.968506 -779.742188
28.674500 154.992401 -777.809021
28.594500 150.956406 -772.494019
28.572100 153.547607 -766.960693
28.564100 152.703293 -767.764221
28.542101 152.113495 -769.267273
28.426100 154.419296 -777.035278
28.425501 151.091797 -773.523987
28.421801 158.985596 -781.096985
28.359301 156.360992 -778.788086
28.313400 152.022400 -770.719910
28.296000 152.516403 -774.537781
28.267700 153.554993 -775.897278
28.236401 157.835098 -779.911377
28.219400 151.678101 -771.832092
28.146500 153.278793 -768.477783
28.033100 155.809204 -777.970825
28.024099 152.690094 -770.027588
27.980499 153.864105 -767.684326
27.974199 159.888397 -781.175171
27.876600 157.287704 -779.102173
27.875299 158.687897 -780.270874
27.852800 151.908600 -772.749084
27.849800 151.626907 -774.113770
27.823099 155.171204 -767.388306
27.794201 155.167297 -777.179016
27.757500 152.580795 -771.458130
27.736799 153.471802 -775.037170
27.698500 153.463593 -769.455627
27.643200 154.134003 -768.709412
27.635799 154.375900 -776.017578
27.481800 156.710800 -778.314514
27.444700 160.813400 -781.312988
27.417700 153.543900 -770.458984
27.390499 158.172501 -779.450012
27.368299 152.666595 -774.114380
27.361300 155.081894 -768.398499
27.331699 159.693405 -780.413513
27.277201 153.011200 -772.271729
27.233801 156.128799 -777.483398
27.175699 154.366501 -769.787415
27.083900 155.331894 -776.444824
27.081400 153.639999 -771.476624
27.060699 156.593399 -767.878906
27.033501 157.581604 -778.620911
26.990700 154.427505 -775.267822
26.926701 153.202896 -773.203979
26.866199 153.578705 -774.452576
26.865801 159.117706 -779.754089
26.842699 155.473694 -769.223816
26.836700 161.827896 -781.390076
26.773500 154.416107 -770.790771
26.691900 160.783401 -780.600220
26.676201 156.907806 -777.741211
26.647301 153.962204 -772.343323
26.591499 156.537399 -768.789429
26.568199 158.490799 -778.969788
26.559700 155.191803 -770.155518
26.497999 156.068802 -776.739990
26.406799 157.512497 -768.356628
26.406099 160.106903 -779.936218
26.379000 154.084595 -773.291077
26.363600 155.429703 -775.738586
26.320101 162.703506 -781.478516
26.307301 154.633301 -771.712708
26.220699 157.838196 -778.111572
26.130800 155.458496 -771.161377
26.113199 154.367996 -774.819702
26.087799 156.328506 -769.646118
26.066700 159.379196 -779.158325
26.063999 161.921799 -780.750427
25.978800 154.940094 -772.644897
25.965500 156.983902 -777.068176
25.904100 157.304993 -769.275818
25.871401 163.558304 -781.676697
25.860901 158.479507 -768.854675
25.811300 161.156799 -780.144287
25.759701 154.906403 -773.656921
25.746401 158.678101 -778.446411
25.660601 156.113403 -775.700989
25.604900 155.241806 -775.047485
25.604200 156.363205 -770.571411
25.545500 160.371399 -779.547424
25.434601 162.965698 -781.011597
25.419901 157.994293 -777.524719
25.394100 156.281998 -771.559814
25.379900 155.881104 -772.618774
25.354900 157.301407 -770.124512
25.330200 159.482803 -768.808105
25.279400 164.433899 -781.698975
25.198601 162.021698 -780.296387
25.188499 159.793594 -778.806580
25.184000 157.170197 -776.448914
25.130600 155.708206 -773.622620
25.111500 158.524399 -769.675415
25.056700 157.127106 -771.103271
24.879299 159.087494 -778.154419
24.854700 161.071503 -779.441772
24.833401 163.797699 -781.024597
24.822599 156.651199 -772.319397
24.794201 156.028793 -775.134521
24.770599 165.405701 -781.815125
24.755501 158.020203 -770.577209
24.721300 159.492203 -769.603088
24.645901 158.076096 -776.793579
24.615299 162.928802 -780.396790
24.556000 156.900299 -775.701172
24.543600 156.510193 -774.111877
24.476900 160.281296 -768.926575
24.474400 157.533997 -771.788208
24.378799 160.388901 -778.894104
24.332899 156.939606 -773.178284
24.299200 164.840607 -781.155579
24.281300 161.899094 -779.956421
24.210199 159.019806 -770.414978
24.204201 166.392105 -781.831116
24.116100 159.100204 -777.491699
24.083401 157.738297 -776.033203
24.067801 160.992401 -769.525574
24.065500 158.422501 -771.386108
23.984800 160.063797 -769.913696
23.956800 159.856201 -778.137817
23.922899 163.771896 -780.578979
23.879200 157.801697 -772.539978
23.868000 156.802902 -774.780884
23.823500 157.617996 -773.750977
23.806400 161.265793 -779.353271
23.719801 165.580002 -781.452576
23.688499 162.740799 -779.988403
23.627199 159.468597 -771.104126
23.598600 158.823502 -776.694519
23.541000 167.137299 -781.867310
23.496099 160.686996 -778.511230
23.474199 157.000107 -775.673523
23.440201 158.909103 -771.972778
23.379499 161.724899 -769.740417
23.360201 164.616302 -780.863525
23.325701 160.737000 -770.213196
23.318501 157.940796 -774.841309
23.314699 158.430893 -773.375183
23.212799 159.726303 -777.405212
23.150000 166.382095 -781.358215
23.107599 162.154099 -779.363281
23.106199 157.968002 -776.053284
23.028900 163.459305 -780.099426
22.964500 160.190094 -771.185120
22.891300 167.768402 -781.351501
22.852200 159.303696 -772.661987
22.840700 161.366501 -778.782593
22.809799 158.731400 -774.551514
22.726299 165.548996 -780.960327
22.698799 162.416595 -769.881714
22.675400 160.697296 -777.859375
22.664900 159.077499 -776.378418
22.622499 161.061996 -770.842529
22.565201 159.356995 -773.621887
22.511000 164.333801 -780.414795
22.502300 168.422607 -782.050293
22.469200 160.109100 -772.185608
22.388000 160.028503 -776.966370
22.378500 162.737000 -779.695801
22.328600 159.044998 -775.437317
22.279100 166.889694 -781.343811
22.174700 161.955307 -770.780029
22.151899 162.052094 -778.997314
22.133101 160.992493 -771.853088
22.067301 159.854202 -774.305115
22.048201 161.440598 -778.135986
21.990101 163.118698 -770.172729
21.986500 160.199600 -773.069214
21.950500 163.609894 -779.945618
21.898701 167.792099 -781.567627
21.849400 165.091797 -780.583496
21.820700 169.080200 -781.705383
21.792200 159.644608 -776.221680
21.750900 166.076004 -781.035522
21.747200 160.902893 -777.344116
21.713301 159.963196 -775.247925
21.673300 161.837601 -771.625305
21.517200 162.944107 -779.275879
21.468300 161.226898 -772.597107
21.445000 160.645493 -774.063477
21.399700 169.851501 -782.416016
21.394600 162.720795 -771.020691
21.290300 162.189697 -778.399902
21.269300 166.866302 -781.390076
21.240700 163.755402 -770.245605
21.184999 164.408997 -780.231812
21.135599 160.501297 -776.605774
21.121500 168.376404 -781.875000
21.032000 160.778198 -775.487976
20.959499 165.531296 -780.726379
20.947300 161.363403 -773.541321
20.942900 162.389099 -771.976929
20.931601 163.667801 -779.596375
20.929501 161.656906 -777.546387
20.802401 161.351303 -774.531921
20.649000 170.653702 -782.644714
20.629000 163.012695 -778.775085
20.622000 169.268402 -782.005310
20.608700 163.623306 -771.000183
20.589001 162.240402 -772.882202
20.523300 167.506699 -781.630127
20.497101 166.300598 -781.178772
20.467100 161.220001 -776.214172
20.346300 163.218002 -771.951172
20.294800 161.719498 -775.387085
20.272100 160.955307 -777.149475
20.269100 164.368500 -770.402893
20.268200 164.375900 -779.859375
20.250799 161.955795 -773.896912
20.223101 162.545395 -777.898315
20.095400 168.386795 -781.802124
20.044901 165.203705 -780.484070
20.006500 169.911804 -782.432983
19.934700 161.912598 -777.177673
19.910601 162.951401 -772.941101
19.854500 163.595596 -778.925415
19.827101 171.428406 -783.113281
19.728399 163.798706 -771.422791
19.669800 162.073898 -776.123779
19.640400 166.809998 -781.390503
19.636101 162.377502 -774.936890
19.528900 162.865494 -773.966125
19.446699 163.790100 -772.463379
19.433800 164.895096 -770.193909
19.405600 169.144104 -782.271729
19.398001 166.069901 -780.764709
19.385500 163.285706 -778.115112
19.360701 164.418594 -779.378784
19.341801 167.745605 -781.634094
19.329500 170.573502 -782.801270
19.316299 164.688904 -771.192383
19.254400 162.632294 -777.364014
19.161600 165.133804 -780.055481
19.130600 162.980301 -775.529724
19.030899 172.178101 -783.125793
19.028400 163.740997 -773.379211
18.829300 164.120193 -778.570984
18.805599 163.216003 -776.511902
18.778200 164.685898 -772.066528
18.750200 168.409698 -782.059570
18.728500 163.621307 -774.395874
18.662001 167.005096 -781.276978
18.618700 171.168503 -783.138977
18.611401 169.886902 -782.533875
18.569300 165.309204 -770.451782
18.544399 163.314697 -777.534729
18.518101 172.567703 -784.200073
18.489700 164.909500 -779.340088
18.446800 164.487000 -773.025696
18.436899 166.088394 -780.560913
18.370899 163.807800 -775.510681
18.193001 165.352798 -771.520325
18.111200 164.055695 -776.460083
18.056900 171.901596 -783.539490
18.026400 167.683395 -781.635986
17.962400 164.104904 -778.046082
17.959700 169.162399 -782.422485
17.940901 165.202194 -772.465698
17.932899 170.403900 -783.046570
17.913401 164.389099 -774.822510
17.890400 164.702698 -773.866272
17.832300 165.686005 -779.795471
17.785700 166.787201 -780.831726
17.681200 165.822205 -770.580017
17.675800 164.914200 -778.687927
17.628099 173.150696 -784.755615
17.530199 164.636002 -775.825378
17.479000 164.567200 -777.083679
17.413500 172.465195 -784.049622
17.408300 171.142502 -783.528381
17.383600 168.404907 -782.004517
17.359800 165.764801 -771.850830
17.200399 165.613907 -773.083618
17.185900 166.359406 -780.100525
17.177500 169.763901 -782.709717
17.129601 167.290497 -781.364197
17.121201 165.636093 -779.108826
17.084600 165.342102 -774.159790
17.052299 165.093399 -777.893372
16.983000 173.706299 -785.268311
16.935400 165.275406 -775.169373
16.796801 166.204803 -771.147400
16.762400 165.327698 -776.746521
16.672899 171.702499 -783.875610
16.655500 170.573395 -783.187927
16.608000 172.909393 -784.570007
16.607100 164.537903 -778.613220
16.602699 167.077499 -780.560974
16.584999 168.936798 -782.239990
16.562901 168.086807 -781.514221
16.476200 166.337799 -772.077026
16.447800 166.347595 -779.418823
16.414900 166.049805 -773.627014
16.406900 165.701599 -778.324890
16.389900 165.880402 -774.607422
16.293200 174.143005 -785.910217
16.185200 169.758804 -782.700378
16.131800 165.923096 -776.192017
15.980500 173.456802 -785.148926
15.912800 172.254593 -784.286072
15.911100 166.140396 -777.380676
15.893500 171.085098 -783.774902
15.846100 166.695206 -771.387817
15.828500 167.745407 -780.844299
15.804700 166.345596 -775.285095
15.796400 167.167496 -779.888306
15.785500 166.678101 -772.714905
15.764600 168.661194 -781.685120
15.626700 166.297501 -778.806396
15.592400 174.555206 -786.481323
15.579600 166.315201 -774.196411
15.551500 170.423096 -783.098328
15.393600 169.399094 -782.242004
15.385500 166.753799 -776.814514
15.282000 166.705505 -777.914612
15.138000 171.659393 -784.033386
15.112900 166.843903 -775.828430
15.068800 173.055405 -785.008972
15.064000 168.412292 -781.035095
15.033100 167.083206 -779.106873
15.017800 166.940903 -771.862427
14.998100 167.032394 -773.684082
14.980700 167.704300 -780.031921
14.934100 166.750595 -774.802917
14.919000 173.650803 -785.796387
14.852300 174.973999 -787.062622
14.747000 170.080200 -782.573120
14.738700 167.367599 -777.244080
14.735400 170.983093 -783.382690
14.627900 167.383194 -778.242126
14.544900 169.220306 -781.653320
14.484100 167.155594 -772.756714
14.471900 172.453903 -784.498596
14.446300 174.343704 -786.336670
14.420300 167.448303 -776.239685
14.342900 167.519104 -775.050415
14.334000 167.906006 -779.275024
14.290600 168.425400 -780.431824
14.208900 167.513000 -774.030579
14.164000 171.724197 -783.853577
14.105900 173.144196 -785.174683
14.079000 175.464493 -787.870911
14.034900 168.010406 -777.655518
13.963700 167.260498 -771.669617
13.924100 170.659500 -782.852112
13.873400 174.925201 -786.923523
13.872700 169.961502 -782.071228
13.759800 169.230698 -780.968811
13.733200 168.003204 -775.735718
13.708700 173.923203 -785.725220
13.654600 168.255096 -778.641113
13.621900 167.817902 -780.041077
13.575300 167.591599 -773.053772
13.537700 168.189407 -776.711182
13.511900 172.324493 -784.303223
13.450300 167.989899 -774.733398
13.395900 171.323593 -783.344421
13.381700 168.802094 -779.854126
13.238500 168.593994 -777.795715
13.204500 175.923706 -788.241577
13.107900 169.905197 -781.360291
13.097400 175.308807 -787.449219
13.097000 170.613998 -782.323181
13.086300 173.322693 -785.244995
13.056800 168.003601 -773.799927
13.021900 167.489304 -771.930725
12.991600 174.202606 -786.418030
12.952300 168.943802 -778.943420
12.920700 168.550705 -775.633911
12.860600 169.342804 -780.541199
12.806000 168.890594 -776.774902
12.623400 172.091797 -783.786987
12.621400 167.812607 -772.857422
12.536600 172.819107 -784.589905
12.527600 169.319397 -777.961182
12.517100 169.534103 -779.602783
12.514800 168.560699 -774.702515
12.514300 171.271606 -782.892273
12.381300 174.727295 -786.980530
12.332300 170.561707 -781.704407
12.281200 175.819199 -787.892395
12.275000 173.923599 -785.799683
12.224200 176.559097 -788.851318
12.146700 168.342697 -773.628113
12.144800 169.176804 -776.097412
12.128700 170.008408 -780.882813
12.016900 169.759903 -778.726074
12.015000 169.472397 -777.098083
11.822900 169.113297 -775.123291
11.807900 173.340500 -785.034912
11.720400 168.129501 -772.621582
11.714300 171.311996 -782.291687
11.712700 172.085403 -783.424316
11.673100 170.101593 -779.830383
11.601800 174.278397 -786.460571
11.584400 175.308105 -787.326416
11.540500 172.767807 -784.184875
11.539600 170.118698 -777.706482
11.494600 168.924194 -774.134277
11.407000 170.661102 -781.193420
11.390600 176.502304 -788.279297
11.387400 169.798904 -776.333923
11.261700 176.920105 -789.200623
11.225600 170.391602 -778.966980
11.164300 174.026505 -785.605530
11.114000 169.795593 -775.376709
11.092700 168.619400 -773.244873
11.046900 170.852905 -780.129272
10.917000 170.436600 -776.945496
10.911200 171.873993 -782.510620
10.873200 173.362900 -784.707581
10.829900 172.542892 -783.525330
10.776100 170.922501 -778.218018
10.754400 171.277206 -781.678406
10.754200 175.817902 -787.752319
10.692700 174.767502 -786.535217
10.692600 169.611603 -774.472107
10.562700 170.364304 -775.998230
10.480000 177.345993 -789.752686
10.429000 176.501297 -788.582520
10.398700 171.227005 -779.290588
10.333800 169.258606 -773.322388
10.311100 171.072495 -780.807678
10.249000 174.394501 -785.744629
10.244300 170.302597 -775.048584
10.232800 171.165298 -777.381470
10.193500 173.169495 -783.966125
10.115500 175.331299 -787.162598
10.045600 172.334503 -782.582214
9.982700 173.776703 -784.870972
9.915700 171.104294 -776.144714
9.896200 169.974792 -773.950623
9.853100 171.800400 -781.375671
9.835900 171.359207 -778.362671
9.744700 176.976303 -789.126221
9.728200 175.962997 -787.934387
9.686700 171.634796 -780.172729
9.578000 173.006500 -783.202515
9.531800 177.601807 -789.996704
9.489600 170.936096 -775.245422
9.488300 174.892395 -786.337097
9.473300 171.840302 -777.117981
9.440400 171.991501 -779.187927
9.265200 174.383499 -785.365417
9.264900 172.328400 -780.756287
9.261000 172.410995 -781.863281
9.254200 170.669403 -774.245972
9.205600 173.667404 -784.265381
9.156400 171.729599 -776.043518
9.143200 175.505798 -787.081482
9.127300 172.180695 -778.226196
8.966800 176.656693 -788.596985
8.844700 172.594498 -779.736328
8.795200 172.491806 -776.828125
8.791600 171.588593 -774.830688
8.704400 173.441895 -783.314026
8.697600 177.286301 -789.440613
8.665200 178.000397 -790.422913
8.576000 170.944794 -773.366028
8.554600 175.036499 -786.032104
8.495500 172.964203 -778.405518
8.454300 173.016800 -781.726685
8.443900 172.186707 -775.548889
8.437500 175.998596 -787.622375
8.410100 172.813293 -780.701172
8.408100 174.262497 -784.772888
8.247700 173.179092 -777.340393
8.214400 172.722595 -782.646423
8.201700 173.290604 -779.285828
8.089000 175.598007 -786.772583
8.034300 172.197006 -774.626221
8.014900 172.959503 -775.988892
7.991000 176.838104 -788.730591
7.956100 174.145294 -783.908813
7.834900 177.642700 -789.885315
7.768000 173.618500 -782.688782
7.758400 174.806793 -785.283386
7.721900 178.327499 -791.033386
7.708500 173.652893 -778.244324
7.603400 173.296707 -781.170471
7.590800 173.516907 -776.692017
7.534700 176.398499 -787.971619
7.520300 172.923599 -775.066284
7.480900 173.742706 -779.841797
7.306400 175.477997 -786.185730
7.190400 174.230896 -777.426025
7.148400 173.888397 -781.874329
7.143600 173.556000 -775.807373
7.129300 177.251999 -789.218079
7.129300 176.029694 -787.131897
7.120500 174.797195 -784.506409
7.105800 174.142899 -778.944275
7.089400 174.248703 -783.384277
7.027600 174.072601 -780.659729
6.928900 178.018402 -790.418579
6.763000 178.438004 -791.411377
6.717700 176.805893 -788.381470
6.668500 174.393295 -776.058899
6.599200 174.573105 -778.162781
6.583000 175.137497 -785.291199
6.570800 174.594498 -779.862488
6.510700 174.964203 -777.221924
6.363600 174.557800 -782.655396
6.327700 175.754807 -786.258423
6.323800 176.522797 -787.475891
6.284300 174.933701 -783.980225
6.247800 174.600006 -781.594116
6.193800 177.459702 -789.450500
6.150900 175.132507 -779.090088
6.052000 175.140396 -775.560974
5.957100 178.210999 -790.803223
5.904800 175.497498 -776.614075
5.859500 178.625595 -791.894470
5.809500 175.683304 -778.346619
5.765000 175.257599 -780.472595
5.760700 177.031998 -788.283691
5.602500 176.301102 -786.803589
5.585100 175.086899 -782.176208
5.557400 175.398697 -784.566711
5.556000 175.848206 -785.585510
5.552200 174.951996 -783.256714
5.416900 177.851105 -789.979797
5.332200 175.989502 -777.270020
5.280900 176.150208 -779.176208
5.242600 176.054092 -776.014709
5.175400 175.501205 -781.339905
5.144500 176.792297 -787.522522
5.140700 177.462204 -789.067993
5.023400 178.358902 -791.061890
5.017500 179.045105 -792.256409
4.997700 176.340698 -778.194275
4.753000 176.672897 -776.830994
4.736500 175.449997 -782.528809
4.725100 175.997406 -779.976624
4.710900 176.159805 -785.080383
4.688400 175.661407 -784.103577
4.665300 176.502106 -786.580688
4.520600 176.247803 -780.942627
4.518600 177.285095 -788.292297
4.417600 178.062302 -790.241089
4.411300 176.815994 -778.905823
4.276000 177.454498 -778.145630
4.248100 177.515701 -777.082397
4.110300 176.616196 -785.729919
4.093000 178.846100 -791.805176
4.090700 177.029099 -787.430481
4.074200 177.077103 -779.940002
4.061200 177.736496 -789.305481
3.972000 179.319595 -792.741089
3.933000 176.231506 -781.728882
3.924200 175.966400 -782.960327
3.892000 176.182602 -784.436829
3.781300 177.878403 -778.935608
3.716200 178.500504 -790.914673
3.692400 178.148300 -777.620483
3.532500 176.959396 -786.545776
3.528800 177.375504 -788.194519
3.448600 177.037796 -780.806091
3.336800 178.151703 -790.026306
3.335200 177.985596 -779.918213
3.286700 176.721802 -785.072815
3.272100 177.069199 -781.855713
3.161300 176.831497 -783.217529
3.147400 178.910400 -778.145630
3.131000 179.156403 -792.234070
3.079400 177.799698 -789.038086
3.031500 178.701904 -779.124390
2.947500 177.205597 -787.401489
2.882400 179.630402 -793.079712
2.834500 177.154800 -785.881104
2.809600 178.679993 -791.260071
2.733800 177.737396 -780.750122
2.677800 176.789795 -784.225525
2.565300 178.777893 -779.993103
2.550200 179.497803 -778.721619
2.487800 177.301895 -782.403992
2.358000 177.872299 -788.377930
2.345700 178.293198 -789.964722
2.216900 177.448807 -783.399475
2.188000 178.610794 -780.905273
2.127400 177.203003 -785.194275
2.112400 179.165207 -792.132080
2.089700 179.560593 -779.643494
2.077200 177.646194 -787.300781
2.073400 178.075104 -781.915405
1.940900 177.589294 -786.119690
1.918400 180.340302 -778.674377
1.893800 179.491302 -793.038086
1.868800 178.668106 -790.922729
1.778500 177.557098 -784.271484
1.649800 178.082596 -789.067505
1.557400 178.141205 -782.939209
1.537600 179.522507 -780.517822
1.460200 180.424301 -779.597778
1.414500 178.902695 -781.591675
1.391800 177.938599 -788.062927
1.360700 178.358505 -789.992126
1.257500 179.621994 -793.804688
1.199000 177.507095 -785.115601
1.187000 177.836700 -786.878296
1.181100 179.012604 -791.686096
1.018000 178.166595 -784.113892
0.987900 179.339798 -792.643982
0.848500 177.921906 -785.957520
0.839800 178.963898 -782.418884
0.829200 180.304794 -780.476929
0.794200 178.723801 -790.799072
0.766700 181.105392 -779.159973
0.737400 179.644501 -781.442627
0.716600 178.328903 -788.729797
0.564000 178.249893 -787.559021
0.454300 178.330307 -784.976624
0.422500 178.475601 -789.660278
0.320700 179.580597 -794.135803
0.263700 178.668198 -783.237915
0.206800 179.072205 -791.881287
0.198800 181.132095 -780.077515
0.197100 178.303406 -786.592407
0.081800 179.394394 -793.168579
0.039200 179.826508 -782.106384
0.030200 180.520096 -781.159790
-0.178700 178.827194 -790.907227
-0.219800 178.724503 -784.167786
-0.236700 178.439194 -788.512878
-0.332300 179.514496 -783.088501
-0.350600 178.612106 -787.424011
-0.366700 178.360306 -785.557922
-0.483100 178.832001 -789.873779
-0.586200 179.437607 -794.511597
-0.593000 179.318695 -792.455322
-0.628700 181.561005 -779.590271
-0.676200 181.020203 -780.581787
-0.750500 180.361496 -781.823975
-0.773800 178.505600 -786.470825
-0.814000 179.024994 -784.908325
-0.868900 179.381897 -793.564880
-0.962700 179.534103 -783.845215
-1.025000 181.927307 -780.735779
-1.065500 179.130295 -791.591614
-1.107400 178.659607 -789.074097
-1.129100 180.007904 -782.672913
-1.202900 178.778305 -788.056274
-1.217200 178.895203 -790.628418
-1.238500 181.182495 -781.399719
-1.415200 178.937103 -785.725586
-1.461200 179.004501 -787.133423
-1.548800 179.448807 -794.834412
-1.576400 179.296494 -792.751709
-1.641500 179.562607 -784.716675
-1.766200 179.975006 -783.486694
-1.781700 181.836807 -780.057373
-1.783100 178.896194 -789.808594
-1.825500 179.505295 -793.824219
-1.835800 181.068802 -782.246826
-1.985200 178.944702 -788.732117
-2.037200 179.065796 -791.217773
-2.054000 181.753799 -781.088501
-2.091500 179.257996 -786.362671
-2.324100 179.098495 -787.643799
-2.325200 180.130997 -784.300476
-2.337300 180.670502 -783.002075
-2.349400 179.478104 -785.442871
-2.406400 179.276199 -792.104797
-2.504700 179.456604 -794.570374
-2.565600 179.477203 -793.145630
-2.647600 179.115402 -790.272888
-2.759000 181.916107 -781.755005
-2.790700 182.188507 -780.477783
-2.821700 179.157104 -789.273315
-2.964600 180.863007 -783.734985
-2.973400 179.760803 -786.176819
-2.974900 181.560699 -782.725708
-2.978200 179.384003 -791.312805
-3.105100 180.111298 -784.907898
-3.166700 179.387604 -788.127686
-3.205800 179.342697 -787.043579
-3.218000 179.390900 -795.274597
-3.255600 179.479797 -793.940430
-3.379000 179.387497 -792.396729
-3.545800 182.321106 -781.219482
-3.591700 179.421204 -790.446777
-3.595900 182.185806 -782.240723
-3.681100 179.603104 -788.980774
-3.717300 181.579407 -783.377380
-3.726800 180.911606 -784.391174
-3.812900 180.434097 -785.546326
-3.948400 179.708298 -794.670227
-3.953800 180.022797 -786.499329
-3.994800 179.711502 -793.144470
-4.005300 179.428406 -791.529297
-4.066600 179.651703 -787.671692
-4.208800 179.797607 -795.658875
-4.325700 182.923904 -781.220581
-4.376600 179.689194 -789.710327
-4.423300 182.159195 -782.838318
-4.474500 181.638702 -784.069580
-4.588600 179.737701 -788.523376
-4.603600 179.679504 -792.312195
-4.662900 179.653000 -790.701599
-4.666300 180.681396 -786.036011
-4.672100 179.662796 -793.933716
-4.708400 181.186005 -784.928284
-4.715200 180.248795 -787.129395
-4.722500 182.867096 -782.212524
-4.985100 179.883301 -794.978516
-5.190000 179.689896 -795.918579
-5.200900 182.241196 -783.473389
-5.293100 179.863907 -793.188416
-5.297700 179.704803 -791.619080
-5.330800 179.753906 -789.976318
-5.393500 181.930695 -784.458374
-5.417000 183.393097 -781.565979
-5.484900 180.016205 -787.803406
-5.512100 180.106003 -788.842590
-5.519100 180.747101 -786.824707
-5.538700 181.041107 -785.632507
-5.660500 183.224503 -782.612427
-5.713000 179.872192 -794.189392
-5.939800 179.976196 -795.200378
-5.946400 179.813400 -792.384216
-5.946900 179.818405 -790.888428
-6.071000 182.660599 -783.682922
-6.080700 181.825104 -785.175171
-6.177900 180.218002 -796.275574
-6.244600 180.007507 -789.656372
-6.267900 180.530396 -787.448608
-6.346600 183.702606 -782.008179
-6.379000 181.415894 -786.063599
-6.387700 179.922699 -793.300720
-6.500900 180.344696 -788.767273
-6.584600 183.290497 -783.107727
-6.626900 182.372299 -784.562317
-6.632800 179.997604 -791.634888
-6.703600 180.113007 -794.542175
-6.829300 180.251099 -795.519714
-6.898200 180.011002 -790.534729
-6.947600 181.041397 -786.796387
-7.013600 181.935898 -785.472778
-7.022200 183.173096 -784.033875
-7.086500 180.150101 -792.550720
-7.184000 180.798004 -787.823486
-7.201700 180.483398 -796.485779
-7.304700 180.265701 -789.341370
-7.389800 184.061203 -782.779724
-7.396300 180.126602 -793.610474
-7.563200 180.035004 -791.290283
-7.648100 180.264404 -794.857727
-7.652500 182.757904 -784.791626
-7.680400 181.782700 -786.198975
-7.817600 180.270493 -790.234192
-7.846900 181.212402 -787.219482
-7.880100 180.519302 -788.495178
-7.926700 183.557693 -784.018677
-8.014300 180.400604 -795.843506
-8.019600 180.101196 -792.204285
-8.155800 182.469498 -785.593811
-8.204300 184.326294 -783.278687
-8.238800 180.336197 -793.145020
-8.351100 180.488800 -789.367310
-8.413400 180.319305 -794.187927
-8.423600 180.816101 -796.814819
-8.455200 180.421097 -791.111389
-8.497400 181.326904 -787.960815
-8.582000 183.126007 -784.974976
-8.633700 182.048706 -786.392273
-8.853500 184.073807 -783.969116
-8.912400 180.579697 -795.390381
-8.964900 180.632706 -790.139221
-8.991000 180.268204 -792.497620
-9.052500 180.833298 -788.684387
-9.111400 181.689697 -787.234192
-9.136400 182.805206 -785.814697
-9.280100 180.505402 -793.405396
-9.365400 180.435501 -794.444580
-9.370900 184.042099 -784.801514
-9.372200 180.820496 -796.547791
-9.402100 180.351105 -791.383728
-9.602200 181.428101 -788.078308
-9.615200 182.441605 -786.780029
-9.700800 184.749603 -783.768799
-9.766200 180.648300 -789.461975
-9.840200 183.522293 -785.729492
-9.861600 180.806595 -795.242126
-9.924700 180.590897 -790.455383
-9.974500 180.410706 -792.558594
-10.178400 181.100800 -797.160217
-10.200700 180.494507 -793.861572
-10.249200 181.994400 -787.398315
-10.286200 184.351395 -784.569702
-10.304200 181.179901 -788.797180
-10.357500 180.480301 -791.637573
-10.396000 180.919800 -796.064087
-10.464600 183.053604 -786.339783
-10.706100 180.976593 -789.767578
-10.713400 184.183701 -785.486023
-10.794500 180.653198 -793.080872
-10.829200 180.841599 -794.979187
-10.856600 181.867599 -788.319519
-10.880000 180.661301 -790.822693
-11.013000 182.641998 -787.102722
-11.062900 184.971603 -784.458923
-11.116300 180.968307 -796.831116
-11.294400 183.609604 -786.196228
-11.299300 180.604401 -792.102600
-11.331100 181.351395 -789.012085
-11.407200 181.031906 -795.792175
-11.452800 180.633896 -793.899597
-11.486500 181.969193 -797.225403
-11.627100 184.570297 -785.299500
-11.666100 180.883804 -790.146423
-11.694400 182.345703 -787.965027
-11.795300 180.887100 -791.171387
-11.897000 183.362595 -787.022217
-11.900700 180.670395 -792.958191
-11.916100 180.781693 -794.914917
-12.113600 180.981003 -797.651611
-12.157300 181.826004 -788.723694
-12.175100 184.120697 -786.135681
-12.189600 181.003006 -796.422119
-12.332900 185.220398 -784.866516
-12.341800 180.680298 -792.081726
-12.416800 181.395798 -789.640320
-12.482100 180.698303 -793.990112
-12.596100 180.966202 -790.516907
-12.634900 182.589203 -787.821899
-12.748500 180.914505 -795.439575
-12.859900 184.856094 -785.629272
-12.874200 180.741196 -793.064026
-12.887300 183.771103 -786.844604
-12.920600 181.210007 -797.082092
-13.104700 180.815704 -791.362671
-13.130400 181.989395 -788.781006
-13.313500 180.743698 -794.583618
-13.356300 181.330002 -789.987427
-13.431800 183.255295 -787.520996
-13.455700 180.880997 -792.278687
-13.482800 181.048004 -796.177673
-13.677000 181.392899 -797.775330
-13.733100 185.048096 -786.080383
-13.785600 184.169998 -786.884216
-13.814300 180.716904 -793.415771
-13.902400 182.830200 -788.357483
-13.938000 181.065201 -790.818115
-13.955700 181.972107 -789.410583
-13.995100 180.942307 -795.291077
-14.129700 181.240707 -796.916382
-14.274800 180.834000 -794.302429
-14.316900 180.869995 -791.702881
-14.378000 183.557999 -787.581116
-14.591600 180.848206 -792.700928
-14.627100 185.453003 -786.056213
-14.642200 181.620895 -797.741028
-14.676300 182.397095 -788.849976
-14.685300 184.652802 -786.820496
-14.781100 181.288300 -790.363281
-14.785900 181.047302 -795.897888
-15.009000 180.746201 -794.971680
-15.012300 180.710297 -793.607178
-15.084700 181.902298 -789.613586
-15.169100 181.251099 -796.806580
-15.270600 181.067398 -791.470825
-15.346400 183.941696 -787.684875
-15.512900 185.276703 -786.573914
-15.541700 182.854797 -788.696289
-15.608600 180.757004 -792.707275
-15.628400 181.735992 -798.012878
-15.727200 180.858994 -795.666077
-15.761100 181.366501 -790.633423
-15.787200 180.824097 -794.302124
-16.058001 184.735901 -787.218506
-16.063000 182.063797 -789.732300
-16.130600 181.116699 -796.537170
-16.169600 183.659393 -788.146179
-16.176701 180.974594 -791.923096
-16.429199 180.754700 -793.556213
-16.599001 180.694595 -794.941223
-16.601601 181.469696 -797.727417
-16.625099 185.431396 -786.618225
-16.660400 182.796707 -789.319824
-16.682199 181.366806 -791.162781
-16.811800 180.736404 -795.914612
-16.822001 180.776398 -792.640076
-16.975401 181.934998 -790.143921
-17.009001 184.794403 -787.478577
-17.084700 181.096100 -796.940979
-17.128201 183.720795 -788.430115
