75.376404 70.359398 -735.005371
75.300201 68.945000 -735.370483
75.289398 69.627602 -735.075073
75.271599 70.800797 -735.265015
75.261002 68.317802 -735.552917
75.251503 66.982597 -736.007324
75.149002 66.579903 -735.996521
75.135696 69.268898 -735.181885
75.095703 70.019798 -735.080017
75.094597 67.579300 -735.663330
75.067802 70.626099 -734.924316
75.035599 71.018799 -734.580627
75.012100 66.050499 -736.078308
75.002502 68.666702 -735.344788
74.991600 67.966797 -735.589905
74.924797 67.029503 -735.768677
74.875397 65.675797 -736.184082
74.866600 69.602402 -735.130615
74.851799 70.836700 -735.228271
74.829803 70.260498 -734.856689
74.797997 69.050499 -735.325317
74.768501 66.671997 -735.893982
74.704498 65.225502 -736.209412
74.692001 67.677101 -735.583923
74.664101 70.944901 -734.806885
74.660599 68.217697 -735.429626
74.630699 66.199699 -735.927429
74.598000 69.908096 -735.044922
74.584602 64.797302 -736.321289
74.583504 67.292702 -735.758484
74.577103 68.655197 -735.392090
74.528801 70.569000 -734.868286
74.515503 69.343399 -735.094604
74.500603 65.813599 -736.019470
74.455399 64.374901 -736.402527
74.427200 66.893204 -735.864319
74.343201 65.450203 -736.210205
74.331802 68.973602 -735.180115
74.319298 70.233398 -735.017578
74.298798 67.894798 -735.567871
74.296997 66.407700 -736.045776
74.291199 65.042900 -736.202026
74.277397 71.041298 -734.863770
74.268204 63.830101 -736.501587
74.255997 69.696404 -735.152222
74.240097 67.429398 -735.577881
74.220497 68.270302 -735.360779
74.216599 70.802101 -735.292175
74.122101 66.034401 -736.042786
74.112000 64.625504 -736.429688
74.095100 69.330299 -735.104919
74.081398 67.024200 -735.700073
74.075699 70.545403 -734.911377
74.037201 68.752197 -735.370789
74.024300 63.257000 -736.684875
74.023804 66.671303 -735.880981
73.978897 64.138397 -736.434998
73.974998 65.305801 -736.301819
73.957703 69.983299 -735.078613
73.951797 71.309303 -734.794495
73.925499 67.762199 -735.484314
73.902802 70.907700 -734.948730
73.893204 63.713100 -736.691528
73.821503 68.342598 -735.484070
73.813904 64.929901 -736.271790
73.807404 62.702900 -736.852783
73.795601 66.299103 -736.014526
73.785004 69.570999 -735.210876
73.784798 67.423203 -735.693298
73.776398 65.685997 -736.204407
73.761703 69.092598 -735.202393
73.713799 64.520897 -736.523682
73.712097 70.304199 -735.077087
73.699097 66.987801 -735.835388
73.672699 63.120701 -736.856384
73.640900 71.042000 -735.285095
73.593300 67.997200 -735.415588
73.578598 70.671501 -734.942688
73.570702 68.724503 -735.267029
73.560204 65.320503 -736.383728
73.559303 64.057503 -736.533813
73.554001 71.422302 -734.889526
73.553902 65.949997 -735.986877
73.535301 69.853203 -735.067627
73.529099 62.362202 -736.949280
73.514900 63.455799 -736.692383
73.444702 66.656097 -735.763977
73.435799 69.311203 -735.311890
73.413597 64.879303 -736.348572
73.405998 67.463097 -735.530518
73.390099 66.354202 -736.026184
73.383797 61.767700 -737.232727
73.373901 62.736099 -736.949585
73.360802 71.062401 -734.966919
73.338303 65.694702 -736.266479
73.337700 68.441200 -735.464783
73.328697 64.399902 -736.498718
73.308098 70.323898 -735.070984
73.298302 67.084396 -735.635376
73.223999 63.120098 -736.849915
73.222504 62.105999 -737.023682
73.216797 63.895302 -736.800171
73.204803 68.931900 -735.414612
73.174301 69.706497 -735.217102
73.168900 60.769798 -737.903320
73.165100 61.499699 -737.627014
73.163696 65.181702 -736.253296
73.163696 71.261398 -735.258972
73.127602 67.986900 -735.426880
73.122398 66.067497 -736.137512
73.104797 60.428101 -738.743713
73.104103 71.619301 -734.832825
73.072899 70.774498 -735.033875
73.056099 63.490898 -736.974915
73.051903 66.739304 -735.837280
73.047997 64.830200 -736.529602
73.003998 67.416496 -735.661682
73.003403 64.252602 -736.769714
73.000000 61.931400 -737.382690
72.998703 62.686600 -737.176575
72.992401 61.786098 -737.861023
72.991699 69.256302 -735.243408
72.987000 70.052002 -735.074585
72.964798 65.542000 -736.129211
72.959999 60.720100 -738.315674
72.955704 68.507599 -735.350708
72.893600 66.286598 -735.847778
72.885002 62.307201 -737.294922
72.859398 61.129299 -737.703674
72.858498 63.123100 -737.138428
72.837898 70.441597 -735.081909
72.809799 71.133202 -735.108582
72.809196 67.821701 -735.608215
72.794701 63.894901 -736.733215
72.779503 69.662804 -735.294922
72.772903 65.211098 -736.439026
72.772598 67.044800 -735.726624
72.765800 61.553699 -737.552429
72.758698 68.867401 -735.312622
72.732101 65.847900 -736.010071
72.708298 71.613503 -734.963928
72.706299 60.442001 -738.870300
72.693703 60.880798 -738.036987
72.680397 68.202499 -735.562378
72.658096 63.529598 -737.024719
72.651398 64.629303 -736.666016
72.613899 62.792000 -737.238770
72.605598 62.052399 -737.473877
72.596100 67.455200 -735.713928
72.592598 70.080498 -735.153015
72.584900 66.614998 -735.852478
72.584900 71.398201 -735.307129
72.577103 69.329399 -735.384888
72.571198 60.742401 -738.480896
72.567802 70.734497 -735.189270
72.526398 65.584099 -736.270691
72.523399 64.224899 -736.645874
72.520203 64.893097 -736.378113
72.516899 60.332199 -738.156677
72.510902 66.184998 -736.011780
72.489304 61.589401 -736.873413
72.480400 68.638496 -735.525024
72.459702 63.181301 -737.210327
72.456398 61.263802 -737.819702
72.454102 63.879002 -736.973877
72.445503 62.456200 -737.428406
72.392799 67.828903 -735.627686
72.378998 67.125099 -735.784973
72.362099 69.662102 -735.205383
72.352600 61.704201 -737.702087
72.345901 60.474800 -738.675171
72.341797 59.941799 -738.632874
72.316597 71.109497 -735.230286
72.315399 60.774799 -738.139526
72.306198 69.008003 -735.345276
72.287003 68.290901 -735.570374
72.268402 70.353897 -735.213928
72.259399 63.472500 -736.935425
72.248299 71.708199 -734.980286
72.241096 65.301399 -736.397583
72.227798 65.883904 -735.972290
72.225800 62.125401 -737.596375
72.206200 64.574898 -736.685303
72.195602 62.847301 -737.339783
72.185699 67.472000 -735.715515
72.185097 66.670601 -735.772217
72.170403 71.453697 -735.497498
72.104401 69.379097 -735.416077
72.101898 64.150597 -736.869690
72.100304 69.999702 -735.348083
72.089500 61.101898 -737.878418
72.088303 60.404499 -738.157715
72.068703 66.281799 -735.872070
72.068001 70.710899 -735.207214
72.058296 64.872498 -736.386597
72.057198 68.592003 -735.432373
72.055801 59.608700 -738.582825
72.055702 60.017502 -738.360779
72.029900 72.129501 -735.247986
72.029701 65.629799 -736.282715
72.003197 63.278801 -737.218323
72.001404 59.263500 -738.795227
71.999001 67.918602 -735.638123
71.995399 61.538601 -737.888672
71.969902 62.471901 -737.522217
71.966599 63.755001 -737.015198
71.937500 67.049698 -735.710571
71.915497 71.090202 -735.310181
71.910202 68.967102 -735.408081
71.903999 60.799599 -738.293030
71.894402 71.774002 -735.588501
71.889198 71.629997 -735.197388
71.870903 61.959702 -737.729675
71.859901 70.302498 -735.456116
71.855904 59.933399 -738.715393
71.834297 65.180702 -736.244629
71.824600 65.984703 -736.122314
71.794197 69.642303 -735.369080
71.793404 64.281303 -736.635986
71.788696 66.638397 -735.941223
71.788101 60.306999 -738.553284
71.783302 59.291901 -739.134888
71.763397 62.790901 -737.251770
71.739700 64.680496 -736.667419
71.730202 61.266201 -738.108582
71.727303 67.571899 -735.738586
71.717796 69.292603 -735.554871
71.707199 68.277298 -735.583618
71.707001 72.369797 -735.266418
71.685402 63.415699 -737.001770
71.662201 70.650200 -735.346802
71.658302 58.824799 -739.177185
71.657303 59.562199 -738.757813
71.636398 65.540001 -736.122498
71.621201 62.287201 -737.655212
71.601700 66.251503 -735.922974
71.600304 71.958397 -735.307007
71.597900 63.158901 -737.307983
71.590500 71.388901 -735.383789
71.585297 64.068703 -736.948730
71.585197 61.592602 -737.741882
71.580002 64.895302 -736.367798
71.572403 67.200600 -735.809814
71.570503 68.891998 -735.648682
71.561699 60.895699 -738.091125
71.545403 69.977097 -735.484375
71.526497 72.232498 -735.659119
71.510902 60.638901 -738.419922
71.508797 67.932297 -735.696411
71.489197 60.100601 -738.760376
71.480499 58.740501 -739.673706
71.474098 72.714500 -735.368225
71.448898 59.157200 -739.313477
71.433800 59.541100 -739.111572
71.432297 62.731400 -737.540222
71.431702 70.969704 -735.426514
71.429901 65.270699 -736.421570
71.406197 61.956902 -737.824707
71.396797 66.787804 -735.884521
71.379700 65.844101 -736.043579
71.376404 69.563499 -735.470215
71.369301 68.531998 -735.691772
71.347099 70.330200 -735.517578
71.344498 64.282097 -736.593994
71.342796 63.735298 -737.084778
71.330597 67.570099 -735.795776
71.311897 61.251202 -737.960388
71.302902 64.748398 -736.617615
71.284798 69.188698 -735.660400
71.267601 71.686699 -735.371887
71.264198 72.170303 -735.355530
71.250603 66.405998 -736.050476
71.231499 60.445099 -738.641418
71.224098 63.355999 -737.263489
71.220703 62.393200 -737.690430
71.209503 72.550003 -735.778870
71.190804 71.291496 -735.449219
71.186600 59.908798 -738.986816
71.165703 60.977901 -738.337402
71.158203 65.519096 -736.145630
71.149200 67.124100 -735.856628
71.136902 58.841499 -739.375122
71.132103 58.570202 -739.894409
71.129501 68.221100 -735.785278
71.128700 61.622299 -737.998718
71.116203 64.158897 -736.899719
71.108498 70.003601 -735.468872
71.087898 70.737999 -735.495483
71.083900 62.963299 -737.429504
71.082298 73.033699 -735.383789
71.072197 72.562302 -735.222229
71.067497 59.270100 -739.396790
71.067398 68.805199 -735.642883
71.039497 65.154602 -736.271729
71.013603 61.991699 -737.660522
70.977600 63.501598 -736.964294
70.973701 66.724800 -735.948486
70.962303 67.748001 -735.806824
70.960999 65.897797 -736.036499
70.954201 69.477303 -735.580688
70.914299 71.905800 -735.425720
70.914001 60.189301 -738.833923
70.906700 64.677696 -736.625610
70.904404 58.131901 -740.244385
70.903702 59.568802 -738.978821
70.903503 72.835297 -735.844177
70.901299 61.202400 -738.032288
70.891197 62.616001 -737.604004
70.867996 60.438400 -738.447693
70.855499 70.296303 -735.610901
70.853104 58.897099 -739.710327
70.821701 71.051697 -735.523926
70.811600 64.279602 -736.608826
70.810799 72.515297 -735.542786
70.806999 66.261398 -735.954407
70.797600 73.359299 -735.569092
70.788597 65.520401 -736.326477
70.782700 71.487297 -735.513916
70.777702 60.792099 -738.273987
70.777702 63.855598 -737.007019
70.776100 63.205502 -737.319824
70.767700 67.424004 -735.979126
70.763603 69.858398 -735.689880
70.759804 68.596397 -735.814392
70.733200 68.100700 -735.854614
70.725700 58.343899 -739.837830
70.723297 62.246201 -737.769714
70.718201 69.004501 -735.666626
70.717796 61.603001 -737.879578
70.684502 59.040199 -739.365295
70.671898 65.010201 -736.473083
70.664597 72.971100 -735.464722
70.656601 57.921200 -740.486877
70.650803 59.606800 -739.291687
70.617996 69.392097 -735.786072
70.614700 59.997700 -739.017578
70.614403 73.107002 -735.953674
70.606300 66.884003 -735.929993
70.600800 70.628700 -735.592529
70.583199 72.131401 -735.499084
70.575600 62.699902 -737.346008
70.573502 63.407299 -737.001221
70.562698 65.944702 -736.187378
70.561401 60.415600 -738.747070
70.549301 58.721901 -739.920593
70.521004 61.135101 -738.379822
70.492996 58.288300 -740.233521
70.489799 73.616402 -735.603577
70.487000 67.722397 -735.931030
70.486900 70.122002 -735.570007
70.473701 57.655602 -740.746399
70.469299 71.723801 -735.435974
70.462799 64.082497 -736.888489
70.461601 64.547302 -736.665894
70.459396 71.242500 -735.490601
70.457603 66.536102 -736.128723
70.451202 61.946899 -737.730530
70.419998 72.648300 -735.667175
70.404800 60.603901 -738.428772
70.402802 62.350300 -737.530518
70.401802 65.392799 -736.223328
70.401604 59.289799 -739.526428
70.396202 61.613098 -738.125610
70.394501 67.271103 -736.042480
70.370903 68.423203 -735.920105
70.368797 63.063099 -737.158325
70.343597 68.806702 -735.770020
70.306900 69.754402 -735.646423
70.299202 73.242302 -735.691528
70.295998 59.438599 -739.159485
70.287903 58.904301 -739.570190
70.272797 64.927597 -736.350525
70.268501 58.023899 -740.506409
70.262100 59.844799 -739.170471
70.259598 70.893097 -735.576782
70.254501 60.069801 -738.752380
70.248299 63.673199 -737.072327
70.244102 72.210403 -735.726501
70.229103 69.197899 -735.830017
70.213600 66.151398 -736.090820
70.208000 70.496803 -735.669373
70.206596 73.352997 -736.081299
70.203796 68.027397 -735.908691
70.198402 60.915298 -738.279480
70.197304 66.868896 -736.170288
70.190002 62.736099 -737.538818
70.179398 58.493301 -739.854614
70.167397 65.806602 -736.294800
70.155602 60.473900 -738.762512
70.148102 64.312103 -736.582581
70.145897 62.222599 -737.817383
70.140900 71.603203 -735.710693
70.135803 67.616402 -736.106323
70.134598 57.462101 -740.622375
70.112900 73.687202 -735.773804
70.095596 58.402000 -740.278687
70.094902 57.312698 -741.068176
70.094299 72.872498 -735.851379
70.069801 64.007004 -736.890076
70.058601 63.333199 -737.221924
70.044403 65.310699 -736.411377
70.040901 61.863201 -738.018799
70.022797 70.142700 -735.601807
70.017899 66.448898 -736.295410
70.013100 61.389900 -738.040222
69.993896 59.244801 -739.607727
69.989304 58.847500 -739.889282
69.988403 68.531097 -736.003113
69.975998 64.768501 -736.595886
69.973801 69.570396 -735.851074
69.952698 72.463097 -735.913879
69.939499 71.074799 -735.765808
69.935699 62.380199 -737.487183
69.930901 67.222900 -736.205322
69.930397 68.885803 -735.805481
69.905098 71.936203 -735.790527
69.897903 60.039799 -739.005188
69.897598 57.935398 -740.646179
69.896500 61.194199 -738.382080
69.891296 60.653000 -738.436096
69.888901 73.258003 -735.793213
69.883102 59.387901 -739.230591
69.882698 62.995998 -737.364624
69.870201 63.571499 -736.892578
69.868698 67.939301 -736.121887
69.847801 73.562500 -736.113770
69.838402 57.604900 -740.881775
69.835800 66.069099 -736.206482
69.818802 70.565598 -735.784912
69.811600 57.040501 -741.358887
69.803902 66.797600 -736.292297
69.789902 65.703598 -736.408875
69.787598 73.940002 -735.654297
69.787498 58.041100 -740.255127
69.783203 60.278500 -738.671509
69.778297 62.002602 -737.693909
69.764900 58.443600 -739.924316
69.755997 71.445900 -735.808289
69.754097 64.282600 -736.776123
69.726097 69.905602 -735.765198
69.703598 72.889801 -735.970825
69.692001 67.559898 -736.222290
69.673103 58.883202 -739.584412
69.658600 61.708099 -738.101929
69.655403 65.044701 -736.400879
69.650703 69.331100 -735.902527
69.648804 63.381001 -737.181091
69.631203 62.713299 -737.543396
69.629501 72.225700 -735.975586
69.624702 57.240200 -740.927185
69.615700 68.388298 -736.065979
69.602097 59.803001 -739.211426
69.592499 57.680801 -740.559204
69.586800 63.937901 -736.922974
69.586197 64.596603 -736.534973
69.582497 68.812202 -735.997620
69.575203 59.347801 -739.529419
69.572098 60.634602 -738.754211
69.570000 66.445198 -736.305725
69.558197 70.886902 -735.821594
69.557404 73.521797 -735.831421
69.550499 58.379799 -740.279297
69.548302 60.860500 -738.362488
69.532799 71.829102 -735.986328
69.516296 67.078300 -736.352478
69.491203 59.974899 -738.862915
69.488998 56.695499 -741.675476
69.471603 62.247501 -737.771179
69.471001 65.965797 -736.353516
69.470299 70.324203 -735.923279
69.465797 61.333302 -738.307922
69.455299 68.007500 -736.197021
69.444504 73.948799 -735.879089
69.442101 58.056801 -740.565430
69.436600 63.084900 -737.353821
69.426102 65.568703 -736.550720
69.422096 58.727798 -740.037476
69.420898 71.268700 -735.966125
69.404297 63.561699 -736.915283
69.401199 57.229099 -741.305786
69.397499 73.176300 -735.991394
69.380203 69.835403 -735.961304
69.371201 72.703499 -736.130798
69.355103 64.268097 -736.655273
69.322899 57.533901 -740.977722
69.314598 65.160500 -736.642090
69.302101 59.087002 -739.701172
69.295097 67.456703 -736.322510
69.288101 60.350601 -738.945374
69.285301 72.132698 -736.175598
69.284500 61.833099 -738.009888
69.277000 59.472698 -739.201172
69.276100 66.683296 -736.494385
69.265900 69.106003 -735.916626
69.261597 56.441502 -741.899170
69.247597 74.227501 -735.669128
69.241096 62.603901 -737.574524
69.239304 60.595699 -738.520081
69.229401 73.880501 -736.231079
69.227501 70.909401 -736.046082
69.225899 68.551804 -736.108521
69.196800 64.748596 -736.512024
69.189400 58.085999 -740.196106
69.186996 71.558998 -736.125793
69.183296 63.950600 -736.950012
69.181297 69.492203 -736.057922
69.162399 59.890800 -739.190674
69.160599 57.747002 -740.470398
69.156502 66.227402 -736.579285
69.148903 61.110600 -738.182190
69.147301 62.027302 -737.655273
69.145798 70.463203 -736.116577
69.135300 73.521599 -735.992004
69.130402 63.343800 -737.216797
69.125801 61.466499 -737.950989
69.110001 67.093903 -736.463013
69.086304 58.480801 -739.876221
69.083298 56.981201 -741.434326
69.068199 65.839104 -736.650391
69.062897 68.118202 -736.216980
69.038300 70.025299 -736.127930
69.034599 64.399101 -736.864319
69.023903 72.939102 -736.168701
69.014999 59.474899 -739.503784
69.010201 62.789600 -737.254395
69.009903 60.955799 -738.534973
69.002197 74.048500 -735.945313
68.975601 58.884102 -739.586426
68.974503 57.290600 -741.184326
68.971001 60.061298 -738.849426
68.967102 64.933800 -736.802429
68.962700 71.187302 -736.207581
68.958397 65.434898 -736.612915
68.941803 67.759804 -736.349670
68.931396 72.485001 -736.321716
68.928001 69.018600 -736.151672
68.924103 56.226002 -742.047974
68.920601 71.846298 -736.258118
68.915298 63.669998 -737.097595
68.906303 57.357201 -740.769226
68.906303 60.494499 -738.846130
68.900101 62.389500 -737.463623
68.869301 58.410000 -740.222473
68.860100 61.825600 -737.994202
68.858299 56.560001 -741.812195
68.853600 66.817299 -736.609619
68.839699 57.758499 -740.710388
68.837997 68.460899 -736.241577
68.831902 69.666298 -736.192200
68.819298 70.782997 -736.270203
68.813797 73.373299 -736.183289
68.805298 61.392101 -738.218323
68.779404 64.063904 -737.008484
68.773003 63.151600 -737.301025
68.769096 57.933998 -740.284729
68.768402 67.397697 -736.481079
68.767700 66.271896 -736.731873
68.763702 59.748699 -739.313171
68.754204 58.763599 -739.951477
68.751404 60.579601 -738.479675
68.742699 65.696098 -736.852722
68.733398 62.053799 -737.616211
68.730904 70.278702 -736.165100
68.696297 55.929001 -742.352722
68.695000 73.879700 -736.243530
68.689301 59.150200 -739.726013
68.689301 72.165001 -736.353271
68.688904 71.472702 -736.288513
68.679199 59.310398 -739.341980
68.678299 60.973400 -738.221680
68.675102 56.802700 -741.495483
68.666496 68.055901 -736.325623
68.653702 64.483398 -736.964172
68.638702 73.027901 -736.312683
68.634598 62.704102 -737.507019
68.631599 65.255699 -736.824585
68.602997 60.191200 -739.018982
68.595299 69.277397 -736.227600
68.577499 57.216499 -741.117493
68.575104 68.765602 -736.339172
68.572800 63.455399 -737.075623
68.553398 61.605999 -737.852112
68.535797 74.102600 -735.874573
68.528397 72.548500 -736.324402
68.526199 57.518700 -740.549377
68.521500 56.424999 -741.576111
68.511703 56.290901 -741.980225
68.503998 71.822800 -736.476379
68.496399 71.042900 -736.359680
68.494797 69.825798 -736.340576
68.494102 67.683502 -736.307678
68.493698 66.646698 -736.711975
68.488098 60.310600 -738.634277
68.485100 70.550797 -736.386475
68.475098 62.369400 -737.679871
68.470703 58.339901 -740.208801
68.447403 65.947998 -736.722778
68.444397 64.825996 -736.902283
68.442101 68.387901 -736.303528
68.440399 67.126503 -736.592712
68.426003 73.494400 -736.276978
68.425499 55.452801 -742.335205
68.420303 60.774899 -738.608215
68.413002 63.863602 -737.187378
68.411903 62.959499 -737.269714
68.411102 58.848900 -739.637085
68.401802 59.827400 -738.963989
68.389900 61.979301 -737.829712
68.387199 59.592400 -739.405579
68.378601 57.992699 -740.422729
68.370102 61.229401 -738.332825
68.347298 72.264099 -736.540283
68.340401 65.542702 -736.955688
68.330498 71.361198 -736.543274
68.322098 69.459503 -736.468811
68.315300 58.495800 -739.858887
68.312698 56.662300 -741.253784
68.306099 64.261803 -737.047302
68.292503 57.410801 -740.898987
68.287399 66.276703 -736.886414
68.279800 55.391399 -742.732300
68.273003 55.998600 -742.241272
68.268700 67.964500 -736.526978
68.265198 70.153297 -736.411072
68.264000 63.342300 -737.382385
68.249901 68.999397 -736.419373
68.242599 73.859596 -736.123230
68.241096 72.904800 -736.345215
68.224098 62.677799 -737.599609
68.220398 60.857700 -738.258911
68.193298 57.082001 -741.133423
68.190399 59.221901 -739.628174
68.180496 61.535099 -738.125488
68.180496 67.450996 -736.434326
68.177299 68.601196 -736.559326
68.172600 56.618500 -741.633728
68.171799 64.648697 -737.138428
68.167702 60.257000 -738.908813
68.162399 70.761101 -736.494507
68.123398 65.154800 -736.964172
68.116997 57.718800 -740.664673
68.108002 66.862396 -736.546082
68.083199 71.956802 -736.607483
68.080803 56.228699 -741.941895
68.077499 58.880001 -739.863220
68.075897 58.189499 -740.059082
68.073502 62.327702 -737.754395
68.073196 73.281700 -736.407410
68.055099 59.944500 -739.133118
68.053902 72.555298 -736.567627
68.051598 63.797798 -737.345825
68.048599 59.453999 -739.208984
68.046097 65.948898 -736.834229
68.042099 69.789398 -736.487488
68.039497 60.556198 -738.673523
67.999702 67.228104 -736.719482
67.997803 55.613899 -742.540283
67.992104 63.049198 -737.536011
67.991898 71.535500 -736.674805
67.987396 67.698196 -736.695313
67.980103 71.100197 -736.607910
67.962898 61.911701 -737.943726
67.960999 61.183800 -738.078186
67.950401 69.204903 -736.624817
67.949600 66.511002 -736.891785
67.948997 65.515503 -737.112122
67.943298 68.220802 -736.599670
67.941597 55.169899 -742.877075
67.935799 64.208199 -737.321228
67.917900 70.385597 -736.651428
67.896599 73.656700 -736.277405
67.888298 56.889301 -740.944519
67.881401 57.431499 -740.827576
67.873299 63.472900 -737.500122
67.872597 60.888699 -738.476501
67.863098 58.097401 -740.393005
67.853996 58.509201 -739.842712
67.850601 56.720402 -741.385315
67.837799 68.736198 -736.731995
67.835701 72.941101 -736.437073
67.817703 65.037498 -737.261292
67.805099 64.622902 -737.300171
67.804497 60.019901 -738.784973
67.799500 62.573502 -737.568176
67.797401 55.822800 -742.233276
67.794403 59.132401 -739.668518
67.782204 72.237000 -736.669922
67.780800 57.587898 -740.456970
67.755096 70.012299 -736.720825
67.743202 55.301300 -742.448120
67.737396 61.490299 -737.941223
67.736198 54.888000 -743.093994
67.734802 56.343800 -741.696411
67.729797 54.413700 -742.697693
67.719498 66.053902 -737.045288
67.717796 59.695000 -739.247192
67.710197 70.740196 -736.718872
67.701103 69.610199 -736.677673
67.695297 62.192902 -737.699219
67.694504 60.414700 -738.496521
67.687302 67.002296 -736.848083
67.680397 67.431801 -736.871094
67.665398 63.920601 -737.450195
67.651497 55.875000 -741.759216
67.646896 71.776001 -736.651428
67.640900 72.647797 -736.643372
67.633904 67.997902 -736.848328
67.623497 71.340599 -736.752197
67.621803 73.303001 -736.513916
67.613197 68.411301 -736.844116
67.611397 63.165001 -737.621887
67.604797 61.007801 -738.189880
67.604103 69.154999 -736.848389
67.597702 58.375000 -740.184875
67.579300 65.399696 -737.238525
67.577400 66.401100 -736.785583
67.566399 57.181702 -740.959778
67.548897 61.872501 -738.033813
67.542900 64.342003 -737.449829
67.522903 59.388401 -739.458923
67.519402 58.865898 -739.814575
67.501701 63.556900 -737.643494
67.496300 62.599400 -737.848022
67.495102 54.492500 -743.177124
67.489601 73.674202 -736.275513
67.473701 55.109901 -742.873779
67.472099 57.526199 -740.733582
67.466797 60.802700 -738.506104
67.460197 70.414497 -736.881226
67.459999 64.806999 -737.406372
67.455704 60.164398 -738.964783
67.455101 61.377899 -738.237122
67.449097 56.741402 -741.327271
67.446297 68.773102 -736.881409
67.444702 57.949402 -740.416626
67.415398 55.656700 -742.310120
67.406303 65.750603 -736.968323
67.400902 58.993000 -739.445129
67.392700 59.509800 -739.075623
67.386299 70.948502 -736.861877
67.381599 72.979401 -736.655884
67.377998 56.093498 -741.461121
67.376900 66.703102 -736.965088
67.370399 72.164101 -736.771179
67.369904 69.886703 -736.895630
67.333801 67.730499 -736.927612
67.326302 66.310303 -737.088623
67.321404 54.500099 -742.642090
67.321198 67.181503 -737.004822
67.317497 71.587997 -736.835083
67.314796 69.460297 -736.826294
67.300697 62.288300 -738.030090
67.297997 60.255100 -738.593323
67.294899 64.042503 -737.602478
67.283699 58.555199 -739.952820
67.283302 54.453400 -743.654480
67.272003 54.836899 -743.094910
67.269302 58.096901 -740.058777
67.265900 62.980000 -737.837708
67.255997 68.223701 -736.996216
67.243103 72.568398 -736.745422
67.230103 55.890999 -742.013489
67.229301 56.978901 -740.823120
67.211502 65.212898 -737.368286
67.204697 61.698601 -738.154419
67.202698 55.276299 -742.609985
67.188103 60.965099 -738.253296
67.177597 54.309101 -743.017029
67.174698 73.345703 -736.484009
67.171898 54.557800 -744.029114
67.165001 64.509003 -737.403198
67.164803 63.370399 -737.773987
67.163300 69.089600 -737.007324
67.161598 70.501801 -737.137390
67.154900 59.830700 -739.104492
67.145203 65.963699 -737.198792
67.124397 59.306900 -739.456421
67.110901 65.480698 -737.075073
67.108398 68.603401 -737.074280
67.107597 58.875900 -739.749207
67.083801 56.834499 -741.178589
67.083000 57.741501 -740.248779
67.082901 57.377899 -740.794983
67.078598 60.609901 -738.630310
67.075401 61.365700 -738.367920
67.065102 71.187599 -736.866028
67.062500 67.466599 -737.124573
67.060204 54.859402 -742.697693
67.050797 69.661499 -737.154175
67.049202 55.477200 -741.922119
67.042503 66.664703 -737.198730
67.041000 70.107498 -736.971619
67.036697 62.634201 -737.976501
67.035202 56.339199 -741.500916
67.007896 71.941704 -736.771912
66.997398 60.038101 -738.752014
66.995499 63.771198 -737.775879
66.987000 64.871902 -737.476318
66.981598 73.147598 -736.776917
66.976097 62.053799 -738.171875
66.974098 67.917999 -737.177002
66.958900 54.177399 -743.612976
66.955803 67.089897 -737.224487
66.931900 58.340801 -740.077881
66.921997 71.574203 -736.927124
66.921799 64.277603 -737.665527
66.906998 55.425201 -742.381226
66.884102 63.086399 -737.953186
66.875999 72.715103 -736.674316
66.873802 59.556702 -739.014099
66.871201 54.685200 -743.006714
66.864998 60.958099 -738.521912
66.860603 72.310402 -736.827576
66.860497 65.619797 -737.403076
66.856903 70.739601 -737.018188
66.848099 55.910702 -741.792786
66.831001 68.309196 -737.078613
66.827003 57.601200 -740.567505
66.824997 57.099701 -740.658630
66.821899 66.191200 -737.374817
66.817299 59.006500 -739.394714
66.808296 61.631401 -738.130127
66.805199 65.185997 -737.250916
66.801102 54.447800 -743.350708
66.796204 60.390099 -738.821777
66.780602 68.937103 -737.202271
66.771202 54.496899 -744.141113
66.770798 69.369202 -737.084290
66.738197 63.459202 -737.887024
66.736198 56.652302 -741.317322
66.733002 58.678101 -739.863403
66.728897 57.946499 -740.345825
66.723503 62.419601 -738.161682
66.712196 67.625298 -737.283508
66.688599 70.248901 -737.145996
66.679001 55.212299 -742.081421
66.674301 66.814796 -737.361084
66.674202 71.158699 -737.029114
66.671700 55.540798 -741.781921
66.661598 64.597801 -737.631775
66.659798 59.394402 -739.367615
66.659698 69.817299 -737.098694
66.653900 56.158901 -741.354980
66.652702 61.300999 -738.433472
66.649902 54.975601 -742.725830
66.644402 71.938400 -736.961121
66.642998 59.919102 -739.045288
66.616402 53.876400 -743.422913
66.614197 61.955399 -738.320313
66.613297 65.164902 -737.632507
66.603996 68.033302 -737.276123
66.603798 73.169899 -736.551270
66.597801 63.824902 -737.689026
66.580597 60.595798 -738.545288
66.580399 72.804398 -736.962585
66.579597 67.220703 -737.350586
66.568398 56.916698 -741.054688
66.566803 62.830898 -737.957703
66.565598 58.191898 -739.929321
66.553596 68.609497 -737.285889
66.526901 54.221001 -743.144714
66.515900 65.847801 -737.469727
66.498497 58.739300 -739.534119
66.491501 71.527802 -737.047180
66.469398 66.391701 -737.475525
66.461304 72.416199 -736.896912
66.455002 54.667801 -743.860107
66.453300 53.761799 -743.859497
66.453201 61.005501 -738.630920
66.449600 57.355701 -740.683289
66.449402 64.282097 -737.799683
66.442596 69.492798 -737.279114
66.442200 55.214901 -742.421021
66.438599 55.901600 -741.751526
66.436203 60.227100 -738.732422
66.426697 70.717300 -737.138916
66.417702 63.236198 -738.021301
66.404602 57.729900 -740.485718
66.380600 69.003899 -737.286621
66.378197 59.512600 -739.076477
66.362701 59.092899 -739.313477
66.360397 55.469398 -742.109985
66.359596 62.597198 -738.230530
66.359200 71.845596 -737.386780
66.345703 54.468498 -742.807190
66.344597 63.629700 -737.967224
66.338799 56.474300 -741.377319
66.330101 67.673401 -737.435974
66.325500 61.549500 -738.336975
66.318398 64.806702 -737.546387
66.313698 58.073200 -740.225830
66.308502 70.113297 -737.225830
66.296501 72.959801 -736.724426
66.296204 68.312103 -737.384216
66.292297 58.592300 -739.893921
66.283501 66.949699 -737.499084
66.280899 71.183701 -737.118530
66.274597 65.517799 -737.630920
66.265701 54.049599 -743.567383
66.263496 60.626999 -738.797974
66.255096 71.840897 -736.908630
66.248497 54.719898 -742.464478
66.248398 62.075001 -738.445374
66.242500 60.008801 -739.091492
66.199402 53.416698 -744.024475
66.195297 55.577999 -741.728821
66.187798 57.085999 -740.845581
66.183197 61.300499 -738.664612
66.175400 64.005997 -737.680298
66.169701 66.102097 -737.508606
66.150200 56.739399 -741.142517
66.137001 58.220901 -739.834473
66.134102 54.124298 -743.084412
66.129799 68.684799 -737.418823
66.129402 55.023201 -742.151489
66.128799 72.211601 -736.720215
66.112801 72.655296 -736.954590
66.109901 58.986198 -739.617981
66.103302 53.683102 -743.580383
66.096497 62.917702 -738.174805
66.095596 65.128700 -737.762695
66.089996 64.563103 -737.786926
66.083199 69.722198 -737.258423
66.074203 70.488701 -737.172913
66.073700 66.577202 -737.615173
66.073502 71.826897 -737.788330
66.071404 56.058498 -741.642578
66.062103 67.970200 -737.505371
66.052101 67.330299 -737.461121
66.046997 72.349297 -737.521179
66.045097 57.548901 -740.560791
66.042198 59.404999 -739.373901
66.036903 56.288101 -741.183899
66.035400 71.514801 -737.001587
66.028801 63.357300 -738.091125
66.028099 69.155098 -737.432129
66.026802 54.593498 -743.971924
66.014603 60.339100 -738.957825
66.007896 60.945900 -738.799011
65.997101 65.844299 -737.865601
65.992500 57.897900 -740.038086
65.980103 62.406200 -738.225830
65.974503 61.678600 -738.554016
65.969002 63.801498 -737.970398
65.963097 72.116898 -736.333130
65.937599 55.449902 -742.017883
65.936996 70.917397 -737.250427
65.934196 72.805801 -736.620483
65.924797 54.556301 -742.915405
65.911400 54.159000 -743.792725
65.899399 59.781399 -739.200500
65.884300 58.560600 -739.851074
65.871498 65.488197 -737.685120
65.864700 72.194801 -737.044983
65.859802 54.870300 -742.609924
65.859200 66.972298 -737.552612
65.858101 70.066399 -737.280579
65.851700 66.205002 -737.733521
65.840599 53.879101 -743.328491
65.837997 56.835300 -740.897217
65.831100 64.246498 -737.959717
65.825600 62.087799 -738.481079
65.816399 53.309601 -744.186523
65.806602 55.655102 -741.625305
65.788300 64.898697 -737.921387
65.788200 59.052601 -739.371277
65.784698 57.248901 -740.689026
65.782097 68.442497 -737.530701
65.780800 61.276501 -738.749023
65.780502 67.710197 -737.739075
65.762199 57.753300 -740.357971
65.755203 68.846703 -737.528198
65.750801 53.701599 -743.788818
65.750801 60.653400 -738.912781
65.742599 62.766201 -738.326416
65.734901 58.239399 -740.039978
65.732597 69.545303 -737.416077
65.713600 71.798302 -736.958374
65.704399 54.063801 -742.974609
65.691902 55.005901 -742.073975
65.674004 56.570400 -741.168518
65.671501 60.192799 -739.114014
65.669098 66.574997 -737.732422
65.665100 56.109200 -741.490173
65.661598 71.321198 -737.160522
65.658897 63.481300 -737.921021
65.653900 59.406601 -739.237976
65.652802 58.849800 -739.689209
65.649902 70.429398 -737.276489
65.628403 63.145599 -738.202026
65.620697 54.630299 -742.394104
65.611298 65.295197 -737.924988
65.609398 67.313202 -737.692993
65.602898 54.543598 -743.956177
65.596497 72.225998 -737.437622
65.587097 63.927502 -738.080383
65.579201 61.793800 -738.615723
65.577499 65.928497 -737.846375
65.574600 57.379398 -740.334412
65.571297 62.403198 -738.492615
65.565498 53.219101 -743.865784
65.565399 72.207603 -736.349670
65.555496 70.806396 -737.167786
65.553299 67.969902 -737.513794
65.549202 55.352798 -741.784424
65.534302 72.152397 -736.784729
65.523598 64.539398 -737.922974
65.514999 54.624199 -743.460083
65.513496 60.930599 -738.731079
65.505203 69.196198 -737.505188
65.501503 59.804401 -739.262512
65.490700 53.036301 -744.247620
65.490501 69.954803 -737.435913
65.484497 58.464001 -739.694214
65.473999 54.118999 -743.584717
65.463303 57.000801 -740.803101
65.436996 57.959599 -740.171082
65.432297 59.230900 -739.531921
65.432098 54.358200 -742.941772
65.427902 66.905296 -737.843323
65.410301 60.549099 -739.107483
65.407402 55.822399 -741.710510
65.406303 68.590103 -737.596313
65.387100 62.706699 -738.148987
65.385002 64.914299 -738.015320
65.383301 56.304100 -741.274475
65.364502 61.298302 -738.855713
65.362297 71.583099 -737.092224
65.353302 62.050201 -738.391907
65.349899 67.613503 -737.612122
65.347099 66.356796 -737.841980
65.345901 53.556999 -743.808411
65.338402 55.152901 -742.229614
65.326698 56.530300 -740.864807
65.322197 63.417900 -738.218689
65.317398 53.840599 -743.094421
65.304497 64.282799 -738.155212
65.304100 72.035103 -737.104980
65.297203 71.141197 -737.206787
65.296097 65.642303 -737.812378
65.295700 72.249199 -737.728027
65.287399 69.548897 -737.501770
65.282204 60.168800 -739.229980
65.279999 70.392303 -737.445007
65.263496 54.760502 -742.208618
65.250801 57.643200 -740.358276
65.249603 58.856602 -739.713684
65.241997 54.588200 -742.633789
65.233299 68.200302 -737.664978
65.222603 57.262100 -740.576904
65.221497 53.793701 -743.484924
65.218201 58.284401 -740.017212
65.203400 54.552101 -743.848999
65.202698 52.746799 -744.153992
65.197403 59.545601 -739.442810
65.187103 65.309402 -738.042114
65.177696 55.854599 -741.351379
65.173103 61.776199 -738.669312
65.161400 69.011597 -737.599670
65.160599 55.194302 -741.816589
65.154800 67.296501 -737.798889
65.151901 70.763603 -737.288818
65.151604 63.044399 -738.344727
65.146400 60.907799 -738.982910
65.127296 62.435600 -738.541321
65.125099 63.873299 -738.233582
65.105003 53.231300 -744.077026
65.096901 70.044998 -737.347290
65.094597 66.036102 -737.990784
65.094498 66.659500 -737.910217
65.086197 55.518799 -741.557373
65.082703 64.674004 -738.169617
65.073997 52.719101 -744.543213
65.073601 54.077599 -742.791321
65.065300 72.129097 -736.744385
65.061699 56.902802 -740.822327
65.046303 54.582802 -743.418091
65.039497 59.199699 -739.614502
65.032600 60.427101 -739.002014
65.023903 72.176598 -737.380493
65.017097 67.856796 -737.658875
65.007004 57.916000 -740.189087
64.992996 56.219002 -741.309998
64.992798 59.810699 -739.211670
64.990196 71.751297 -737.044617
64.988899 61.307701 -738.685913
64.976799 68.653000 -737.685181
64.961998 53.459000 -743.735779
64.947304 62.056801 -738.379272
64.935799 58.632198 -739.869995
64.933403 57.384899 -740.271912
64.928200 69.348801 -737.494324
64.925797 65.630600 -738.056213
64.925301 63.512001 -738.337708
64.896500 53.957500 -743.215576
64.893799 54.987701 -742.240173
64.891998 71.246101 -737.175598
64.883003 70.446999 -737.364685
64.882500 64.215302 -738.139587
64.859802 54.610600 -742.486328
64.844101 62.598598 -738.305725
64.840500 69.777496 -737.528381
64.840103 53.477299 -743.312683
64.833298 58.204601 -739.889526
64.833000 65.140701 -738.151428
64.830200 60.170799 -739.304077
64.827698 68.276901 -737.751587
64.819702 67.534500 -737.819702
64.816299 52.921700 -744.273621
64.811897 55.431900 -741.845520
64.803596 59.555801 -739.524109
64.803398 67.005203 -737.896179
64.791397 61.679798 -738.758118
64.789299 61.094299 -738.968201
64.787102 52.317600 -744.707397
64.785103 66.300003 -738.007874
64.783897 57.159302 -740.587219
64.769501 54.218498 -742.503113
64.762703 56.653801 -740.696411
64.758003 54.517399 -743.781311
64.757599 70.797997 -737.184570
64.749802 55.915100 -741.492920
64.748901 60.685699 -739.150085
64.743202 58.893799 -739.592896
64.738197 63.082199 -738.351990
64.709999 64.553802 -738.271973
64.708801 53.174000 -743.950989
64.677803 69.039902 -737.581116
64.677597 54.118099 -742.907227
64.676201 63.907799 -738.387329
64.667297 55.058498 -741.809204
64.662598 56.392300 -741.099426
64.631699 62.323601 -738.635010
64.622002 57.674000 -740.323120
64.613701 71.602898 -737.027771
64.612900 53.194500 -743.544983
64.606400 66.657204 -737.973083
64.604103 71.972504 -737.236084
64.599098 65.512604 -738.270020
64.594200 52.636799 -744.497314
64.586998 54.543701 -742.194885
64.578903 70.158897 -737.433228
64.576302 65.943100 -738.005188
64.571999 67.849197 -737.854919
64.548401 68.638802 -737.763977
64.543602 63.449600 -738.450623
64.536102 58.546200 -739.989929
64.536003 61.349098 -738.637817
64.528603 58.051800 -740.136902
64.527000 69.430099 -737.605530
64.526398 59.845402 -739.289673
64.514999 53.743999 -743.241882
64.513802 61.961800 -738.453674
64.510101 55.591202 -741.408203
64.508301 60.358398 -739.082825
64.494499 59.331501 -739.660889
64.493103 67.305199 -737.913513
64.491203 62.751598 -738.560120
64.476700 64.898598 -738.261597
64.473198 71.188202 -737.060120
64.457298 56.921700 -740.746216
64.444603 70.529800 -737.223328
64.434196 60.861000 -738.842224
64.433098 56.066799 -741.061584
64.429497 64.255203 -738.416687
64.425102 57.323200 -740.509583
64.411102 52.909199 -744.171875
64.393204 68.239700 -737.844910
64.387100 52.290401 -744.842285
64.384903 69.785004 -737.438171
64.375702 58.904900 -739.847778
64.368896 61.728802 -738.799988
64.360802 54.424599 -742.537476
64.333000 53.686100 -742.876770
64.325500 66.330200 -737.998230
64.322304 54.876301 -742.112427
64.314003 53.180901 -743.849304
64.309097 52.322498 -744.411316
64.297096 56.572102 -740.973328
64.294701 53.444500 -743.506897
64.293800 55.276402 -741.819214
64.288002 66.964500 -738.027222
64.276199 69.028999 -737.606323
64.269997 63.891201 -738.501526
64.257500 59.654800 -739.607117
64.252899 65.790802 -738.193298
64.244003 60.142601 -739.334229
64.238098 65.316597 -738.262390
64.233902 62.330700 -738.691223
64.226402 71.723602 -736.863892
64.224098 60.672798 -739.185120
64.214401 58.333599 -739.877197
64.210602 63.080299 -738.587830
64.200699 61.362499 -738.867920
64.200104 67.604202 -737.838074
64.197502 64.604897 -738.372925
64.191803 57.651901 -740.349670
64.172897 55.893799 -741.361328
64.171898 70.813202 -737.109192
64.169296 70.125900 -737.463928
64.150101 68.678497 -737.812378
64.150002 63.494099 -738.560486
64.142799 53.911800 -742.569885
64.119598 59.104900 -739.599487
64.118202 69.457901 -737.575317
64.111198 52.684502 -743.920227
64.104301 53.676998 -743.223999
64.094002 58.049099 -740.161072
64.093399 57.080601 -740.604675
64.092697 71.316399 -737.191711
64.085602 52.018398 -744.981384
64.084801 55.521599 -741.569580
64.077797 54.308701 -742.251099
64.054199 54.953499 -741.757690
64.046799 56.145699 -740.955688
64.046700 62.692501 -738.588318
64.038002 52.613998 -744.370789
64.034401 58.698898 -739.935486
64.013496 68.109497 -737.956604
64.010300 64.236900 -738.489624
64.006203 60.348499 -739.037720
64.004097 60.941601 -738.740417
63.997200 66.524399 -738.139282
63.994400 67.246399 -737.980225
63.979000 66.118599 -738.077026
63.977200 64.995399 -738.388794
63.954300 53.218300 -743.643799
63.950901 61.893799 -738.771912
63.946400 56.696301 -740.640686
63.943901 54.592201 -741.991882
63.919201 59.732700 -739.327026
63.914600 69.807404 -737.411926
63.895901 57.353600 -740.343506
63.894600 53.867199 -742.904480
63.887798 65.555099 -738.196777
63.886902 59.445999 -739.681213
63.876499 69.068100 -737.672302
63.871601 53.245899 -743.158508
63.866199 70.340202 -737.223083
63.857300 63.836800 -738.457825
63.839802 55.796501 -741.138000
63.835300 63.202599 -738.687622
63.828701 62.297798 -738.793091
63.827301 54.233601 -742.554688
63.820202 60.736500 -739.073975
63.818401 71.144600 -736.932922
63.815201 61.326401 -738.753418
63.814999 51.755798 -745.178406
63.804798 67.688400 -737.875183
63.797298 64.579002 -738.470276
63.797199 58.304001 -739.919312
63.795700 52.348000 -744.564026
63.770302 70.796799 -737.143616
63.770000 68.679398 -737.675110
63.768600 51.935600 -744.683228
63.765301 57.746201 -740.342407
63.763302 55.206100 -741.520874
63.743801 60.097000 -739.311584
63.743698 56.412800 -740.946411
63.738300 66.954803 -738.124329
63.737499 58.982399 -739.856201
63.725201 52.870701 -743.953979
63.717400 53.532799 -742.769287
63.701302 66.292702 -738.310730
63.698299 52.439999 -744.030212
63.685902 69.375999 -737.492004
63.685200 62.822701 -738.750488
63.652901 68.225899 -737.759216
63.651199 65.265602 -738.411682
63.649799 57.086899 -740.640991
63.642399 65.872200 -738.311890
63.639500 61.679600 -738.913513
63.634201 63.573700 -738.686279
63.617599 54.945702 -741.901672
63.609001 60.422501 -738.902771
63.605301 54.453499 -742.212891
63.588902 64.204399 -738.547424
63.585899 53.221901 -743.456299
63.582500 55.604801 -741.437317
63.573002 59.191399 -739.528076
63.566101 58.652199 -740.007324
63.563499 53.943699 -742.672974
63.562199 70.092003 -737.366821
63.545502 67.361504 -738.040405
63.536301 58.095402 -740.236023
63.529301 59.595699 -739.551392
63.518799 56.678101 -740.657288
63.512299 53.466801 -743.127930
63.511200 56.097500 -741.104675
63.508701 61.012600 -738.876282
63.505600 52.802799 -743.570190
63.492599 57.434299 -740.473816
63.489300 66.611000 -738.083923
63.484299 68.987099 -737.689575
63.477501 70.515999 -737.049988
63.469398 67.889297 -737.967102
63.462898 69.712799 -737.476624
63.458599 51.900299 -744.935425
63.453800 62.049999 -738.879089
63.452999 59.886501 -739.116028
63.445599 64.878502 -738.375610
63.442402 51.605801 -745.211914
63.439301 54.081100 -742.264404
63.435501 63.218601 -738.756897
63.421600 52.358601 -744.400513
63.384102 60.292599 -739.257385
63.376202 65.509903 -738.252075
63.371300 54.641998 -741.816711
63.369499 68.554100 -737.680176
63.357300 55.183498 -741.677429
63.354698 58.837601 -739.676208
63.335701 62.580399 -738.724670
63.332199 63.860199 -738.691528
63.323002 52.740799 -743.954285
63.307301 60.677601 -739.089722
63.304298 61.328300 -739.021973
63.304001 66.228699 -738.154419
63.303299 55.712299 -741.108276
63.303299 58.281502 -739.952026
63.299900 66.948799 -738.211182
63.299099 64.536400 -738.582825
63.281101 56.481098 -740.941772
63.277699 69.372101 -737.581726
63.269001 53.459999 -742.739624
63.263901 57.782001 -740.319519
63.235100 55.351601 -741.326477
63.224201 52.074402 -744.643921
63.217701 70.418900 -737.354675
63.217201 53.225399 -743.268188
63.215698 56.946098 -740.707520
63.199600 67.546402 -737.911926
63.199200 51.576599 -744.878113
63.189602 59.341599 -739.324707
63.182899 65.180901 -738.437073
63.172501 61.779202 -738.972107
63.145500 53.943100 -742.532288
63.143398 68.168701 -737.862976
63.134499 69.937302 -737.407471
63.129799 51.372501 -745.354614
63.127899 59.785599 -739.434814
63.111599 65.851196 -738.315125
63.104301 66.585999 -738.255981
63.100201 62.244900 -738.817688
63.098701 68.854599 -737.616882
63.089100 54.256001 -742.036682
63.088402 57.368698 -740.575684
63.088001 63.017899 -738.825378
63.087200 52.884201 -743.642517
63.084599 56.075600 -740.932983
63.082100 54.899200 -741.571472
63.073399 63.487000 -738.753784
63.065601 60.123699 -739.075623
63.063000 58.702702 -739.930603
63.041901 52.379601 -744.255920
63.041000 64.137001 -738.516785
62.991299 52.808800 -743.228088
62.985699 67.173500 -738.000488
62.974800 58.098999 -740.211487
62.974400 59.084301 -739.662415
62.974400 60.946301 -739.154724
62.952599 53.432899 -743.046509
62.951500 64.787399 -738.501770
62.940399 52.605202 -743.937012
62.936100 54.618599 -741.951721
62.935299 60.519798 -739.071411
62.934799 69.567596 -737.436218
62.925800 55.649799 -741.344910
62.923801 56.663898 -740.666504
62.921398 65.496201 -738.357910
62.914501 61.447800 -739.085571
62.912601 51.859501 -744.791016
62.901100 53.497601 -742.565430
62.895901 66.215302 -738.180176
62.888500 67.839302 -737.891113
62.861401 55.259899 -741.531921
62.855801 68.500397 -737.762573
62.851200 62.548801 -738.932312
62.844799 52.107300 -744.473389
62.836800 58.716400 -739.580872
62.832401 61.999199 -739.007507
62.828899 59.718201 -739.140381
62.823101 63.815201 -738.650879
62.815498 59.446999 -739.440430
62.811901 57.610001 -740.409912
62.809200 70.208702 -737.289429
62.805599 51.532799 -745.098877
62.798302 69.989700 -737.640015
62.796700 51.162998 -745.489014
62.792000 54.044601 -742.356018
62.784901 56.387600 -740.921997
62.779598 66.819000 -738.221619
62.775501 69.106400 -737.575989
62.772598 58.397701 -740.008484
62.767799 57.123798 -740.678223
62.757999 55.964401 -741.152222
62.717098 64.397102 -738.567383
62.716499 63.314301 -738.686523
62.704700 67.449501 -737.887817
62.701099 53.091301 -742.866821
62.694302 65.092903 -738.470520
62.685398 59.002602 -739.344177
62.684502 60.133801 -739.294189
62.682201 54.812199 -741.587524
62.680698 52.828899 -743.500488
62.670399 62.931900 -738.890015
62.652199 57.905399 -740.036987
62.650902 52.328701 -744.077820
62.634201 54.369701 -742.077026
62.631802 65.890503 -738.226318
62.591599 60.818901 -739.111084
62.582298 68.054497 -737.739990
62.582001 53.641201 -742.370605
62.577000 55.392300 -741.260986
62.557201 68.763603 -737.592712
62.553200 69.730202 -737.422913
62.549301 61.277199 -739.169617
62.535599 51.887402 -744.649292
62.531601 66.500702 -738.083008
62.528198 56.752499 -740.802429
62.521099 58.414501 -739.583923
62.514801 67.100304 -738.022583
62.513599 53.445202 -742.758728
62.510399 61.685799 -739.088196
62.508202 62.202202 -738.887329
62.499401 65.491699 -738.422119
62.486698 52.565201 -743.781372
62.482201 51.381599 -744.833618
62.469898 57.351601 -740.326172
62.468300 59.804501 -739.407715
62.458801 64.008598 -738.649414
62.454601 51.302601 -745.290527
62.447701 60.458199 -739.243225
62.441601 50.836601 -745.638977
62.437099 64.733902 -738.513306
62.434299 53.074001 -743.170776
62.433899 69.340302 -737.530518
62.429901 55.735401 -741.075500
62.425800 56.215801 -740.863525
62.418499 59.293098 -739.480896
62.409199 52.105499 -744.305786
62.388699 54.044800 -742.304077
62.371201 68.412498 -737.641418
62.370998 58.092300 -739.782288
62.353199 67.639503 -737.792603
62.351398 54.718700 -741.807922
62.351101 63.536301 -738.723877
62.346500 55.104900 -741.596619
62.342499 62.690102 -738.961914
62.333599 58.770401 -739.619629
62.323299 63.130501 -738.828613
62.321499 57.719002 -740.271179
62.305099 57.114799 -740.614624
62.301601 66.113800 -738.262329
62.275299 52.745998 -743.492615
62.254299 64.352097 -738.582886
62.253399 52.097801 -743.863281
62.252800 65.170502 -738.397583
62.231899 60.813202 -739.294128
62.226601 54.153000 -741.928284
62.224300 66.773201 -737.970581
62.218498 51.630901 -744.495728
62.218102 51.070099 -745.065796
62.210300 52.700401 -743.046997
62.209702 60.107201 -739.249512
62.189899 56.718498 -740.587219
62.185902 53.664700 -742.487976
62.179501 55.425301 -741.407776
62.176399 53.249199 -742.873291
62.175301 68.988899 -737.541199
62.167301 65.632896 -738.235474
62.155300 61.414799 -739.157776
62.152599 61.867500 -739.049805
62.144001 69.687698 -737.358704
62.133801 67.304298 -737.837524
62.125702 62.296299 -738.960571
62.125401 68.024597 -737.685303
62.100899 56.091599 -741.092102
62.097500 58.289299 -739.513672
62.093800 59.568802 -739.471497
62.082100 50.948002 -745.497681
62.081200 51.446899 -744.957703
62.063301 57.981998 -740.057922
62.054901 63.777401 -738.575684
62.050999 52.436501 -743.765503
62.049198 59.065601 -739.569824
62.040798 50.629601 -745.861084
62.039799 64.695000 -738.480530
62.035702 53.811199 -742.140320
62.031700 57.440899 -740.346985
62.027500 54.866699 -741.504578
62.024899 56.341400 -740.760315
62.023899 66.424896 -738.133911
62.005798 62.822899 -738.759705
62.001301 52.035900 -744.255371
61.995998 54.479301 -741.731323
61.993599 60.456902 -739.234924
61.986099 55.670200 -741.097900
61.953098 63.213001 -738.672119
61.951000 68.616997 -737.603821
61.938400 57.842400 -739.701416
