99.288399 100.994301 -789.470276
99.284103 95.801697 -789.286316
99.282600 163.714493 -786.007019
99.282204 31.905001 -774.177612
99.281998 107.076202 -789.897827
99.272301 183.580902 -781.876526
99.264297 59.108398 -783.225891
99.240097 97.829201 -789.470520
99.236702 167.593506 -785.520325
99.218002 75.978104 -786.427124
99.201302 194.087296 -778.712708
99.188400 122.981796 -789.487671
99.181297 65.099602 -784.389221
99.168404 67.453400 -784.838318
99.166702 56.459999 -782.718506
99.162399 89.767303 -788.323914
99.160004 135.726196 -788.994629
99.158302 139.131500 -788.686096
99.136703 160.050995 -786.386780
99.129501 49.771400 -780.800110
99.117104 102.702202 -789.750183
99.114998 128.008408 -789.426086
99.078201 115.193298 -789.898987
99.069099 149.678604 -787.736877
99.057899 185.201599 -781.609985
99.056999 190.220596 -779.956482
99.044899 41.489101 -777.649780
99.024399 51.881401 -781.348572
99.016998 88.253799 -788.033813
98.966103 152.171600 -787.465576
98.965202 94.173302 -788.769226
98.947800 162.428894 -786.148682
98.932198 39.740700 -776.981812
98.931900 118.633598 -789.538025
98.914200 129.889206 -789.364380
98.905800 110.787498 -789.930176
98.891197 178.680496 -783.452820
98.889603 74.573601 -786.158813
98.873299 195.419296 -778.503479
98.859299 79.307701 -787.006287
98.858299 172.996307 -784.758911
98.854202 168.911194 -785.399719
98.844299 34.325401 -775.020020
98.822098 137.239304 -788.945129
98.806297 113.030098 -789.694519
98.805298 174.850601 -784.430481
98.789497 191.910095 -779.704224
98.769501 154.503693 -787.116272
98.755600 53.336498 -781.710083
98.749397 157.830399 -786.766724
98.711098 71.071602 -785.589417
98.697502 140.374496 -788.672180
98.686798 144.358902 -788.380127
98.685699 187.977402 -781.043030
98.673203 196.749100 -778.079712
98.670303 186.432693 -781.377502
98.651497 68.661003 -785.140381
98.645599 170.299698 -785.260925
98.643600 180.164795 -783.069275
98.597099 166.139099 -785.835388
98.593697 73.104599 -785.930420
98.567398 46.209099 -779.276428
98.562599 99.547997 -789.482422
98.553101 62.656200 -783.856384
98.551598 44.546501 -778.556580
98.539200 77.070000 -786.765076
98.529198 108.136803 -789.491211
98.527199 42.822899 -777.981995
98.526802 83.741699 -787.940430
98.526299 48.280201 -780.066406
98.519302 80.584999 -787.494507
98.477798 54.681801 -781.922485
98.470901 181.608002 -782.809875
98.464500 146.572998 -788.259583
98.456100 125.960800 -789.626892
98.456001 91.982697 -788.413391
98.450897 37.507198 -775.900818
98.431999 161.268906 -786.522400
98.429001 176.234604 -784.163574
98.420601 35.576599 -775.233704
98.404602 32.954899 -774.352417
98.402603 96.785797 -789.203186
98.387802 120.510902 -789.455322
98.383301 133.635605 -789.331726
98.377899 164.808807 -786.125427
98.373398 86.406601 -788.361511
98.365898 58.184399 -782.767700
98.353996 131.452194 -789.215027
98.347397 66.153603 -784.658997
98.338501 189.309906 -780.729614
98.311096 142.108307 -788.663025
98.300003 50.792099 -780.747925
98.278999 193.117203 -779.702576
98.275101 105.001297 -789.289490
98.269096 38.848400 -776.285522
98.262299 148.642197 -787.953003
98.256599 61.271999 -783.571899
98.254303 106.261299 -789.699402
98.252502 109.611198 -789.304810
98.245697 153.338196 -787.422485
98.241402 82.011803 -787.634216
98.241096 117.221199 -789.887085
98.228401 198.571304 -777.641296
98.224197 159.164307 -786.791504
98.219002 183.082306 -782.517883
98.218399 90.526398 -788.994812
98.209396 101.844704 -789.222290
98.195900 156.686798 -787.158020
98.186401 111.831100 -789.402710
98.185898 150.843307 -787.818176
98.163101 88.947403 -788.799622
98.159798 93.047096 -789.146484
98.154198 123.846001 -789.534912
98.151802 114.402000 -789.303223
98.147003 95.112900 -789.274170
98.128403 60.017799 -783.212891
98.127899 177.714294 -783.923828
98.125702 122.192902 -789.856506
98.102303 103.559402 -789.721008
98.101601 171.811493 -785.048218
98.064598 55.959702 -782.098816
98.059196 69.965500 -785.161316
98.058899 184.447693 -782.247925
98.049301 40.898800 -776.950623
98.041000 138.550598 -789.048523
98.029602 163.550400 -786.369202
98.028702 85.046097 -788.364014
98.001999 190.875504 -780.407715
98.000198 98.262001 -789.940430
97.996002 63.904400 -784.135315
97.982399 194.812195 -779.256104
97.954803 127.238602 -789.242371
97.939697 167.832794 -785.809875
97.932999 128.739700 -789.664429
97.918800 136.266602 -789.162476
97.914803 115.822304 -789.853882
97.898003 78.206398 -787.083313
97.885696 200.055695 -777.318420
97.876701 49.611000 -780.312378
97.872398 75.481003 -786.413025
97.865799 173.980499 -784.804626
97.854599 67.673203 -784.763428
97.834801 100.517502 -790.157776
97.811096 155.407806 -787.410278
97.800903 52.546799 -781.213501
97.781197 119.257500 -789.592529
97.772102 134.845993 -789.035828
97.771103 143.341507 -788.660400
97.746803 107.430199 -790.270386
97.746696 72.047401 -785.681396
97.746399 145.401093 -788.521912
97.721497 185.835098 -782.105408
97.718201 102.220200 -790.456604
97.711700 130.303101 -789.039612
97.682404 179.291000 -783.764404
97.681297 108.942398 -790.303284
97.671402 187.397903 -781.642517
97.671097 110.725098 -790.522827
97.669800 113.085098 -790.364929
97.662102 87.717598 -788.670471
97.656799 196.503799 -778.878174
97.653397 57.222000 -782.189819
97.650299 43.825001 -777.934998
97.626503 91.640900 -789.463318
97.620697 74.202698 -786.187927
97.604897 96.789398 -790.273010
97.584099 192.186905 -780.370422
97.580704 104.947502 -790.404114
97.564201 169.551697 -785.694824
97.564201 47.621899 -779.382202
97.559502 132.590607 -789.342529
97.556099 114.519501 -790.480591
97.552498 201.380295 -777.001404
97.540901 34.171700 -774.893799
97.525002 197.745804 -778.465820
97.520599 180.777603 -783.423584
97.519897 42.114300 -777.251709
97.514999 36.546799 -775.450012
97.496002 158.057098 -787.196289
97.477501 149.677704 -788.140625
97.473900 124.982399 -789.812988
97.472198 79.760201 -787.466797
97.466698 162.384903 -786.627930
97.444298 140.903793 -788.696472
97.440598 53.994301 -781.484985
97.426498 120.395897 -790.341003
97.424698 175.484802 -784.655396
97.418503 94.081596 -789.832092
97.418198 45.817902 -778.644226
97.415703 83.064697 -788.104309
97.411697 151.951904 -787.781799
97.404602 147.357697 -788.378479
97.389801 118.386902 -790.524780
97.381798 160.436005 -786.887024
97.379501 188.704102 -781.446289
97.376198 99.305901 -790.617188
97.364403 165.740997 -786.220825
97.340500 65.379097 -784.318787
97.314499 116.992104 -790.795776
97.275597 199.272293 -778.264893
97.266502 62.440201 -783.622681
97.264297 182.340607 -783.177185
97.260902 154.189804 -787.723206
97.254700 39.792400 -776.361023
97.251404 193.956696 -779.962280
97.250801 68.939301 -785.040894
97.250397 176.854996 -784.472229
97.229797 139.615997 -789.155823
97.228798 123.360100 -790.386902
97.227203 106.283600 -790.693481
97.225098 89.718498 -789.459229
97.221100 126.567200 -790.135376
97.219299 103.606003 -790.702820
97.218300 172.822998 -785.245605
97.213997 38.062500 -775.922729
97.209000 137.330704 -788.678589
97.197403 202.858505 -776.692322
97.174004 81.213402 -787.807129
97.167801 121.816498 -790.697021
97.161797 170.952606 -785.627686
97.150902 95.513496 -790.169006
97.148804 86.257698 -788.815796
97.118500 190.188507 -781.161377
97.112198 58.450699 -782.488281
97.111198 112.241600 -791.229370
97.110001 183.775208 -782.890015
97.089302 164.463501 -786.484314
97.075302 70.900200 -785.465027
97.068497 131.165695 -789.925720
97.058800 60.930500 -783.107727
97.056900 51.192699 -780.436890
97.053299 76.512001 -786.719971
97.043900 92.774200 -789.948120
97.043800 127.916199 -790.307373
97.034897 129.646393 -790.125183
97.028603 115.479797 -791.237122
97.002502 142.278503 -788.824402
96.991096 133.928802 -789.701294
96.990601 195.599701 -779.648926
96.976501 98.053596 -790.749878
96.950401 101.351898 -791.220886
96.945602 84.313797 -788.501770
96.931000 108.251602 -791.177124
96.922501 156.743393 -787.505981
96.913498 109.647499 -791.138977
96.909302 124.497902 -790.952515
96.906403 55.380600 -781.620117
96.898102 178.126404 -784.354614
96.889702 167.067200 -786.174072
96.889603 73.047997 -786.019714
96.881401 48.945099 -779.749390
96.880898 119.444199 -791.230713
96.873901 144.435593 -788.713074
96.852402 113.839798 -791.416016
96.845497 185.062393 -782.715515
96.818298 204.351700 -776.303223
96.800499 148.546097 -788.378113
96.799896 159.207306 -787.146423
96.793098 66.885696 -784.603394
96.792503 200.797806 -777.952271
96.778198 168.412598 -786.013489
96.770401 135.830200 -789.745972
96.751297 150.847397 -788.142212
96.747398 104.999199 -791.511902
96.736099 88.367203 -789.335999
96.699600 125.778603 -791.173279
96.689796 186.824799 -782.388489
96.676102 138.346802 -789.343872
96.671700 64.186501 -783.994629
96.668800 174.381302 -785.226501
96.667702 146.233002 -788.677307
96.660896 117.999802 -791.551880
96.645500 197.145096 -779.442871
96.638397 132.401703 -790.257202
96.634499 110.927101 -791.388428
96.633598 191.525803 -781.117310
96.620201 198.491699 -779.090515
96.610802 41.278301 -776.724976
96.606499 128.906296 -791.150879
96.595200 102.626198 -791.526611
96.594101 193.029099 -780.737427
96.591202 120.858200 -791.510315
96.588501 78.662102 -787.358826
96.587799 130.402603 -791.114075
96.565697 122.704102 -791.472412
96.563499 127.077301 -791.314514
96.560303 202.055099 -777.650208
96.553596 179.933395 -784.106384
96.552399 90.948799 -790.048889
96.544899 44.649300 -777.961487
96.542801 52.415298 -780.721008
96.539398 100.024696 -791.371277
96.534500 96.485001 -791.089417
96.534500 75.313103 -786.550293
96.533401 43.242699 -777.474121
96.500000 205.630203 -776.056885
96.488800 161.515701 -787.003784
96.488701 137.022995 -790.226318
96.461601 155.451904 -787.664490
96.455803 59.824100 -782.744629
96.452499 140.781097 -789.723816
96.444504 94.199203 -790.702698
96.440598 106.928802 -791.571899
96.433701 152.826004 -787.721985
96.427101 181.353699 -783.880798
96.413002 188.097198 -782.243713
96.412300 163.331604 -786.764282
96.402397 47.053200 -778.900085
96.400703 134.806107 -790.498108
96.350700 82.228699 -788.283630
96.328102 57.049301 -782.096313
96.322998 194.785400 -780.506714
96.316002 143.436401 -789.563171
96.315002 116.483597 -791.877319
96.294800 176.072296 -785.099182
96.285202 171.979401 -785.753174
96.283600 71.930901 -785.640503
96.277000 169.804596 -785.979126
96.259102 69.886703 -785.192322
96.257797 133.437698 -791.080872
96.256897 203.574295 -777.489929
96.246696 139.279007 -790.201477
96.246498 189.499802 -781.977295
96.233200 87.053001 -789.364319
96.218597 80.095901 -787.854614
96.212196 98.463303 -791.805725
96.206200 183.135300 -783.643799
96.204697 199.935699 -778.756104
96.195602 68.155899 -784.897217
96.190804 157.835907 -787.450073
96.184502 147.516495 -788.982178
96.169403 38.986198 -776.203491
96.159897 54.270100 -781.276428
96.157402 103.856697 -791.844604
96.143600 206.920502 -775.736084
96.139503 85.288101 -788.916077
96.136803 145.299301 -789.449280
96.112999 149.660706 -788.016479
96.111702 108.872902 -792.044312
96.111397 123.856697 -791.928223
96.109001 165.449203 -786.655701
96.102997 142.003098 -790.121216
96.096703 77.367897 -787.104004
96.096298 50.001598 -779.987122
96.083603 89.404701 -790.028015
96.074997 61.864899 -783.370728
96.061302 131.680099 -791.508118
96.060204 112.711197 -791.924072
96.052803 92.916801 -790.905884
96.041298 65.605202 -784.414307
96.029701 115.184402 -792.118774
96.003304 95.201103 -791.466125
95.990097 196.124603 -780.349670
95.982597 135.940994 -791.085022
95.972000 138.216003 -790.946777
95.962601 148.762802 -789.423523
95.959999 146.723206 -790.033691
95.949303 101.467400 -792.237610
95.948997 63.140301 -783.662170
95.947701 154.027695 -787.974304
95.944901 128.090698 -792.044922
95.944702 177.394699 -784.987183
95.937698 160.296997 -787.276306
95.933601 73.948799 -786.174622
95.916901 83.500702 -788.718628
95.914001 119.752701 -792.107178
95.908699 184.403397 -783.434998
95.902199 204.819702 -777.129272
95.896500 186.008408 -783.131470
95.893303 125.278503 -792.089111
95.865196 144.542496 -790.488892
95.855499 129.695999 -792.056213
95.853600 105.934303 -792.200928
95.835297 134.558701 -791.714294
95.824898 151.110703 -789.447510
95.819099 201.431305 -778.645203
95.796799 140.276505 -791.194275
95.796799 179.033401 -784.782715
95.793404 143.192703 -790.755798
95.788902 58.774200 -782.286804
95.788597 173.469696 -785.688782
95.784698 48.158901 -779.269409
95.774200 148.039703 -790.738525
95.739899 190.880402 -781.928589
95.736397 97.036201 -792.138916
95.713303 110.437599 -792.210876
95.713203 167.761795 -786.426208
95.711502 121.952904 -792.188416
95.703903 192.392700 -781.580017
95.702797 208.267502 -775.399719
95.678703 55.872898 -781.675598
95.672501 40.319901 -776.524719
95.662498 42.338699 -776.839478
95.648399 156.519196 -787.895813
95.647697 51.214199 -780.256104
95.645897 202.750397 -778.373718
95.643898 99.596802 -792.313721
95.640999 152.305801 -788.651123
95.633301 197.807495 -779.971497
95.630402 45.611698 -778.279785
95.620300 91.425003 -790.927124
95.613701 193.820801 -781.150818
95.613197 88.107201 -790.055481
95.610397 126.612099 -792.253296
95.605202 145.924896 -791.025879
95.603500 206.277695 -776.882019
95.587799 149.927094 -790.031189
95.579399 187.379196 -783.008789
95.567802 107.580597 -792.312988
95.559998 102.779800 -792.335571
95.552902 137.136902 -791.657227
95.543404 117.662300 -792.246399
95.537399 132.812393 -792.032227
95.533600 81.190804 -788.287781
95.516998 180.626404 -784.570984
95.516701 141.972504 -791.294617
95.516296 159.082199 -787.606201
95.515404 175.022903 -785.531311
95.509903 170.883499 -786.092407
95.503601 154.312302 -789.319275
95.500198 152.046600 -790.312073
95.484398 199.274704 -779.635498
95.480698 66.784798 -784.706787
95.457397 94.028198 -791.752930
95.454697 70.860901 -785.598816
95.452599 156.001297 -789.187988
95.429604 164.287598 -786.847107
95.423500 162.438797 -787.102905
95.420799 60.630402 -782.939209
95.403503 104.706100 -792.531677
95.391403 188.817795 -782.711792
95.386497 75.878998 -787.010620
95.382698 158.692703 -789.033997
95.379303 53.049801 -780.701172
95.376099 78.298103 -787.713379
95.373703 44.177799 -777.350830
95.371101 181.937195 -784.399414
95.363899 64.510902 -784.061829
95.359299 113.746803 -792.345276
95.356697 144.036301 -791.668213
95.345703 131.241592 -792.513977
95.342003 86.074699 -789.645325
95.313004 138.947998 -791.864014
95.312599 157.369507 -789.294312
95.310699 90.118301 -790.958191
95.301300 72.703598 -786.126587
95.300903 166.492096 -786.556274
95.294998 153.343506 -790.404724
95.277901 95.826103 -792.370178
95.233902 150.455597 -791.263611
95.232597 135.685501 -792.337219
95.221603 116.253998 -792.588318
95.219597 147.042801 -791.642883
95.198502 84.436203 -789.381897
95.189499 209.571701 -774.965576
95.189201 195.095306 -781.153381
95.170700 154.725998 -790.642883
95.169098 159.956299 -788.729187
95.168297 200.538498 -779.451172
95.162003 207.466904 -776.532227
95.161102 120.758698 -792.530884
95.160301 204.266998 -778.230591
95.153000 82.413597 -788.793274
95.143700 98.382401 -792.778625
95.143097 111.903900 -792.559021
95.136597 100.527397 -793.150330
95.132004 123.158401 -792.513672
95.125397 148.515503 -791.781677
95.117699 169.144196 -786.278381
95.091904 128.832596 -792.887878
95.087196 156.251495 -790.438904
95.084297 140.972305 -792.138123
95.083000 183.605896 -784.183228
95.070999 92.637100 -791.800476
95.059196 46.932400 -778.729187
95.050598 145.408600 -792.148315
95.034103 161.206497 -788.317871
95.031700 176.289597 -785.410217
95.024696 57.354198 -781.963379
95.023399 68.883797 -785.167480
95.017601 142.782394 -792.227478
95.015701 196.926605 -780.785217
95.015404 124.480598 -792.755615
95.005501 159.225204 -790.232727
95.003098 109.236000 -792.795227
94.993301 133.982407 -792.642822
94.988602 172.103394 -785.916382
94.974701 54.868301 -781.145203
94.972099 205.603394 -777.853699
94.965599 155.261597 -788.085999
94.959900 175.238098 -796.205383
94.958199 79.526497 -788.146118
94.955299 162.929398 -788.483887
94.948997 185.177002 -783.901978
94.939102 88.847801 -790.969971
94.928596 97.053398 -793.186218
94.923500 157.774902 -787.894897
94.923203 190.129700 -782.679871
94.922096 49.528702 -779.614197
94.916801 173.047394 -796.544312
94.915298 157.730896 -790.532227
94.914001 152.830704 -791.749329
94.911697 74.611504 -786.691895
94.910896 137.860794 -792.547424
94.898598 161.223694 -789.632324
94.892601 118.959900 -792.550476
94.889503 151.473007 -792.017578
94.879303 176.760895 -795.999084
94.876801 103.506897 -793.274780
94.866096 114.935097 -792.730713
94.860397 127.370903 -793.158020
94.859901 158.484100 -791.733398
94.856796 87.069801 -790.374878
94.851303 154.297394 -791.914001
94.839104 77.011101 -787.573425
94.837700 101.956902 -793.067017
94.831398 130.063004 -793.278870
94.828697 150.006699 -792.508423
94.824501 202.188797 -779.355713
94.820297 155.790802 -791.694580
94.816704 139.815002 -792.749023
94.811699 62.396999 -783.323425
94.804901 106.090401 -793.156372
94.800697 208.820999 -776.391479
94.799202 164.390594 -788.536072
94.791901 191.692703 -782.436096
94.763298 178.302307 -785.170227
94.757301 147.543304 -792.780518
94.755600 94.657204 -792.714905
94.742104 171.414993 -796.833801
94.738403 186.543793 -783.725830
94.724602 132.650894 -793.047729
94.722603 144.342697 -792.843018
94.721703 165.258408 -787.463379
94.718697 210.865799 -774.566284
94.710701 126.004898 -793.139587
94.706497 193.179703 -782.097473
94.703598 157.181793 -791.880127
94.696297 91.192101 -791.840027
94.694702 65.595100 -784.367493
94.693100 173.965698 -795.454712
94.686798 163.262100 -789.779480
94.669800 198.626999 -780.545471
94.667297 152.891998 -793.225220
94.663803 141.788696 -793.099670
94.655296 179.682693 -785.016418
94.640800 155.276306 -792.930298
94.639900 158.856705 -793.064514
94.636803 165.810394 -788.720276
94.630798 178.296707 -795.851501
94.610298 59.702900 -782.360596
94.609802 157.938400 -794.755371
94.606300 110.616302 -792.972900
94.605202 167.052505 -788.224121
94.599098 160.788101 -790.883606
94.594902 146.018707 -793.258423
94.590202 136.538193 -793.170288
94.582100 167.756302 -787.107727
94.572304 131.378693 -793.617126
94.570000 174.042801 -785.778015
94.560204 135.139603 -793.431580
94.559097 175.329697 -794.880981
94.558998 99.523300 -793.811523
94.551697 170.023697 -797.096313
94.551102 150.871094 -793.462280
94.547699 156.655197 -793.106873
94.546402 162.165604 -790.507813
94.541901 107.895798 -793.150085
94.534798 160.274796 -792.179077
94.534103 149.496796 -793.734497
94.534103 188.137802 -783.451782
94.532600 51.888199 -779.977722
94.528099 164.626694 -789.806519
94.525497 121.897903 -792.763489
94.517303 152.242798 -794.680420
94.509598 81.275299 -789.128113
94.493301 206.987701 -777.590271
94.488998 171.984802 -795.235474
94.487000 83.297997 -789.584717
94.475403 154.268906 -793.870300
94.474098 112.968300 -792.975586
94.472198 143.076797 -793.402100
94.466599 203.486099 -779.074219
94.465500 158.161194 -796.080017
94.459297 163.373001 -787.204773
94.448303 63.658798 -783.508423
94.433502 93.350304 -792.765076
94.432297 176.719299 -794.695190
94.431396 168.352005 -788.393494
94.426804 117.434898 -792.924988
94.425697 45.033600 -778.144775
94.425499 85.191200 -790.167480
94.425301 95.828102 -793.532227
94.423401 67.631104 -784.955322
94.419701 138.730896 -793.459229
94.404900 71.597000 -785.921875
94.385201 210.388000 -775.803406
94.383003 48.045200 -779.029785
94.381798 200.036697 -780.391602
94.374603 170.670105 -795.801086
94.368599 156.086594 -794.446228
94.366203 56.182899 -781.567810
94.362602 159.856903 -794.370605
94.362396 147.999893 -793.969421
94.360703 161.858597 -791.779419
94.354103 70.074898 -785.597473
94.348503 170.475693 -786.594421
94.346901 163.373901 -791.094788
94.345398 167.041199 -789.614380
94.337097 157.591400 -797.259583
94.322800 168.224106 -797.100403
94.320503 169.626205 -787.910522
94.314003 89.865601 -791.893188
94.313797 180.151093 -795.637878
94.311699 161.259399 -793.359314
94.311501 181.165207 -784.721802
94.310402 104.694603 -793.472229
94.305702 153.747498 -795.104126
94.301498 173.733398 -794.101624
94.297600 194.489700 -782.013489
94.292397 98.082001 -793.879272
94.290398 150.887405 -795.836121
94.286598 196.169495 -781.607483
94.276497 159.707703 -795.768616
94.261597 165.535706 -790.744324
94.256500 155.532700 -795.663513
94.253799 171.816803 -793.882629
94.250504 144.955505 -793.975220
94.250298 119.999496 -793.106628
94.249901 163.830002 -792.333130
94.249702 171.754593 -787.584717
94.245201 53.818100 -780.672791
94.239799 140.184204 -793.903076
94.235497 178.014999 -794.276123
94.229897 164.494507 -797.815186
94.221703 148.997803 -794.961609
94.219704 133.642395 -793.813416
94.218803 212.022293 -774.070374
94.217598 166.462494 -797.596802
94.216499 73.347298 -786.614807
94.210899 78.294701 -788.367126
94.208504 168.776001 -789.682678
94.206299 182.574493 -784.608582
94.205704 128.591904 -793.917419
94.202499 101.122902 -793.900818
94.199997 205.007904 -778.739014
94.191902 162.625504 -793.118530
94.183502 156.882904 -795.841675
94.178497 161.827194 -794.580017
94.178299 169.547699 -794.461121
94.177299 169.030106 -795.764404
94.174301 102.647797 -793.981628
94.171898 161.071198 -795.722473
94.171402 146.750198 -794.325317
94.168900 175.294495 -785.741028
94.165802 201.314896 -780.105896
94.164902 162.241699 -797.983215
94.154404 175.294693 -793.543518
94.153801 165.317001 -792.143311
94.138901 159.146301 -796.944702
94.135803 163.221893 -794.898315
94.134903 167.250793 -790.892883
94.125801 75.507004 -787.330200
94.123199 170.129196 -789.126587
94.123001 166.402603 -796.234192
94.121902 60.973400 -783.028809
94.114098 87.703796 -791.334717
94.106697 123.634903 -793.364319
94.106201 163.925598 -793.656311
94.105598 58.350700 -782.190674
94.104599 173.371307 -787.324219
94.087402 167.980698 -794.881775
94.085899 158.479202 -798.213379
94.075500 162.632095 -796.516479
94.073799 163.876495 -796.034912
94.067299 168.977798 -791.398010
94.063904 166.627304 -792.176086
94.061897 92.105003 -792.943787
94.056900 152.742996 -796.008423
94.054802 189.476807 -783.427429
94.051903 165.072098 -796.607910
94.050797 164.577606 -794.794128
94.047096 150.458893 -794.616211
94.046799 208.381500 -777.371887
94.045601 176.654907 -793.344421
94.042198 166.060196 -793.384521
94.038902 170.382004 -793.382629
94.030403 171.811493 -788.947693
94.029999 161.175293 -797.052917
94.027298 50.483398 -779.728210
94.025902 137.565399 -794.046570
94.025299 168.064301 -793.196716
94.022598 172.645004 -792.822510
94.012398 160.014496 -798.057129
94.007202 166.294296 -794.685913
94.004700 197.553604 -781.415771
93.993698 170.353104 -790.491577
93.992798 141.612305 -794.285828
93.992203 156.667297 -798.463379
93.990402 116.185402 -793.274170
93.989197 181.612900 -795.488708
93.987900 130.311996 -794.351685
93.987297 177.139999 -785.499878
93.981903 156.331802 -797.180115
93.979897 94.617104 -793.892273
93.977699 111.698997 -793.359619
93.977402 154.569199 -796.534180
93.974503 171.135895 -792.037292
93.965797 124.951401 -793.648071
93.955704 147.758606 -795.382324
93.954300 143.654694 -794.537720
93.953697 151.401794 -797.090271
93.952003 175.353394 -787.838074
93.946503 97.000298 -794.657898
93.942398 173.889099 -792.341125
93.923698 80.029099 -788.860718
93.912598 109.589500 -793.517273
93.911697 209.742401 -776.962891
93.909500 184.191605 -784.403687
93.908302 86.246101 -790.791809
93.906700 135.983597 -794.207886
93.906097 179.227493 -794.770386
93.897102 169.053696 -786.771973
93.885902 174.102600 -788.390076
93.882797 126.759697 -793.923218
93.882004 132.363800 -794.154297
93.869797 172.020599 -790.367920
93.858200 90.804199 -792.844910
93.856003 145.472107 -795.156494
93.839401 175.231705 -792.177429
93.835098 172.948196 -785.893127
93.824799 149.698898 -796.352722
93.824501 211.523102 -775.262878
93.814102 191.045303 -783.089478
93.814003 118.682503 -793.387817
93.813499 178.027496 -793.022400
93.809097 176.621399 -787.327881
93.791496 173.470703 -789.574707
93.790703 174.553101 -786.812073
93.778297 173.720596 -791.008606
93.776398 180.402206 -794.134583
93.762100 202.789398 -779.932373
93.758698 138.910400 -794.651917
93.746597 150.264496 -797.804504
93.743698 106.772499 -793.659180
93.743698 113.999901 -793.325012
93.738701 154.782898 -797.825623
93.732300 176.525299 -791.949707
93.731903 192.619705 -782.779724
93.729797 206.552795 -778.587524
93.718002 84.111504 -790.424011
93.712502 82.063698 -789.812195
93.711197 95.716904 -794.812927
93.708603 64.547600 -784.147217
93.708099 66.510002 -784.696472
93.703003 153.046600 -797.290894
93.700104 182.945908 -795.330017
93.699799 134.614304 -794.569214
93.696503 55.133598 -781.035583
93.692101 98.528503 -795.017883
93.685204 185.716095 -784.112671
93.684700 76.895897 -788.199707
93.684700 49.163601 -779.262329
93.671402 68.766701 -785.297974
93.664200 199.135605 -781.280518
93.660896 93.315598 -793.931885
93.656601 148.399094 -796.650085
93.650703 142.575607 -795.229370
93.648903 175.000900 -790.617310
93.648003 177.965500 -787.497192
93.635803 140.397598 -795.104675
93.630600 175.685196 -789.341919
93.627197 100.072197 -794.734192
93.624603 179.364899 -793.334106
93.617996 88.607803 -792.218018
93.613602 146.642700 -796.018127
93.596603 121.233200 -793.492798
93.596497 176.957794 -788.908875
93.594398 179.328003 -787.022217
93.589996 178.966095 -785.480103
93.571503 144.269104 -795.675415
93.564499 177.878799 -791.652771
93.552597 103.763000 -794.334717
93.540298 181.759995 -793.964111
93.527603 213.088196 -773.727478
93.522797 153.079697 -798.700806
93.503304 176.381302 -790.496826
93.496902 74.320297 -787.156677
93.492897 131.381104 -795.002625
93.487801 62.470200 -783.484070
93.485703 187.440796 -783.911621
93.480904 204.315002 -779.684082
93.465797 179.354202 -791.967712
93.436996 177.702194 -790.173828
93.436699 178.395203 -788.933472
93.433800 210.977798 -776.672119
93.401299 101.753998 -794.845215
93.400398 72.271797 -786.464722
93.398399 137.024200 -795.176880
93.396500 105.433098 -794.073608
93.393402 195.399399 -782.356628
93.384201 57.087601 -781.791077
93.384102 179.778000 -788.289307
93.380600 179.250198 -790.655029
93.376999 200.631104 -781.000610
93.376900 108.314201 -793.688721
93.374901 133.358704 -794.852173
93.368698 52.823700 -779.948425
93.362396 145.360397 -796.400024
93.362000 181.221298 -792.728210
93.352798 184.809998 -795.017212
93.348099 129.235901 -794.825378
93.347801 180.491104 -785.382996
93.332603 127.756599 -794.638123
93.329102 180.641693 -786.724121
93.328903 92.038300 -794.103577
93.321800 207.938293 -778.435181
93.316704 122.582199 -793.669312
93.300903 193.950394 -782.702515
93.289803 59.434898 -782.564819
93.288696 147.152893 -797.192627
93.288300 89.621803 -793.142578
93.287598 183.405807 -794.163879
93.285004 70.713898 -786.038574
93.279602 117.319702 -793.569519
93.277199 94.240700 -795.075378
93.254601 181.077896 -791.033813
93.251801 212.782898 -775.188293
93.250504 181.073807 -787.984192
93.248398 205.634506 -779.404602
93.230698 86.680496 -791.852478
93.229103 182.577896 -792.811707
93.224098 151.098007 -798.703796
93.219299 80.843498 -789.702881
93.217102 196.709305 -782.150818
93.214104 141.441803 -795.849182
93.213501 78.761002 -789.114624
93.206596 180.222397 -789.654175
93.203598 182.443298 -787.218811
93.201302 181.782700 -785.205078
93.196198 96.412003 -795.828186
93.184601 138.789093 -795.918274
93.180702 85.007500 -791.225220
93.175301 143.091705 -796.391724
93.165199 135.476898 -795.427124
93.109299 125.732597 -794.480713
93.105598 119.929497 -793.752380
93.095200 148.294800 -797.881592
93.094902 181.989197 -790.007874
93.091202 176.072906 -786.276611
93.087700 112.632103 -793.696777
93.078598 177.849106 -786.167114
93.076897 123.949303 -794.178223
93.069801 183.186493 -784.965820
93.065002 115.246101 -793.542603
93.060204 201.968094 -780.759888
93.053200 182.461197 -788.772583
93.048599 51.344700 -779.874329
93.044899 182.280304 -791.511230
93.015701 184.097305 -787.298218
93.015404 209.567993 -777.927673
93.010002 184.211502 -793.023926
93.005600 82.907898 -790.590271
93.004700 75.783798 -787.973083
92.993599 149.704803 -798.796021
92.992699 110.804802 -793.701294
92.981300 90.654701 -793.978516
92.964699 92.955002 -795.028992
92.957901 188.710297 -783.585022
92.954697 144.196899 -797.075012
92.931503 134.207703 -795.836670
92.930801 53.895199 -780.809326
92.924500 145.950607 -797.646790
92.917999 186.162903 -794.739075
92.907898 97.674896 -796.098206
92.906898 140.003799 -796.575012
92.896599 183.317398 -790.686218
92.886101 67.455498 -785.173218
92.877899 130.288895 -795.531311
92.875298 183.809601 -788.614807
92.863701 198.055496 -781.987427
92.861397 136.491394 -796.268677
92.846397 212.319107 -776.374084
92.841003 185.135300 -786.347412
92.838203 61.310299 -783.107788
92.835297 100.774902 -795.557312
92.829201 214.066895 -773.165710
92.826698 63.569599 -783.842529
92.825500 132.408905 -795.730713
92.825104 95.135902 -796.032288
92.806396 102.888603 -795.143372
92.805496 184.393097 -789.909607
92.796799 203.409393 -780.634216
92.793701 186.750793 -786.348877
92.793404 185.323303 -787.903076
92.793297 184.669800 -784.932190
92.785698 184.478607 -791.723572
92.784500 190.122299 -783.358276
92.775803 191.822601 -783.295471
92.774101 65.403503 -784.500671
92.772598 142.033600 -797.060730
92.767502 185.514099 -793.076294
92.766502 87.805099 -792.949402
92.738197 206.985199 -779.396118
92.712799 99.202103 -795.616821
92.707802 187.721207 -794.643616
92.701897 56.031502 -781.408386
92.683800 69.566399 -785.817322
92.683701 73.268600 -787.116089
92.671303 106.623398 -794.538513
92.655899 77.149300 -788.995972
92.655602 147.200500 -798.453308
92.644402 185.635101 -790.870911
92.642303 137.907700 -796.746277
92.621597 186.642502 -787.808228
92.601601 185.795303 -789.460388
92.591499 186.042694 -784.772095
92.566002 109.347504 -793.996216
92.560204 199.710098 -781.775391
92.552696 213.732193 -774.448425
92.552597 211.141998 -777.657715
92.535500 91.462700 -795.120483
92.530899 79.614304 -790.016724
92.530502 118.694397 -793.881287
92.524300 186.940308 -793.575317
92.514900 187.913101 -787.298523
92.503899 205.011505 -780.392578
92.499397 135.272202 -796.671570
92.497498 83.899399 -791.440918
92.496597 128.403900 -795.578491
92.495598 104.477097 -794.786987
92.494797 81.628899 -790.591125
92.479401 121.553902 -794.100525
92.478302 186.855392 -792.123108
92.478302 58.278500 -781.819885
92.465103 126.942703 -795.263184
92.463402 188.442505 -786.026123
92.462997 186.974396 -790.266724
92.458199 93.833298 -796.017517
92.456802 88.972298 -794.071228
92.448196 114.062103 -793.725281
92.432503 209.022797 -779.009888
92.431999 143.203796 -797.776001
92.425301 95.758904 -797.147827
92.418198 85.466202 -792.211487
92.415199 189.718597 -794.263794
92.399399 145.545197 -798.946228
92.381699 131.225601 -796.375671
92.372597 187.704605 -789.053528
92.369904 187.667496 -784.599121
92.360703 140.808502 -797.535828
92.360397 189.347504 -787.159485
92.357399 193.138901 -783.146179
92.297798 108.026398 -794.417725
92.291603 116.407402 -793.850281
92.284401 139.040100 -797.372009
92.267097 144.405701 -798.310120
92.255302 133.449997 -796.725830
92.248398 189.677200 -785.643372
92.248100 188.179199 -793.161072
92.236702 71.456703 -786.512512
92.236504 188.188797 -791.762329
92.230698 213.758804 -775.753113
92.229897 92.464104 -796.118896
92.221001 191.284103 -794.088379
92.213303 201.225998 -781.507202
92.212898 74.720497 -787.904419
92.211304 124.619202 -794.938721
92.197998 189.048599 -788.483582
92.193398 194.763306 -782.697388
92.174103 122.929398 -794.426514
92.166000 188.339096 -790.285217
92.165199 90.077599 -794.940430
92.155800 98.660004 -796.731018
92.150299 190.809601 -787.145081
92.137703 101.984703 -795.904785
92.134399 60.067600 -782.621826
92.119400 136.771103 -797.414001
92.097900 191.005295 -785.824402
92.096001 210.297394 -778.628784
92.080101 111.782799 -794.034180
92.077400 78.375702 -789.744629
92.068001 129.639893 -796.381226
92.053398 212.359299 -777.668701
92.031403 189.769394 -789.608215
92.025497 62.601101 -783.368530
92.014198 189.460495 -791.232605
92.003799 214.947800 -772.600586
92.002296 82.639900 -791.430176
92.001503 68.396004 -785.605286
91.998802 196.360992 -782.582825
91.987396 189.425095 -792.743530
91.982803 142.094498 -798.388184
91.976601 190.800003 -788.725220
91.966400 192.400604 -786.540588
91.949203 86.731400 -793.102783
91.947601 66.559097 -784.981384
91.946800 97.059998 -796.851990
91.938202 206.252808 -780.285889
91.935799 190.878998 -784.110596
91.929001 99.942299 -796.445923
91.917603 207.958405 -779.790527
91.897301 192.258102 -785.177307
91.897202 76.039001 -788.646912
91.893799 119.951599 -794.293701
91.891098 64.418198 -784.239319
91.875702 193.111099 -793.788513
91.872299 190.524796 -791.999573
91.867798 90.957603 -796.212585
91.841698 193.983704 -785.638977
91.835701 191.995407 -787.878113
91.832100 80.525101 -791.052612
91.831703 190.650208 -790.620789
91.825699 188.933594 -784.498596
91.804703 192.114502 -789.191528
91.797897 202.756607 -781.376099
91.788002 125.909599 -795.718079
91.780701 191.786697 -792.892822
91.779198 87.846703 -794.227783
91.772903 103.601097 -795.581177
91.769096 88.772797 -795.342224
91.767097 204.100601 -781.112488
91.750900 110.341499 -794.358276
91.737396 132.268799 -797.008972
91.729103 191.762405 -791.375427
91.716499 105.884697 -795.093018
91.713799 194.421204 -793.463074
91.704201 127.561096 -796.278076
91.703697 214.697403 -773.892822
91.693802 134.669800 -797.684875
91.685402 193.692001 -786.993774
91.677399 213.402603 -776.965881
91.674896 198.695404 -782.225281
91.672302 139.647903 -798.409485
91.651100 193.513794 -788.977905
91.645103 137.957596 -798.156372
91.630096 193.030304 -792.256226
91.623901 84.317596 -792.496887
91.600899 193.019608 -790.789917
91.598396 115.000000 -794.085083
91.595100 113.009102 -794.242920
91.590401 72.385300 -787.178711
91.572197 195.135696 -786.273376
91.569199 101.208397 -797.031311
91.568298 70.152496 -786.350830
91.542999 211.564301 -778.611023
91.541199 193.332306 -784.474426
91.537804 195.054596 -784.837219
91.523903 194.546097 -788.005371
91.523003 130.557907 -797.153381
91.508698 117.438202 -794.088074
91.505898 194.373001 -791.904297
91.502502 192.134506 -783.322876
91.479897 76.990700 -789.582886
91.479599 195.848602 -793.283386
91.475800 194.216797 -790.255615
91.474602 61.146099 -783.067810
91.471100 85.536003 -793.397217
91.457397 209.627106 -779.674988
91.445503 78.861801 -790.831116
91.433800 195.128204 -789.203613
91.433502 108.995697 -794.741089
91.400002 107.258102 -795.088623
91.394699 196.390900 -785.091187
91.368896 214.641693 -775.214111
91.364403 133.316406 -797.824219
91.362701 195.812500 -787.602722
91.359901 123.629601 -795.361084
91.358704 195.638901 -791.445374
91.341797 122.063599 -794.993530
91.328697 196.457993 -786.421997
91.313797 200.080399 -782.057983
91.306702 205.345306 -781.030029
91.306503 135.805405 -798.229980
91.283997 196.487198 -788.950073
91.263000 197.834702 -792.807678
91.261902 73.553001 -787.806824
91.260002 196.381195 -790.265381
91.252296 128.651398 -796.926392
91.245003 195.560196 -783.380127
91.233200 83.047600 -792.458984
91.218399 197.743896 -785.092285
91.212196 197.157196 -787.773071
91.204300 197.383698 -782.804016
91.187698 102.468903 -796.911316
91.187500 196.932297 -791.588318
91.179298 194.013794 -783.098022
91.167000 81.356400 -791.981323
91.163200 65.394798 -784.952576
91.143600 213.449295 -778.204529
91.113197 197.908997 -788.846924
91.111000 197.720306 -790.200073
91.099602 104.824203 -795.635071
91.093903 198.090805 -786.497009
91.092598 74.973297 -788.696594
91.089104 67.449203 -785.581421
91.048203 124.754097 -796.083130
91.043900 207.395401 -780.684204
91.032303 86.519600 -794.169617
91.031197 199.139999 -784.758911
91.015701 131.449997 -798.014221
91.012703 118.959000 -794.481812
91.009201 116.208504 -794.445007
91.009003 214.488495 -776.636475
91.007202 201.696701 -781.828186
91.000999 126.475502 -796.678589
90.994904 210.874893 -779.601318
90.986504 198.327499 -791.452026
90.972801 198.868301 -787.805420
90.937599 120.772102 -794.792908
90.927200 111.821899 -794.697571
90.922897 68.878304 -786.233582
90.919296 199.090195 -789.859924
90.911903 79.798203 -791.752014
90.900299 198.301697 -783.757690
90.889397 199.405502 -786.531311
90.878899 71.290703 -787.039612
90.857399 77.499001 -790.663574
90.852600 200.425705 -785.288818
90.851303 199.327103 -792.509521
90.843803 215.476807 -772.089294
90.824501 200.040802 -788.624695
90.817703 208.705093 -780.447510
90.792702 129.655899 -797.792725
90.783997 199.597900 -791.138428
90.762100 212.539703 -779.070984
90.759903 200.264999 -783.960876
90.727600 200.684799 -790.073120
90.719902 84.358299 -793.463013
90.714500 200.534698 -787.367920
90.714104 114.062302 -794.448303
90.697998 199.314499 -782.946411
90.692101 201.071899 -792.108093
90.686600 106.369301 -795.830078
90.644600 203.358795 -781.658386
90.641197 103.605698 -796.345520
90.627800 215.452194 -773.696106
90.626503 201.552795 -784.332581
90.614899 110.007401 -795.096008
90.594498 201.581894 -788.525574
90.558296 201.427994 -786.309082
90.544701 75.970398 -789.661621
90.536400 127.609100 -797.481323
90.511803 72.479103 -787.930420
90.504402 108.355797 -795.457275
90.501297 202.792694 -784.819824
90.451401 202.278503 -787.372498
90.445297 201.984894 -790.052673
90.431503 122.758400 -795.794678
90.406197 201.076294 -782.830078
90.394997 117.785896 -794.756287
90.360397 70.050301 -786.863770
90.358101 202.592697 -783.457275
90.332199 214.512695 -778.410217
90.321297 73.684196 -788.790710
90.318497 203.046799 -788.484985
90.309700 215.477097 -775.236084
90.308899 202.927704 -786.116211
90.292999 202.134094 -791.407227
90.285896 204.275299 -784.078796
90.269096 206.149200 -781.141174
90.225998 204.709595 -781.527527
90.213799 203.731201 -787.230530
90.166298 203.347702 -789.841675
90.165398 125.379402 -796.831787
90.160797 204.010498 -785.363586
90.145699 210.124405 -780.258484
90.112900 119.744598 -795.117493
90.095802 205.589203 -784.252686
90.082603 121.474602 -795.502014
90.060402 215.208801 -777.196472
90.055298 112.746597 -795.029419
90.053497 213.682007 -779.416382
90.047699 204.469193 -788.365479
90.043404 123.962097 -796.519470
90.042397 211.755600 -779.976501
90.039200 203.421005 -791.221619
90.036903 205.108002 -787.100830
90.034500 204.058105 -782.680908
90.014999 115.300400 -794.674377
90.003502 105.210503 -796.318787
89.954002 206.991196 -783.267029
89.928001 205.313004 -785.625610
89.915001 205.334702 -782.961121
89.881302 111.134300 -795.204712
89.854698 204.641495 -789.651978
89.825500 202.292603 -781.919312
89.796204 207.996506 -780.868774
89.781998 206.706497 -784.909912
89.750298 206.408493 -786.452881
89.741600 116.591103 -794.797607
89.737297 107.358101 -796.129883
89.727997 205.882996 -788.251282
89.682404 215.830597 -772.611328
89.682098 109.343201 -795.737427
89.679901 205.058807 -791.292175
89.676102 208.152405 -783.922485
89.534599 208.690201 -782.694702
89.512100 215.158005 -779.355103
89.508904 207.060806 -787.579529
89.507797 122.771896 -796.759216
89.487198 205.923798 -789.746277
89.485703 207.781906 -785.732605
89.444702 207.074295 -781.742188
89.438904 114.129700 -795.008179
89.398697 209.692001 -783.621399
89.397598 215.965698 -773.934570
89.374702 118.564301 -795.126404
89.360199 215.949799 -776.132324
89.295700 206.990402 -788.876099
89.270401 208.988495 -784.880676
89.263603 208.236801 -786.984009
89.261597 209.204193 -780.992920
89.259399 120.516800 -796.171082
89.221901 210.717102 -782.560791
89.203697 206.658203 -790.907288
89.202599 212.798203 -779.916626
89.189003 205.611206 -781.819275
89.165703 215.726593 -778.060913
89.144096 210.962006 -780.522095
89.132004 215.439102 -771.479187
89.025497 209.389297 -786.106628
88.982803 208.216904 -788.293823
88.951897 210.807800 -784.211975
88.948601 211.938904 -782.949280
88.939499 216.348297 -779.434326
88.815598 207.566803 -790.020325
88.813797 214.094406 -779.755981
88.795601 115.258301 -795.301575
88.789597 209.375793 -787.468872
88.759598 212.894806 -782.064270
88.746399 117.261803 -795.426086
88.727798 211.599792 -781.590027
88.682800 210.800003 -785.567627
88.499298 212.037201 -784.271729
88.472603 214.157196 -781.807922
88.454597 210.706207 -786.877930
88.424896 216.269302 -777.101013
88.421898 208.916000 -789.310486
88.394897 216.231003 -774.848389
88.376701 215.387894 -781.320984
88.375000 213.158203 -783.380127
88.320900 215.711899 -772.970276
88.314903 213.306305 -780.786316
88.201401 215.266998 -779.871277
88.183403 210.063293 -788.483704
88.175102 211.999298 -785.728027
88.091904 216.628906 -780.468323
88.006500 217.252808 -779.037292
87.927597 214.436905 -783.005981
87.922203 215.189102 -770.974182
87.887703 213.080307 -784.920593
87.765701 209.916901 -789.849121
87.741302 212.004303 -787.016113
87.538696 213.156403 -786.208801
87.535698 211.425095 -788.175415
87.492996 214.192993 -784.244324
87.484497 216.564102 -778.032227
87.388802 215.658600 -782.420593
87.283501 215.286697 -772.177490
87.275803 216.098404 -775.598022
87.188004 211.161102 -789.557190
87.137703 215.606995 -773.586487
87.048103 214.178497 -785.541321
87.042397 216.174500 -781.249329
86.970802 217.190094 -779.883301
86.956398 215.226700 -783.595276
86.916603 212.585495 -788.157410
86.659897 213.493698 -787.126282
86.647903 214.556900 -770.369995
86.579399 68.658897 -747.600586
86.467201 216.203598 -776.697815
86.465401 216.242096 -778.964783
86.442902 215.207901 -784.864197
86.382301 68.550201 -748.942383
86.183601 216.095093 -782.700684
86.173401 215.479004 -777.762573
86.150703 214.659698 -771.813477
86.110298 215.258102 -774.438110
86.075996 214.523499 -786.458496
86.071198 214.964401 -773.157104
85.990402 212.998795 -789.044922
85.907799 216.706299 -780.669983
85.743698 215.397293 -775.789917
85.731796 213.991806 -787.992004
85.702797 215.928299 -783.928101
85.609299 215.036697 -778.915710
85.594803 67.490097 -749.407593
85.581001 213.704300 -769.930298
85.514503 215.492004 -785.753113
85.474602 213.174500 -778.380981
85.426804 214.111801 -777.361572
85.365097 69.209602 -748.269470
85.311996 216.072006 -779.671997
85.242104 68.808197 -749.989929
85.237999 216.596497 -781.830200
85.102203 67.961502 -747.818970
85.099098 214.956497 -787.284729
85.083603 213.870605 -771.738525
85.069901 214.444397 -774.561707
84.981697 66.307503 -749.485718
84.857201 211.672394 -777.735413
84.809799 213.045303 -776.880798
84.723900 216.395706 -783.102112
84.639297 216.044495 -784.805176
84.612801 213.976593 -775.743713
84.542503 214.181107 -778.855530
84.487099 213.514496 -772.976685
84.462402 212.920898 -770.005615
84.454498 216.199203 -780.704529
84.420601 67.319099 -748.820129
84.328796 69.937500 -747.924072
84.317497 215.692902 -786.366882
84.218903 212.723801 -778.407715
84.113098 212.968506 -771.821899
84.108101 210.566895 -777.403809
84.102997 211.662094 -776.498291
84.036697 65.138298 -749.670715
84.033096 68.527397 -748.322327
84.007103 213.027496 -774.195374
83.858299 215.008301 -779.695923
83.694504 71.157097 -747.380615
83.684097 216.206100 -782.165771
83.643600 212.476593 -773.049377
83.633904 216.287506 -783.834106
83.602501 212.238800 -770.840271
83.571198 211.787003 -769.292419
83.523804 66.262398 -749.176819
83.497299 210.911499 -775.518005
83.413696 216.029800 -785.375183
83.405197 211.774704 -777.854370
83.385300 209.156006 -776.931580
83.332001 213.560394 -778.937012
83.276001 215.578995 -781.064087
83.197197 215.775101 -787.138916
83.106499 67.420700 -748.426697
83.088898 69.447403 -747.734680
83.067398 64.035500 -749.821289
83.000504 211.460007 -771.870605
82.988701 209.644806 -775.682373
82.987297 72.365898 -747.206482
82.975700 211.347900 -773.922974
82.826897 210.306198 -777.225586
82.805199 211.268204 -770.312195
82.673798 214.360596 -779.945679
82.591103 215.985901 -782.979980
82.571800 207.702194 -776.502075
82.560303 65.361198 -749.391418
82.512901 210.617294 -768.912720
82.511902 208.442001 -775.375488
82.455498 212.512497 -778.520691
82.453201 70.737602 -747.358276
82.333801 210.453094 -772.590027
82.258598 215.928207 -786.222412
82.209396 210.318893 -771.184570
82.204697 66.451103 -748.595520
82.174599 63.089298 -750.053589
82.174301 209.943802 -773.786621
82.150703 215.352097 -781.788086
82.140900 73.365097 -747.075928
82.106400 208.907104 -776.791077
82.104599 68.192596 -747.947327
82.059700 206.530899 -776.050720
82.055199 211.301300 -777.987427
82.052902 215.843399 -784.219971
81.950699 213.242905 -779.507385
81.780998 207.641800 -774.612488
81.780998 69.538597 -747.733215
81.689301 71.866798 -747.295593
81.686203 214.473495 -780.926086
81.684402 209.727600 -769.442810
81.621399 209.379395 -771.961182
81.598503 64.440201 -749.716125
81.595596 209.886200 -777.563171
81.358398 205.380997 -775.764404
81.336304 206.395599 -774.924377
81.287697 65.534401 -748.830627
81.278603 211.985901 -778.977173
81.265999 215.330505 -783.289978
81.260300 207.523193 -776.615723
81.197601 62.260799 -750.334778
81.112503 67.022400 -748.113708
81.081497 70.601601 -747.326172
81.077003 74.098099 -746.677429
81.069199 208.403793 -771.244873
80.961700 215.524002 -785.273621
80.938004 214.738602 -782.053284
80.904900 72.915703 -747.231384
80.868103 208.686401 -769.454529
80.862297 213.539597 -780.436707
80.837196 208.707901 -777.120789
80.814003 68.499802 -747.726379
80.789497 203.882202 -775.159485
80.784203 63.423801 -749.881775
80.691803 205.219101 -774.103577
80.637100 210.524704 -778.203186
80.628799 206.394699 -776.215271
80.549599 207.526199 -772.151978
80.302399 215.018906 -784.188293
80.291000 64.448799 -749.130676
80.289497 212.415497 -779.808411
80.257797 207.922897 -768.145813
80.213303 71.641403 -747.364319
80.206596 61.508202 -750.801819
80.131401 202.624207 -774.670898
80.124702 69.542198 -747.304688
80.111298 66.095703 -748.424072
80.053703 205.260193 -775.853699
79.998901 209.397797 -777.914978
79.998596 206.562897 -771.270630
79.973701 203.565994 -773.600830
79.956100 207.684692 -776.801086
79.953796 211.353394 -779.036072
79.933601 214.661804 -782.918274
79.910698 213.760406 -781.431702
79.824097 73.790001 -746.952393
79.805702 67.347702 -748.065674
79.735100 62.696701 -750.418091
79.484100 203.989304 -775.351990
79.476303 206.778397 -767.972900
79.375603 201.385895 -774.380493
79.352600 205.450302 -770.983215
79.330399 212.790405 -780.625000
79.324799 206.444702 -776.354370
79.286697 70.575600 -747.326294
79.270203 202.508408 -773.265381
79.256798 210.205795 -778.724304
79.253098 68.510803 -747.601624
79.252899 63.700500 -749.550171
79.233498 65.090401 -748.450073
79.226700 72.585800 -747.143188
79.124702 208.296494 -777.681580
79.036797 60.882900 -751.103088
78.984596 213.854401 -782.381226
78.938797 211.644806 -779.838196
78.894798 202.838806 -775.074524
78.847702 200.108002 -773.894287
78.780403 66.356903 -748.296692
78.764801 205.016495 -776.006714
78.683701 205.734695 -767.724121
78.590897 73.987099 -746.514526
78.560898 62.118801 -750.645020
78.512703 200.946899 -772.924500
78.459297 207.197495 -777.390503
78.405403 209.182495 -778.462524
78.399101 71.563400 -747.311829
78.379303 69.540298 -747.408203
78.367302 67.545998 -747.851196
78.362801 203.716202 -769.883728
78.336601 212.833099 -781.551086
78.263603 64.411903 -749.013794
78.199898 198.893600 -773.519409
78.152298 204.398605 -767.378418
78.134003 206.037704 -776.818420
78.133301 201.808105 -774.577881
78.111198 60.207500 -751.740723
78.087097 210.739105 -779.424316
78.086601 203.819702 -775.531921
78.072800 63.164398 -749.888428
77.913902 199.792801 -772.477905
77.850403 72.796997 -746.969177
77.776100 65.442596 -748.268311
77.753502 202.292297 -769.678589
77.752998 211.891205 -780.464417
77.700302 208.105698 -778.169373
