34.959000 228.405701 -735.941772
34.958500 157.434692 -750.718018
34.950401 214.607697 -742.582825
34.948700 146.351807 -753.100403
34.946301 147.177200 -752.454773
34.943699 220.845901 -739.832275
34.943001 147.996704 -755.227905
34.943001 171.771896 -749.120728
34.942600 188.936707 -747.836182
34.939400 177.803207 -748.555481
34.938301 198.377396 -747.207581
34.937302 187.596695 -747.898926
34.932400 207.045502 -745.379822
34.930401 195.026901 -747.582397
34.929901 202.503098 -746.658386
34.928799 230.549698 -734.747681
34.927200 209.336197 -744.590576
34.924599 184.087906 -747.996704
34.924000 109.856400 -751.395813
34.922901 115.094704 -756.657776
34.921001 174.372101 -748.798218
34.914001 107.885902 -753.604980
34.912399 146.789902 -753.864014
34.910301 109.498299 -750.133484
34.909698 186.366394 -747.792725
34.907398 216.738693 -741.621094
34.899700 181.887405 -748.195984
34.898201 235.347504 -731.884216
34.896400 162.458298 -750.452393
34.891499 125.217697 -761.289307
34.886101 109.738297 -749.176819
34.883598 166.509705 -749.879517
34.867100 211.328506 -743.728882
34.863201 121.232002 -758.930725
34.860500 149.666000 -752.072510
34.856998 205.405701 -746.071777
34.856201 226.809204 -736.831421
34.855900 203.996506 -746.329285
34.851601 167.611404 -749.721375
34.848999 218.878296 -740.836487
34.848400 118.852203 -757.879822
34.843399 110.760902 -755.637817
34.842800 200.650894 -747.015686
34.841202 147.837799 -754.232788
34.837002 241.966904 -728.290222
34.832600 173.105606 -748.985718
34.830101 161.118698 -750.564026
34.822899 222.218399 -739.034119
34.819698 126.499298 -761.140198
34.819599 110.332603 -752.228577
34.819000 152.872299 -751.359375
34.818600 223.417999 -738.697205
34.818100 147.411804 -753.473389
34.814800 148.686096 -752.476196
34.811298 109.955399 -754.599609
34.802200 190.527802 -747.901978
34.797001 199.137604 -747.289429
34.794498 164.050598 -750.343628
34.794399 148.004501 -752.821716
34.788399 176.684494 -748.598022
34.785099 208.566895 -745.217407
34.784698 156.727798 -751.003784
34.783798 219.672302 -740.441284
34.783001 237.027603 -731.093872
34.783001 244.727005 -726.605286
34.776600 110.186203 -752.976807
34.770699 238.106705 -730.098511
34.768200 149.293198 -754.701172
34.761501 246.436401 -726.146118
34.760799 117.289902 -757.474670
34.754601 169.647202 -749.560730
34.754398 224.407593 -738.232788
34.753201 217.445297 -741.463013
34.750500 243.320908 -727.697571
34.748100 110.147003 -750.641479
34.747002 236.073303 -731.634216
34.745499 196.801193 -747.745117
34.744999 150.831207 -751.949402
34.743999 231.202103 -734.325928
34.743599 165.045197 -750.357178
34.743000 152.170395 -751.701416
34.739201 194.117096 -747.803406
34.739101 159.455704 -750.720093
34.736599 116.529800 -757.250916
34.734501 210.082901 -744.394226
34.732601 119.982903 -758.784424
34.729698 183.033005 -748.226074
34.728802 232.074600 -733.771973
34.728500 206.167603 -745.922974
34.723701 154.419403 -751.317322
34.719501 148.606796 -754.112793
34.715599 109.964104 -753.686401
34.711899 121.855202 -759.497986
34.708599 112.613098 -756.113281
34.705002 213.235397 -743.267273
34.703899 122.990196 -759.970581
34.699799 201.736404 -747.044128
34.692200 203.200806 -746.850525
34.691299 227.727997 -736.522522
34.683800 207.867294 -745.474121
34.676800 155.545395 -751.311218
34.667400 115.813904 -756.944580
34.660301 163.134598 -750.645081
34.659000 179.354996 -748.344910
34.651199 110.639503 -751.379211
34.650501 127.332001 -761.429016
34.647999 148.535507 -753.322815
34.644798 229.837997 -735.310974
34.643600 240.692001 -728.604980
34.641399 111.862701 -756.020813
34.640598 192.268494 -747.956116
34.613800 215.357498 -742.447815
34.613800 234.752304 -732.395325
34.612598 124.840401 -760.426880
34.612499 149.302505 -752.887512
34.611401 214.057297 -743.117981
34.610001 243.898697 -726.869385
34.609402 204.751007 -746.507629
34.606499 218.269394 -741.236877
34.605099 191.259201 -747.997620
34.604198 111.019501 -752.500000
34.603401 225.943604 -737.577881
34.602299 181.170303 -748.405884
34.601601 189.750198 -748.043518
34.594700 149.320007 -753.893005
34.592800 212.077499 -743.775818
34.592701 118.097099 -757.781921
34.592300 221.835907 -739.635986
34.591499 197.857895 -747.699707
34.589500 150.210800 -752.509583
34.589199 200.097702 -747.504272
34.583599 151.569504 -752.125671
34.581200 158.011307 -751.166626
34.572701 171.130600 -749.368286
34.572498 153.572906 -751.655701
34.568699 233.829697 -733.033020
34.567402 188.301605 -747.945129
34.565899 193.380905 -747.801880
34.564999 110.522903 -749.542725
34.557301 110.877098 -753.247620
34.555401 245.354004 -726.213318
34.547600 110.650398 -754.816895
34.547100 209.371399 -745.229980
34.541599 210.819595 -744.412476
34.534199 175.486893 -748.784607
34.531601 207.063507 -746.017029
34.526901 113.315903 -756.363281
34.517601 148.538498 -754.957214
34.516499 172.369400 -749.317505
34.514301 225.148605 -738.031372
34.514198 119.339401 -758.333313
34.511501 123.746696 -759.965576
34.511501 158.855698 -751.099915
34.507999 195.499603 -747.985107
34.507999 203.958206 -746.990784
34.507599 238.936203 -730.172729
34.506100 185.596802 -748.143982
34.500599 216.354202 -742.158020
34.497299 165.830704 -750.382629
34.495098 168.804092 -749.944885
34.489899 186.878693 -748.129089
34.485500 111.603203 -755.286987
34.480400 125.789597 -760.832886
34.470402 167.227707 -750.229675
34.469398 220.343094 -740.398804
34.466801 222.991196 -739.233521
34.466099 152.821899 -752.009277
34.456402 160.320404 -751.018494
34.456100 150.711105 -753.863525
34.455399 149.988602 -753.233826
34.455399 178.469696 -748.598206
34.453499 173.735901 -749.139282
34.452000 201.049500 -747.515198
34.450802 111.293098 -751.744873
34.438301 150.298599 -754.543518
34.432598 161.945496 -750.889587
34.430599 247.196701 -725.620789
34.429901 205.690704 -746.628784
34.422798 228.977097 -736.116577
34.407700 110.803101 -750.284485
34.405899 202.341400 -747.648926
34.399200 198.646896 -747.684021
34.398300 156.349106 -751.586487
34.378799 170.429306 -749.556274
34.378502 110.521103 -754.092773
34.377102 150.793198 -752.983887
34.373299 154.993500 -751.770386
34.370899 184.591202 -748.149475
34.363400 206.516403 -746.521118
34.362598 111.614998 -753.012329
34.360802 226.787796 -737.430420
34.360298 208.493500 -745.857117
34.358799 242.193604 -727.741577
34.354500 221.212997 -740.103821
34.352200 212.796005 -743.770020
34.351398 151.580902 -752.853027
34.348999 157.321106 -751.329224
34.345699 232.909698 -733.845581
34.344799 114.638397 -756.518982
34.341301 224.079803 -738.819214
34.334801 214.780197 -743.089111
34.327999 128.103897 -761.620789
34.326099 211.585403 -744.299683
34.321400 149.742004 -755.181030
34.317799 231.959198 -734.388916
34.316898 111.515404 -753.800781
34.314602 177.378006 -748.644287
34.310001 237.684799 -730.708923
34.305500 182.403107 -748.296570
34.303699 154.286301 -752.024597
34.303398 161.243500 -751.142212
34.301998 180.328903 -748.411072
34.300400 207.800400 -746.124817
34.300201 231.031906 -734.911316
34.298401 199.393600 -747.862793
34.291401 243.240097 -727.089172
34.290798 120.632797 -758.874390
34.289101 194.703400 -748.001587
34.288898 168.030106 -750.003479
34.287201 219.717606 -740.993225
34.283501 239.553497 -729.306030
34.282700 174.778900 -748.962219
34.280499 163.754700 -750.931274
34.277500 166.535797 -750.456726
34.271400 189.065598 -748.163574
34.267300 210.333694 -744.923279
34.266201 122.442200 -759.382385
34.265202 217.252396 -742.020691
34.259602 111.896896 -752.300476
34.254601 152.431702 -752.678223
34.252602 111.201202 -750.960876
34.242500 176.268799 -748.892029
34.242199 183.641403 -748.176575
34.239799 219.009399 -741.252930
34.237202 197.260300 -748.171570
34.235600 196.213699 -747.939209
34.235100 213.620300 -743.725281
34.234901 112.522202 -755.138916
34.234901 204.800797 -747.237000
34.230099 164.648804 -750.802917
34.229900 153.574005 -752.316528
34.227100 245.953003 -726.519470
34.220699 227.557602 -737.100708
34.220699 236.557602 -731.303711
34.219898 162.747803 -751.196228
34.219002 159.550598 -751.389221
34.211601 241.527206 -728.533081
34.210999 235.641098 -732.045898
34.192902 229.708893 -735.922180
34.191101 203.520096 -747.512695
34.184601 151.539795 -753.677979
34.181301 209.403397 -745.952271
34.180302 228.266006 -736.720520
34.171101 155.700699 -752.015015
34.169399 112.253304 -753.371216
34.163502 192.819504 -748.101624
34.156601 115.220299 -756.953979
34.154800 126.717003 -761.420898
34.149502 225.835602 -738.170715
34.149200 217.945404 -741.777710
34.146000 230.453293 -735.423828
34.145901 215.985901 -742.703674
34.145500 129.472198 -762.113403
34.140701 240.405701 -729.147400
34.137402 173.013000 -749.241089
34.131802 187.532898 -748.059021
34.130402 151.071396 -754.458618
34.128300 169.518997 -749.974121
34.127602 121.463600 -759.251770
34.127201 194.003494 -748.203613
34.126701 156.940094 -751.971008
34.107899 212.310303 -744.288086
34.106899 200.369797 -748.085083
34.105301 191.804306 -748.234985
34.105202 190.480301 -748.265930
34.104500 111.921501 -749.994629
34.102699 158.110107 -751.738403
34.102299 211.102905 -744.960327
34.092400 118.771103 -758.002380
34.089298 153.217102 -752.988708
34.087002 152.392105 -753.503479
34.082901 205.700500 -747.283508
34.082100 201.683502 -747.764771
34.080399 186.256607 -748.216797
34.079201 225.087204 -738.634827
34.074699 246.344101 -725.722778
34.063202 150.498901 -755.157715
34.062401 112.197502 -751.546082
34.062099 198.081100 -748.255798
34.061298 207.251602 -746.629822
34.057999 117.479103 -757.268372
34.055099 112.135902 -754.207886
34.049702 112.923401 -755.829407
34.048100 244.721802 -726.288574
34.048000 222.633499 -739.748779
34.038898 238.395996 -730.451782
34.032200 171.783905 -749.506287
34.029900 124.296799 -760.156921
34.028099 223.656601 -739.344727
34.021301 116.179497 -757.068420
34.020199 111.517097 -754.627625
34.014999 155.166397 -752.578186
34.012699 234.333893 -732.915771
34.007999 160.651093 -751.601013
34.005100 210.218094 -745.656372
34.003899 165.507797 -750.843689
34.003300 204.220306 -747.707275
34.000900 112.598396 -752.335571
33.989300 151.813293 -754.425415
33.987801 208.438904 -746.500671
33.985901 119.923302 -758.550598
33.979599 181.590393 -748.524597
33.978699 113.874001 -756.659973
33.971699 158.960999 -751.766724
33.969501 206.453903 -747.253418
33.968899 154.257095 -752.776611
33.964600 221.940704 -740.040710
33.954201 179.166702 -748.532288
33.952099 247.890701 -725.214722
33.951500 125.000702 -760.776611
33.950001 220.507202 -740.978394
33.948898 123.050003 -759.941711
33.947899 198.819000 -748.320923
33.943802 112.833000 -753.810974
33.938301 233.570206 -733.326294
33.937801 214.324600 -743.681030
33.934898 127.394096 -761.659485
33.931400 153.188904 -753.711182
33.930500 162.054092 -751.506287
33.922501 244.247192 -727.051575
33.920300 111.946800 -750.823975
33.914799 234.987305 -732.508728
33.910000 128.768097 -762.117493
33.908699 151.428101 -755.311523
33.907600 156.354004 -752.417114
33.906200 215.404205 -743.104187
33.902901 167.592102 -750.569397
33.899899 152.553101 -754.272217
33.891399 171.043900 -749.809692
33.890301 226.587296 -738.043396
33.889599 196.718094 -748.541687
33.887699 211.867706 -744.846313
33.885101 242.765198 -727.617676
33.884899 195.201401 -748.388916
33.880299 113.043900 -753.060425
33.880299 185.184204 -748.291687
33.875301 232.547302 -734.481323
33.873699 202.883804 -747.888489
33.870998 213.059296 -744.322876
33.860901 153.946198 -753.501404
33.858501 216.656296 -742.521179
33.848499 189.727997 -748.265076
33.836102 201.147797 -748.265686
33.834099 113.825500 -755.671875
33.833698 245.527496 -725.895996
33.833199 205.176498 -747.773804
33.832901 175.673996 -749.064270
33.832001 188.421906 -748.309021
33.829399 118.196198 -757.530212
33.826000 126.029404 -761.142700
33.825600 229.174103 -736.613220
33.822201 178.030304 -748.654480
33.820000 157.625198 -752.238708
33.818802 199.668594 -748.446472
33.817299 231.645203 -735.063171
33.809601 112.893700 -751.582886
33.806400 174.180496 -749.180115
33.803799 209.329407 -746.610229
33.800598 218.608704 -741.778198
33.797401 112.667702 -750.243774
33.793800 152.368195 -755.132080
33.792000 207.961502 -747.042175
33.787498 221.384293 -740.589417
33.787201 227.390198 -737.722412
33.786800 170.235703 -750.000977
33.786098 163.407303 -751.414490
33.785599 168.663300 -750.190674
33.784901 239.445404 -729.903809
33.782398 237.158203 -731.268799
33.782101 113.151802 -755.029114
33.780300 155.791306 -752.901978
33.771500 111.832001 -755.284912
33.767700 202.146393 -748.303894
33.766800 210.944901 -745.652222
33.764801 182.915695 -748.260681
33.758499 154.905197 -753.271912
33.754398 164.150497 -751.371277
33.752899 159.974503 -751.993713
33.743301 241.024796 -728.819214
33.739601 205.965897 -747.902100
33.739399 241.746902 -727.921570
33.728802 161.330597 -751.696899
33.722801 113.315804 -752.307678
33.721802 246.912094 -725.387695
33.721298 219.594894 -741.478027
33.719398 191.184799 -748.443604
33.714699 228.103394 -737.395630
33.714600 113.568100 -754.143799
33.713902 207.117599 -747.474487
33.707600 197.482101 -748.728394
33.701698 184.136902 -748.306519
33.701000 153.256302 -754.468506
33.697899 186.940506 -748.294006
33.693901 213.874298 -744.286926
33.689098 157.065903 -752.714172
33.688801 179.862198 -748.524719
33.682499 116.705704 -757.489380
33.682400 130.076706 -762.607483
33.682201 166.270203 -750.908386
33.681900 164.942505 -751.246277
33.681900 230.320496 -736.028015
33.678299 236.407501 -731.827026
33.677898 193.403702 -748.366394
33.677399 177.007599 -748.809692
33.677101 195.998795 -748.414001
33.674599 246.802094 -726.201172
33.674000 231.031006 -735.581421
33.670799 158.371506 -752.344604
33.664600 114.860703 -756.083008
33.662701 217.673004 -742.288330
33.662102 204.016098 -748.340027
33.660801 224.667404 -739.193115
33.659100 113.771500 -753.394287
33.649700 114.591202 -756.987427
33.643002 180.712097 -748.501892
33.635799 153.955307 -754.226074
33.630402 128.046005 -761.919189
33.630299 215.024399 -743.721130
33.626801 233.586502 -734.034912
33.624401 210.035400 -746.475525
33.610401 172.516205 -749.548096
33.605301 223.238098 -739.924988
33.601299 212.602402 -744.878479
33.600201 192.496704 -748.458313
33.596001 159.323807 -752.328979
33.593601 120.968697 -758.967529
33.591900 121.989098 -759.391174
33.591702 243.644104 -727.443481
33.589699 113.185799 -750.925110
33.587002 225.666397 -738.865723
33.583302 208.744202 -747.065979
33.575199 204.783096 -748.437317
33.573200 115.520599 -757.327820
33.558899 237.784698 -730.881226
33.557499 173.467194 -749.371277
33.556099 174.953400 -749.153870
33.555801 162.729401 -751.661621
33.547901 222.472107 -740.352722
33.546001 119.286598 -758.239624
33.544899 156.423401 -753.255920
33.529598 248.470993 -724.804688
33.529099 200.627304 -748.703979
33.528599 202.889297 -748.591614
33.523300 235.680801 -732.392578
33.521900 166.977600 -750.757385
33.520699 182.097900 -748.155884
33.506802 216.023697 -743.192383
33.505100 154.702103 -753.986816
33.504902 123.778603 -760.216370
33.500401 155.617905 -753.607483
33.500401 113.629501 -751.555481
33.497898 211.765900 -745.479919
33.496601 206.754807 -748.107117
33.483601 160.673401 -752.208923
33.477299 239.980804 -729.310120
33.477001 157.889999 -752.930908
33.473801 198.242493 -748.776123
33.469501 207.753204 -747.834106
33.464600 194.130997 -748.640686
33.452000 228.796997 -737.210815
33.451302 176.326797 -749.075195
33.450100 187.683807 -748.323730
33.447899 114.076302 -752.640015
33.446602 234.496506 -733.462219
33.440498 126.821602 -761.128418
33.434399 232.278793 -735.141174
33.430302 169.460602 -750.304871
33.428200 205.585693 -748.515625
33.422100 226.442902 -738.648376
33.420300 117.439102 -757.759399
33.416500 113.828796 -754.799927
33.414101 114.574097 -754.050781
33.413898 189.126694 -748.302124
33.409901 185.996704 -748.414429
33.394199 223.918198 -739.656372
33.392101 165.639603 -751.327820
33.391998 209.627304 -747.169312
33.386398 154.613998 -754.762329
33.386200 227.164200 -738.307922
33.385502 113.918602 -750.605286
33.367599 233.218201 -734.624512
33.366798 120.430000 -758.395081
33.366001 161.910095 -752.165588
33.365601 124.554001 -760.511597
33.361500 229.742905 -736.862976
33.361000 131.113098 -763.068115
33.360901 190.316498 -748.433472
33.360401 214.549698 -744.308228
33.355499 198.977005 -748.837830
33.353298 201.468903 -748.764221
33.351398 220.238205 -741.371216
33.348499 238.746796 -730.459412
33.344898 246.118103 -725.536926
33.341000 178.683899 -748.678772
33.338799 203.685806 -749.226379
33.338100 243.985703 -726.634094
33.332298 249.234604 -724.419312
33.330200 153.852798 -754.919922
33.326500 114.440697 -755.554382
33.325199 210.827393 -746.297791
33.323898 235.137497 -732.950989
33.321999 194.889893 -748.787781
33.320900 129.649094 -762.093628
33.320202 244.910599 -726.523376
33.319099 247.560196 -724.998108
33.317699 157.156494 -753.450317
33.314899 217.119507 -742.780518
33.307499 213.462296 -744.809570
33.306499 171.530197 -749.795776
33.306499 219.221802 -741.986877
33.306099 158.741104 -752.996826
33.305401 168.175598 -750.560425
33.298698 160.051804 -752.593079
33.287102 114.347397 -751.890930
33.284599 122.685402 -759.736389
33.283100 114.571503 -754.796570
33.282398 208.469101 -747.787415
33.272400 221.920502 -740.815918
33.271099 181.312393 -748.194275
33.265800 227.955307 -737.989624
33.264400 116.215302 -757.066895
33.263000 156.308594 -753.931213
33.262699 183.492996 -748.293274
33.259201 155.289398 -754.454529
33.257401 206.415802 -748.760193
33.257099 114.448097 -753.279785
33.253399 218.492996 -742.265503
33.251499 242.442505 -727.890503
33.248600 231.698898 -735.726013
33.247398 210.370697 -747.058289
33.246399 114.613503 -750.819214
33.242401 207.300598 -748.621826
33.241600 184.717697 -748.240723
33.234699 221.197693 -741.143188
33.233700 202.207993 -748.874207
33.232800 199.832108 -748.966003
33.232399 230.778397 -736.399170
33.229301 115.281998 -756.662720
33.228802 241.577301 -728.526428
33.220798 196.792801 -749.015930
33.216999 242.975693 -727.227173
33.216702 191.846405 -748.655273
33.215199 204.404495 -749.025085
33.209599 163.816193 -751.812073
33.206299 125.318398 -760.820618
33.200001 118.505997 -757.926392
33.188099 237.052200 -731.812927
33.187401 127.478500 -761.593994
33.183498 211.579193 -746.132507
33.183300 212.480103 -745.573975
33.175400 215.665100 -743.788025
33.160702 128.813095 -761.796875
33.156898 195.630493 -748.928101
33.156200 164.561096 -751.710388
33.154099 225.235504 -739.411926
33.153099 177.652496 -748.664429
33.152401 161.275696 -752.486816
33.145901 205.186798 -749.129883
33.145599 205.965500 -749.376282
33.140999 208.075699 -748.427124
33.137199 170.809204 -749.990112
33.129002 115.028503 -752.829224
33.128799 114.263901 -756.271423
33.117802 179.439697 -748.751221
33.113499 234.227295 -734.120911
33.108299 246.011703 -726.250122
33.105900 209.211395 -747.857422
33.095200 163.132401 -752.122986
33.085800 239.397705 -730.148193
33.084301 121.580803 -758.860229
33.078300 115.554604 -754.405579
33.075699 188.331497 -748.542419
33.070000 126.216499 -760.895386
33.063702 115.263702 -755.851196
33.061199 167.549301 -750.999817
33.059700 240.673798 -729.076477
33.059601 174.333298 -749.281372
33.056499 236.242294 -732.564087
33.055500 245.268005 -725.927979
33.054199 192.951996 -748.702087
33.048100 232.925903 -735.271118
33.046101 182.509796 -748.564392
33.046101 224.528595 -739.943970
33.043499 223.094803 -740.493286
33.037399 228.731705 -737.848877
33.035301 170.121994 -750.300415
33.034901 209.979401 -747.762390
33.033001 159.522293 -753.057007
33.029701 175.481201 -749.039673
33.024399 197.543594 -749.193420
33.023800 158.040604 -753.568115
33.015900 214.147995 -744.940186
33.011902 229.399094 -737.474792
33.008099 189.671097 -748.653503
33.007599 130.344406 -762.814697
33.002399 116.984703 -757.345581
33.000599 180.264297 -748.575928
32.994499 191.022293 -748.693726
32.993198 186.636597 -748.351624
32.991402 172.968796 -749.598999
32.989300 166.392807 -751.276672
32.986801 204.619003 -749.710327
32.984299 131.895996 -763.484070
32.984200 246.801605 -725.152893
32.982101 119.801804 -758.473999
32.975700 200.824097 -749.240906
32.975201 226.136398 -739.239075
32.973900 217.748596 -742.557007
32.967899 216.539001 -743.298889
32.963100 157.022095 -754.112976
32.957802 208.908401 -748.671692
32.955200 202.840103 -749.266113
32.955101 230.302994 -737.152588
32.954498 115.019203 -751.608521
32.947102 172.199005 -749.720703
32.946999 226.995697 -738.943420
32.944801 185.388596 -748.440979
32.944302 235.183105 -733.610596
32.939201 115.808800 -753.656128
32.933300 211.044800 -746.901001
32.930500 213.321198 -745.463318
32.928001 248.124802 -724.520630
32.918598 237.754700 -731.386230
32.916100 115.556602 -751.066895
32.909199 168.973694 -750.643799
32.905499 232.442596 -735.832886
32.900200 155.988602 -754.585510
32.900002 238.394608 -730.939209
32.898499 219.979401 -741.972229
32.897301 231.521805 -736.378784
32.891499 215.232498 -744.329773
32.890999 162.428696 -752.505493
32.885101 220.699707 -741.718079
32.882801 250.085999 -723.973022
32.876499 160.631500 -752.969177
32.876202 201.704697 -749.297607
32.873798 115.590599 -752.418274
32.868301 128.134506 -761.912781
32.865601 233.953400 -734.780273
32.865501 176.822098 -748.983215
32.862999 193.694702 -748.734680
32.859501 115.937500 -756.082275
32.859200 210.692200 -747.631104
32.848301 207.630600 -749.213501
32.848099 115.710403 -755.200684
32.846802 198.364197 -749.274170
32.843601 248.684006 -725.009277
32.835098 243.632004 -727.314087
32.834400 206.892593 -749.331787
32.833000 212.218506 -746.337097
32.832600 227.787399 -738.611877
32.824200 124.263702 -760.045471
32.818901 158.925400 -753.533325
32.813801 119.077599 -758.203674
32.810398 117.861298 -757.786682
32.807499 165.356201 -751.785400
32.789600 120.779404 -758.776978
32.779301 181.727402 -748.572021
32.774200 173.639099 -749.330383
32.768600 239.958298 -729.781128
32.768101 187.409607 -748.459412
32.766201 203.501007 -749.702515
32.759602 236.993500 -732.416321
32.749500 184.037003 -748.416504
32.749001 116.464500 -754.825073
32.747601 122.074303 -759.332886
32.743500 199.115295 -749.343872
32.742901 129.634003 -762.598022
32.736698 222.501404 -740.876221
32.734798 213.186401 -746.390320
32.733501 126.809898 -761.394775
32.732601 231.076706 -736.958313
32.729198 123.174599 -759.855225
32.724400 224.097504 -740.465271
32.712299 194.473404 -749.011475
32.710999 158.131302 -754.359314
32.705898 132.922897 -764.146179
32.705502 249.287994 -724.005615
32.704300 178.220093 -748.426697
32.697300 225.609497 -739.878784
32.694199 244.483994 -726.701416
32.692902 176.109497 -748.711426
32.692299 236.067596 -733.186523
32.689201 116.260498 -753.086426
32.688801 211.822998 -746.947693
32.688599 163.710007 -752.370483
32.679401 196.225098 -749.143677
32.667198 241.986496 -728.112488
32.661400 219.283005 -742.375305
32.660900 217.256699 -743.133484
32.660702 221.395706 -741.569885
32.660599 115.928001 -751.781128
32.659000 128.889297 -762.360901
32.655701 116.618896 -753.945190
32.654301 234.916794 -734.278381
32.648300 241.272293 -728.901001
32.647301 116.550003 -756.479919
32.644600 189.016403 -748.667175
32.641998 228.622498 -738.473022
32.638901 168.329803 -750.967590
32.638599 209.694000 -748.356812
32.638302 161.643799 -752.949890
32.637699 199.986801 -749.480713
32.634701 233.692200 -735.475586
32.632500 192.317902 -748.873718
32.630600 242.879593 -727.791016
32.625401 181.001907 -748.603027
32.624298 190.301605 -748.596375
32.619099 202.293396 -749.681274
32.617901 247.320297 -724.750122
32.614799 174.833893 -748.960083
32.611599 232.217697 -736.477173
32.607101 183.001801 -748.168213
32.603401 171.356400 -750.009827
32.601601 229.388000 -738.129211
32.601002 131.178101 -763.034729
32.599800 218.545502 -742.649902
32.592899 239.204498 -730.693970
32.583698 214.800797 -744.985474
32.581200 211.424606 -747.656494
32.578602 216.199005 -743.855713
32.574600 160.132004 -753.464294
32.557499 246.158005 -725.356018
32.545300 166.998199 -751.401978
32.538700 164.578796 -752.231812
32.531300 184.748505 -748.471680
32.524601 195.195206 -748.901672
32.522499 210.426498 -748.546326
32.516300 226.505295 -739.693420
32.512299 116.624496 -755.597412
32.506500 178.936798 -748.572693
32.504601 197.025406 -749.312622
32.503502 214.172302 -745.492188
32.502998 117.245399 -754.886719
32.502602 125.665604 -760.991821
32.502201 230.236496 -737.808716
32.494301 116.973297 -753.239685
32.490898 116.587997 -752.448181
32.485802 250.777695 -723.528320
32.482399 179.648499 -748.365417
32.475601 227.534698 -739.247070
32.474300 169.678497 -750.578613
32.467201 237.762604 -732.047119
32.466301 186.158493 -748.560791
32.458801 166.092102 -751.731384
32.455002 235.727600 -733.814819
32.442501 249.515305 -724.666077
32.441299 201.355194 -749.864014
32.432899 191.595596 -748.830994
32.430901 170.574203 -750.247925
32.428600 132.395996 -763.706299
32.420200 232.948395 -736.338684
32.416302 234.739304 -734.997070
32.412300 116.919502 -751.566284
32.410999 124.648300 -760.528625
32.410801 127.464203 -761.673828
32.409000 159.520905 -753.923401
32.407398 117.340500 -756.858276
32.401001 162.903900 -752.821411
32.399101 161.085495 -753.394897
32.394600 212.600601 -747.183411
32.393501 224.951904 -740.314392
32.381001 231.001602 -737.640991
32.379700 245.708298 -726.200989
32.377800 223.596405 -740.917419
32.376801 177.419998 -748.644897
32.376598 118.126999 -758.335083
32.370899 244.966599 -726.149475
32.370300 231.869202 -737.085022
32.363201 193.004196 -748.990112
32.361000 240.506302 -729.419373
32.358299 119.442596 -758.688293
32.357800 239.856293 -730.423706
32.355499 248.388504 -724.122498
32.354599 133.859695 -764.824829
32.352600 236.808304 -733.101685
32.349800 238.350693 -731.491272
32.346001 117.508003 -754.138611
32.339298 188.128006 -748.599792
32.333099 215.752106 -744.474121
32.320099 197.764999 -749.392517
32.314800 217.971298 -743.047302
32.301701 130.405502 -762.490112
32.299400 117.168701 -756.117798
32.299400 216.859604 -743.651184
32.299099 182.288696 -748.146118
32.297100 174.223404 -749.291504
32.291401 175.604507 -749.132019
32.282902 235.556000 -734.589111
32.282398 237.531097 -732.735474
32.280499 167.676102 -751.231873
32.278301 200.546295 -749.840088
32.272800 190.866806 -748.949707
32.268398 233.992401 -736.064270
32.265900 172.658997 -749.738525
32.259800 250.023605 -723.517883
32.254501 122.644096 -759.524292
32.253700 195.633102 -749.462280
32.252998 213.752594 -746.211609
32.251400 220.039795 -742.359314
32.250401 117.778397 -755.568970
32.244099 228.525497 -739.100708
32.242699 189.629501 -748.554016
32.241299 117.318199 -752.400024
32.239399 222.400299 -741.417480
32.234299 220.755905 -742.101318
32.232800 123.710999 -760.083313
32.226501 193.825302 -749.151917
32.220200 120.207802 -758.975098
32.213299 165.291901 -752.252991
32.211498 199.617203 -749.984314
32.210999 121.529800 -759.131592
32.201698 246.998001 -725.305725
32.200001 117.971703 -754.826477
32.200001 229.247299 -738.810974
32.199501 198.651001 -749.538086
32.198700 241.853699 -728.780701
32.197899 186.905197 -748.619995
32.197899 236.380905 -734.132507
32.186600 126.393799 -760.980286
32.185101 118.319298 -757.268799
32.182701 243.796494 -726.886597
32.177200 212.046906 -747.718628
32.175900 168.914001 -750.845520
32.173000 117.780403 -753.392578
32.168598 176.651001 -748.770203
32.164799 185.396194 -748.537781
32.164501 116.832298 -757.432495
32.162800 160.431396 -754.153870
32.157001 226.046799 -740.178284
32.155201 239.103195 -731.365723
32.154701 232.705200 -736.986572
32.143398 162.214005 -753.223572
32.137798 128.419006 -761.795715
32.130299 183.534195 -748.366028
32.128201 234.734100 -735.790100
32.127499 158.696899 -754.367493
32.122398 229.959000 -738.388916
32.121399 180.630005 -748.148926
32.107300 181.486893 -748.177795
32.105000 118.891899 -757.974182
32.100601 173.415298 -749.616821
32.094299 118.220497 -753.990784
32.093399 227.150803 -739.762207
32.089199 163.917099 -752.773682
32.087898 242.500198 -728.150024
32.087200 134.701706 -765.473511
32.078400 117.831497 -751.853027
32.062302 194.777603 -749.403687
32.062302 213.140701 -746.750122
32.058800 118.228897 -756.164612
32.054901 231.677094 -737.737671
32.045700 243.347504 -727.744812
32.044102 247.935394 -724.718872
32.043499 251.526199 -723.088074
32.043301 235.553802 -735.377014
32.039200 237.230896 -733.677979
32.033901 233.429596 -736.890320
32.029598 215.058395 -745.425720
32.021702 224.410797 -740.806213
32.014301 248.907898 -723.706177
32.014000 241.162704 -729.391479
32.013000 221.455505 -741.955017
32.009602 129.352798 -762.151001
32.007500 218.999100 -742.648376
32.006401 171.955994 -749.941101
32.005798 250.321701 -724.331909
31.986401 196.495193 -749.489929
31.982599 133.210693 -764.254028
31.980101 238.283798 -732.375977
31.979500 230.917603 -738.284302
31.971800 166.701004 -751.871826
31.971500 178.295105 -748.583618
31.968100 240.440201 -730.101624
31.966801 118.073601 -752.648193
31.966200 227.994095 -739.619385
31.963400 131.552505 -763.339478
31.960800 118.673500 -754.785522
31.960501 217.510406 -743.515930
31.952200 117.550102 -757.493286
31.950600 125.216599 -760.787781
31.949600 188.799606 -748.841125
31.949200 236.361801 -735.082520
31.940201 223.138000 -741.333313
31.931101 244.533203 -726.663025
31.926300 239.790695 -731.077271
31.924500 192.207703 -749.092773
31.918800 237.897797 -733.298706
31.915701 214.425201 -746.089294
31.914301 216.455597 -744.445984
31.907101 163.099701 -753.342773
31.906401 164.682098 -752.705017
31.902901 197.192307 -749.836914
31.900900 234.399597 -736.584473
31.899200 232.411102 -737.696289
31.896601 171.156601 -750.272888
31.894600 174.899002 -749.276428
31.891399 118.511497 -753.245422
31.883301 118.820900 -755.520874
31.882401 168.297394 -751.361877
31.879101 225.417496 -740.741211
31.877800 161.598404 -753.739624
31.870600 118.742104 -752.245117
31.869200 245.755203 -725.600891
31.867201 127.084099 -761.274902
31.863899 250.584793 -723.077087
31.860100 239.001602 -732.117004
31.855301 120.824799 -759.223999
31.854601 130.627197 -763.082825
31.849600 247.163300 -724.630127
31.846300 237.213104 -734.438904
31.845501 198.022003 -749.949585
31.845501 184.360397 -748.581787
31.841400 215.654297 -745.022583
31.837601 170.214203 -750.557800
31.837099 190.212006 -748.882813
31.832500 235.548203 -736.099426
31.824301 165.941101 -752.190613
31.816299 182.742599 -748.525574
31.815599 187.607803 -748.705017
31.800501 226.821396 -740.385986
31.791000 119.969398 -758.415405
31.786600 118.645699 -756.717896
31.777000 229.108795 -739.416504
31.775101 179.432404 -748.476929
31.767401 229.904404 -739.090088
31.767200 119.024696 -754.055420
31.766600 234.047195 -737.225098
31.765100 231.486801 -738.827881
31.762100 124.690598 -760.174683
31.757401 123.323799 -759.586426
31.753099 119.186501 -756.154114
31.747900 191.453705 -749.078674
31.742500 236.354401 -735.803589
31.742399 167.519196 -751.715088
31.740700 119.194603 -757.396912
31.733900 186.311493 -748.580200
31.732201 252.284195 -722.444824
31.729200 129.856903 -762.656677
31.719299 176.086304 -748.953186
31.710199 127.783897 -761.843079
31.706400 246.500397 -725.685974
31.702801 122.136597 -759.322083
31.702000 213.896393 -746.742004
31.700199 237.174698 -735.215027
31.697599 233.123901 -737.655823
31.694300 245.269302 -726.372375
31.684299 238.187805 -733.974182
31.684200 193.200500 -749.301086
31.678900 223.829407 -741.174011
31.677900 218.587601 -743.190918
31.676600 227.632294 -740.251587
31.669100 228.468307 -740.199524
31.668501 250.951996 -723.893799
31.667000 132.523605 -763.916199
31.661200 238.986404 -732.875427
31.644199 248.042496 -724.072998
31.643900 249.688507 -723.256409
31.640900 134.146698 -764.974182
31.640800 235.290100 -736.802612
31.637699 233.002304 -738.479675
31.636900 169.565994 -750.928406
31.632500 119.549202 -755.242371
31.623100 240.449997 -730.810486
31.618601 119.346802 -753.329712
31.616800 177.252594 -748.794617
31.610901 128.702698 -762.482605
31.610701 242.312897 -728.731812
31.605101 135.098404 -765.881287
31.602600 238.014999 -734.767395
31.599199 226.188995 -740.728088
31.597799 182.019302 -748.397217
31.595800 189.509003 -748.979980
31.592899 222.463303 -741.804016
31.584900 232.255707 -738.360474
31.578899 236.203506 -737.529724
31.573999 162.511307 -753.768921
31.573400 239.815201 -731.806824
31.572399 234.748596 -737.449707
31.568199 219.632202 -742.611816
31.565599 195.374695 -749.639282
31.565300 220.350601 -742.423889
31.565100 236.323807 -736.616577
31.560400 238.916397 -733.760986
31.559500 237.832306 -736.370972
31.558500 217.199707 -744.077820
31.553900 194.192001 -749.267578
31.550200 165.362198 -752.706970
31.547899 174.201004 -749.447876
31.544901 237.025101 -736.908203
31.543100 172.849899 -749.708801
31.542601 241.784607 -729.458618
31.539900 119.676399 -752.445618
31.539600 230.590302 -738.889221
31.534300 252.966705 -722.114014
31.521099 237.144806 -736.028198
31.520399 123.935699 -760.140686
31.519100 251.320404 -722.538879
31.518200 181.076004 -748.524719
31.514299 163.929001 -753.279175
31.513100 244.074493 -727.253418
31.507799 119.856102 -754.514771
31.506800 248.848297 -724.278809
31.505501 180.123398 -748.411987
31.504299 235.464493 -737.819397
31.498600 185.102097 -748.674988
31.494801 237.958099 -735.569397
31.494499 119.944397 -756.021912
31.490200 238.677002 -735.911072
31.482000 225.025696 -741.252380
31.481199 241.224106 -729.986877
31.478399 242.980301 -728.374573
31.470600 215.191299 -745.990723
31.469400 238.853195 -734.560730
31.462700 126.202698 -761.210205
31.460100 175.394806 -748.846619
31.457800 239.514496 -735.465271
31.456900 183.720703 -748.624023
31.444901 119.818901 -756.757019
31.441000 233.959106 -737.896179
31.433701 196.285004 -750.002625
31.422701 178.798492 -748.247192
31.417801 135.762802 -766.266479
31.417801 166.500595 -752.605103
31.415300 121.422897 -759.533875
31.412701 239.892197 -732.559021
31.403000 120.042503 -753.727417
31.387800 229.705002 -739.697388
31.384600 216.541306 -745.182617
31.375900 133.549805 -764.538574
31.374201 240.504303 -731.559326
31.372999 120.238998 -752.901306
31.372801 188.248703 -748.841980
31.371799 217.983093 -743.638184
31.368799 239.812698 -733.341675
31.366501 168.863998 -751.341919
31.362801 119.910500 -757.758423
31.356899 186.882095 -748.889771
31.354700 190.744995 -749.105896
31.349001 243.658905 -727.948914
31.348400 232.427704 -739.264099
31.347500 120.634499 -758.652771
31.346300 221.036499 -742.140198
31.346201 251.822296 -723.082886
31.345400 233.795197 -738.637817
31.339001 239.690399 -734.424927
31.320299 223.231293 -741.737976
31.319799 240.425201 -734.514709
31.315100 171.634705 -750.302002
31.294901 120.458298 -755.470703
31.278799 177.862793 -748.440125
31.275900 192.108093 -749.442627
31.272499 227.087006 -740.932922
31.268200 228.867203 -740.907227
31.267099 215.834793 -745.529480
31.265301 170.764603 -750.511475
31.263500 131.938400 -763.673279
31.255899 234.801102 -738.144592
31.247801 250.250397 -722.818115
31.246201 134.699799 -765.350281
31.236799 231.487595 -739.468872
31.236000 122.605499 -759.800903
31.232100 125.268501 -760.465576
31.230400 167.165100 -752.283875
31.230000 164.805603 -753.225281
31.226200 131.106705 -763.251587
31.224300 251.843399 -722.075378
31.223101 120.386803 -757.184509
31.215500 246.083801 -726.059570
31.208099 253.372696 -721.512512
31.202499 240.607895 -732.291382
31.200899 127.395699 -761.391113
31.192400 217.254700 -744.726929
31.191799 247.309006 -725.012695
31.188601 248.610703 -723.639221
31.186600 241.151901 -730.666626
31.182699 244.790802 -726.870789
31.181801 168.240906 -751.697571
31.180599 219.268799 -743.197083
31.180099 224.237503 -741.542786
31.178699 227.847595 -740.818787
31.178301 229.515594 -740.405579
31.175501 230.507202 -739.886597
31.173599 120.590401 -756.255615
31.163000 176.622192 -748.769897
31.159201 120.710098 -753.431030
31.155600 173.472198 -749.576599
31.150299 120.522301 -754.529480
31.145901 240.587204 -733.758606
31.143200 225.815002 -741.270630
31.136400 185.937393 -748.820007
31.132700 174.868393 -749.303894
31.122900 136.312607 -766.768494
31.121000 128.223602 -762.054626
31.120800 242.424194 -729.436401
31.119801 121.338799 -753.028198
31.118700 130.234695 -762.911987
31.112499 221.999802 -742.152893
31.108801 129.444397 -762.586792
31.104200 193.660294 -749.709229
31.100100 182.558304 -748.210022
31.099400 241.862198 -730.200623
31.099001 226.593201 -741.510925
31.097000 184.369507 -748.694885
31.090200 170.141098 -750.918701
31.081100 120.720398 -757.831116
31.075100 188.869003 -749.171082
31.073500 190.022797 -749.142578
31.072800 231.756897 -738.788086
31.064899 124.446800 -760.542480
31.060101 123.327904 -760.066284
31.056601 172.252197 -749.986572
31.056200 121.342003 -758.875610
31.051300 187.556305 -748.929382
31.042101 246.611694 -725.358826
31.035101 165.860199 -752.909729
31.029800 220.079193 -743.006409
31.025200 180.739594 -748.083923
31.022499 245.557098 -726.567871
31.021799 241.286697 -731.440430
31.017401 241.321106 -733.705688
31.017200 192.810501 -749.655273
31.006300 121.173798 -754.138123
31.005600 240.697998 -733.028625
30.995899 253.966995 -721.066528
30.993299 252.442795 -722.522217
30.992701 121.154701 -757.064087
30.988501 239.957306 -735.043579
30.983900 218.664200 -743.587524
30.978100 179.568405 -748.394714
30.977600 181.647003 -748.153381
30.976500 121.284103 -755.955017
30.971500 121.145798 -755.118774
30.968500 225.049103 -741.862122
30.962200 243.008698 -728.906311
30.948601 220.810196 -742.794800
30.933500 191.305893 -749.402100
30.932301 122.171501 -758.872314
30.931601 249.462799 -723.099670
30.931499 248.170898 -724.416504
30.919201 175.880096 -749.000427
30.911800 126.708801 -761.387512
30.902100 252.556198 -721.793884
30.895000 244.219803 -727.665588
30.893700 241.420898 -732.196228
30.892300 133.067993 -764.239624
30.891800 169.468903 -751.242920
30.880501 251.013504 -722.287720
30.875999 241.470398 -732.944580
30.874001 122.022797 -753.327881
30.862101 223.770096 -742.248230
30.860001 135.363007 -765.760071
30.853901 222.764496 -742.203308
30.843800 227.401398 -741.486572
30.841999 134.027695 -764.844727
30.834299 137.018799 -767.289673
30.833700 222.125107 -742.832703
30.807699 121.800003 -754.574280
30.803301 174.098297 -749.325195
30.787100 121.569901 -758.174011
30.786699 125.857697 -760.991089
30.780199 241.750000 -730.864319
30.777300 183.483597 -748.329285
30.775900 178.501297 -748.458313
30.775700 243.844696 -728.388428
30.773300 218.098297 -744.066101
30.763700 242.559097 -730.161804
30.759600 185.042694 -748.634827
30.751301 190.571304 -749.526123
30.736799 241.959503 -731.578491
30.732599 254.548203 -720.560181
30.730499 121.836197 -757.404602
30.719500 167.550400 -751.903015
30.706301 122.006401 -756.667480
30.702900 172.887100 -749.760925
30.693300 240.815598 -734.317078
30.691299 242.288300 -732.914490
30.688400 225.898300 -741.849609
30.675800 171.232803 -750.481079
30.662100 121.877197 -755.630798
30.659700 177.084000 -748.332703
30.653999 168.794907 -751.724670
30.653200 188.153000 -749.201294
30.646999 122.679703 -753.642822
30.632500 186.856598 -748.733521
30.626301 175.133804 -748.788391
30.610201 123.876999 -760.406128
30.608101 135.962708 -766.171387
30.607100 248.972702 -724.051880
30.599501 251.426605 -721.731079
30.591299 131.461899 -763.713806
30.585501 122.488503 -754.736084
30.584801 130.694794 -763.241577
30.581301 244.959702 -727.299927
30.580200 242.532303 -730.941284
30.572300 122.640701 -759.429871
30.570700 253.128494 -721.086121
30.565800 243.119904 -729.554688
30.563000 189.434998 -749.560486
30.555000 182.156494 -748.509888
30.554399 137.739197 -767.745728
30.552000 242.909805 -732.443481
30.540400 124.978302 -760.872375
30.539400 132.238297 -763.586426
30.537100 128.719803 -762.289185
30.535601 180.243500 -748.355408
30.531500 247.562195 -724.579102
30.528799 250.033203 -722.671387
30.517300 253.154007 -722.168518
30.513800 127.516403 -761.755188
30.506201 219.503601 -743.691528
30.503901 134.753204 -765.381714
30.493900 255.203003 -719.891113
30.492100 122.527397 -757.251526
30.484400 221.443207 -742.838623
30.477900 246.404297 -726.057312
30.467199 129.846497 -762.771729
30.446100 185.691895 -748.944824
30.445400 176.374298 -748.571472
30.443399 220.232101 -743.467285
30.441500 181.211700 -748.518494
30.437300 122.791901 -756.146973
30.436501 243.214493 -730.283386
30.432301 122.412598 -757.982727
30.424999 170.439301 -750.765320
30.416300 253.723602 -721.597412
30.412300 184.072693 -748.719788
30.400101 252.332703 -721.271912
30.399300 242.647598 -731.713989
30.394400 123.238503 -754.133179
30.392000 171.947800 -750.298279
30.383801 246.996796 -725.087524
30.366600 136.463394 -766.666016
30.363400 177.857697 -748.315308
30.361601 243.931305 -729.080017
30.361099 123.346603 -759.786926
30.355101 245.668396 -726.953674
30.354200 253.739502 -720.613770
30.346001 244.434296 -728.126587
30.345200 123.003502 -755.409485
30.342699 243.662704 -731.813171
30.341999 243.273895 -731.132324
30.307301 173.488602 -749.514282
30.306900 179.316803 -748.179321
30.306400 122.684402 -758.701294
30.304399 250.070602 -723.420105
30.295401 182.847397 -748.272888
30.273500 174.668198 -749.273987
30.257700 123.111603 -756.814880
30.235201 248.284302 -724.091370
30.231300 249.173203 -723.259216
30.221901 133.588898 -764.577820
30.221600 126.341599 -761.209106
30.207001 124.014503 -754.034180
30.205200 244.336395 -731.329773
30.191601 254.453293 -720.020630
30.188400 243.774994 -729.785217
30.175600 123.683899 -754.711426
30.145000 250.815704 -722.161804
30.135900 243.873505 -730.713501
30.129601 175.801804 -748.969177
30.126200 128.147400 -761.736877
30.125601 138.542496 -768.329773
30.120600 123.139297 -757.771973
30.120100 134.278305 -764.901489
30.110399 124.053596 -759.679382
30.099100 132.551697 -764.101624
30.098200 123.442497 -755.971130
30.093700 254.397797 -721.027527
30.092800 137.156494 -767.148193
30.089800 135.534500 -765.853821
30.057501 255.761002 -719.244202
30.032301 178.573593 -748.538696
30.015699 245.164597 -727.754578
30.014200 125.479897 -761.192627
30.010000 123.406898 -758.533325
29.994801 124.075897 -755.325317
29.992599 126.926903 -761.638977
29.992300 124.722099 -754.254700
29.971500 129.260605 -762.489014
29.968800 244.685699 -728.765686
29.965300 131.106995 -763.354187
29.965200 177.121704 -748.700928
29.962400 247.734406 -725.057129
29.954700 244.910706 -730.753784
29.942900 251.790894 -721.491272
29.938601 123.861702 -757.741577
29.933300 124.783600 -760.428711
29.920500 252.774307 -720.798279
29.908501 246.801193 -725.731079
29.899000 244.468307 -729.865112
29.894199 249.289993 -723.976685
29.887199 130.483505 -762.785706
29.884100 246.232193 -726.742981
29.876801 138.125397 -767.757629
29.859100 124.135696 -757.018188
29.844500 254.947906 -719.532288
29.832399 123.449501 -759.266785
29.828400 256.448700 -718.745789
29.825399 254.956802 -720.453003
29.809099 124.119904 -756.132324
29.808599 250.432602 -722.770081
29.796200 253.466995 -720.188416
29.790800 139.199600 -768.726196
29.788401 245.879898 -727.411011
29.784800 124.768898 -755.134888
29.738701 134.845001 -765.359924
29.712700 245.413498 -730.241516
29.704100 136.245300 -766.242126
29.695700 131.973801 -763.850098
29.694401 124.173897 -758.394714
29.676901 125.910202 -760.684387
29.644300 125.803902 -754.605774
29.640100 133.104904 -764.290222
29.624800 254.065704 -719.705811
29.622400 248.469803 -724.572327
29.615200 245.192093 -729.254822
29.613300 245.284195 -728.430786
29.603100 124.703400 -757.860596
29.600100 257.203796 -718.018982
29.585699 128.674103 -762.179382
29.562401 255.623199 -719.784119
29.556999 127.624199 -761.752686
29.556801 125.145798 -755.845886
29.548901 249.492203 -723.216370
29.546900 124.494598 -759.049377
29.535601 124.896797 -757.123779
29.514601 139.785599 -769.097900
29.513100 137.623505 -767.262085
29.513000 255.339096 -718.897888
29.512501 251.208099 -721.802612
29.508400 136.881805 -766.765686
29.480499 124.172401 -760.155029
29.465900 129.793503 -762.710876
29.465200 126.454201 -761.170288
29.424500 133.737503 -764.726990
29.420500 247.380707 -725.774170
29.407600 125.727402 -755.309021
29.400200 125.195801 -760.027771
29.393101 246.823807 -726.298523
29.367399 138.754593 -768.279785
29.355600 251.968903 -720.991516
29.355101 125.370499 -756.555420
29.348499 245.936401 -728.042480
29.344200 125.262299 -758.360596
29.342400 245.923294 -729.692810
29.332300 135.458603 -765.615417
29.326300 256.526794 -718.187378
29.316401 256.122101 -719.179993
29.297100 126.475304 -754.926514
29.294500 246.426102 -727.187378
29.290600 257.759399 -717.421021
29.287600 130.747406 -763.138184
29.287500 248.804703 -723.916687
29.275101 125.474602 -757.532227
29.274000 254.563995 -719.236572
29.271299 125.307404 -759.111572
29.246000 247.947006 -724.981323
29.233700 246.572205 -728.535706
29.230700 134.444199 -764.978271
29.226500 131.411606 -763.565430
29.225599 252.913101 -720.411316
29.221800 245.817398 -728.798523
29.219900 126.955498 -761.893005
29.217699 140.315399 -769.538025
29.192900 249.562302 -723.913818
29.170900 250.537399 -722.398987
29.160000 126.114998 -755.920105
29.145300 250.113800 -723.260986
29.129101 255.796906 -718.204102
29.118401 132.573303 -764.051697
29.114599 253.435196 -719.844116
29.068001 129.323593 -762.296570
29.058300 128.212204 -761.922485
29.052601 127.083000 -761.139221
29.047100 138.386703 -767.720276
29.035999 126.095802 -757.036621
29.032499 125.954102 -758.288879
28.993299 125.935799 -759.948303
28.981600 127.076698 -755.259216
28.973499 125.486702 -760.760376
28.970900 257.065094 -717.357971
28.967100 136.046997 -766.052429
28.961100 247.162796 -727.827087
28.948500 139.343399 -768.591003
28.943199 248.907806 -724.607910
28.937000 247.104202 -727.045593
28.933599 141.029694 -769.927917
28.931000 126.138702 -759.202576
28.920601 254.978394 -718.607971
28.912600 256.668701 -718.811523
28.905001 133.209396 -764.468689
28.892000 251.618103 -721.741394
28.880501 257.328186 -718.168579
28.873699 137.333694 -766.989075
28.869801 252.775101 -721.094116
28.866699 247.873398 -725.631226
28.865999 126.875999 -755.993225
28.851999 258.268799 -717.015076
28.844101 126.285896 -760.703186
28.836100 253.936493 -719.293823
28.829201 256.202789 -717.659729
28.821501 247.319702 -726.260315
28.809700 246.421600 -727.839172
28.773300 134.929993 -765.375916
28.757999 246.415497 -729.216797
28.749901 126.613503 -758.026184
28.744101 136.717896 -766.543884
28.723801 130.016998 -762.609375
28.721399 139.927505 -769.023926
28.715599 132.030197 -763.457581
28.705099 126.935699 -756.793091
28.695601 127.688103 -755.593628
28.694700 257.502686 -716.816528
28.677601 128.765594 -762.631104
28.653999 142.039993 -770.294800
28.633900 127.729599 -761.369019
28.622601 259.068115 -716.328430
28.618099 126.802696 -759.891174
28.601200 252.059601 -721.066284
28.579100 248.357300 -724.976318
28.556499 252.975296 -720.014221
28.553101 133.803299 -764.757385
28.548300 257.909088 -717.695618
28.544399 131.223099 -763.299805
28.542900 126.744301 -758.849182
28.533501 258.163300 -716.314880
28.524900 127.629402 -756.403992
28.520201 249.216293 -723.951416
28.516600 138.950607 -768.125183
28.514601 255.459595 -717.936584
28.510201 126.600998 -761.515381
28.503201 250.882996 -722.341614
28.487301 137.893600 -767.324280
28.468399 249.836502 -723.475891
28.463301 140.556900 -769.413208
28.461201 246.794296 -728.478271
28.451200 254.420105 -718.752686
28.441799 256.631897 -717.007202
28.436701 135.492493 -765.744995
28.411900 127.312500 -758.310303
28.403999 127.065697 -757.529785
28.385201 132.844803 -764.023071
28.384199 127.265701 -760.721680
