39.861900 50.571301 -743.697327
39.861401 74.456100 -741.889709
39.861198 77.457497 -741.031128
39.858601 44.228500 -747.130493
39.857399 22.921400 -741.818970
39.855301 69.060402 -743.416504
39.855202 64.635498 -743.645508
39.855099 68.250603 -743.476379
39.853600 20.669100 -741.931030
39.852200 40.188999 -745.954529
39.851299 30.423500 -741.026794
39.851101 37.539398 -745.280884
39.848999 54.407799 -743.755615
39.848598 72.157204 -742.674683
39.848202 23.954201 -742.818420
39.848099 57.801399 -743.764709
39.846901 40.201698 -742.687683
39.846199 23.134399 -742.585327
39.845299 41.598202 -742.490112
39.844700 37.610199 -742.472412
39.843899 61.291100 -743.746521
39.841301 38.066299 -745.415527
39.840401 24.997400 -741.585083
39.839600 23.496700 -741.696472
39.837700 32.658600 -742.203918
39.836300 51.336399 -743.724426
39.835999 75.215103 -741.607117
39.833302 51.772099 -743.726379
39.833000 79.013100 -740.917175
39.831600 28.251200 -744.328186
39.830601 54.956501 -743.773621
39.828602 56.856800 -743.773987
39.827499 67.875198 -743.505127
39.825298 34.153702 -747.421875
39.823898 35.373600 -742.322205
39.823399 23.544500 -742.613525
39.822899 62.770599 -743.562988
39.822399 34.772999 -742.280090
39.820900 75.623703 -741.399170
39.819199 42.307800 -742.846985
39.818802 67.356903 -743.541870
39.817902 43.703300 -742.989014
39.813499 48.949001 -743.526001
39.813099 79.782204 -740.950623
39.811401 44.045101 -742.728699
39.811001 32.728100 -746.348511
39.809101 56.106300 -743.739929
39.804798 42.166401 -746.424622
39.804501 31.570900 -745.706299
39.803101 63.337399 -743.477417
39.803001 46.433601 -743.171875
39.800999 34.692200 -747.558105
39.797501 41.009998 -746.115295
39.796700 47.011002 -743.235291
39.795799 29.031200 -744.637512
39.793098 52.182301 -743.708801
39.790401 30.728100 -745.317383
39.790401 73.713799 -742.146606
39.787998 66.717903 -743.568420
39.787800 59.314098 -743.749878
39.787800 77.925499 -740.948975
39.787300 76.811897 -741.232483
39.784599 39.841000 -742.666626
39.782101 22.839899 -742.267822
39.778702 50.183998 -743.589478
39.778400 48.191799 -743.362000
39.778301 58.195999 -743.702820
39.778301 74.888702 -741.933289
39.777599 53.456699 -743.675171
39.774799 41.276501 -742.781372
39.774502 71.420303 -742.752930
39.772800 45.433399 -743.047424
39.770599 30.126801 -745.055725
39.770000 35.933899 -742.357178
39.768501 33.744701 -746.987183
39.767799 38.903702 -745.692688
39.767200 39.411800 -742.630127
39.764702 27.970100 -741.406799
39.761600 26.216499 -743.454285
39.756500 45.495899 -747.140381
39.756001 56.505001 -743.686401
39.755402 36.538601 -745.063110
39.751202 69.368103 -743.232117
39.750301 29.749399 -744.882080
39.746201 23.148100 -742.065613
39.746101 78.716499 -741.100525
39.743698 74.050003 -742.004578
39.742699 29.876699 -741.230408
39.733398 37.989399 -742.525391
39.732399 23.833599 -741.812317
39.729500 32.117802 -745.883606
39.728600 62.081799 -743.643677
39.727001 76.445503 -741.335815
39.725601 39.339298 -745.728577
39.717499 26.714199 -743.750488
39.716099 45.054401 -743.078674
39.715900 41.739101 -742.809387
39.714298 43.427101 -742.657104
39.713402 64.221703 -743.656921
39.713200 63.312901 -743.833496
39.713200 61.107800 -743.473328
39.710300 51.082901 -743.507874
39.710098 65.088402 -743.587280
39.708199 58.786701 -743.520081
39.707699 73.331100 -742.182129
39.704498 66.145203 -743.578674
39.703800 45.877399 -743.028625
39.701302 52.864300 -743.599487
39.699100 69.988098 -743.039185
39.698601 27.445499 -744.009521
39.698502 55.316898 -743.867615
39.697800 55.887199 -743.468079
39.693600 59.687698 -743.619019
39.693401 36.629101 -742.434082
39.692902 71.015999 -742.769592
39.692600 49.476101 -743.409790
39.692299 57.260502 -743.618103
39.687599 47.930302 -743.052979
39.686199 72.678101 -742.300781
39.683102 26.204800 -741.699280
39.681599 65.532997 -743.737122
39.679699 41.464100 -746.295776
39.678799 48.913700 -743.163391
39.678200 42.749001 -746.619690
39.677502 24.263599 -741.787720
39.676800 21.352301 -741.976013
39.676102 43.391602 -746.779175
39.673901 42.611801 -743.029175
39.673100 53.813801 -743.569580
39.668499 39.061199 -742.595276
39.666000 40.617802 -742.702820
39.664398 61.588699 -743.852722
39.663700 27.409201 -741.613220
39.663300 23.429800 -742.309509
39.661900 31.061899 -741.070129
39.661800 49.896301 -743.423706
39.658199 70.534500 -742.859070
39.656300 68.815598 -743.253296
39.656200 46.829700 -742.943726
39.654999 31.487900 -740.756287
39.652901 44.512798 -747.044189
39.652802 60.325500 -743.447205
39.651299 24.649300 -742.939270
39.650902 79.444397 -740.886719
39.650002 47.477798 -743.016479
39.645199 25.785400 -741.741516
39.644699 32.022999 -742.209778
39.643799 44.516102 -743.164185
39.643398 29.192301 -741.439392
39.640800 25.216900 -743.123230
39.640400 61.020401 -743.907227
39.639900 25.888000 -743.355530
39.638401 71.841301 -742.609497
39.637299 35.464401 -744.851013
39.636200 75.939598 -741.395813
39.634998 62.449200 -743.813721
39.627300 54.224499 -743.507813
39.626301 33.328400 -746.523315
39.622601 77.155197 -741.151611
39.621399 60.505600 -743.807922
39.620499 46.693901 -743.349976
39.618599 56.769798 -743.446228
39.618401 54.775002 -743.371826
39.617001 24.266399 -742.772522
39.616100 74.745903 -741.626770
39.615101 43.936699 -746.887329
39.613300 23.827700 -742.591125
39.613098 50.666199 -743.417725
39.611500 72.132797 -742.352783
39.610802 26.855801 -741.705078
39.607899 24.849400 -741.853516
39.607800 47.635300 -743.430298
39.607700 43.060101 -742.925781
39.604099 57.530701 -743.890015
39.601200 45.279900 -742.783630
39.599602 51.718201 -743.457520
39.599499 48.679100 -743.430115
39.597401 29.574301 -741.410217
39.593899 73.028603 -742.326721
39.589001 53.294102 -743.341614
39.589001 68.401901 -743.293518
39.585201 39.673599 -745.898315
39.584801 55.414001 -743.515076
39.584400 23.887300 -742.176697
39.583698 50.327900 -743.240784
39.577499 28.068800 -744.157410
39.576000 28.517300 -741.599792
39.567799 59.989399 -743.817627
39.567299 63.891499 -743.572083
39.566601 24.687099 -743.349121
39.566200 69.665802 -743.175903
39.558701 67.641502 -743.459229
39.557701 34.237801 -747.210876
39.557701 32.746399 -746.091614
39.556900 37.063499 -742.475281
39.556400 78.414597 -741.008789
39.555000 63.005501 -743.643677
39.553501 52.242001 -743.307678
39.551498 58.477600 -743.799011
39.549900 30.478701 -741.340881
39.548901 33.675598 -746.711182
39.548901 34.101002 -742.322327
39.548500 75.266800 -741.413025
39.547401 28.832199 -744.357788
39.542599 37.035599 -745.191589
39.534401 43.466599 -742.973206
39.533699 59.010700 -743.789978
39.531200 54.600399 -743.774597
39.530800 40.291801 -746.062378
39.529800 31.430099 -741.161194
39.528400 78.075996 -741.176819
39.524200 67.136299 -743.413574
39.521099 64.774399 -743.702698
39.518700 22.386200 -742.202026
39.516998 53.193600 -743.775818
39.516399 23.038401 -742.418274
39.515800 55.768101 -743.775696
39.514599 74.301804 -741.773926
39.512798 38.665501 -742.587219
39.512001 36.275002 -742.429871
39.511700 77.614998 -740.945190
39.509499 41.928600 -746.440979
39.507702 31.430401 -745.473572
39.500500 47.242901 -743.230713
39.499199 30.043699 -741.442871
39.496201 25.285700 -741.894714
39.495998 33.639500 -742.312988
39.495201 42.125599 -742.827271
39.492500 35.246899 -742.385925
39.491600 71.518799 -742.452087
39.488400 34.639099 -742.352783
39.488098 76.460701 -741.073181
39.487301 63.529598 -743.581970
39.485199 66.440201 -743.590820
39.483700 57.033298 -743.792480
39.480000 30.612400 -745.117371
39.478298 47.954201 -743.333374
39.476601 46.140598 -743.166382
39.475899 66.749298 -743.397705
39.475498 52.555698 -743.711426
39.472900 57.993999 -743.869385
39.472698 32.120701 -740.817688
39.472099 51.371601 -743.589478
39.471401 36.014000 -744.974976
39.468800 24.382601 -742.162781
39.466702 65.693398 -743.442322
39.465900 40.259602 -742.712708
39.465199 42.301102 -746.577881
39.462799 68.058800 -743.259827
39.461800 79.003403 -740.839111
39.461601 30.007401 -744.851379
39.461498 44.199402 -743.009521
39.460999 34.554600 -747.387817
39.459400 70.683800 -742.580872
39.457001 55.032398 -743.732422
39.455299 71.145103 -742.521973
39.447899 52.022999 -743.716919
39.447701 38.207298 -742.524719
39.446899 31.898100 -745.597778
39.446800 26.367800 -741.910278
39.445999 73.657303 -742.064270
39.445499 29.619699 -744.665527
39.443802 37.559502 -745.330688
39.442501 69.306999 -742.998474
39.442402 37.496601 -742.500977
39.441399 38.072601 -745.445007
39.440701 35.813301 -742.413391
39.440102 60.927799 -743.613586
39.439800 70.149200 -742.720886
39.437599 59.408901 -743.777405
39.437500 26.005800 -741.969177
39.434601 53.610001 -743.751221
39.433399 41.419201 -742.763794
39.431900 56.158100 -743.796814
39.427898 26.907000 -743.619812
39.427601 25.721800 -743.595581
39.420898 45.534698 -743.194092
39.419899 27.516600 -743.769775
39.419201 73.921600 -741.792114
39.418598 48.316700 -743.324829
39.417999 34.974701 -747.929871
39.417801 49.048100 -743.522095
39.414600 72.895599 -742.044128
39.412998 27.741199 -741.831116
39.411400 50.350201 -743.649475
39.407902 36.382301 -745.034180
39.405399 32.443199 -745.901611
39.404900 65.319603 -743.489197
39.404301 33.170799 -746.296082
39.403999 72.353203 -742.161621
39.403000 64.490196 -743.487915
39.402199 38.709000 -745.621521
39.399700 34.134102 -746.910889
39.397800 76.846199 -741.104797
39.393902 40.887600 -746.206421
39.392601 69.849403 -742.922180
39.390499 25.525999 -743.248901
39.388599 24.987700 -742.145813
39.387901 61.922901 -743.794800
39.387001 26.319500 -743.409424
39.386398 66.146004 -743.388916
39.377201 41.230099 -746.280396
39.373299 39.849300 -742.628906
39.372101 68.914902 -743.005127
39.371498 28.516899 -744.236694
39.371399 49.540901 -743.558289
39.368900 62.533600 -743.599426
39.366199 75.636803 -741.394226
39.366001 50.954102 -743.642273
39.362999 56.639900 -743.707275
39.361198 42.568901 -742.863586
39.357399 43.827202 -743.021973
39.356701 24.914499 -742.902100
39.355099 57.727100 -743.668518
39.353199 44.855202 -743.078186
39.352901 36.725201 -745.170227
39.351700 73.357002 -741.907471
39.349602 60.253201 -743.735474
39.346600 61.278599 -743.802429
39.337502 74.540001 -741.550903
39.336700 76.147903 -741.229004
39.336601 36.760502 -742.496399
39.334999 78.186203 -740.826721
39.331902 32.384300 -741.000916
39.331299 39.336300 -745.743530
39.328800 67.428001 -743.244629
39.326302 29.405300 -741.746399
39.325298 22.750200 -742.243713
39.322300 35.318699 -748.134399
39.317101 31.288099 -741.470398
39.312599 71.949402 -742.192993
39.311699 77.315804 -741.025330
39.311501 68.475700 -743.076782
39.310101 40.792198 -742.732910
39.306099 23.449800 -742.424072
39.305801 54.073601 -743.715027
39.303200 74.928200 -741.583008
39.302799 24.526899 -742.793579
39.300900 64.142303 -743.472778
39.298599 30.800100 -741.550720
39.295898 60.595200 -743.642578
39.292801 43.438599 -746.804688
39.292000 28.026501 -743.953125
39.291801 46.790401 -743.245422
39.287601 28.589300 -741.910889
39.287399 29.781900 -741.716125
39.282799 27.002001 -742.022217
39.280800 40.039700 -745.929382
39.280800 38.997700 -742.567078
39.275700 42.831799 -746.693604
39.275700 62.176601 -743.574585
39.274601 24.199699 -742.641113
39.269600 78.724403 -741.081787
39.268799 57.399899 -743.770874
39.267601 58.738800 -743.739014
39.266300 25.421900 -742.271179
39.265400 49.893398 -743.479980
39.264599 23.803101 -742.544128
39.260700 34.901600 -747.618530
39.258499 47.544498 -743.313782
39.256500 30.199800 -741.736084
39.253799 77.887497 -741.046814
39.253601 58.290298 -743.788513
39.252899 51.656502 -743.641174
39.251900 64.981598 -743.395630
39.251301 59.702000 -743.731689
39.247398 34.446400 -747.064575
39.246399 26.027100 -743.226501
39.245499 52.828201 -743.663879
39.243401 43.150902 -742.916626
39.234699 25.064199 -742.508179
39.233700 66.490898 -743.279480
39.232899 63.132401 -743.566711
39.232201 37.840199 -742.579773
39.226700 71.605003 -742.063782
39.226002 55.502499 -743.685730
39.219700 61.665100 -743.579285
39.218700 33.800900 -746.496216
39.217800 69.655998 -742.634827
39.210300 45.242298 -743.140320
39.210201 71.246399 -742.264099
39.209999 31.290001 -745.241089
39.206799 48.628201 -743.390320
39.206402 27.712000 -742.112427
39.206100 41.848099 -742.764771
39.203400 52.276001 -743.638977
39.199001 75.286201 -741.418701
39.198700 53.359100 -743.641296
39.195400 70.454697 -742.612000
39.195000 70.875099 -742.393616
39.194401 41.535099 -746.340698
39.193699 67.828796 -743.096375
39.192200 44.506199 -743.102722
39.190800 54.706001 -743.654419
39.189899 30.241501 -744.849670
39.189800 63.789001 -743.444092
39.187401 43.851101 -746.784180
39.186699 67.032303 -743.213684
39.181099 59.086300 -743.710876
39.180302 36.145302 -742.495300
39.179199 32.375702 -741.338989
39.177700 26.546000 -742.209473
39.174900 25.407101 -742.952820
39.167198 69.294098 -742.736877
39.163700 26.113501 -742.269714
39.162601 29.865601 -744.617615
39.161900 42.529701 -746.540588
39.156399 55.929199 -743.654419
39.146099 46.357601 -743.252319
39.142700 41.146900 -742.725830
39.141201 31.720800 -745.371704
39.138000 56.913700 -743.721619
39.136902 42.206902 -742.772400
39.135399 32.987598 -745.989990
39.135101 29.500200 -744.462219
39.134102 41.960300 -746.443909
39.132099 43.562801 -742.949280
39.131901 30.925800 -745.078796
39.129902 30.614100 -744.861816
39.126900 75.853104 -741.136597
39.126301 40.370499 -742.701172
39.124802 50.653099 -743.594177
39.123402 76.850998 -741.337402
39.122799 39.698700 -745.879517
39.120602 73.740601 -741.872803
39.118698 51.263401 -743.634827
39.114799 31.577999 -741.650818
39.114700 47.116299 -743.252625
39.112400 38.952801 -745.684998
39.112301 37.373699 -742.558716
39.110600 28.729799 -744.138184
39.108398 76.592102 -741.079712
39.107899 65.633797 -743.466370
39.107399 26.819300 -743.795471
39.107300 32.307400 -745.674988
39.106300 33.317101 -746.143921
39.105202 57.979000 -743.663574
39.102699 38.565899 -742.606628
39.101700 35.654301 -742.511230
39.099899 70.050797 -742.692078
39.097801 72.773697 -741.921997
39.097500 34.843498 -747.225281
39.096199 61.062801 -743.556213
39.094501 45.714500 -743.174500
39.094501 29.552601 -742.035889
39.094200 35.617802 -748.384827
39.089802 66.006302 -743.234680
39.087002 27.374201 -743.594788
39.082199 55.181599 -743.690125
39.082100 36.972401 -745.128479
39.082001 72.223503 -742.006409
39.080601 44.119801 -742.987793
39.080399 68.710999 -742.801025
39.079899 60.017700 -743.695129
39.079201 47.883801 -743.313904
39.078499 37.503899 -745.272095
39.077301 38.015202 -745.383179
39.072701 40.309299 -746.034119
39.072701 53.743900 -743.698486
39.072701 27.063601 -742.304504
39.071999 64.659698 -743.456177
39.071602 50.307499 -743.557129
39.069500 49.019699 -743.448792
39.068199 68.269897 -742.906921
39.061798 30.678499 -741.852295
39.060600 35.274799 -747.616577
39.059898 28.734200 -742.199707
39.059101 38.614300 -745.505127
39.056999 34.340599 -746.754517
39.055801 25.744600 -743.091309
39.051899 29.932199 -742.006470
39.044899 26.502001 -743.389526
39.042599 54.388500 -743.711426
39.033298 62.514999 -743.486572
39.032902 41.852699 -745.687500
39.032299 74.277901 -741.628113
39.031101 40.895100 -746.175110
39.022999 65.332901 -743.306580
39.021301 76.306396 -741.410522
39.020302 77.590797 -740.932922
39.017700 36.499901 -745.051025
39.010899 74.722504 -741.547485
39.010700 58.444599 -743.585571
39.004799 49.481899 -743.488586
39.003899 70.193001 -742.271179
39.003700 48.317299 -743.361084
39.003101 26.109400 -742.611816
38.995899 67.373299 -743.064270
38.994999 42.755001 -742.860779
38.992100 36.580700 -742.616394
38.991901 35.419102 -747.970276
38.991600 70.851799 -742.107117
38.990398 30.374100 -742.032715
38.987900 73.380798 -741.718201
38.987000 77.164703 -741.102600
38.986900 73.924896 -741.598572
38.986000 59.429699 -743.580017
38.985901 25.021999 -742.780518
38.983101 56.485802 -743.693909
38.982700 60.385799 -743.631592
38.979599 61.403702 -743.511414
38.976200 63.364101 -743.404724
38.975899 39.741100 -742.649109
38.973900 44.778801 -743.050598
38.973598 41.540100 -742.752380
38.973499 51.956001 -743.611511
38.970200 27.910400 -742.328491
38.967701 39.279099 -745.680420
38.963501 61.932999 -743.655518
38.962502 27.941299 -743.795227
38.956299 43.011002 -745.594482
38.952000 41.431999 -745.675171
38.951599 66.696098 -743.136108
38.944401 38.901100 -742.651978
38.941299 60.777699 -743.706787
38.939499 26.700199 -742.501587
38.938400 64.249901 -743.302185
38.937099 52.573200 -743.640808
38.937099 31.039499 -741.950500
38.936100 69.460297 -742.330627
38.936001 33.683102 -746.211914
38.933300 57.412498 -743.642273
38.928200 71.917900 -742.169128
38.927898 76.276398 -741.065125
38.925900 67.902298 -742.874329
38.922100 32.454899 -741.670410
38.921700 28.478399 -743.910217
38.921398 27.004400 -743.519409
38.918701 31.228800 -745.008911
38.915401 35.869301 -748.576782
38.913799 69.044701 -742.757629
38.912498 58.801201 -743.590515
38.911301 75.562897 -741.257813
38.910801 53.148499 -743.672729
38.910801 66.334602 -743.113098
38.910702 34.674301 -746.922729
38.905701 75.193199 -741.225830
38.903500 40.704800 -742.734314
38.902599 26.162201 -743.136475
38.899700 35.915401 -742.688782
38.899399 65.722702 -743.125671
38.896301 64.968697 -743.228516
38.895802 63.000099 -743.380981
38.891701 30.308500 -744.621582
38.889099 33.715500 -740.969421
38.886200 46.701000 -743.245789
38.885700 55.600601 -743.692810
38.885502 41.435600 -746.164490
38.881500 37.686001 -742.670715
38.874001 35.759998 -748.124207
38.868198 47.527302 -743.306396
38.864498 32.802799 -745.682678
38.862202 31.669800 -741.944275
38.859001 27.128099 -742.586975
38.859001 69.758301 -742.576294
38.855801 29.729601 -744.386292
38.853001 28.979601 -744.157593
38.852600 31.670900 -745.159973
38.852299 30.739700 -742.133179
38.848999 46.134499 -743.188293
38.847198 33.144001 -745.836182
38.844501 62.161598 -743.414917
38.843601 41.825100 -746.219788
38.840000 43.074200 -742.906311
38.839802 39.944500 -745.816223
38.839802 26.704399 -743.096680
38.836800 71.256798 -742.090088
38.836498 51.514801 -743.603516
38.835602 50.906601 -743.533203
38.833698 54.029301 -743.667725
38.832199 29.363701 -744.236389
38.828701 66.976402 -742.856628
38.825600 34.194698 -746.446777
38.823299 32.140598 -745.407288
38.822800 64.605202 -743.193298
38.822601 70.533096 -742.406921
38.821800 33.721298 -741.361816
38.820900 35.425499 -742.703491
38.820499 49.790600 -743.447876
38.818401 35.051701 -747.088074
38.817200 41.032501 -745.586182
38.817200 63.775700 -743.432129
38.815498 76.789902 -740.996582
38.815399 56.125000 -743.695679
38.815201 29.742399 -742.335327
38.812500 45.181099 -743.112183
38.810799 57.087799 -743.691223
38.810799 40.104500 -742.731018
38.807800 35.513401 -747.526978
38.806999 44.355301 -743.038513
38.806000 30.090599 -742.297729
38.804100 72.537102 -741.896484
38.804001 42.652699 -745.640686
38.799198 57.737301 -743.654114
38.797298 43.736099 -742.990723
38.793301 59.823601 -743.630920
38.792500 54.976501 -743.674988
38.789001 75.892502 -741.398071
38.788200 38.877499 -745.540771
38.780300 53.536499 -743.669128
38.776402 40.537899 -745.494629
38.773701 68.489403 -742.838684
38.770699 41.986900 -742.809570
38.767601 42.073200 -745.566589
38.765999 45.566002 -743.170105
38.765800 37.861301 -745.182800
38.765202 33.497799 -745.959717
38.763500 74.491798 -741.362122
38.762402 28.832800 -742.499878
38.761002 61.051998 -743.435486
38.759499 37.362801 -745.091125
38.759399 25.553801 -742.796814
38.758598 72.971703 -741.881226
38.758301 61.700802 -743.388489
38.757599 59.164501 -743.613525
38.755199 48.767399 -743.354370
38.752899 71.808899 -741.789490
38.752701 67.615501 -742.761780
38.751099 54.600601 -743.622803
38.748199 27.981001 -742.613220
38.747101 50.489700 -743.540771
38.747002 37.110401 -742.768921
38.741199 41.013802 -742.771790
38.740200 47.034100 -743.224670
38.738499 27.066000 -742.990417
38.738499 68.141800 -742.683105
38.736000 40.765999 -745.958496
38.733601 38.487099 -745.342102
38.732201 38.342300 -742.766113
38.724701 31.174000 -742.237183
38.723598 77.368103 -740.962830
38.719398 27.615900 -743.579407
38.716301 42.444599 -742.847900
38.716202 32.500000 -741.985779
38.713100 62.543598 -743.320129
38.711601 36.209801 -748.792786
38.710499 58.189201 -743.650574
38.709099 52.264099 -743.645020
38.705399 73.648697 -741.724426
38.703899 75.071701 -741.488586
38.699001 66.010902 -743.119019
38.698601 65.412697 -743.185486
38.697300 60.166000 -743.630127
38.695801 34.612400 -746.606079
38.695301 68.822502 -742.550781
38.690601 30.717300 -744.691223
38.689701 35.402000 -747.083679
38.688999 60.569500 -743.433777
38.687599 69.275398 -742.568298
38.683300 72.146301 -741.977112
38.682301 56.704399 -743.644470
38.674099 52.842300 -743.632080
38.668400 74.112000 -741.622925
38.665600 48.124298 -743.298218
38.664001 35.824402 -747.802795
38.658798 49.276600 -743.377930
38.658401 30.589100 -742.422119
38.657600 36.043201 -748.393494
38.652599 66.481499 -742.923279
38.652401 63.581299 -743.174011
38.652000 38.684299 -742.819885
38.646400 75.693802 -741.035889
38.641899 36.419498 -748.500671
38.641602 76.494202 -741.252686
38.641399 70.932198 -742.237976
38.640999 67.278999 -742.902222
38.639999 70.193703 -742.345215
38.638699 31.741301 -742.228394
38.637299 39.587002 -745.665100
38.634602 58.555302 -743.617188
38.634102 64.315102 -743.094116
38.630501 46.441601 -743.215393
38.630402 59.493999 -743.459717
38.630001 32.633499 -745.453430
38.628799 39.538601 -742.792114
38.627998 34.946899 -746.777283
38.620899 39.945400 -745.467773
38.620701 41.663101 -745.581421
38.617001 55.829498 -743.678772
38.614601 65.028999 -743.018982
38.612301 69.736397 -742.274414
38.609901 29.863800 -742.615601
38.607300 27.327700 -743.393311
38.602501 51.859402 -743.595215
38.602299 76.085403 -741.076416
38.601002 47.768501 -743.337524
38.596401 28.323601 -743.717285
38.595001 55.395302 -743.629028
38.594700 67.832001 -742.513916
38.594398 30.222601 -742.581421
38.591000 43.427502 -742.946777
38.590199 31.431499 -744.930725
38.587101 51.181000 -743.570374
38.586601 33.861301 -741.736816
38.585499 75.398903 -741.443176
38.584999 44.667999 -743.060913
38.584000 63.050701 -743.189514
38.582298 30.186199 -744.412598
38.582100 57.403500 -743.583923
38.578499 37.434299 -742.874390
38.575298 39.528400 -745.241028
38.571098 45.904099 -743.208679
38.569401 41.646301 -742.821716
38.565300 27.994101 -742.959473
38.563099 35.999401 -742.872986
38.561100 34.016399 -746.140625
38.558701 61.413300 -743.429688
38.554298 71.615501 -742.037720
38.552399 42.837799 -742.921814
38.551701 38.957699 -745.247314
38.550800 50.072498 -743.478821
38.548801 43.033798 -745.645325
38.546200 33.343899 -745.730225
38.545502 34.746799 -741.283875
38.544701 32.012798 -745.098694
38.544300 40.525200 -742.845215
38.541302 38.296001 -745.082581
38.538200 43.976101 -742.992798
38.537498 29.634501 -744.218872
38.535198 53.191002 -743.607117
38.533600 73.330704 -741.585571
38.528301 72.751503 -741.703979
38.522800 62.157902 -743.245422
38.521000 36.156300 -747.835571
38.520802 39.900902 -742.883301
38.517101 27.880800 -743.340881
38.514301 75.128403 -741.105896
38.513199 28.923000 -742.791382
38.512699 35.748402 -747.435974
38.510899 31.000900 -742.540894
38.509998 29.266500 -744.062195
38.507301 32.561199 -742.264771
38.501400 70.347099 -741.922607
38.498501 57.933300 -743.536377
38.492199 40.345901 -745.335876
38.492100 66.146797 -742.806519
38.491901 58.943001 -743.442383
38.486900 26.595900 -743.080627
38.484901 71.251099 -742.130493
38.484699 53.762001 -743.629211
38.483799 56.147099 -743.444275
38.483398 40.978802 -745.471924
38.480999 60.060902 -743.375671
38.479698 47.325001 -743.316528
38.479599 48.475498 -743.381226
38.477699 65.545799 -742.940979
38.473801 70.527901 -742.236511
38.473701 54.127800 -743.596619
38.468800 64.598701 -742.950378
38.468201 37.736599 -745.002991
38.466702 73.860703 -741.454285
38.466400 50.821400 -743.504578
38.464001 67.439697 -742.642273
38.461899 36.872200 -742.970581
38.461102 68.405602 -742.679871
38.455601 74.682602 -741.391724
38.451599 66.951698 -742.710083
38.443401 34.446602 -746.299072
38.439899 61.085701 -743.264526
38.439499 49.671600 -743.458008
38.438202 57.027699 -743.611877
38.438000 38.121700 -742.938416
38.435902 34.790798 -741.630981
38.435398 61.694698 -743.225220
38.435299 42.668800 -745.624084
38.433102 40.861500 -742.921021
38.432400 35.260300 -746.841492
38.430801 74.327103 -741.400391
38.429100 69.126503 -742.333679
38.426800 31.170900 -744.656677
38.426102 62.743198 -743.272583
38.424900 52.468399 -743.632080
38.422001 54.998699 -743.676575
38.417301 69.470703 -742.441772
38.416199 56.732201 -743.414673
38.414902 38.664501 -744.840088
38.407200 45.029800 -743.108582
38.406300 64.031898 -742.951904
38.405701 31.381001 -742.625122
38.404301 42.040401 -742.933472
38.403099 51.534199 -743.603821
38.402100 54.489399 -743.652710
38.401001 39.304199 -744.932617
38.397202 36.690201 -749.003784
38.396999 34.802399 -746.468994
38.391701 41.271500 -742.904114
38.389702 63.384399 -743.040771
38.388901 48.868000 -743.415527
38.388500 31.896299 -742.556274
38.384300 42.500401 -742.994324
38.383400 44.352299 -743.074890
38.383099 72.193398 -741.742981
38.382999 28.662800 -743.707581
38.381199 75.663101 -741.285583
38.380501 58.269901 -743.526978
38.379700 45.607601 -743.189026
38.375999 30.766199 -742.800110
38.372299 60.419300 -743.469971
38.366901 35.619598 -747.056824
38.366199 27.029499 -743.166016
38.365101 36.421299 -748.247681
38.358200 50.471100 -743.532104
38.356400 41.361198 -745.508179
38.355202 29.895399 -742.906677
38.354301 42.176399 -745.668030
38.352798 70.762497 -742.004822
38.352100 30.378500 -742.869812
38.347599 46.888401 -743.267090
38.346100 33.887100 -745.829407
38.344700 39.293999 -743.000427
38.343601 38.113400 -744.835327
38.340199 29.208700 -742.985291
38.338600 33.118900 -745.465881
38.333801 59.737499 -743.448914
38.333401 59.277302 -743.486206
38.326302 66.501503 -742.738220
38.324699 34.021801 -742.115906
38.319302 35.380100 -741.221985
38.315899 32.665199 -745.274780
38.315300 64.851196 -742.679016
38.312599 32.844799 -742.446716
38.311199 68.584099 -742.396423
38.308102 55.622700 -743.600708
38.303902 36.151001 -747.480286
38.303001 31.836300 -744.867676
38.302601 39.671200 -745.043396
38.302200 62.375198 -743.081482
38.300701 65.212601 -742.839111
38.299900 52.123001 -743.642883
38.294399 68.150703 -742.484619
38.291000 34.523201 -741.835815
38.289799 75.021599 -741.415222
38.287899 58.652199 -743.504883
38.286598 35.066200 -741.419678
38.286400 28.136400 -743.479187
38.285400 41.804798 -745.550171
38.280300 73.599998 -741.607910
38.275299 35.364201 -741.634521
38.275101 43.084099 -743.096130
38.274700 43.525002 -743.098083
38.274601 46.456200 -743.302429
38.274200 60.774502 -743.215820
38.273701 36.435001 -747.846375
38.273399 34.489899 -742.317383
38.273201 57.419102 -743.392517
38.271400 70.076500 -742.154480
38.270500 47.966400 -743.353027
38.270500 28.950001 -743.226624
38.269402 67.776497 -742.650330
38.260700 52.898300 -743.656006
38.253502 30.104300 -744.256714
38.250099 49.367001 -743.455017
38.246601 36.646000 -748.608704
38.244701 40.611900 -745.275574
38.240898 56.394901 -743.581787
38.238701 29.183100 -743.815979
38.237801 35.031898 -741.028503
38.236301 71.823898 -741.894104
38.235699 33.629398 -745.514526
38.234901 69.683403 -742.181580
38.232899 40.256100 -743.062927
38.232700 31.175800 -742.918274
38.231602 34.320999 -745.987915
38.230598 51.226898 -743.608582
38.225399 29.515900 -744.015320
38.223598 36.771000 -748.229187
38.223099 65.904099 -742.854614
38.217499 34.917400 -742.000671
38.214199 27.645700 -743.296875
38.213402 73.222801 -741.768982
38.211102 30.888700 -744.556885
38.210999 41.729698 -743.069519
38.209202 62.925098 -742.986694
38.207100 61.418201 -743.283386
38.206600 35.121498 -746.532471
38.206100 39.619598 -743.113220
38.204899 35.931099 -747.124207
38.203999 31.847799 -742.862915
38.203499 53.501400 -743.640381
38.195400 39.002499 -744.788574
38.194302 30.287901 -744.553223
38.191399 72.560501 -741.676514
38.188599 71.204300 -741.879211
38.188301 64.346497 -742.870789
38.185200 75.322800 -741.192871
38.181099 40.180199 -745.015991
38.180698 35.451099 -746.688171
38.176899 34.668999 -746.158691
38.171299 63.735600 -742.884888
38.170601 29.298599 -743.340881
38.168499 67.181297 -742.552185
38.167702 57.913601 -743.419678
38.165100 47.622700 -743.379395
38.163700 30.156401 -743.103027
38.163502 32.660801 -742.726685
38.162498 37.021400 -749.154480
38.153500 74.789803 -741.668579
38.151901 50.071602 -743.508179
38.148300 60.081501 -743.263123
38.145000 30.507401 -743.150696
38.144199 45.894299 -743.244629
38.139900 61.899502 -743.171570
38.139500 48.356701 -743.429321
38.132900 34.884701 -742.357727
38.129101 35.936699 -746.678772
38.127300 54.092098 -743.654785
38.123798 70.401703 -742.164673
38.120499 42.178902 -743.144714
38.119999 40.588600 -743.142517
38.117199 45.340900 -743.247314
38.116402 69.286003 -742.345581
38.115601 55.299099 -743.602722
38.114101 43.107101 -745.769470
38.112999 44.649200 -743.194214
38.111900 56.834999 -743.565979
38.111599 38.492500 -744.612305
38.111000 50.876701 -743.586975
38.109200 41.280102 -743.120178
38.106400 42.675201 -743.168396
38.105999 38.344002 -743.064575
38.102299 35.456100 -741.993774
38.101200 65.506798 -742.706116
38.101002 74.429298 -741.252380
38.099701 61.116402 -743.081421
38.099300 44.038601 -743.216614
38.096100 73.951202 -741.503784
38.091499 37.944801 -743.053284
38.084999 31.580000 -743.092102
38.083801 34.166500 -742.489075
38.081100 68.877197 -742.296509
38.080601 72.893700 -741.692627
38.080101 58.946899 -743.450378
38.080101 59.444901 -743.305298
38.077099 66.250603 -742.788330
38.073101 30.974701 -743.159485
38.068401 36.275600 -741.369873
38.063499 63.310299 -742.887207
38.063099 36.941502 -748.695007
38.059299 39.049301 -743.208618
38.059200 51.647999 -743.657227
38.057598 66.790398 -742.705078
38.049999 36.681000 -747.725220
38.047501 64.969002 -742.928223
38.047001 46.943699 -743.622192
38.044998 58.580200 -743.259583
38.041901 33.229801 -745.297302
38.040501 36.262699 -747.190674
38.033901 33.020100 -742.826721
38.032600 49.037998 -743.448425
38.029999 52.571098 -743.659180
38.029099 41.294201 -745.376526
38.028400 36.263901 -741.722473
38.025799 46.747200 -743.328125
38.025299 49.722099 -743.541321
38.023300 32.513599 -745.026672
38.022499 39.501598 -744.771423
38.020500 74.443298 -741.723877
38.015900 54.440399 -743.698181
38.014099 47.257301 -743.383789
38.013000 54.948799 -743.663818
38.012798 29.790100 -743.878113
38.010899 42.143002 -745.583923
38.010101 56.106998 -743.600586
38.009998 62.606899 -742.954224
38.009899 68.294899 -742.297729
38.007401 34.117901 -745.688721
38.003700 35.426601 -742.404114
37.998901 35.000801 -746.220886
37.998901 62.108501 -742.921387
37.996201 71.497002 -741.837402
37.994999 53.156799 -743.683777
37.993599 60.424999 -743.264526
37.992901 30.567200 -744.343323
37.989899 29.981800 -743.447815
37.985298 67.618500 -742.435425
37.985298 72.134300 -741.647583
37.981998 43.322201 -743.250122
37.980202 32.153099 -743.122803
37.979000 57.608700 -743.489319
37.973801 37.302200 -749.329407
37.968800 44.976501 -743.278015
37.966202 37.068699 -747.994324
37.965199 31.174801 -744.662415
37.965000 70.914597 -741.989380
37.963799 40.751801 -745.091187
37.960602 57.202900 -743.512817
37.957500 67.991402 -742.521973
37.957500 73.430901 -741.510071
37.955101 64.032997 -742.935608
37.951698 75.064301 -741.153320
37.949501 41.697800 -745.413513
37.949100 32.698101 -743.077271
37.942799 52.036499 -743.665588
37.940102 40.051498 -743.215698
37.939800 50.506401 -743.603821
37.938099 31.698099 -744.680298
37.931400 37.303101 -748.726074
37.928398 29.363300 -743.766907
37.928101 58.284199 -743.423523
37.927502 46.336201 -743.333130
37.925598 42.786400 -745.736023
37.923599 34.503101 -745.849792
37.920700 74.077599 -741.792480
37.919800 41.842098 -743.313416
37.916500 38.827202 -744.508728
37.913898 40.843399 -743.270874
37.910999 55.623501 -743.565674
37.910400 65.209503 -742.681274
37.908901 39.951900 -744.705322
37.906200 61.614300 -742.927612
37.903198 60.782001 -743.267273
37.900501 36.617699 -747.410522
37.900299 30.245300 -744.039124
37.898998 64.545601 -742.802917
37.897999 42.418400 -743.288574
37.896801 40.400002 -744.935913
37.896702 30.668200 -743.438110
37.894402 70.028099 -742.070923
37.893600 35.442902 -746.394287
37.890099 47.905300 -743.464172
37.889198 35.108101 -742.552673
37.888802 37.697399 -749.145386
37.888199 65.795601 -742.692078
37.883202 69.653503 -742.071777
37.883099 56.429699 -743.520691
37.881100 51.147701 -743.669678
37.879501 74.723297 -741.386230
37.878899 59.755299 -743.319580
37.878399 36.338299 -742.075684
37.878101 28.982201 -743.591919
37.877998 34.294399 -742.773193
37.875301 30.327299 -743.559082
37.870899 45.609501 -743.363586
37.868698 72.658798 -741.538574
37.863400 53.803101 -743.714783
37.862000 31.038500 -743.437073
37.859200 31.414600 -743.392578
37.857800 30.914900 -744.338074
37.852299 66.166603 -742.517700
37.851002 37.219700 -748.319580
37.849998 33.132500 -743.105591
37.845200 36.999199 -741.780212
37.842499 33.701302 -745.432617
37.841702 66.538696 -742.545471
37.838699 35.801800 -746.507324
37.835602 41.414299 -743.332581
37.834499 73.705704 -741.715210
37.827301 39.341599 -744.522888
37.823502 44.247398 -743.322327
37.822102 59.204800 -743.352112
37.820099 74.189003 -741.448486
37.816399 67.080803 -742.550476
37.814701 63.723598 -742.670471
37.813702 36.233398 -746.902771
37.809502 43.846298 -743.357605
37.809399 49.418301 -743.543518
37.800201 42.898102 -743.333984
37.797501 73.104202 -741.416199
37.794201 63.044300 -742.874878
37.792801 39.607800 -743.216125
37.792301 31.968300 -743.414612
37.791302 71.151703 -741.776428
37.790100 57.949501 -743.468872
37.783100 33.037498 -745.068115
37.782001 69.235703 -742.236816
37.772598 48.543598 -743.521118
37.770401 35.649300 -742.546082
37.768799 60.143799 -743.247375
37.766998 41.489201 -745.125305
37.766499 30.696400 -744.025513
37.761101 41.105701 -745.079529
37.760201 61.033501 -743.058289
37.758301 63.469398 -742.976501
37.757801 37.073200 -747.700195
37.756199 52.875599 -743.712097
37.752300 32.148701 -744.864929
37.751801 37.573002 -748.400696
37.750198 47.498600 -743.492126
37.745602 56.785099 -743.549011
37.743000 36.546700 -747.095825
37.741901 34.832001 -745.912170
37.739399 50.009701 -743.622681
37.739300 44.668301 -743.416077
37.738899 36.929798 -742.175110
37.738800 58.833698 -743.375488
37.737202 51.471500 -743.713623
37.728001 68.872398 -742.192810
37.726101 40.536800 -743.327393
37.721901 34.235600 -745.518188
37.718899 39.752399 -744.431824
37.712200 55.142502 -743.684387
37.710300 37.570801 -741.861511
37.709702 42.025501 -745.385376
37.707298 68.117302 -742.280029
37.701801 61.943600 -743.102478
37.700199 71.752998 -741.769104
37.698299 65.460098 -742.559875
37.698200 46.828300 -743.451416
37.697300 31.040501 -743.773071
37.693699 55.903000 -743.612976
37.688900 54.248299 -743.667114
37.687199 70.670197 -741.838623
37.680698 37.556499 -748.849976
37.678699 64.841499 -742.760803
37.677601 31.426701 -744.471924
37.677200 52.319500 -743.775696
37.674900 32.671902 -744.886292
37.671799 35.244099 -742.838806
37.668900 60.498798 -743.117371
37.663700 37.937901 -749.325989
37.663502 34.428902 -743.058105
37.662701 73.169998 -741.733704
37.661400 43.397598 -743.409973
37.660500 32.788601 -743.447693
37.660301 62.544800 -742.890625
37.659599 37.395500 -748.062378
37.659599 36.465000 -742.442688
37.659000 32.362400 -743.507874
37.658798 33.397202 -745.139099
37.658298 46.002701 -743.419617
37.655102 35.292801 -746.084473
37.653801 42.162601 -743.443970
37.652199 40.463799 -744.647888
37.650398 50.841999 -743.703918
37.649799 64.180901 -742.625916
37.644402 64.630798 -742.461670
37.643902 57.417702 -743.398376
37.641998 72.055801 -741.600891
37.641201 48.961700 -743.584778
37.640800 31.171600 -744.225220
37.634602 31.558399 -743.675903
37.630501 53.325001 -743.799927
37.627899 42.664299 -745.531494
37.625999 36.132999 -746.589783
37.615101 58.483601 -743.396484
37.613300 48.134102 -743.546692
37.613201 45.068901 -743.408386
37.608601 70.165398 -741.919373
37.608002 37.009800 -747.385071
37.606701 33.280899 -743.475708
37.604698 67.513397 -742.471985
37.603001 33.743599 -745.084900
37.600201 40.880299 -744.742188
37.598900 72.449699 -741.622009
37.594501 50.443298 -743.653625
37.592300 41.264198 -744.813416
37.590401 68.532303 -742.158813
37.584499 45.428101 -743.493896
37.583698 56.231400 -743.524475
37.581799 38.148399 -741.893616
37.581402 54.771599 -743.669617
37.580700 42.579899 -743.481628
37.577702 65.926201 -742.423828
37.577099 59.495701 -743.254089
37.577000 31.799101 -744.636597
37.575100 72.806000 -741.714600
37.574799 37.522099 -742.264526
37.573299 73.566902 -741.489197
37.569000 35.772900 -742.828613
37.568401 40.117199 -744.497925
37.567101 41.742901 -743.497070
37.558201 73.957397 -741.564575
37.556400 36.447498 -746.782776
37.556000 32.050701 -743.697815
37.550701 55.552700 -743.663391
37.549599 61.612099 -742.971924
37.547001 36.949402 -742.520325
37.545502 51.859600 -743.738770
37.544601 41.813900 -745.068604
37.543701 37.916302 -748.898926
37.541302 71.384201 -741.930725
37.540798 34.718201 -745.598083
37.535500 66.905502 -742.386230
37.535099 35.730900 -746.231628
37.530998 41.216099 -743.354614
37.529701 31.580400 -744.177185
37.528599 69.546799 -742.127014
37.528500 37.816799 -748.232422
37.525200 44.122200 -743.495422
37.525002 64.490997 -742.803528
37.524601 46.475601 -743.484985
37.518902 53.840401 -743.769470
37.517700 43.807201 -745.816528
37.512100 57.754601 -743.365479
37.507500 66.394600 -742.534912
37.506599 34.179798 -745.149475
37.505699 65.165398 -742.570129
37.505100 36.787201 -746.951904
37.503300 37.746300 -742.539429
37.500198 37.542599 -747.736084
37.493301 37.472500 -741.523804
37.488899 43.715302 -743.554504
37.480099 49.537701 -743.638123
37.479099 38.076801 -742.287170
37.478401 42.941399 -743.546021
37.476898 34.542301 -743.336426
37.475601 32.857201 -744.606323
37.475601 59.130901 -743.335388
37.472599 59.943401 -743.255676
37.468498 61.242699 -743.076721
37.456100 47.305599 -743.556519
37.455898 42.469299 -745.237427
37.454899 32.364601 -744.746826
37.454800 56.588299 -743.589783
37.454800 35.379902 -743.123718
37.452301 63.518299 -742.761719
37.451599 51.204601 -743.773071
37.449699 48.636902 -743.624512
37.447399 35.173199 -745.771179
37.446800 38.457199 -742.117615
37.445801 62.985100 -742.807617
37.445400 37.298599 -742.535889
37.444199 58.164001 -743.330688
37.442501 71.062897 -741.741089
37.440899 69.196404 -742.144409
37.439400 52.736500 -743.768127
37.431900 31.987900 -744.020996
37.429100 32.511002 -743.793274
37.422501 37.917599 -749.646912
37.415901 40.700600 -744.467224
37.411499 36.063400 -746.316406
37.402802 62.094601 -742.916687
37.400600 36.622200 -742.816772
37.393700 33.257099 -744.679016
37.392700 49.883301 -743.714600
37.391300 38.137798 -748.641724
37.388802 47.683601 -743.599976
37.387100 41.584801 -744.727783
37.382999 37.146999 -746.910095
37.376099 65.602600 -742.597717
37.375401 55.247601 -743.743225
37.372002 73.286797 -741.417175
37.371799 46.791000 -743.592773
37.367401 68.846298 -742.111877
37.366901 68.060699 -742.209229
37.366798 35.897301 -743.110229
37.365601 37.435001 -747.426208
37.365501 71.917397 -741.842407
37.364700 33.438000 -743.763977
37.361500 60.296501 -743.182678
37.361500 71.584999 -741.706970
37.361301 38.132500 -749.229980
37.359299 60.744801 -743.142517
37.358101 57.136700 -743.493286
37.352798 63.971199 -742.787109
37.347301 36.974998 -742.866577
37.342899 58.703300 -743.295288
37.342400 70.594002 -741.789001
37.341000 41.073799 -744.554199
37.340302 52.230900 -743.847412
37.340099 38.785198 -742.186096
37.332100 35.518200 -745.904114
37.332001 38.502800 -742.569275
37.329899 44.822899 -743.609924
37.328400 32.882198 -743.900574
37.321701 36.448299 -746.489807
37.320599 49.180801 -743.659729
37.318802 42.202301 -744.844910
37.318802 64.767799 -742.653809
37.317001 45.933498 -743.612122
37.311901 67.528198 -742.268188
37.304699 54.581501 -743.841919
37.302898 42.066601 -743.527527
37.297798 62.446098 -742.868225
37.295502 34.540699 -745.368530
37.293499 54.113602 -743.851501
37.291000 50.665798 -743.806580
37.290699 33.522499 -745.114014
37.288101 53.078999 -743.826904
37.286800 51.629200 -743.849426
37.281601 37.783001 -747.568481
37.277699 53.571400 -743.844727
37.276501 45.182301 -743.689392
37.274700 43.579800 -745.468079
37.274700 37.560600 -742.784912
37.271599 38.112400 -747.999878
37.270901 72.833099 -741.518372
37.268200 55.952400 -743.699890
37.264900 38.111900 -742.638184
37.262798 70.089699 -741.869812
37.262299 57.546200 -743.505493
37.262001 70.367302 -742.086182
37.260502 34.668900 -743.699707
37.259800 50.253300 -743.765686
37.258598 32.604401 -744.146484
37.257599 37.805801 -749.332397
37.254200 36.851398 -746.675171
37.254002 72.263298 -741.734680
37.247200 44.205399 -743.718079
37.238899 68.445999 -742.121277
37.235100 67.221298 -742.421814
37.232498 37.636700 -747.131775
37.231499 34.069401 -744.929688
37.228401 66.041801 -742.414917
37.227600 35.513901 -743.489380
37.225700 48.128399 -743.719421
37.225498 38.368401 -748.388306
37.220402 45.635300 -745.908020
37.213402 38.606400 -749.571899
37.212898 35.867802 -745.954407
37.211800 59.565201 -743.283813
37.205399 34.999500 -745.541809
37.201599 63.282501 -742.897583
37.199799 69.526802 -741.944885
37.199600 39.041801 -742.595398
37.195599 56.842300 -743.598022
37.193901 66.850304 -742.314087
37.193199 61.778702 -743.008789
37.192101 45.610901 -743.734680
37.190701 42.504601 -743.615417
37.186199 66.491096 -742.399170
37.184799 44.153000 -745.574890
37.178501 48.859901 -743.753113
37.177502 71.357697 -741.924011
37.174400 36.754700 -743.182617
37.174000 43.726799 -743.737427
37.166302 65.260696 -742.636780
37.164600 36.012001 -743.470581
37.163200 64.212997 -742.618774
37.160400 47.098801 -743.712585
37.155701 43.106499 -743.600403
37.154099 36.764999 -746.157288
37.145901 61.055000 -743.103088
37.140800 36.312000 -746.140991
37.139801 57.982498 -743.461426
37.138699 32.259602 -744.560425
37.136101 56.415901 -743.648010
37.134399 37.407101 -746.878784
37.132000 52.634899 -743.938171
37.131001 43.330399 -745.098877
37.126900 49.414600 -743.835205
37.126099 55.601398 -743.750671
37.123299 69.877899 -742.156677
37.119999 59.163601 -743.281616
37.118900 51.053299 -743.891724
37.113899 33.602100 -744.052917
37.111500 70.847504 -741.862976
37.108601 46.418400 -743.759827
37.107101 47.495998 -743.793274
37.103100 44.776699 -745.835510
37.097801 38.473701 -749.046875
37.092602 69.169601 -742.070374
37.085300 60.051498 -743.242920
37.082401 62.883801 -742.787476
37.079201 38.075600 -747.661987
37.073799 58.327202 -743.388916
37.070599 71.781197 -741.651123
37.069099 38.005600 -742.939392
37.068802 55.036800 -743.830872
37.065399 37.528400 -743.093384
37.063900 39.464500 -742.359924
37.060398 38.657299 -748.497986
37.053001 37.139702 -746.601501
37.051601 60.513802 -743.153320
37.049400 43.856499 -745.155273
37.039501 44.555698 -743.834412
37.034698 35.409000 -745.610413
37.033298 38.702599 -742.765015
37.033199 34.039001 -743.847717
37.030602 65.571999 -742.518616
37.029499 61.439301 -742.980225
37.028500 48.483898 -743.770020
37.027901 37.028099 -743.389526
37.024200 34.820499 -743.985901
37.021000 67.990700 -742.153320
37.015499 53.848099 -743.913696
37.014900 63.871101 -742.802795
37.012798 34.910099 -745.166016
37.010201 38.633900 -748.147278
37.009800 47.835800 -743.838318
37.009701 38.805698 -748.901672
37.008900 38.591801 -749.914978
37.008598 37.924801 -747.183777
37.003502 50.481602 -743.937073
36.999199 64.931602 -742.586975
36.998798 51.450100 -743.946594
36.996899 68.792900 -742.059875
36.996201 52.312099 -743.983276
36.994701 35.652401 -743.854919
36.994598 70.402100 -741.755615
36.993301 54.423599 -743.881714
36.991501 33.384399 -744.883728
36.986000 45.068298 -743.853027
36.983799 49.722198 -743.929871
36.982101 38.969002 -749.560913
36.978600 43.095699 -744.749817
36.976501 36.125900 -743.747375
36.969002 51.811600 -743.975281
36.968399 67.465797 -742.203918
36.968102 53.011902 -744.017090
36.966301 44.519001 -745.454529
36.965302 38.442600 -747.780273
36.962502 57.339500 -743.559570
36.957298 45.984798 -743.883118
36.955898 62.065102 -742.981079
36.941502 33.830601 -745.000427
36.940601 58.713001 -743.415222
36.938400 39.760899 -742.129883
36.938301 53.365398 -743.974609
36.935501 46.877998 -743.901428
36.920700 34.526199 -745.345215
36.918999 50.088600 -743.965881
36.917500 44.052101 -743.795105
36.913502 66.264603 -742.443787
36.913399 34.340199 -743.998413
36.906399 63.457401 -742.776978
36.904900 70.075104 -741.943726
36.895500 36.052799 -745.846130
36.892899 39.469898 -742.697693
36.892601 36.924702 -746.328491
36.892300 59.705200 -743.240601
36.888302 38.277401 -747.368530
36.885300 68.355698 -742.088074
36.876099 38.123001 -743.217896
36.875900 37.643101 -743.370728
36.875702 36.544601 -746.101624
36.875198 69.547699 -742.170410
36.872200 39.016102 -748.642578
36.866199 67.000298 -742.334290
36.865299 64.463501 -742.581970
36.865002 48.830898 -743.924622
36.861500 56.660500 -743.714417
36.856499 37.606098 -746.756104
36.854599 43.588902 -744.779724
36.848000 45.540199 -743.927185
36.840302 44.237301 -745.040283
36.837101 55.806099 -743.771606
36.836800 38.918900 -749.223572
36.831501 38.588501 -743.076416
36.828800 39.799099 -742.525574
36.825699 45.546600 -745.797180
36.825500 55.269699 -743.935181
36.823601 71.425797 -741.694885
36.822201 56.296200 -743.775330
36.817001 66.627502 -742.425415
36.814602 49.208900 -743.981384
36.810799 57.030701 -743.660217
36.810398 47.540501 -744.006592
36.807598 34.957100 -744.267212
36.806099 46.684101 -745.963806
36.806099 50.797699 -744.055481
36.805500 57.853802 -743.471924
36.804100 39.312000 -749.732727
36.800201 37.074402 -743.740723
36.795200 52.703098 -744.054382
36.790501 38.989601 -748.197571
36.786400 38.910999 -747.729919
36.783199 71.111504 -741.863892
36.782398 59.074200 -743.423218
36.776600 46.404301 -743.989075
36.774101 54.726799 -744.007324
36.773499 37.257999 -746.410706
36.773300 54.137100 -744.068970
36.772499 62.705399 -742.902588
36.772400 64.121101 -742.668518
36.769798 60.818600 -743.200012
36.767200 36.246300 -744.106812
36.761101 60.166100 -743.175598
36.759899 38.143700 -747.037781
36.755600 35.606300 -745.380798
36.754501 65.230301 -742.493286
36.751701 38.589901 -747.452881
36.749199 35.800598 -744.221375
36.746399 39.311901 -749.133118
36.745800 33.815102 -744.032776
36.745399 38.946701 -750.075317
36.745098 45.331902 -745.491272
36.739700 65.941704 -742.339478
36.729698 58.406101 -743.518188
36.719700 59.434200 -743.400330
36.718102 68.928398 -742.260681
36.717201 48.013500 -744.109680
36.715302 61.572899 -743.067627
36.714298 51.273899 -744.090881
36.710300 33.277100 -744.698730
36.709400 34.942299 -745.374084
36.704201 48.426601 -744.096497
36.703499 63.145901 -742.783386
36.695801 38.893101 -743.235779
36.690201 70.732399 -741.844788
36.682999 36.327801 -745.892273
36.682301 50.420101 -744.096924
36.679901 39.533199 -742.973816
36.675499 53.585499 -744.093323
36.672001 35.938099 -745.454712
36.671101 38.645100 -749.656921
36.669800 45.105801 -745.168823
36.669800 67.910698 -742.165527
36.669102 37.672401 -743.747681
36.666199 52.189999 -744.210571
36.660500 40.248901 -742.411926
36.659698 69.283096 -742.029724
36.656300 37.925098 -746.747681
36.649601 39.314602 -748.331421
36.645599 53.108101 -744.127625
36.643700 69.748199 -741.997986
36.641201 38.263401 -743.534729
36.634499 33.691002 -744.824219
36.632801 69.447403 -742.420471
36.632099 34.141300 -744.156128
