52.807800 126.855499 -776.552612
52.806999 127.363701 -768.107727
52.796101 124.381203 -772.873474
52.789101 123.898903 -770.836975
52.774899 32.622002 -749.518188
52.756302 123.824997 -772.037781
52.755199 34.202599 -749.082886
52.750401 127.853401 -777.591370
52.742599 125.617500 -775.154480
52.739399 123.990997 -770.202026
52.736000 125.152397 -774.376526
52.734699 125.334198 -768.915527
52.726898 33.391800 -754.055725
52.715000 126.662804 -767.747986
52.711201 124.812897 -770.118103
52.694801 121.789497 -770.567078
52.678299 128.013107 -766.463074
52.678299 35.136299 -756.958130
52.670300 33.065201 -749.046082
52.668598 126.182198 -768.749023
52.667801 34.103600 -755.650574
52.645199 32.901299 -752.536621
52.639900 35.326900 -748.864929
52.637501 32.797798 -751.492371
52.634201 34.718601 -748.588379
52.633202 126.094002 -775.949219
52.630199 127.186096 -777.122620
52.615898 122.403603 -770.288330
52.611801 33.680901 -748.727478
52.603699 38.268700 -757.164429
52.591999 127.433197 -767.455505
52.575802 124.222397 -773.476929
52.535999 32.507500 -750.896606
52.535900 122.512100 -771.202698
52.521599 125.425903 -768.293518
52.509499 32.938599 -753.547302
52.509399 123.079300 -770.136230
52.501999 36.172901 -749.833374
52.477501 123.828201 -772.625122
52.476700 32.212898 -749.914673
52.474499 32.281399 -748.988525
52.467400 126.525299 -776.989502
52.466499 126.759804 -767.050171
52.466202 124.059097 -769.531982
52.463001 128.636505 -766.135803
52.460400 124.532997 -774.119873
52.453499 123.093597 -770.924927
52.441601 124.948898 -774.942688
52.429798 34.251801 -748.194580
52.426300 32.399101 -751.965576
52.397598 124.770599 -769.544617
52.391201 35.660000 -757.306519
52.390301 126.129898 -767.989014
52.386101 123.096603 -771.810303
52.381699 121.223198 -770.221375
52.380402 33.176201 -748.404175
52.371700 37.020500 -757.520020
52.367500 34.444599 -756.577087
52.366402 125.568703 -775.693970
52.355499 33.367500 -754.766174
52.345100 125.586502 -767.558716
52.344501 126.935699 -766.375793
52.329700 127.651001 -766.881104
52.328899 35.223000 -748.289490
52.286598 33.630001 -755.421509
52.274502 125.865097 -776.442017
52.269299 123.518303 -773.183899
52.267200 37.729900 -757.281616
52.264099 127.723701 -766.000793
52.259300 127.094002 -777.763916
52.257301 124.931000 -768.745300
52.256199 124.162804 -768.884216
52.246101 32.980099 -754.164429
52.245998 32.521900 -748.420776
52.245800 35.631500 -749.274780
52.241699 32.407799 -752.658386
52.233799 121.838303 -770.079285
52.230598 36.259998 -757.495972
52.211899 31.785200 -749.465820
52.211399 123.830803 -773.922424
52.206001 32.117500 -751.428406
52.198002 31.783501 -748.625671
52.188400 32.021400 -750.464294
52.180199 124.233597 -774.649719
52.177101 126.100502 -767.072693
52.174500 33.668400 -747.930908
52.167000 121.770302 -770.974976
52.152901 123.530296 -769.754211
52.149502 123.108101 -772.483521
52.149300 126.875298 -765.654114
52.134899 33.887501 -756.056213
52.128601 124.340202 -768.193481
52.120800 32.420399 -753.336609
52.114799 120.638000 -770.046387
52.103802 34.580200 -747.718872
52.088902 124.748001 -775.491516
52.083599 124.988701 -767.905518
52.074100 125.971901 -766.071228
52.061001 32.972099 -747.812500
52.043098 125.895599 -777.122986
52.041199 122.420403 -770.623413
52.036598 125.080200 -776.046326
52.033798 122.594200 -769.987915
52.033001 122.528999 -771.637512
52.022598 34.846001 -757.082275
52.020401 123.069504 -769.278870
51.998402 31.999201 -748.040527
51.984798 124.566498 -767.347107
51.965302 31.964899 -752.103210
51.958900 126.432503 -766.519226
51.958801 126.466400 -777.501221
51.950298 121.263298 -769.733276
51.945900 125.339798 -776.739014
51.931900 31.204700 -748.405518
51.929100 31.558201 -750.036621
51.924599 125.498001 -767.006470
51.907101 123.279404 -773.694824
51.906300 121.125801 -770.738281
51.903599 119.918098 -769.825378
51.889702 122.874702 -773.078918
51.887100 123.639702 -774.510315
51.881699 123.748497 -769.205322
51.870701 31.695900 -750.947815
51.863499 122.530197 -772.379883
51.862900 125.246696 -765.362305
51.862701 126.230499 -765.460693
51.862598 33.562199 -747.351379
51.860100 32.909199 -754.835815
51.848400 31.934000 -752.912292
51.831799 122.163902 -769.496582
51.824799 32.503601 -753.982422
51.822399 123.197304 -768.589722
51.820000 124.179604 -775.257813
51.785000 37.110001 -757.241882
51.780899 32.566898 -747.290588
51.777199 124.453499 -776.030273
51.769001 35.839001 -757.244812
51.764999 31.569700 -751.624573
51.762100 34.096901 -756.599487
51.733200 123.912697 -768.577881
51.727299 125.440903 -765.981323
51.726101 31.089199 -749.019775
51.716702 121.911003 -771.415588
51.716202 33.397400 -755.811523
51.702301 124.725700 -776.655212
51.691898 31.463200 -747.728882
51.683498 120.545998 -770.536682
51.680500 123.345802 -767.947815
51.657700 124.071999 -767.618896
51.643799 124.906502 -766.496277
51.642899 120.500504 -769.549316
51.642700 124.422203 -765.084717
51.622002 121.892502 -772.132874
51.616100 123.859200 -775.790588
51.612999 123.508102 -775.138123
51.612099 122.640198 -773.624512
51.597099 33.132000 -746.931396
51.594700 31.954201 -747.322083
51.592400 122.229301 -772.994995
51.589802 32.042198 -753.543701
51.583302 122.949097 -774.230103
51.577499 30.678900 -747.970276
51.569698 124.771500 -765.804871
51.553001 31.518400 -752.417725
51.551998 122.220100 -768.845581
51.549000 125.049202 -777.351379
51.534500 124.325600 -766.890320
51.531101 123.449303 -776.481384
51.525398 119.398102 -769.570374
51.514999 31.143000 -751.020813
51.505798 121.201797 -770.226501
51.505501 121.474098 -769.240723
51.498600 123.735199 -764.810486
51.498299 121.190201 -771.275085
51.491600 32.380901 -754.548584
51.469501 31.100300 -749.998779
51.460899 124.077103 -776.596680
51.458500 35.230202 -756.937012
51.452999 32.476700 -746.731323
51.452599 125.733803 -765.138916
51.442200 32.742500 -755.298828
51.434601 123.633598 -767.112122
51.432999 124.167397 -766.026611
51.415798 33.591202 -756.379517
51.400799 36.421700 -757.199585
51.397900 30.570999 -748.609375
51.397499 122.918297 -774.989075
51.385899 118.745102 -769.490112
51.384998 123.202599 -775.726501
51.372799 125.105797 -764.925293
51.358898 31.331400 -747.195313
51.357700 119.984398 -770.426086
51.340698 122.735001 -768.484070
51.336201 121.192902 -771.997375
51.333599 31.549000 -753.023682
51.329601 123.142403 -764.576477
51.317799 122.099297 -773.866028
51.303600 121.612999 -772.636719
51.302502 31.807699 -746.726929
51.289902 122.434601 -774.569580
51.287300 122.999397 -767.539612
51.279598 123.536598 -766.207520
51.261398 120.857903 -769.147278
51.261101 123.715401 -765.471008
51.257401 121.707199 -773.294983
51.250099 34.506401 -757.035095
51.249802 31.911301 -754.137878
51.231098 30.935101 -751.560486
51.230301 33.008701 -746.254578
51.228100 30.683901 -749.338623
51.227100 30.717199 -750.574524
51.216999 122.205200 -764.306824
51.194801 119.829903 -769.215881
51.192101 123.017998 -766.730774
51.189999 120.671600 -771.021973
51.188999 30.127199 -747.719788
51.187302 122.670998 -776.072327
51.173901 122.122002 -768.322083
51.139500 32.877602 -755.889526
51.132198 119.141296 -770.015381
51.131100 120.417397 -769.958313
51.106899 122.335602 -775.261597
51.105999 31.058399 -752.536987
51.093800 118.023598 -769.315918
51.093201 121.555397 -768.713623
51.086201 123.014503 -765.536194
51.085400 123.360497 -776.961121
51.078800 30.722601 -746.986572
51.075699 120.938599 -772.629578
51.070202 121.230003 -763.913513
51.067200 122.356903 -767.436523
51.063702 119.783203 -769.852905
51.063099 31.486200 -753.671326
51.059502 121.862701 -774.789673
51.054401 32.120800 -754.937378
51.034302 32.391102 -746.104004
51.027302 121.518700 -774.064087
51.004902 119.147102 -769.121094
51.000500 29.985800 -748.344116
50.999401 30.346001 -750.042725
50.993401 121.798798 -775.600891
50.979698 120.653801 -771.656128
50.978901 122.586197 -766.070313
50.968800 31.217899 -746.517212
50.950100 122.654602 -764.783508
50.943001 120.970001 -773.256775
50.892899 31.712500 -746.082214
50.892601 122.361900 -776.555176
50.891201 36.044300 -757.026123
50.889702 121.726898 -767.581726
50.882801 30.139799 -748.956726
50.881599 122.108803 -766.601013
50.877300 33.784901 -756.726379
50.874901 119.938202 -770.858521
50.872501 120.058899 -763.542480
50.871498 30.030600 -747.166870
50.854599 120.910500 -768.561279
50.848400 122.304100 -765.315002
50.842701 30.358801 -750.994202
50.841999 31.072800 -753.164673
50.834900 118.534302 -769.865601
50.834801 121.716103 -776.229126
50.830700 32.310398 -755.570374
50.828602 30.510599 -751.824219
50.824799 121.160797 -774.617981
50.821301 33.198299 -756.390015
50.819199 118.561798 -768.935791
50.817402 120.348099 -768.890320
50.807400 121.119698 -775.294922
50.803001 121.792603 -764.717529
50.800701 117.319801 -769.078186
50.786999 31.586100 -754.564880
50.784401 35.076000 -756.944885
50.763802 120.434998 -772.279480
50.747601 120.768402 -773.928284
50.743698 119.380402 -770.510071
50.723999 120.031700 -771.651917
50.696999 29.660299 -747.844971
50.696201 121.807899 -765.801880
50.688400 119.407600 -763.361694
50.678299 121.440804 -765.262817
50.676498 30.031200 -749.564270
50.668999 121.068703 -764.478577
50.663502 30.640600 -746.473511
50.653702 121.139198 -767.766479
50.649399 121.509102 -766.970520
50.647900 121.036903 -775.923706
50.646702 120.505898 -775.098572
50.645100 120.393898 -773.313782
50.641800 117.898399 -768.818604
50.639500 31.125700 -745.955078
50.611801 30.625700 -752.484192
50.605801 120.470001 -763.983887
50.592999 32.049599 -745.612305
50.590900 119.673302 -769.063721
50.585098 121.391800 -766.341309
50.569698 29.863600 -750.179871
50.560200 32.637001 -756.094116
50.555599 31.798800 -755.241516
50.552799 120.342796 -774.449219
50.549000 118.730400 -763.178772
50.531399 117.810997 -769.672424
50.527100 34.429401 -756.762024
50.524300 120.434303 -775.739929
50.514999 120.298103 -768.235291
50.513199 29.293301 -747.222290
50.507801 119.364197 -771.200012
50.505299 30.033501 -751.501709
50.502899 116.559097 -768.827820
50.501900 118.066299 -762.997681
50.500999 29.646099 -748.603088
50.499298 30.942101 -753.761475
50.498199 120.768700 -765.130127
50.487900 119.870903 -775.137817
50.485100 119.869904 -772.426514
50.469299 120.863197 -767.156006
50.469002 29.875099 -746.631714
50.460800 117.438599 -762.831726
50.460701 29.836700 -750.877319
50.440701 120.086800 -764.562622
50.440300 120.924698 -765.800415
50.435799 118.773300 -770.435425
50.416199 119.979897 -773.834778
50.415600 119.465302 -763.977783
50.410900 120.656898 -766.447571
50.408901 119.486801 -771.898621
50.378502 119.083702 -768.843811
50.364101 35.654099 -756.741882
50.352001 119.532097 -775.705017
50.345299 118.455498 -769.428101
50.342499 120.331902 -767.598694
50.339600 119.797897 -773.054871
50.336102 29.501801 -749.703186
50.335701 31.540300 -745.265198
50.313499 119.440804 -774.641296
50.298100 30.263399 -746.079895
50.291199 118.796204 -763.794678
50.280998 119.529198 -768.387878
50.278198 31.173500 -754.759277
50.273701 117.273903 -768.602417
50.272499 120.289597 -765.631226
50.271400 29.153700 -747.916504
50.267101 119.795303 -765.218079
50.260201 117.220100 -769.513489
50.256802 32.071899 -755.778870
50.249802 120.280800 -766.953613
50.248299 30.384701 -753.053284
50.244801 33.878799 -756.558105
50.239399 118.152802 -770.170227
50.237202 118.934601 -771.618713
50.233898 116.473198 -762.562317
50.221298 119.240097 -772.568481
50.216801 33.339401 -756.202271
50.208099 119.462700 -764.633789
50.200199 119.061203 -775.282227
50.200100 30.879601 -745.471924
50.198799 118.517197 -768.604614
50.188499 29.307800 -749.055725
50.177898 119.374001 -773.569397
50.172501 118.116600 -763.555786
50.157101 117.958298 -774.676270
50.153198 119.659203 -767.716980
50.138599 29.270100 -746.637512
50.133801 120.037804 -766.282410
50.110100 34.944500 -756.670776
50.104198 118.972298 -774.148621
50.097301 118.676300 -770.996521
50.093102 29.917601 -752.068970
50.084499 118.644897 -764.470093
50.081501 30.665600 -754.205383
50.067001 119.034203 -765.211792
50.065701 119.646400 -766.971008
50.056900 118.664803 -774.767517
50.046398 29.413401 -751.245728
50.042900 28.852800 -747.353821
50.032799 119.455299 -765.830017
50.027599 117.440102 -763.364502
50.026199 29.303400 -750.285217
50.016800 117.838501 -768.971680
50.009998 115.876503 -762.398926
50.005299 118.886299 -768.043396
49.994900 118.710999 -773.021912
49.989700 31.563000 -755.454529
49.985600 116.393501 -768.432922
49.984200 30.206499 -745.519470
49.982800 29.073099 -748.490112
49.980801 118.663803 -772.210815
49.958302 117.994598 -764.236328
49.958099 30.982000 -744.831787
49.954399 116.342903 -769.184692
49.943401 29.682899 -746.171509
49.940601 118.577003 -773.647827
49.933899 117.085602 -762.513123
49.932301 119.304497 -766.444824
49.930500 117.597801 -770.065613
49.918800 116.733200 -763.069519
49.910000 118.066101 -770.728088
49.909599 118.243797 -771.429993
49.903599 118.377800 -765.132813
49.897301 118.414803 -775.430115
49.884300 30.216101 -753.581970
49.873600 119.151100 -767.377686
49.863701 118.164597 -768.171387
49.863499 28.981300 -749.558289
49.853401 118.204399 -774.168579
49.843300 118.808197 -765.976990
49.835999 114.905098 -762.091919
49.805801 117.349602 -764.050720
49.799000 32.557499 -755.834778
49.798599 117.042099 -769.103516
49.797699 117.676399 -775.130127
49.781700 118.132202 -772.657227
49.779499 28.716900 -746.649597
49.773800 29.768400 -752.626770
49.768398 117.098198 -774.521912
49.763802 117.527100 -768.241089
49.763000 117.788498 -764.907715
49.757801 117.947403 -773.518188
49.756699 115.479202 -768.402588
49.754700 118.000900 -772.003906
49.745800 28.943600 -750.817078
49.736698 30.249001 -744.815979
49.720200 118.521599 -767.593079
49.716099 118.786499 -766.776917
49.715099 116.069603 -762.942810
49.707100 117.024300 -769.846619
49.705799 28.683399 -749.002075
49.700100 116.780197 -763.674072
49.684700 28.544500 -747.811829
49.669800 118.192497 -765.904297
49.665699 30.848900 -754.959229
49.665298 34.487099 -756.470215
49.653099 117.488297 -773.955200
49.650902 29.401800 -751.752014
49.620800 33.600399 -756.434570
49.618698 28.631100 -750.251892
49.618099 114.287399 -761.894287
49.616100 115.378502 -762.595215
49.614201 29.220699 -745.853577
49.607601 117.463898 -770.638123
49.605900 117.161003 -764.726013
49.595299 116.954399 -768.477417
49.587502 117.792503 -767.649170
49.583199 115.798599 -769.228577
49.577702 118.147102 -767.093811
49.567402 116.673798 -774.038025
49.561699 117.599998 -771.288513
49.548199 117.509499 -772.857117
49.548100 29.746401 -745.239014
49.522598 117.925301 -766.470093
49.519199 28.306000 -747.075073
49.501999 116.582497 -764.349976
49.495800 116.910797 -773.425293
49.486500 117.701897 -765.487122
49.482700 116.021698 -763.638123
49.461201 32.767502 -756.383484
49.447399 116.286903 -768.070496
49.446602 114.946701 -768.650330
49.444801 117.049797 -767.830322
49.444199 117.336998 -772.028687
49.441002 116.282600 -774.607117
49.419998 114.973297 -767.952515
49.416100 28.661600 -746.112305
49.406502 116.542397 -769.455872
49.404800 29.597200 -753.155518
49.403599 31.879000 -755.471130
49.402000 115.401199 -763.200500
49.401299 28.505800 -749.596313
49.395699 116.181396 -768.726318
49.389900 28.291700 -748.437927
49.387699 29.988899 -754.033630
49.361500 116.880997 -770.464783
49.349602 117.069901 -765.511597
49.341599 113.593697 -761.644470
49.317402 115.952400 -774.036316
49.311100 117.335999 -767.216614
49.301800 114.591904 -762.424011
49.299500 29.986500 -744.392090
49.281700 117.386002 -766.114929
49.272598 116.309502 -773.438171
49.267399 116.547897 -765.044189
49.258900 116.801498 -772.708679
49.258801 115.936600 -764.328674
49.239700 116.991997 -771.143372
49.221699 114.278702 -767.975281
49.221500 29.102699 -745.312927
49.219799 115.712700 -767.876221
49.208500 116.314301 -770.119324
49.207500 29.424999 -744.745483
49.207001 28.071400 -747.681580
49.206100 28.523899 -750.772888
49.202702 116.550301 -767.470581
49.201698 28.094801 -746.457214
49.201599 116.738701 -772.002014
49.179401 115.471703 -763.822998
49.173401 115.249702 -769.180115
49.161701 34.072201 -756.164673
49.151699 28.081699 -750.040100
49.145199 29.000000 -751.993286
49.117802 117.010498 -766.619873
49.105999 30.372299 -754.731018
49.100601 114.870102 -763.562378
49.092999 115.360298 -773.928284
49.073200 112.943199 -761.418396
49.072102 28.442101 -745.590088
49.069698 32.285702 -756.090027
49.065399 115.948997 -769.592529
49.064999 28.063499 -749.039978
49.060101 27.776699 -747.100220
49.054798 33.294300 -756.219421
49.054600 114.380402 -768.734680
49.053799 116.126297 -772.751404
49.048500 116.443199 -765.730286
49.045799 116.380699 -770.787170
49.025002 113.489098 -767.804199
49.013302 115.948601 -765.029419
49.009499 114.001099 -762.369080
49.006901 31.110701 -755.133118
48.988998 115.716003 -773.379089
48.986198 27.818399 -748.262024
48.980999 116.323700 -771.449585
48.974098 29.160101 -744.158630
48.965801 115.331398 -764.496216
48.944302 116.132103 -767.038574
48.927898 28.834200 -744.726929
48.921398 114.243500 -763.007629
48.909500 114.779198 -767.556519
48.905899 28.598400 -751.391724
48.894600 116.200897 -766.303223
48.883801 115.779800 -770.351318
48.881699 116.165901 -772.082520
48.865398 27.616100 -749.571899
48.849899 27.890499 -745.928223
48.848099 113.731400 -768.437012
48.842701 113.299896 -762.060425
48.834000 115.370003 -769.809814
48.833401 114.954697 -773.364807
48.812302 27.549500 -747.653198
48.805500 29.194599 -753.300415
48.799500 28.838699 -752.539917
48.794102 115.843803 -765.717224
48.793900 112.917198 -767.596313
48.766899 115.344299 -772.810120
48.766499 112.285797 -761.244690
48.765301 114.495003 -764.022278
48.751301 -2.950100 -738.697998
48.735001 115.349602 -767.217773
48.733501 115.844498 -771.034180
48.726299 27.521700 -746.509888
48.724998 114.461800 -773.859985
48.723000 115.331200 -765.196777
48.713402 28.309900 -745.061096
48.705700 114.132202 -767.523376
48.699299 31.711500 -755.685425
48.695999 29.732100 -754.218079
48.693699 114.795998 -769.246521
48.682301 115.537300 -772.049988
48.653702 115.638000 -766.570374
48.627899 113.318497 -762.668518
48.619400 28.661800 -743.940613
48.615398 113.719101 -763.255188
48.601002 27.462999 -748.735779
48.596100 115.341499 -771.413330
48.595299 112.377701 -767.312683
48.583401 32.722599 -755.934021
48.582600 115.248001 -770.598083
48.578999 -2.547900 -739.292480
48.569099 27.818600 -750.441711
48.565102 114.860603 -764.679199
48.556702 114.733101 -767.006226
48.555500 112.712502 -761.771912
48.552299 114.521301 -772.915100
48.547501 28.138700 -751.119812
48.534401 112.803101 -768.189209
48.520302 115.150398 -765.878601
48.512798 114.817398 -769.872681
48.511600 28.445700 -751.978027
48.501900 27.276300 -747.079712
48.501499 114.003998 -768.904724
48.473701 114.041397 -773.445374
48.466599 27.141199 -749.273987
48.462299 113.549500 -767.389221
48.459099 114.854301 -772.348816
48.457802 30.693100 -754.800415
48.441200 27.763100 -745.427185
48.439899 111.680901 -761.045288
48.424702 27.150999 -748.140930
48.414700 -3.243700 -738.022888
48.408001 114.142700 -764.459229
48.403198 113.950302 -763.846680
48.392502 114.078003 -766.949219
48.378300 28.131300 -744.511414
48.376598 111.869301 -767.701416
48.372700 114.766296 -765.306396
48.354599 114.705597 -766.390076
48.353901 27.165100 -746.068176
48.342201 114.292900 -769.506287
48.340801 -1.931500 -740.113708
48.327702 112.713699 -762.451721
48.320400 111.547203 -767.125671
48.310398 113.407799 -768.658630
48.308601 114.738998 -771.657471
48.306702 31.266300 -755.182007
48.301498 114.637299 -770.785217
48.296101 27.354500 -749.989319
48.292099 112.994102 -763.119080
48.278000 28.187300 -743.675598
48.264900 -1.803900 -739.208679
48.253502 113.892799 -772.743286
48.248901 28.586500 -752.966919
48.241798 113.320801 -763.778015
48.240898 112.963203 -767.064819
48.209900 26.855200 -747.481384
48.208599 112.275101 -766.780884
48.204201 112.156502 -761.796509
48.203098 29.052999 -753.624573
48.187599 114.274597 -765.806030
48.183102 26.874500 -746.682312
48.181801 114.063103 -765.153870
48.180000 -1.457400 -740.719116
48.172600 -2.617300 -738.746582
48.157700 32.155701 -755.638672
48.157001 26.855101 -748.682312
48.137501 27.538700 -744.890198
48.129200 112.705704 -767.674683
48.123001 113.303703 -773.205078
48.117298 27.083599 -745.430725
48.111401 27.936701 -751.617004
48.108898 113.470398 -766.660278
48.105202 114.338097 -770.175293
48.104301 29.990601 -754.346802
48.097801 113.582397 -769.308716
48.087399 110.953003 -767.243896
48.064602 114.110703 -771.746521
48.055401 113.580704 -764.453003
48.039001 -1.438500 -739.788879
48.033501 112.150497 -768.178589
48.004902 112.199501 -762.715820
47.998001 27.606400 -750.822327
47.996101 110.979301 -760.811584
47.988499 113.676399 -765.919495
47.986900 112.804100 -768.676514
47.983601 26.678301 -749.324524
47.980900 112.876297 -766.396179
47.979698 27.674700 -743.945984
47.977001 114.121902 -771.029480
47.961601 110.631302 -766.692871
47.956200 26.616301 -748.100403
47.942402 111.388397 -767.830872
47.939499 112.633698 -763.582214
47.925301 113.274498 -772.591370
47.924000 109.704102 -766.827271
47.922901 112.919296 -764.220520
47.920700 27.458401 -743.330078
47.909100 111.468597 -761.349487
47.904301 113.655502 -769.970276
47.897400 111.677696 -762.208374
47.865200 113.126503 -764.966675
47.864201 28.186100 -752.641479
47.857899 26.655500 -746.147827
47.856998 30.490400 -754.713013
47.848801 26.414000 -747.025391
47.838902 -2.153700 -739.740417
47.822899 109.068703 -766.493774
47.822800 30.836000 -755.281799
47.806702 27.147499 -744.464783
47.800800 26.197300 -748.653625
47.800400 113.011902 -769.345520
47.793499 113.503502 -771.887024
47.781601 111.625298 -766.787781
47.767300 112.753098 -773.103394
47.752899 31.600401 -755.333130
47.743401 -2.506400 -739.211426
47.741001 29.539700 -753.992981
47.726398 -3.098500 -738.625183
47.716000 112.132202 -766.360596
47.715401 112.854897 -765.544922
47.705799 110.195000 -767.222717
47.699600 27.081800 -750.284912
47.690601 26.574499 -745.508484
47.686798 113.435600 -770.584595
47.683899 -2.775300 -737.921082
47.665600 112.070999 -763.311829
47.649101 110.785698 -767.697083
47.638199 26.223400 -747.649719
47.628799 112.374001 -769.043823
47.623299 111.609901 -762.859619
47.619701 26.811899 -743.279602
47.611801 110.727203 -761.588623
47.608200 110.150597 -766.267517
47.607498 27.704500 -752.076294
47.603500 111.073601 -766.364685
47.599400 27.452000 -751.412476
47.592800 112.455200 -764.674072
47.590302 113.522400 -771.229675
47.586399 111.669800 -768.340027
47.580799 112.275803 -764.029114
47.579899 113.087303 -770.041687
47.572201 112.792702 -772.311829
47.554298 28.761999 -753.615173
47.541000 110.524902 -760.959900
47.537800 111.177597 -762.389526
47.525299 108.205902 -766.264282
47.524101 26.143999 -746.426880
47.503502 26.579901 -744.870117
47.472000 26.734800 -743.938171
47.448101 112.156898 -765.251221
47.438900 25.883900 -748.208496
47.436298 109.249802 -766.998230
47.428001 112.477798 -769.674622
47.426701 112.288300 -772.820679
47.425098 30.047800 -754.440186
47.418499 109.443604 -766.112488
47.417000 110.757202 -767.063416
47.402401 112.896896 -771.606384
47.399601 111.628403 -765.939392
47.398300 26.219299 -749.247498
47.386700 111.592796 -763.719116
47.377800 25.883400 -747.013306
47.361500 112.867401 -770.655884
47.314400 110.044800 -760.571228
47.311199 111.643097 -768.968384
47.307701 111.098396 -763.091675
47.304199 26.159000 -743.013123
47.296902 26.067499 -745.302917
47.289600 112.324600 -771.935730
47.283600 26.652500 -750.046570
47.278000 -2.946900 -739.300171
47.274399 108.812401 -766.220886
47.261398 30.948900 -754.971924
47.255001 111.902603 -764.486023
47.254002 107.370201 -765.962402
47.248402 25.381300 -747.694824
47.240101 110.977203 -765.837280
47.237301 28.130800 -753.020874
47.225601 111.126297 -768.338196
47.219101 110.209999 -767.657715
47.217300 25.692301 -746.057617
47.205002 26.170900 -744.459412
47.200001 110.311203 -761.940979
47.191200 26.847300 -750.744995
47.183601 112.476700 -771.169373
47.181198 108.585503 -766.838928
47.147499 111.456902 -764.961304
47.146500 25.533100 -742.559509
47.146198 -0.933400 -740.950684
47.146099 110.635201 -762.566711
47.128899 111.303497 -764.296326
47.119099 111.751404 -772.518982
47.116100 26.055000 -743.694885
47.092999 112.231201 -770.198120
47.091900 111.685303 -769.577393
47.089500 25.304300 -748.371826
47.086700 110.235703 -765.849792
47.086300 109.877197 -766.608887
47.074699 106.537697 -765.636719
47.070900 29.388800 -754.218323
47.070702 109.997704 -761.225586
47.052399 108.067802 -765.761230
47.052200 110.982101 -763.687683
47.028400 27.214701 -751.729004
47.026501 109.528999 -767.436523
47.008801 25.418900 -746.707825
46.996101 110.807297 -765.266724
46.987999 24.885900 -742.426514
46.986401 110.452797 -768.250427
46.973801 25.663900 -744.917603
46.957600 107.930099 -766.634216
46.931999 24.589500 -747.477173
46.931599 111.851097 -771.443604
46.926998 109.383598 -760.254883
46.924301 111.886902 -770.733215
46.923801 111.038101 -768.974609
46.908798 110.664803 -764.470581
46.903000 25.344999 -745.559814
46.883801 30.265301 -754.875427
46.883701 109.946999 -762.369324
46.882900 109.537201 -765.598877
46.875401 28.632500 -753.287476
46.873299 110.410599 -763.215515
46.859200 25.633600 -744.223022
46.857601 25.597799 -743.206482
46.843102 108.703300 -765.685486
46.839298 108.934601 -767.269470
46.814098 111.408997 -772.020386
46.811699 110.374702 -763.881409
46.805698 105.981796 -765.430725
46.801399 25.779800 -749.175171
46.800999 110.190498 -765.037415
46.781502 25.087799 -746.201721
46.771801 109.898300 -767.995789
46.763699 107.211502 -765.482605
46.748402 109.598801 -761.751221
46.738800 107.111504 -766.359314
46.732300 26.427900 -750.507629
46.725601 111.311096 -769.998230
46.708698 24.293800 -742.486877
46.699902 111.383301 -772.914978
46.687801 27.855499 -752.694275
46.678001 25.072800 -744.920227
46.676201 111.331703 -770.965515
46.666000 109.804497 -763.067993
46.663200 -1.658800 -739.649902
46.657200 27.273899 -752.251587
46.655602 25.139999 -743.630920
46.654202 109.695396 -760.807495
46.643398 110.277000 -768.776428
46.635399 -1.746300 -740.581970
46.630798 110.865997 -769.523499
46.628201 109.906601 -764.411804
46.623100 24.750000 -746.856873
46.612099 24.897200 -742.944519
46.590099 109.446701 -765.019287
46.573601 105.406303 -765.213684
46.567902 110.775101 -771.835022
46.554901 24.795700 -745.518921
46.544899 108.356201 -767.154907
46.543701 107.582802 -765.968018
46.535999 109.289001 -767.971191
46.535702 23.618500 -742.108582
46.517700 29.683201 -754.587708
46.515900 24.851400 -744.251221
46.514702 23.950800 -747.097778
46.513401 109.716904 -763.795715
46.504101 109.414101 -762.548096
46.503101 29.094400 -754.093384
46.502499 108.148003 -765.362671
46.498501 110.908997 -772.487183
46.498001 109.094398 -761.125488
46.497700 106.635201 -765.337891
46.487499 108.933998 -760.418213
46.486000 108.799202 -765.099670
46.471001 25.022200 -748.440979
46.457600 106.195297 -765.924927
46.439098 109.679703 -768.576172
46.438099 24.511499 -746.126221
46.433899 110.836502 -770.325500
46.416000 104.778297 -765.014099
46.412998 109.176697 -764.130981
46.398899 24.370701 -743.275818
46.383499 107.607300 -766.608704
46.373001 25.750200 -749.732727
46.369801 24.495001 -747.851807
46.356098 110.210800 -769.441711
46.339600 109.191299 -763.138489
46.329300 108.996498 -761.770325
46.322800 24.501101 -744.990173
46.313499 22.542999 -741.962402
46.312801 110.786697 -771.026428
46.311901 23.816999 -742.756226
46.301998 -1.249500 -740.813599
46.297699 28.609900 -753.621216
46.291000 108.582497 -759.905273
46.284801 108.724899 -767.768494
46.280701 -2.112500 -740.092224
46.267101 105.474503 -765.822876
46.265301 106.036797 -765.015076
46.262901 103.983101 -764.866821
46.255402 24.255899 -743.978699
46.247601 24.022900 -746.501526
46.241501 108.591904 -764.356201
46.234501 26.411400 -751.053589
46.229301 107.395599 -765.113892
46.200802 109.088699 -768.482971
46.188000 24.080299 -745.702515
46.185001 110.133797 -771.775024
46.182201 106.833298 -766.544373
46.182201 108.065598 -764.778198
46.177101 108.718498 -763.717529
46.162998 108.674797 -762.309387
46.155602 23.093100 -742.382813
46.147099 110.198097 -770.048218
46.140999 107.734901 -767.233215
46.108398 29.651600 -753.999512
46.098900 28.117001 -752.862976
46.095299 108.438400 -760.542297
46.080601 23.843700 -743.467896
46.080101 108.401497 -761.662903
46.077702 23.975599 -744.573303
46.071800 -1.386400 -740.037415
46.063499 109.560799 -769.113770
46.055302 104.877899 -765.653870
46.055199 27.517000 -752.285889
46.054100 -1.980600 -739.464478
46.026600 107.021301 -764.633179
46.025200 23.296000 -743.046814
46.020699 108.575203 -763.067505
46.008400 105.167603 -764.696411
46.006901 -2.778400 -739.772827
46.005299 21.916100 -741.830017
46.000500 108.034897 -764.084290
45.992500 23.293501 -746.521301
45.978802 107.915199 -759.810913
45.972599 108.133400 -767.806580
45.972301 110.024101 -770.644287
45.963001 103.257797 -764.759583
45.957199 23.244600 -745.617981
45.952301 23.936701 -747.617615
45.937099 105.921501 -766.203918
45.928600 110.512199 -772.303528
45.924099 107.978897 -763.370483
45.921799 108.511803 -768.469116
45.921398 24.770500 -748.665100
45.893002 104.542099 -764.566772
45.891998 23.700300 -745.164673
45.887001 23.351299 -743.902283
45.883202 22.524799 -742.583191
45.879799 105.559601 -765.224670
45.860100 108.103798 -762.452820
45.842602 109.600700 -769.795227
45.837898 25.376301 -749.650391
45.835499 106.180199 -764.521729
45.833000 107.417702 -763.937012
45.829601 107.166100 -767.287476
45.813202 108.102997 -761.118408
45.811100 102.617699 -764.570190
45.811001 109.783997 -771.237427
45.801998 28.233500 -753.426575
45.796101 104.114502 -765.287170
45.796001 -2.354600 -740.496277
45.789398 -1.555200 -739.058472
45.775002 103.776001 -764.420227
45.772999 108.905296 -769.006287
45.767300 29.150900 -753.681702
45.766602 107.829102 -761.813171
45.756699 21.296101 -741.794617
45.750099 22.736799 -743.311829
45.744701 106.298798 -766.720886
45.736500 109.880600 -772.212585
45.726398 22.476900 -746.228271
45.722099 -2.200300 -738.817993
45.697899 107.747704 -760.437683
45.696701 25.984600 -750.707581
45.690201 106.365898 -763.763428
45.674099 107.372902 -763.310974
45.673698 -0.597900 -740.176880
45.672199 101.947197 -764.221130
45.669102 107.520203 -767.858826
45.661201 -1.390200 -741.117981
45.660702 105.559898 -764.252319
45.653500 105.249199 -766.153198
45.641899 -2.795400 -739.232727
45.637600 23.179899 -744.837280
45.624802 24.178200 -748.130981
45.623901 107.504097 -762.398010
45.618698 21.772699 -742.322327
45.617802 -0.146800 -740.657227
45.604698 106.573097 -763.057678
45.600101 27.678101 -752.833374
45.589401 23.134399 -747.025330
45.588200 22.837799 -744.185486
45.581501 109.406303 -770.373779
45.577900 107.458504 -759.462585
45.567402 107.967796 -768.442017
45.562302 22.144501 -743.122314
45.556999 107.417603 -761.020386
45.551399 -1.286300 -740.450195
45.548401 103.161598 -764.264221
45.532700 0.388100 -740.293213
45.513100 -1.117500 -739.501221
45.497002 109.282501 -771.493591
45.494301 22.773500 -745.593079
45.482101 108.832497 -769.588074
45.481499 104.488197 -765.843384
45.470798 106.632896 -767.391907
45.468800 105.696800 -766.603577
45.465099 1.362200 -740.616882
45.454700 103.067703 -765.185974
45.448502 105.122398 -763.776794
45.447601 104.384499 -764.093323
45.431198 22.343201 -743.733521
45.412701 107.264503 -761.816528
45.403900 20.441700 -741.622681
45.401600 106.858398 -762.458679
45.394199 108.221802 -769.104797
45.392101 101.063301 -764.043518
45.388500 -0.069900 -739.685425
45.388100 104.975304 -764.452087
45.374901 21.979601 -745.829407
45.369099 109.000603 -770.916321
45.362801 2.297300 -740.888428
45.362000 22.581301 -744.810608
45.349602 21.141300 -742.328613
45.345200 24.555500 -748.882324
45.342499 107.169296 -760.293884
45.341099 102.494904 -764.046997
45.339401 105.608498 -763.294495
45.337700 23.673500 -747.820313
45.329201 106.970596 -768.002808
45.315102 27.228100 -752.260620
45.313801 -1.812500 -738.436523
45.312801 102.474800 -764.980591
45.308399 21.547501 -742.903687
45.302101 0.989300 -740.016418
45.291901 103.683800 -765.453430
45.272598 105.975700 -767.213013
45.269600 108.740898 -770.213501
45.258400 105.820297 -762.586670
45.256500 1.931100 -740.327087
45.228901 103.523697 -764.773621
45.228500 106.891701 -759.700378
45.226799 25.113701 -749.756775
45.221600 -0.544100 -739.251526
45.218300 106.627403 -761.764099
45.212601 106.790001 -760.873230
45.206001 104.489601 -763.431213
45.205002 27.903700 -753.295776
45.202599 3.010400 -740.823914
45.201801 104.858299 -766.456726
45.197800 21.805401 -745.055298
45.186199 107.413300 -768.589722
45.179798 3.760600 -741.009399
45.179600 103.563599 -763.789429
45.172401 101.724800 -763.784790
45.171799 21.704300 -743.513123
45.169300 22.264400 -746.482422
45.168999 0.533300 -739.567078
45.167099 108.285896 -769.719727
45.161598 22.168400 -744.340515
45.149899 -0.922500 -740.831116
45.144798 101.418098 -764.521912
45.122501 99.886497 -763.632324
45.121498 -1.091900 -738.888916
45.113602 1.744100 -739.613586
45.088001 104.680298 -762.811279
45.072399 105.933998 -761.946289
45.066002 4.403000 -741.035522
45.056900 -0.262700 -740.945801
45.043499 -1.305900 -741.346619
45.030399 104.019798 -766.046814
45.023499 20.969601 -742.864685
45.023102 108.771500 -771.518799
45.014599 106.169998 -767.841919
45.014000 105.226700 -767.006104
45.009102 5.254400 -741.191223
45.006802 -2.623200 -738.472107
45.006199 2.846700 -740.183594
45.001400 0.038300 -739.079529
44.996399 100.716499 -763.596619
44.996101 102.867203 -764.458618
44.985699 19.904301 -741.668701
44.982101 22.661400 -747.054688
44.979401 -2.366400 -736.711487
44.977001 0.663300 -741.070618
44.971001 21.426100 -745.927795
44.966202 107.650299 -769.194580
44.965099 26.502701 -751.656311
44.961201 105.109299 -762.276428
44.956299 3.509300 -740.374878
44.954498 20.946199 -745.349792
44.945801 103.683701 -763.109924
44.942799 102.981499 -763.645020
44.941898 102.014503 -764.385376
44.939201 6.186500 -741.480774
44.936199 106.757599 -768.466675
44.935398 108.458298 -770.727783
44.934601 106.218803 -761.031494
44.923000 23.169800 -747.643799
44.912300 21.590799 -744.479980
44.910000 20.282700 -742.192688
44.909500 106.627197 -760.193115
44.909199 23.874500 -748.417114
44.902599 0.973000 -739.170776
44.896999 -2.317000 -737.832886
44.896099 27.416800 -752.801697
44.895302 103.138702 -765.631775
44.874298 4.166200 -740.407593
44.870098 106.677597 -759.213013
44.866402 100.458298 -764.236877
44.866402 99.230400 -763.567993
44.864300 105.578201 -767.576477
44.861801 101.788300 -765.023315
44.838699 3.314200 -739.762085
44.838001 7.121800 -741.353699
44.835602 26.098400 -751.151917
44.830002 21.170401 -743.668823
44.828701 102.323402 -763.575073
44.827202 104.327400 -766.648682
44.816502 20.814301 -744.640503
44.809898 2.345900 -739.725708
44.803902 -0.419800 -738.668884
44.802898 105.468201 -760.618286
44.782799 104.439102 -762.271484
44.778301 3.315600 -741.240479
44.773998 2.218700 -741.275879
44.772499 4.810100 -740.611023
44.764999 107.915298 -770.198486
44.761902 5.856000 -740.894470
44.761002 105.200500 -761.671570
44.759602 24.306000 -749.068787
44.743599 25.562500 -750.457886
44.736599 5.003100 -739.053406
44.729900 -1.324800 -738.428772
44.724800 102.532700 -765.339478
44.723099 105.971901 -759.402283
44.709099 101.249603 -764.051697
44.705700 101.526802 -763.357117
44.694901 4.552000 -739.895630
44.694302 108.248596 -771.328491
44.689701 107.074402 -768.996582
44.685501 102.640099 -762.983276
44.684299 103.780998 -762.473877
44.682499 26.800200 -752.169312
44.679401 98.384102 -763.333618
44.676998 19.381901 -741.450500
44.676899 5.371600 -740.237183
44.669998 8.082100 -741.744812
44.659500 6.509700 -740.814514
44.658798 20.462000 -743.009583
44.655998 0.442600 -738.620728
44.650101 1.922900 -739.201782
44.641701 0.099700 -741.332520
44.637100 105.706802 -761.290771
44.635101 106.055496 -760.336487
44.633999 103.486099 -766.261475
44.633202 -0.682100 -741.217896
44.630199 104.657402 -767.226074
44.628399 4.548700 -741.483826
44.626499 100.908401 -764.672729
44.620602 99.631897 -764.056213
44.615799 21.950300 -746.601685
44.602299 107.404099 -769.678101
44.597500 19.951900 -744.822815
44.586300 99.983101 -763.250183
44.580200 105.902901 -768.235718
44.575001 107.801697 -770.803101
44.569801 1.617900 -741.366699
44.569500 8.825000 -742.005798
44.561699 23.323000 -748.189270
44.553299 7.199100 -740.739929
44.549801 103.975304 -761.771912
44.549099 9.828700 -742.128113
44.548000 3.812400 -741.602417
44.545200 -1.674200 -736.940796
44.530201 20.618799 -743.842224
44.529598 3.917000 -739.818726
44.520401 5.319900 -741.654907
44.515499 102.803802 -762.328796
44.511200 19.756001 -742.223083
44.511002 7.788800 -741.071594
44.494598 24.896099 -749.949219
44.494400 6.195600 -740.189026
44.494400 3.008500 -739.228088
44.474300 105.123199 -761.070618
44.470901 8.487500 -741.291321
44.462502 104.545700 -761.410095
44.460400 102.811302 -766.017578
44.457600 103.819000 -766.813293
44.455799 97.943199 -762.920898
44.453400 20.690599 -745.780090
44.451401 106.290703 -768.729919
44.450802 1.350000 -738.767517
44.448898 0.834900 -741.446716
44.447201 100.769600 -763.204407
44.442600 101.583702 -762.760681
44.440701 -1.324900 -740.972717
44.436600 97.132401 -762.814026
44.433800 99.031197 -763.129883
44.432098 105.032204 -767.768372
44.429298 -0.597600 -738.140320
44.412998 19.624599 -743.974426
44.409698 -1.529300 -737.876282
44.404202 98.755798 -763.820374
44.391800 107.386002 -770.288391
44.386398 100.573898 -763.824524
44.385601 22.621500 -747.528015
44.383301 103.264603 -761.891113
44.382999 101.335403 -765.085022
44.380798 100.270897 -764.626709
44.374699 104.867203 -760.404419
44.365501 101.955498 -765.465271
44.365398 6.649800 -741.970520
44.364399 10.672100 -742.347778
44.363998 9.208100 -741.411926
44.360901 19.386700 -744.635681
44.357800 2.558200 -741.677612
44.354900 -0.658800 -736.971191
44.351398 0.201900 -738.055786
44.334900 105.458298 -758.902527
44.326698 105.546501 -760.059326
44.320499 26.225401 -751.686279
44.317001 19.924200 -742.826416
44.316101 6.944300 -740.167175
44.311199 104.241302 -760.773987
44.310902 1.290600 -738.113220
44.310699 8.023600 -740.471802
44.306301 102.213203 -762.647705
44.298000 9.934800 -741.512085
44.295200 3.638400 -739.126587
44.291401 106.653397 -769.294922
44.291100 4.341600 -739.310791
44.287201 11.466500 -742.438721
44.285301 20.376900 -744.451477
44.255299 5.151300 -739.526306
44.252300 25.653200 -750.978882
44.247299 18.950899 -744.171204
44.245098 2.447000 -739.027771
44.240398 100.523903 -762.634399
44.227901 96.181000 -762.636414
44.227901 101.777100 -762.131775
44.227798 104.143898 -767.395386
44.222698 13.082800 -742.838928
44.217602 8.863300 -740.692688
44.214699 0.084400 -736.862427
44.210999 102.585800 -761.775024
44.205898 11.083400 -741.848328
44.204300 103.127403 -766.621887
44.202599 25.179701 -750.452515
44.202400 12.281200 -742.799927
44.199200 98.007202 -763.585510
44.187302 105.392998 -768.374573
44.185799 0.851400 -737.336304
44.181301 18.851700 -741.255981
44.180000 -2.330400 -737.208313
44.176601 7.716100 -741.977478
44.174099 19.756001 -745.362122
44.174000 99.499496 -762.728577
44.171299 19.234100 -742.065186
44.161701 6.023400 -739.646118
44.159500 4.324900 -741.913086
44.159302 9.258400 -742.286194
44.155201 12.042200 -742.130127
44.151001 21.414700 -746.558472
44.150799 23.552500 -748.718384
44.150799 2.126700 -738.415405
44.143902 9.610600 -740.826416
44.143398 104.968803 -759.717407
44.141602 99.554703 -763.533386
44.140598 106.906403 -769.929871
44.135899 103.843399 -761.277893
44.129601 99.176102 -764.251526
44.119999 98.601997 -762.698486
44.119301 21.997499 -747.109924
44.117699 102.299301 -766.190979
44.107399 10.270100 -740.991516
44.103802 102.967903 -761.234985
44.101398 6.034300 -742.049500
44.100700 -0.072000 -737.510620
44.093102 -0.221400 -741.541870
44.085201 107.356400 -770.897583
44.083801 13.692700 -743.034790
44.074902 97.343803 -763.350708
44.071201 19.604401 -743.403870
44.069901 1.848300 -741.768372
44.064800 24.008200 -749.239075
44.059399 2.347800 -737.651489
44.044998 100.706902 -765.004700
44.039902 18.036800 -743.993713
44.039200 101.858498 -761.451782
44.032902 19.331499 -742.771484
44.032398 104.232201 -760.107910
44.032101 6.924300 -739.422729
44.026901 5.084400 -742.069275
44.026001 104.476898 -767.970276
44.025299 11.853900 -741.500977
44.022800 7.496200 -739.994629
44.021400 101.100800 -762.379883
44.020401 105.832703 -768.938721
44.017101 12.749300 -742.257202
44.016899 101.464897 -765.685181
44.016602 1.749700 -737.296509
44.015999 3.554300 -741.882385
44.015499 97.631104 -762.569519
44.011902 18.840900 -743.572876
44.010201 -1.526200 -741.705078
44.007801 95.288200 -762.332703
44.004101 -0.683900 -741.011475
43.996799 17.215500 -743.886475
43.989700 14.565800 -743.192627
43.983200 18.828899 -744.922424
43.981499 10.923600 -741.259583
43.977600 96.937202 -762.390686
43.973000 10.142200 -742.406616
43.966599 22.764200 -748.088806
43.965500 99.729301 -764.616089
43.961399 103.559998 -767.299011
43.960999 100.630302 -761.906006
43.960800 16.296200 -743.744873
43.960602 8.227600 -742.300903
43.959702 96.731697 -763.111084
43.955002 13.607800 -742.334412
43.948898 103.393600 -760.768127
43.931801 15.451800 -743.292419
43.929100 8.549900 -740.190979
43.926399 104.766502 -758.811218
43.920601 0.666100 -738.309998
43.920399 13.126200 -741.699097
43.908100 99.901901 -762.256226
43.897900 24.684200 -750.158630
43.892200 98.347702 -764.073914
43.884102 20.451799 -745.951904
43.883202 3.411000 -737.944092
43.879299 1.103900 -741.248718
43.877800 14.285000 -742.595825
43.872398 6.891100 -742.314880
43.865601 -0.841700 -737.356018
43.864601 10.766700 -742.755127
43.855900 102.650200 -766.877014
43.852001 9.460000 -739.999573
43.851898 106.382004 -769.674683
43.845501 94.420403 -762.090576
43.845299 22.137300 -747.724976
43.837898 0.213300 -741.109619
43.837601 2.916000 -741.978088
43.825298 10.125500 -740.185120
43.823799 106.786903 -770.525085
43.816700 5.863400 -737.900085
43.814800 11.383900 -743.039612
43.812801 4.078800 -737.884216
43.808498 96.041496 -762.167786
43.802399 104.868301 -768.492493
43.798698 99.014297 -762.241516
43.796501 -1.843400 -737.392517
43.794399 18.790600 -742.385986
43.792999 103.545700 -760.087097
43.792099 104.319603 -759.443481
43.791698 15.129100 -742.693604
43.789902 4.084200 -738.784180
43.783600 11.732800 -740.898804
43.780499 100.766998 -761.292908
43.779800 13.954900 -741.757080
43.779099 12.627100 -741.199402
43.770000 10.698200 -740.514221
43.769699 100.765404 -765.618713
43.766499 101.716904 -766.324585
43.762600 17.906200 -743.255981
43.761600 98.061798 -763.014526
43.759201 25.583099 -751.439270
43.758801 102.689301 -760.689880
43.758301 4.897300 -739.002625
43.756302 16.497999 -743.169617
43.754501 18.374599 -741.102783
43.749802 5.774100 -739.039673
43.749401 3.369100 -738.818298
43.741600 100.125099 -765.137329
43.734001 98.143898 -762.291077
43.733299 101.899498 -760.812012
43.729698 -1.312700 -740.924622
43.727402 2.736700 -738.533020
43.726299 7.537300 -742.451721
43.725601 99.600800 -761.706787
43.721699 12.968200 -743.479675
43.714699 20.897600 -746.554321
43.713402 15.881000 -742.792419
43.711601 25.108400 -750.913879
43.708000 21.507200 -747.241089
43.701500 97.626297 -763.850220
43.694599 9.416200 -742.755188
43.690701 96.147697 -763.131714
43.674702 0.414000 -737.517700
43.659401 14.802100 -742.057617
43.654598 18.530399 -741.749878
43.651199 12.147900 -743.136230
43.650200 18.530399 -742.957214
43.648399 1.346000 -738.149902
43.645401 93.537697 -761.826172
43.645302 23.311001 -749.045471
43.639099 100.091904 -761.284302
43.636902 95.522202 -762.841125
43.632900 102.946701 -767.496277
43.631802 103.939499 -768.034729
43.620499 17.197100 -743.334106
43.617100 105.242203 -769.035522
43.612999 98.972000 -764.574280
43.602299 19.491301 -745.475281
43.601799 17.833300 -744.529907
43.599499 5.326600 -738.366699
43.597099 12.535100 -740.570618
43.587002 105.806396 -769.498596
43.584900 98.611900 -761.711182
43.583801 13.773100 -743.468994
43.578499 95.145500 -761.851807
43.571602 7.837700 -739.437378
43.567101 101.031197 -766.204407
43.563999 97.650497 -761.920227
43.561501 104.106903 -758.645630
43.559200 8.570000 -742.736328
43.557800 94.824303 -762.501770
43.554600 102.088501 -766.968018
43.551399 101.060799 -760.760376
43.547401 24.148500 -750.035828
43.543900 96.907997 -763.644714
43.535000 99.433098 -765.027222
43.534500 103.290703 -759.519775
43.533600 13.386400 -741.090515
43.531700 15.805800 -743.764221
43.531200 2.082500 -741.367920
43.526901 15.012800 -743.566895
43.519600 16.384001 -742.339783
43.518398 2.056200 -737.916321
43.517601 7.123800 -739.781982
43.517300 17.042801 -742.664185
43.516998 106.181000 -770.183777
43.514099 102.774002 -760.027222
43.513599 10.005500 -742.949585
43.511299 96.750504 -761.936523
43.499401 3.963600 -741.719604
43.498600 15.776900 -742.090088
43.498402 20.273199 -746.514587
43.496799 101.995796 -760.180908
43.480999 22.564199 -748.478027
43.474899 5.774800 -737.246582
43.464901 17.022400 -744.234985
43.461498 14.247500 -741.082886
43.459499 99.168098 -761.243530
43.457699 96.493202 -762.526978
43.457600 -0.295700 -737.528625
43.456501 5.924200 -742.381287
43.455399 20.809601 -747.139526
43.449501 92.663002 -761.554077
43.436600 104.338898 -768.614319
43.431999 24.598600 -750.629883
43.429501 6.157800 -739.507324
43.428699 99.834900 -760.681030
43.428200 100.236702 -765.861328
43.418499 11.308100 -740.437805
43.409500 18.241199 -743.892029
43.404800 17.738501 -742.695679
43.404400 94.249397 -761.646484
43.397701 4.982800 -741.879211
43.394402 23.277700 -749.718323
43.394299 21.515301 -747.803223
43.390800 5.953400 -738.455994
43.386398 -2.411000 -737.708313
43.384201 103.331100 -767.972778
43.383499 97.948402 -764.307312
43.381500 0.993500 -737.623108
43.377499 101.311600 -766.794678
43.368801 15.163600 -741.587402
43.362598 94.055496 -762.338379
43.353802 -0.563200 -740.785522
43.353401 8.704700 -739.720093
43.344501 103.847801 -759.239990
43.337898 95.848099 -761.718628
43.331501 21.899200 -748.320923
43.331299 -1.468100 -741.411987
43.331100 18.202700 -742.200012
43.324299 100.917099 -760.153076
43.310200 97.725601 -761.305176
43.309200 22.778500 -749.208313
43.308498 19.809299 -747.816284
43.308399 10.532400 -740.083679
43.307499 18.515100 -745.089478
43.305801 20.183701 -747.191101
43.305801 3.032200 -741.492493
43.300201 4.522000 -738.615723
43.297798 7.942600 -742.706909
43.297501 98.867599 -760.658386
43.297401 16.286400 -744.154419
43.294601 19.625099 -746.113525
43.292900 6.612100 -742.565674
43.292801 91.848503 -761.288330
43.285198 -1.310200 -737.752808
43.261200 20.420300 -748.147705
43.259499 11.014600 -743.268616
43.256599 9.783700 -739.984375
43.252102 18.977600 -743.766785
43.248001 104.707100 -769.166626
43.246300 102.059898 -759.592712
43.243999 98.839897 -765.119385
43.240398 21.069700 -748.290527
43.232899 102.442001 -767.452026
43.226101 100.481300 -766.419189
43.224201 100.454903 -760.648987
43.217899 101.661301 -767.315979
43.214802 98.421799 -761.152710
43.213600 18.064100 -741.281494
43.212700 99.422699 -765.641296
43.211498 5.149300 -737.134399
43.198399 99.946602 -760.031128
43.197899 97.917999 -760.701721
43.197800 105.248596 -769.629211
43.196400 93.368103 -761.364319
43.196098 0.325500 -740.869202
43.195099 97.271004 -764.103516
43.195099 -1.171300 -740.573425
43.193001 3.077400 -738.368591
43.190601 13.017400 -740.683228
43.186401 3.731400 -738.529907
43.183800 96.762001 -761.321228
