52.300999 17.827801 -725.172485
52.300400 22.496300 -727.178589
52.299801 21.253700 -733.810913
52.298000 16.456800 -728.886230
52.297298 21.075500 -729.082886
52.294300 22.207500 -727.326416
52.292801 16.556801 -729.263489
52.279202 18.076099 -724.352905
52.278599 17.713499 -725.542786
52.276699 20.676800 -733.531982
52.274200 18.479200 -722.435913
52.263699 22.489500 -727.574707
52.263500 17.526699 -726.470886
52.259399 21.016899 -733.733704
52.259102 18.259100 -721.978088
52.256599 18.413900 -722.822510
52.256401 22.129400 -728.932190
52.256302 19.732201 -732.988708
52.255001 20.776501 -727.249329
52.250801 22.733601 -727.463623
52.249599 18.447701 -723.179199
52.242100 21.816999 -727.176086
52.240898 20.265600 -727.478271
52.240200 16.521601 -728.657898
52.235298 17.896299 -724.955078
52.231800 17.547701 -726.254211
52.229698 18.108299 -723.873779
52.229198 18.238400 -723.538330
52.225101 21.412800 -729.021606
52.223400 17.229401 -727.258423
52.218899 20.442801 -733.480225
52.216301 18.099300 -730.989624
52.216202 22.326099 -727.861816
52.215099 17.828300 -730.453674
52.211700 22.012699 -728.340881
52.211201 17.715799 -730.225281
52.210201 20.089100 -733.239319
52.209099 18.336100 -722.198120
52.205502 21.950800 -728.716003
52.199501 21.413401 -734.030273
52.195900 17.574699 -726.037170
52.193802 18.363100 -731.684998
52.193199 19.011801 -732.501099
52.192902 18.546400 -732.018982
52.192402 22.130699 -728.091492
52.191601 22.079100 -729.167297
52.181702 18.760799 -732.278992
52.177299 18.152000 -731.187378
52.176300 17.271099 -727.039307
52.175598 21.767799 -728.993774
52.173698 21.539301 -727.174072
52.173100 17.959999 -724.737976
52.165100 17.895800 -730.651123
52.163200 19.420401 -732.755798
52.161900 19.635900 -727.775818
52.158401 18.351400 -723.003296
52.158199 21.988100 -727.266785
52.158100 18.408899 -722.606873
52.156898 19.970900 -727.507690
52.142899 22.353701 -727.380371
52.142399 22.155701 -728.752014
52.142399 18.055599 -724.104370
52.140800 18.209900 -731.380981
52.136700 16.750500 -728.160583
52.136700 17.315701 -726.791199
52.136398 19.893299 -733.105530
52.130199 20.265200 -733.331482
52.128201 22.317301 -727.657288
52.127998 19.197399 -732.609375
52.122101 21.134399 -727.237183
52.119900 16.573400 -728.421326
52.119202 18.012400 -724.521729
52.118599 17.643400 -725.674805
52.117100 19.591600 -732.918701
52.116199 18.367399 -722.378418
52.104801 20.467800 -727.351196
52.104000 18.260300 -723.777283
52.103199 21.116501 -729.001892
52.102798 18.284901 -723.365173
52.101101 17.981899 -730.846924
52.098598 19.798500 -727.641418
52.096901 21.251900 -733.845093
52.095501 17.017599 -727.538513
52.094200 17.371901 -726.585876
52.091202 17.690901 -725.423584
52.091000 22.143999 -727.902588
52.084099 22.045601 -728.525513
52.078701 21.921200 -728.164612
52.070202 18.883499 -732.401123
52.069801 18.184200 -721.978271
52.067501 21.571501 -728.997314
52.066399 18.063299 -724.305725
52.060200 17.572701 -730.063416
52.059700 20.594999 -733.510986
52.054699 17.424000 -726.380920
52.052799 22.181400 -727.231018
52.051300 18.149900 -723.612793
52.048500 18.388100 -731.866211
52.041698 22.118299 -727.432678
52.041100 17.757099 -725.219421
52.040901 18.383301 -722.819214
52.036701 16.299999 -729.147217
52.036301 17.096001 -727.331177
52.032101 21.035999 -733.773804
52.031898 18.424500 -722.132385
52.030800 20.812300 -733.665894
52.026501 18.083900 -723.919373
52.020901 19.720800 -733.039001
52.020500 17.655500 -730.316223
52.020500 22.092199 -729.021973
52.019001 21.329000 -728.989014
52.018700 17.471399 -726.176392
52.018501 20.377899 -733.488403
52.015499 20.794600 -729.017822
52.015202 18.603201 -732.133972
52.014900 20.212000 -727.440674
52.008400 17.132799 -727.126221
52.007801 21.881800 -728.391602
52.006302 17.543600 -725.919189
52.003201 21.899500 -728.886780
52.000702 21.770700 -728.567383
52.000301 22.016100 -728.705017
51.995499 17.817200 -725.015625
51.993999 22.149500 -727.708313
51.992599 19.314301 -732.753479
51.991901 18.304800 -723.173401
51.986900 20.049000 -733.217407
51.986500 19.435499 -727.784424
51.982700 21.866600 -729.298279
51.981499 16.304701 -728.855286
51.978500 19.023100 -732.528992
51.974499 21.635000 -727.223511
51.973701 16.876699 -727.630005
51.971600 16.492100 -729.442871
51.968102 17.750900 -730.523621
51.967602 17.984100 -731.017822
51.964802 18.188299 -731.476318
51.963600 18.270300 -722.273926
51.962299 18.347700 -722.586670
51.959801 17.197100 -726.919983
51.956299 22.086300 -728.051086
51.955601 19.992701 -727.527527
51.952801 16.406601 -728.606628
51.949200 17.878401 -724.812012
51.938801 17.814699 -730.733826
51.935799 16.659700 -728.118286
51.934299 21.255301 -727.236023
51.933498 17.583300 -725.564697
51.932899 20.614599 -727.309692
51.926800 18.262800 -731.684387
51.924500 18.210800 -723.465576
51.923599 19.596201 -727.676819
51.917099 18.075899 -731.224609
51.915001 17.923300 -724.609009
51.913601 18.739599 -732.322571
51.911900 21.431101 -727.082581
51.909901 21.687700 -728.932495
51.908600 16.963200 -727.456726
51.908001 17.265800 -726.713989
51.906300 19.874500 -733.156494
51.904999 21.828899 -728.080627
51.904202 19.497601 -732.846924
51.904099 20.205400 -733.339111
51.903000 18.000099 -724.118286
51.895000 21.243099 -733.958984
51.892300 18.244801 -723.729614
51.891602 18.306499 -722.968689
51.886299 21.988899 -727.167297
51.876900 20.841299 -733.795593
51.876499 17.658800 -725.359985
51.875000 21.828899 -727.382629
51.874901 20.587400 -733.604492
51.874298 21.988800 -727.881287
51.872101 21.750500 -728.324829
51.871498 17.980700 -724.405884
51.867901 19.181400 -732.640625
51.867401 18.140301 -722.063721
51.867199 17.017900 -727.250488
51.866798 16.469601 -728.366699
51.865398 21.480200 -728.958801
51.860699 20.365499 -727.294495
51.859200 17.330299 -726.508423
51.855999 21.206301 -728.975281
51.850899 18.327101 -722.769287
51.845798 18.403400 -731.957092
51.837101 18.158701 -723.952393
51.836399 16.570299 -727.925903
51.836399 17.360201 -726.304321
51.831299 17.437201 -726.007385
51.829300 21.695299 -728.638306
51.825600 17.726101 -725.155823
51.824402 17.553400 -725.760010
51.822800 18.237801 -723.280212
51.819599 17.080999 -727.044189
51.808800 18.071301 -731.428589
51.807999 19.742901 -727.570374
51.803501 22.067801 -727.587097
51.801498 20.116199 -727.405212
51.801102 18.288700 -722.464600
51.798801 17.422100 -730.158020
51.798500 21.610701 -727.323975
51.794800 20.352301 -733.456299
51.794498 16.447201 -729.571716
51.793999 18.899599 -732.441406
51.792599 21.838100 -728.785400
51.792000 19.616600 -733.004517
51.779400 21.149099 -733.760620
51.776798 18.155001 -722.276489
51.775700 18.376101 -722.222473
51.774799 17.140301 -726.838318
51.772999 16.131599 -728.867371
51.771500 22.430300 -727.589172
51.766499 21.694201 -728.144226
51.765499 17.805700 -724.951599
51.764198 19.250700 -727.756226
51.762901 19.933500 -727.487183
51.762600 20.763599 -727.264526
51.758701 20.072201 -733.268921
51.754101 19.358299 -732.777527
51.753502 17.846300 -730.892517
51.746700 18.173201 -731.664673
51.744598 21.580799 -729.282227
51.743999 18.114901 -723.642700
51.743900 16.761101 -727.611328
51.743801 21.382401 -727.222595
51.740700 18.569401 -732.154419
51.739498 17.486700 -730.349670
51.739498 21.784700 -727.964111
51.733002 21.923599 -727.727478
51.722000 18.240700 -723.085022
51.715900 17.939400 -724.256775
51.715801 21.177700 -727.221130
51.715199 17.872299 -724.747986
51.714500 17.220301 -726.631775
51.713200 17.925301 -731.100830
51.711300 18.280399 -723.450073
51.705898 16.304800 -728.551514
51.705898 19.557800 -727.644470
51.705299 17.533100 -725.555176
51.701199 21.359301 -728.946106
51.700100 21.945101 -727.441772
51.695801 20.528900 -727.239624
51.690899 21.581900 -728.530029
51.688400 19.787201 -733.083984
51.682800 21.627501 -728.861023
51.681400 20.864901 -733.711609
51.680199 17.265600 -726.426880
51.677700 21.653601 -729.080811
51.676800 18.298700 -731.836121
51.675900 18.088100 -724.082886
51.674801 17.589100 -730.551392
51.673698 17.927000 -724.544922
51.672298 21.585899 -728.290405
51.672100 16.842199 -727.409119
51.669399 18.272800 -722.702087
51.665901 20.525400 -733.570313
51.662601 16.049700 -729.178772
51.661900 19.498400 -732.904297
51.661598 21.767599 -727.180786
51.658401 19.081100 -732.557678
51.653599 17.020800 -727.171021
51.652599 18.704800 -732.282776
51.649200 20.219000 -733.386292
51.648499 20.854099 -728.968811
51.646900 17.610600 -725.350525
51.645500 20.289200 -727.323425
51.645302 18.039000 -722.127991
51.643002 18.345301 -722.912720
51.641701 17.316401 -726.222107
51.635700 17.446699 -725.882019
51.633999 19.080700 -727.783813
51.632599 18.003901 -731.342285
51.628300 17.752399 -725.104370
51.628101 18.301701 -723.259094
51.626301 18.134100 -723.867493
51.613800 21.726900 -728.671814
51.613300 17.707001 -730.761108
51.613300 21.762501 -727.805908
51.613098 17.365999 -730.032471
51.611698 18.411100 -732.039307
51.603699 21.723200 -727.418213
51.602100 21.628799 -727.984375
51.602100 18.216700 -722.456299
51.596802 20.063299 -727.390320
51.592800 16.142700 -728.643372
51.588100 18.063999 -731.539490
51.582802 17.772600 -730.970886
51.580799 16.688999 -727.735229
51.573101 15.958900 -728.959229
51.572899 21.341700 -727.331482
51.572399 18.347099 -722.239075
51.571499 19.768000 -727.506714
51.571301 20.880600 -727.268982
51.564899 17.816099 -724.886719
51.561901 21.041401 -733.830688
51.560699 18.844999 -732.410400
51.558800 18.204700 -723.651611
51.555000 16.723000 -727.537781
51.554298 17.013000 -726.987976
51.551998 19.970400 -733.264526
51.548801 18.014500 -724.394897
51.542999 17.928600 -724.135925
51.542702 17.340401 -730.261292
51.539902 17.451000 -725.676819
51.538502 22.149700 -727.576294
51.535198 21.073999 -727.114929
51.532001 19.237200 -727.633179
51.531898 21.712799 -727.617615
51.529900 21.487301 -728.835388
51.529598 18.142799 -731.734680
51.528900 21.509399 -728.432678
51.527401 20.382299 -733.501587
51.525501 19.259199 -732.740784
51.522400 17.879000 -731.176208
51.519699 17.058599 -726.782593
51.515202 20.678699 -727.275085
51.510399 20.754101 -733.698914
51.509701 18.250000 -723.436584
51.506401 18.211599 -723.046326
51.504902 21.448500 -728.151672
51.504700 17.326700 -726.033997
51.504501 20.988600 -728.927002
51.503700 21.573700 -727.211914
51.499500 20.679300 -728.954773
51.495499 16.802000 -727.262024
51.488800 18.092100 -722.326172
51.484798 18.524799 -732.171082
51.484501 19.695400 -733.056030
51.484402 17.903200 -724.668274
51.476002 18.222200 -722.725586
51.474701 17.118200 -726.576782
51.474602 17.537600 -725.471619
51.470600 16.006800 -729.271118
51.467400 17.954800 -723.939514
51.467201 20.427601 -727.294678
51.463600 17.567600 -730.602722
51.462601 18.993900 -732.536621
51.462002 16.027100 -728.516174
51.461601 21.382601 -729.246094
51.460300 18.948400 -727.831726
51.458302 21.512199 -727.459412
51.455700 21.603500 -727.824524
51.455200 21.586599 -728.640503
51.448399 16.290800 -728.249512
51.445900 17.634899 -725.225586
51.442501 18.039900 -723.749817
51.442402 18.141001 -723.273010
51.442101 18.260300 -731.926208
51.432400 20.149900 -733.368530
51.430901 20.222300 -727.330200
51.428200 19.408400 -727.587280
51.426601 17.181999 -726.370972
51.425900 17.193001 -730.023010
51.424801 21.366400 -728.557312
51.416000 15.972900 -728.745789
51.414799 21.427200 -729.039917
51.413399 17.941099 -731.400574
51.412201 17.636900 -730.799988
51.409302 18.277000 -722.368896
51.408501 17.908600 -724.294128
51.401402 21.462799 -727.964417
51.400700 17.216101 -726.166626
51.397701 21.383400 -728.347107
51.387402 19.825500 -733.175720
51.385201 20.931700 -733.747375
51.376598 19.126200 -732.664429
51.375099 18.671700 -732.291626
51.373199 19.428400 -732.895874
51.371700 19.122900 -727.701172
51.367699 21.011299 -727.247498
51.367599 19.820499 -727.404785
51.364498 21.303101 -727.357483
51.361301 17.705601 -730.997192
51.359001 21.125999 -728.887512
51.358002 20.609100 -733.609497
51.357498 16.693100 -727.453491
51.356800 17.733101 -725.005676
51.356098 16.869499 -727.066711
51.355801 17.221800 -730.219788
51.352600 21.086000 -733.884827
51.352600 18.023100 -731.595825
51.351101 21.595699 -727.638428
51.349899 18.115299 -722.543274
51.349098 20.824600 -728.919922
51.347900 17.754101 -724.593018
51.344200 15.862800 -728.902527
51.342999 21.321899 -728.136414
51.339001 18.170601 -722.918030
51.336300 18.083000 -723.521729
51.335999 18.045000 -724.091125
51.332298 17.959900 -722.258179
51.331902 17.019400 -726.709229
51.331200 21.408701 -728.771118
51.331100 19.591900 -727.500671
51.330898 20.302500 -733.492004
51.329498 17.310600 -725.892578
51.324100 17.330299 -730.426514
51.322498 21.824200 -727.526794
51.321701 20.770399 -727.262085
51.320599 21.475000 -727.253113
51.317402 18.427500 -732.112610
51.306099 18.229099 -723.129272
51.304501 17.782200 -731.193420
51.296001 17.540899 -725.375305
51.294300 16.755800 -727.231995
51.292702 17.778900 -724.791016
51.290600 18.106501 -731.790588
51.288799 18.832701 -727.767517
51.285099 21.711700 -728.799316
51.282600 18.093100 -723.859192
51.280800 16.028200 -729.599304
51.278599 20.550501 -727.290100
51.277100 17.380100 -725.687378
51.274300 19.577900 -733.020874
51.267200 15.784600 -729.091614
51.267101 16.645599 -727.778503
51.266102 18.944799 -732.551270
51.256500 16.885000 -726.872314
51.254299 21.489000 -727.476685
51.251701 21.427900 -727.833679
51.248100 17.885000 -724.175476
51.245300 17.436199 -730.621277
51.243500 18.164301 -723.344177
51.239201 16.201200 -728.190491
51.239101 20.024099 -733.287781
51.230202 17.882500 -731.522278
51.229801 17.923000 -723.957886
51.229099 20.288401 -727.318420
51.228500 19.321100 -727.581909
51.225498 18.120800 -722.704712
51.224499 17.841900 -724.397583
51.216202 21.281700 -728.294678
51.211300 21.265400 -727.953979
51.209599 19.222799 -732.819275
51.209099 18.186899 -722.381592
51.206699 17.639400 -725.155029
51.205700 17.019899 -726.551575
51.205399 17.187000 -726.092896
51.202400 19.014400 -727.682312
51.201199 20.966000 -728.882813
51.199600 21.416700 -728.515625
51.199299 21.269100 -727.509583
51.198101 19.975700 -727.351196
51.195301 21.302601 -727.232178
51.194099 21.242800 -728.769287
51.193001 19.715700 -727.359985
51.191700 20.963100 -733.878479
51.185699 16.071699 -728.366699
51.181099 17.021000 -730.083313
51.177502 19.081100 -732.678101
51.176899 20.940201 -727.325684
51.176701 18.259300 -731.978577
51.174000 21.124599 -729.181885
51.167599 16.703501 -727.066101
51.167000 15.783800 -728.841370
51.166698 18.081301 -723.171082
51.164902 19.741800 -733.143677
51.163502 17.546101 -730.815613
51.162701 20.761101 -733.678772
51.155300 16.514900 -727.659485
51.153400 17.987801 -723.709412
51.152401 18.510900 -732.257385
51.148300 17.775400 -731.327698
51.145802 19.470800 -732.909424
51.139500 20.399300 -733.566406
51.135502 18.031700 -722.541199
51.132999 17.095699 -726.330627
51.132198 17.111799 -730.292114
51.131100 18.735001 -727.659485
51.130402 17.720100 -724.936096
51.125702 17.292999 -725.818481
51.125198 20.176600 -733.404297
51.122898 21.175900 -728.982483
51.122299 16.935801 -726.714294
51.121899 17.602301 -731.013916
51.120899 17.700500 -724.675781
51.117901 20.667601 -727.249878
51.115299 17.405300 -725.571472
51.112099 21.335800 -727.686707
51.112000 16.550800 -727.446228
51.110401 18.092300 -722.890503
51.109798 18.032801 -723.453430
51.109200 17.873600 -722.253601
51.108398 21.148701 -728.496582
51.095402 21.813299 -728.834473
51.088902 18.733801 -732.419312
51.088699 18.072701 -731.842407
51.085499 20.429300 -727.315308
51.084202 19.516701 -727.466187
51.084099 21.080900 -727.456177
51.081100 18.007900 -724.063904
51.080101 21.118500 -728.145386
51.063801 16.122801 -728.128479
51.063301 21.523600 -728.670471
51.053600 16.606600 -727.224976
51.049000 19.914600 -733.265076
51.045898 17.253500 -730.495605
51.044399 18.603001 -727.842712
51.043499 17.480000 -725.352173
51.041100 19.188999 -727.543884
51.040298 21.075899 -728.760010
51.037300 16.945499 -726.462219
51.035198 17.178900 -725.979492
51.034500 17.928301 -731.651794
51.034100 16.780800 -726.892029
51.031700 17.836399 -724.254822
51.030899 20.784599 -728.870117
51.025398 21.175200 -727.838379
51.024799 20.809000 -727.380920
51.019600 15.681000 -729.030701
51.016800 19.874001 -727.331116
51.016300 20.111500 -727.327087
51.010399 16.972401 -729.966125
51.009399 17.846300 -724.572388
51.003700 21.009100 -729.135498
51.000301 18.146200 -723.063416
51.000198 20.857901 -733.785828
50.998699 15.674300 -729.301575
50.998199 18.015100 -722.697021
50.997200 19.178200 -732.777771
50.988701 18.178301 -722.366577
50.986500 18.871099 -732.539917
50.985001 17.786600 -731.471130
50.982601 17.599701 -724.828430
50.979301 18.219601 -732.030884
50.978001 17.023899 -726.187927
50.976501 17.931101 -722.416016
50.975498 17.916401 -723.900085
50.974800 20.638100 -733.678589
50.974701 17.374800 -730.700684
50.965000 17.652700 -731.201477
50.962799 19.589300 -733.060425
50.959099 16.305000 -727.825012
50.958500 18.088699 -723.276611
50.957500 21.009399 -728.483521
50.946899 18.909500 -727.608215
50.946201 17.297300 -725.704773
50.945000 18.379400 -732.169128
50.944000 17.109501 -730.372925
50.941502 16.327700 -727.572998
50.940300 16.920500 -730.210571
50.939999 18.033701 -723.708923
50.938099 21.015699 -728.273804
50.938099 17.600700 -725.130981
50.935398 21.268200 -728.469421
50.933498 20.443001 -727.174377
50.931702 20.089199 -733.385803
50.927200 21.171400 -727.632629
50.925301 20.577101 -727.358826
50.924500 15.860500 -728.470520
50.921001 19.682501 -727.395996
50.919498 21.059200 -727.264587
50.917702 17.476500 -730.907410
50.917301 18.607100 -732.348877
50.912498 19.384899 -727.476929
50.908401 18.043699 -722.900513
50.903500 20.989000 -727.508911
50.902599 17.355200 -725.500183
50.900902 16.754801 -726.737610
50.900002 21.047701 -728.062378
50.893002 20.288500 -733.513123
50.889198 18.050400 -731.865723
50.886799 16.400499 -727.365112
50.883701 19.008801 -732.660217
50.881599 17.973900 -724.138428
50.878502 20.912600 -728.974121
50.874599 20.726000 -729.204102
50.871101 20.892200 -728.745728
50.867199 20.346701 -727.356323
50.866402 17.955799 -723.536316
50.861401 17.196199 -730.582214
50.861000 17.179199 -725.843384
50.860802 16.619900 -727.015076
50.858898 16.824699 -729.993774
50.857800 18.459801 -727.741516
50.852600 16.818701 -726.531311
50.851002 17.653700 -724.662292
50.844700 19.765200 -733.181213
50.837898 19.391701 -732.956482
50.837200 17.742901 -724.422485
50.836601 17.443001 -725.294922
50.836601 17.900400 -722.557007
50.833698 21.562799 -727.667725
50.833401 18.009199 -723.098389
50.833302 19.941500 -733.279297
50.829102 17.893801 -731.680603
50.823002 20.007299 -727.339478
50.821899 15.533700 -729.012085
50.820599 17.664700 -731.393677
50.812500 20.764000 -733.817078
50.810501 20.974800 -727.890381
50.801498 16.886299 -726.325012
50.798599 21.598400 -728.796082
50.797298 15.745800 -729.519897
50.796501 17.100700 -726.031311
50.796299 19.106001 -727.505493
50.789799 17.811300 -724.210083
50.788300 17.523500 -731.098328
50.787701 20.885900 -727.264771
50.787102 16.010900 -728.074524
50.780899 18.222000 -732.062012
50.778702 17.978800 -722.751587
50.777699 20.255501 -727.188721
50.776501 18.796000 -732.531677
50.772301 20.789200 -727.471802
50.770500 17.318800 -730.775330
50.770100 18.039600 -723.351624
50.767399 16.948799 -730.321716
50.760899 21.259899 -728.617920
50.760700 21.040001 -728.615417
50.759300 16.445000 -727.193420
50.756302 19.179501 -732.843628
50.754200 17.465500 -725.045410
50.753502 20.954500 -727.645325
50.751202 19.554300 -727.400818
50.744400 20.829800 -728.439392
50.739498 19.820200 -727.368774
50.737202 17.926399 -723.839294
50.730301 20.683399 -729.016785
50.729698 15.705100 -728.650391
50.728802 19.537800 -733.074829
50.726601 18.096500 -723.728882
50.724701 18.620100 -727.666016
50.724499 20.531200 -727.417480
50.721401 18.565599 -732.401123
50.719101 20.106800 -733.407898
50.714901 16.725000 -726.657227
50.712299 20.846399 -728.158813
50.705101 20.539900 -733.617981
50.698502 15.869700 -728.253784
50.696999 18.044600 -722.496887
50.695000 18.383801 -732.215515
50.694000 16.166401 -727.639771
50.693001 17.964300 -722.944275
50.692299 17.564301 -724.844727
50.691700 17.542999 -731.298218
50.690102 17.214899 -725.737122
50.689201 17.054399 -730.516602
50.681900 20.950001 -728.779602
50.680500 17.850100 -722.377075
50.676102 20.281799 -727.373718
50.673199 17.839800 -724.026611
50.672901 20.839800 -727.822876
50.667599 17.921200 -731.798828
50.666401 17.668800 -724.515930
50.664902 18.945499 -732.650818
50.658798 15.756100 -729.720886
50.653198 17.917299 -723.484680
50.652699 16.723400 -730.062012
50.649399 17.710800 -731.554993
50.649101 17.856501 -722.645874
50.647598 16.573601 -726.967773
50.646599 16.794500 -726.436218
50.641998 16.910200 -726.188416
50.641399 19.292900 -727.416992
50.639599 19.335800 -732.961182
50.637798 19.893700 -733.290222
50.634899 16.245300 -727.431519
50.634102 18.771601 -727.566772
50.634102 17.311001 -725.516296
50.633900 17.454901 -725.317871
50.631802 15.594400 -729.485779
50.626099 17.344500 -730.921570
50.625900 20.253901 -733.524170
50.625198 15.427300 -728.875916
50.620499 18.259300 -727.726807
50.618500 18.050501 -723.157471
50.615200 20.751900 -727.283386
50.606499 19.701500 -733.190918
50.603901 20.710600 -727.545898
50.602299 17.736799 -724.313171
50.602001 16.791901 -730.260193
50.592701 20.032801 -727.376587
50.586700 17.192699 -730.708374
50.585602 18.032101 -731.978699
50.585602 17.104401 -725.895325
50.578499 17.409100 -731.119019
50.578499 15.725600 -728.422424
50.578300 20.710400 -733.912720
50.576801 17.556801 -725.020630
50.576698 16.323000 -727.223572
50.576500 20.852600 -728.584229
50.566799 20.439699 -729.063110
50.566200 20.669901 -728.400879
50.566200 19.686600 -727.381104
50.565300 16.601801 -726.753174
50.564701 20.721100 -728.887085
50.559799 17.969299 -723.757202
50.558800 17.709200 -724.719299
50.557899 19.088900 -732.770081
50.557701 18.785000 -732.580688
50.541801 17.890800 -722.833496
50.539101 20.686100 -728.189697
50.531799 18.602800 -732.462891
50.531101 17.961100 -723.330017
50.527302 20.955200 -727.655212
50.527100 20.515200 -727.511230
50.516998 20.609400 -733.727905
50.512798 17.538300 -731.435608
50.512699 16.671801 -726.546692
50.512501 16.912701 -730.453918
50.512402 16.069000 -727.813599
50.510601 20.743700 -727.733521
50.505901 15.897500 -728.020508
50.503700 20.713499 -727.978027
50.502399 17.797899 -731.747986
50.502102 18.107500 -727.811707
50.501598 18.187201 -732.129028
50.501499 19.520700 -733.075378
50.500599 17.906900 -723.056885
50.496498 16.430099 -727.014587
50.496399 18.413200 -727.651489
50.495602 17.772301 -724.502075
50.492199 16.966299 -726.065674
50.489300 21.376900 -728.700684
50.488701 16.100401 -727.610474
50.488499 17.760300 -724.126282
50.484200 18.969999 -727.461487
50.483299 20.422199 -733.572388
50.479599 17.917299 -723.936707
50.477299 19.461300 -727.356689
50.475201 17.132000 -725.706299
50.474800 17.774000 -722.580078
50.470402 17.343800 -725.378418
50.467300 15.597700 -728.595520
50.460201 20.196501 -727.434326
50.458500 19.222200 -732.890076
50.454601 16.773399 -726.377075
50.453899 16.146999 -727.404114
50.453499 19.855801 -727.340576
50.446201 15.286600 -729.266724
50.443100 18.938700 -732.699219
50.441200 20.607500 -727.337280
50.437500 18.002501 -722.545471
50.434601 17.207001 -730.906799
50.432800 17.956100 -723.600098
50.429901 16.526800 -729.946594
50.424301 17.031601 -730.647217
50.423401 17.365801 -731.249329
50.418598 15.593500 -729.761719
50.415501 17.587400 -724.588013
50.414299 20.228701 -733.531006
50.412899 19.960501 -733.296387
50.412701 17.605000 -724.900024
50.405201 16.600599 -730.173584
50.401798 18.338900 -732.255371
50.397900 20.570299 -728.070801
50.395500 17.656500 -731.637512
50.392601 17.945499 -731.936523
50.387901 19.670099 -733.187195
50.386501 17.315100 -725.157410
50.384899 15.745500 -728.202576
50.382702 20.663000 -728.764587
50.381199 16.244301 -727.195313
50.380199 20.635201 -733.921570
50.378700 20.391399 -728.975891
50.374100 20.653200 -728.555176
50.370098 20.565300 -727.650879
50.362099 17.651899 -724.362122
50.361198 20.599100 -727.858582
50.359901 20.352600 -727.512695
50.359501 17.862101 -723.431824
50.356998 17.843399 -722.928589
50.353001 17.848000 -722.727112
50.343399 18.607201 -727.553711
50.340500 17.906300 -723.783325
50.332500 19.390900 -733.006104
50.331600 20.531300 -733.722473
50.328300 15.622200 -728.366089
50.327400 18.668900 -732.532288
50.327400 18.165100 -727.668518
50.325500 16.437799 -726.885315
50.323601 19.146400 -727.389587
50.323200 20.014799 -727.438782
50.319500 16.742100 -730.378784
50.318699 17.760300 -731.830322
50.317600 17.897200 -723.196716
50.315800 20.419201 -728.411987
50.298302 20.114000 -733.412598
50.296501 18.381300 -727.649292
50.294201 16.962999 -725.925476
50.292500 17.773199 -723.975830
50.290901 19.585800 -727.363525
50.289799 18.083799 -732.125427
50.289200 21.023100 -727.793884
50.287800 17.222700 -731.089722
50.287399 17.198601 -725.568787
50.279900 16.375299 -729.902588
50.279099 20.268801 -729.133423
50.278400 17.824600 -724.228027
50.278099 18.444799 -732.409912
50.276600 20.451099 -728.199219
50.275200 15.241500 -729.057800
50.275002 19.163700 -732.809875
50.271500 19.810801 -727.441711
50.268200 16.514299 -726.678406
50.264500 16.739799 -726.255371
50.262901 15.509500 -728.535583
50.262699 17.602100 -724.746582
50.261299 17.023001 -730.789429
50.256599 17.365299 -724.989014
50.254501 17.450600 -731.426086
50.252701 19.834299 -727.238403
50.250000 16.861500 -730.585815
50.239101 20.480600 -727.986694
50.237598 16.441799 -730.102722
50.237099 17.709900 -724.566284
50.234299 15.278300 -729.379700
50.234200 20.465500 -727.777527
50.229900 20.186701 -727.518311
50.228298 15.275200 -728.832214
50.223301 18.808500 -732.652283
50.222500 15.751600 -727.849976
50.217701 20.726801 -727.769897
50.214699 17.900400 -732.019104
50.213699 17.070400 -725.718811
50.213001 20.496300 -728.797485
50.210201 17.871000 -723.616211
50.208698 17.303400 -725.362915
50.205502 16.598200 -726.471497
50.201099 16.225000 -727.098389
50.200100 20.286100 -733.536987
50.199001 16.827200 -726.049011
50.189999 17.868299 -727.733521
50.187302 20.578899 -733.864380
50.187000 19.585800 -733.119019
50.183701 18.786900 -727.477417
50.181900 18.228701 -732.245789
50.180099 17.778299 -722.845520
50.173901 16.569000 -730.322388
50.171700 17.730801 -722.626526
50.165199 20.252100 -728.955627
50.165199 17.885401 -723.370178
50.164001 17.572701 -731.617371
50.161701 19.975700 -733.359619
50.157200 19.321501 -732.927124
50.148201 20.294800 -727.667786
50.147800 15.646500 -728.144897
50.146301 19.289400 -727.368408
50.137798 18.970600 -732.775879
50.135799 20.124100 -729.137817
50.135300 17.810301 -723.153687
50.134899 18.553101 -727.568787
50.134300 20.402000 -728.501587
50.130699 20.319700 -728.305725
50.128700 17.677500 -724.176575
50.123501 19.944201 -727.497986
50.122799 17.417999 -725.156982
50.119801 15.327000 -729.716370
50.119499 19.658199 -727.238281
50.116299 20.606199 -728.578186
50.115398 17.597700 -724.433228
50.113899 17.096201 -730.998779
50.111500 17.441700 -724.838379
50.110600 16.945400 -725.841675
50.109901 17.227800 -731.244873
50.108002 16.349501 -726.865173
50.102699 20.356300 -728.105774
50.101398 17.833099 -723.990112
50.095200 15.128600 -729.008728
50.094799 16.701401 -730.528503
50.087399 17.676201 -731.809998
50.084000 18.360100 -732.367188
50.081699 16.645399 -726.295776
50.081600 16.310200 -730.017090
50.080101 20.385900 -727.906494
50.079601 16.081900 -727.245483
50.071499 20.417700 -733.644287
50.070900 15.516400 -728.310181
50.067200 17.856400 -723.775330
50.064999 19.577700 -727.431580
50.062698 16.409800 -726.659119
50.062401 20.370399 -728.734802
50.055698 18.044701 -727.640991
50.055500 20.117901 -733.476929
50.049400 17.232500 -725.488281
50.048901 19.734400 -733.217712
50.045200 17.315201 -731.439575
50.042500 20.116301 -727.592773
50.041000 18.528099 -732.486816
50.035599 15.327200 -728.628906
50.029499 17.179899 -725.290771
50.029400 16.815201 -730.735901
50.027401 16.408800 -730.226990
50.021000 15.208700 -729.532898
50.019100 17.733000 -722.997925
50.018501 18.022800 -732.118530
50.012501 17.076599 -725.634277
50.011299 18.940800 -727.440125
50.004902 16.181601 -727.036926
50.001701 18.815500 -732.707886
50.001202 19.411100 -733.063721
50.001202 19.172501 -732.893921
49.999699 16.755199 -726.088623
49.992100 17.804800 -731.999817
49.991501 16.504900 -726.451721
49.989201 17.595699 -724.680786
49.987801 20.250700 -728.440979
49.985001 16.527000 -730.382874
49.984299 20.521700 -727.769592
49.984200 20.070700 -728.963684
49.984200 17.696699 -727.710876
49.980000 20.214800 -728.022217
49.976799 17.773199 -723.350220
49.974201 20.501900 -728.183472
49.974201 17.792200 -722.726929
49.970901 17.800100 -723.600830
49.970501 17.281500 -725.105530
49.969002 20.215099 -727.785217
49.961800 15.166200 -728.777527
49.959499 15.367800 -728.406799
49.958599 18.701000 -727.524414
49.954800 19.404800 -727.389587
49.951801 19.882299 -733.340698
49.950500 15.560500 -728.083801
49.944599 16.957199 -730.912720
49.942600 20.499100 -728.558716
49.940601 17.590500 -722.703186
49.939999 17.713800 -723.863281
49.939800 19.856100 -727.551697
49.937599 17.460199 -731.628601
49.924900 19.853600 -729.125793
49.920700 17.686701 -724.409607
49.919800 17.462400 -724.964478
49.918201 16.297199 -726.760315
49.917301 16.865700 -725.881714
49.911999 20.309999 -733.588318
49.909801 15.006700 -729.256409
49.907200 20.105600 -728.326782
49.906799 16.632900 -730.577881
49.903999 16.197800 -729.867615
49.902401 17.662800 -724.140320
49.900902 18.950701 -732.827820
49.898102 20.312599 -728.635986
49.897598 15.021500 -729.007507
49.897400 18.229401 -727.558228
49.895901 17.046000 -731.149292
49.894001 16.233999 -730.066711
49.890400 18.213400 -732.241211
49.877499 19.679300 -727.453430
49.870602 18.646700 -732.606628
49.864700 15.734400 -727.738892
49.863400 19.614500 -733.180176
49.855900 17.286100 -725.290222
49.855099 17.754101 -723.124817
49.853901 16.382999 -726.553284
49.848900 17.310801 -731.485107
49.847198 16.016701 -727.144775
49.844002 18.399000 -732.440186
49.844002 20.027800 -727.650391
49.842300 17.143499 -731.357178
49.841000 17.590500 -731.818481
49.839699 16.730400 -730.779724
49.832298 19.081400 -727.422974
49.828999 15.781400 -727.513916
49.828499 17.520901 -724.542725
49.825298 16.352501 -730.275024
49.823502 20.072599 -733.457703
49.823200 20.056801 -728.044678
49.822102 17.987700 -732.165771
49.821800 15.171400 -729.598206
49.821499 16.994101 -725.674500
49.818600 17.868099 -727.648804
49.815300 19.355101 -732.996826
49.815102 16.604799 -726.258118
49.813900 16.454800 -730.481506
49.810699 17.126801 -725.505371
49.808201 20.079201 -728.835205
49.808102 20.076300 -727.845581
49.803101 20.280600 -728.370178
49.794601 20.776199 -728.615112
49.779701 19.814699 -728.966919
49.778500 17.430799 -727.783813
49.778400 17.662300 -722.938782
49.777599 16.109900 -726.976807
49.777599 17.704000 -723.518188
49.776798 18.840000 -727.493225
49.771702 17.541401 -724.828674
49.768299 15.862300 -727.306030
49.765400 19.977200 -728.265503
49.763100 17.744200 -724.021790
49.761002 17.719500 -723.307373
49.755798 16.861200 -730.912598
49.755501 19.499399 -727.500183
49.754398 19.778700 -733.301270
49.749901 14.995700 -729.423523
49.748798 16.040899 -729.863220
49.747700 19.694901 -729.150024
49.747398 17.317699 -724.979614
49.746899 17.742701 -723.807617
49.744701 17.695101 -724.286499
49.743301 18.817499 -732.723022
49.735600 15.272900 -728.347900
49.735199 17.734600 -732.018677
49.735001 20.297501 -727.855408
49.732101 18.399300 -727.497314
49.728401 20.185200 -728.630310
49.726501 19.790501 -727.578674
49.725399 20.055300 -728.470215
49.721401 14.954300 -728.866089
49.720699 15.463700 -728.025024
49.719501 20.229799 -733.578674
49.717098 16.190500 -726.769775
49.714100 15.116700 -728.647522
49.713402 19.089899 -732.892578
49.712700 17.352699 -731.625671
49.708401 16.726900 -726.034973
49.706402 18.504101 -732.567505
49.705299 16.602200 -730.673218
49.702499 16.126699 -730.056824
49.700500 16.961100 -731.120728
49.699699 19.918100 -727.770813
49.698101 15.203500 -729.803772
49.696201 18.183500 -732.359985
49.690399 17.591000 -727.673401
49.690300 16.446400 -726.449219
49.679901 19.231800 -727.300598
49.669201 17.642000 -724.466797
49.668701 17.208401 -731.459473
49.663700 19.558100 -733.108582
49.663101 16.884501 -725.751526
49.657101 18.047100 -727.574829
49.650501 17.816700 -722.809814
49.644600 19.994499 -728.690491
49.642899 17.190599 -725.385498
49.642601 16.310301 -730.356873
49.642300 17.877300 -732.147522
49.629799 17.668400 -723.154602
49.621799 17.802401 -723.607300
49.619801 17.503599 -731.827087
49.616199 20.625000 -728.646423
49.615501 17.601900 -724.137878
49.614601 17.372499 -724.814697
49.612999 15.922700 -727.159973
49.612900 16.727699 -730.866028
49.612202 17.593201 -722.722778
49.608898 19.507999 -729.075378
49.607498 19.795900 -728.323181
49.604698 19.621799 -727.594971
49.604500 17.284901 -725.193298
49.604401 19.333300 -727.469299
49.598801 16.547600 -726.226929
49.597698 20.007700 -733.413391
49.596600 19.841700 -728.103271
49.592201 19.849501 -728.830017
49.592201 20.146900 -727.890625
49.589001 15.974600 -729.973389
49.588299 17.261000 -727.746521
49.583099 17.051399 -725.552917
49.581200 15.837800 -727.491089
49.576401 18.949800 -727.505981
49.573601 19.795401 -727.900513
49.568298 18.708300 -732.687073
49.567699 20.289801 -728.535889
49.567699 16.289400 -726.575317
49.562302 16.419901 -730.551819
49.556499 18.952400 -732.840515
49.555401 18.545900 -727.471680
49.554199 18.393900 -732.478088
49.553299 17.455000 -724.626221
49.552200 19.894899 -728.526184
49.550999 17.659700 -723.445923
49.547600 16.010000 -726.916870
49.547298 18.023001 -732.275574
49.546600 16.830900 -731.103394
49.546299 14.752500 -729.247375
49.544498 19.066799 -727.326721
49.541599 17.704700 -723.869019
49.538898 19.343300 -733.004272
49.536800 14.983800 -728.658325
49.534000 16.853300 -725.586121
49.532799 19.648600 -733.240601
49.523102 17.659700 -732.027405
49.522999 16.065300 -730.170471
49.519199 17.273399 -731.669373
49.519100 15.093900 -728.439880
49.518501 20.177401 -733.500122
49.517200 17.747200 -727.634216
49.507999 15.088600 -729.702515
49.507000 17.415600 -724.987610
49.506802 17.696800 -722.964722
49.505299 14.828500 -728.809875
49.499699 20.039700 -728.170288
49.497601 19.644600 -728.921997
49.496300 15.368700 -727.965576
49.494400 16.512800 -730.747681
49.490898 18.215700 -727.516113
49.489101 16.673599 -726.003906
49.489101 17.085699 -725.274719
49.476601 15.767200 -727.291687
49.476101 16.390600 -726.352722
49.473400 19.961300 -727.817688
49.469799 16.114000 -726.709106
49.469501 16.960501 -731.308472
49.469299 16.750000 -725.818970
49.468800 17.606100 -724.512329
49.454601 18.544901 -732.606201
49.448799 19.195400 -727.492920
49.445999 15.247300 -728.129211
49.440300 17.620199 -723.276672
49.438499 19.592899 -727.726685
49.437500 18.188700 -732.401123
49.437000 19.318100 -729.085815
49.432400 17.453199 -727.653625
49.430199 19.871099 -733.340698
49.429199 19.675900 -728.354675
49.428398 19.376101 -727.616821
49.427700 17.638399 -724.296387
49.427399 17.420900 -731.831177
49.427399 15.578500 -727.602417
49.426201 15.891100 -729.865417
49.425800 15.871500 -727.067017
49.425400 16.198700 -730.364014
49.420101 19.657200 -728.074219
49.419399 19.521799 -733.124817
49.418400 17.230900 -727.602173
49.413601 17.825300 -732.153870
49.403000 17.671801 -724.079407
49.402500 14.767700 -729.490112
49.401199 17.623301 -723.747314
49.401100 17.337000 -724.809387
49.399399 19.163300 -732.951477
49.394100 19.762899 -728.700012
49.391102 14.638100 -729.030212
49.389500 17.310600 -725.140686
49.382702 16.937599 -725.440186
49.379601 20.146601 -733.677429
49.377800 20.358801 -728.590881
49.375900 16.239799 -726.500793
49.374199 17.114901 -731.510620
49.373699 16.681999 -730.952881
49.368900 19.014601 -727.447815
49.368301 15.946200 -730.125488
49.367401 18.836100 -732.771729
49.365501 18.666100 -727.486023
49.359402 14.954300 -728.512329
49.355701 17.562700 -722.955322
49.352001 16.536501 -726.128418
49.348301 17.911400 -727.582703
49.347500 17.659800 -723.509705
49.347099 16.784100 -725.638977
49.346100 16.321501 -730.596619
49.344398 15.168100 -729.919189
49.342300 17.993099 -732.293823
49.339001 19.681400 -733.286926
49.337299 15.989900 -726.858826
49.337101 18.341700 -732.527588
49.336201 19.462200 -728.939087
49.334900 20.056101 -728.538025
49.328800 20.058001 -727.966125
49.327499 19.886299 -728.318176
49.324501 17.821100 -723.757202
49.321899 17.583000 -731.998718
49.321301 14.685700 -728.845703
49.316399 14.956100 -729.840881
49.315800 17.481199 -724.417114
49.315498 19.561899 -727.885010
49.313900 18.362301 -727.490479
49.312099 20.029301 -733.455872
49.312099 16.790501 -731.160278
49.308998 19.799500 -727.898621
49.303101 17.500900 -724.702881
49.292301 17.217100 -725.291992
49.291302 19.665100 -728.511597
49.289799 17.254299 -731.713684
49.288502 15.791500 -729.971008
49.287899 16.357500 -726.293274
49.284000 15.081700 -728.229614
49.283798 14.779500 -729.687500
49.281300 19.533800 -728.205383
49.275700 16.071899 -726.652283
49.272900 16.445999 -730.803406
49.271801 19.145201 -727.573120
49.265499 14.627400 -729.296326
49.265202 19.404800 -727.734619
49.261902 15.563700 -727.438293
49.258202 17.607300 -727.617676
49.257702 17.538601 -724.212219
49.256599 15.268500 -727.907104
49.251801 15.770400 -727.154602
49.249599 17.193199 -725.018799
49.246399 17.648001 -723.893005
49.245499 16.155199 -730.471619
49.244202 19.584900 -728.731873
49.243900 16.907900 -731.366577
49.237900 19.382900 -733.096619
49.233898 18.803400 -727.384094
49.233299 17.018900 -725.292480
49.230801 19.206301 -729.030396
49.227501 17.573200 -723.306824
49.227402 16.683001 -725.904785
49.227200 17.768700 -723.007202
49.225899 17.348499 -727.621582
49.215900 18.523001 -732.650513
49.215000 17.476700 -723.104675
49.214199 17.002300 -725.556030
49.212502 18.167700 -732.410095
49.212502 17.756300 -732.196716
49.208599 19.049500 -732.882324
49.196602 19.894600 -733.326477
49.193199 15.974500 -730.295288
49.176498 18.069201 -727.540588
49.176201 14.871200 -728.444824
49.175800 19.444300 -728.007019
49.175201 19.579700 -733.175415
49.173100 16.606800 -731.006287
49.168301 17.444401 -731.911072
49.165798 16.219299 -726.443787
49.163799 14.706300 -728.680725
49.160500 15.871200 -726.931213
49.159801 16.529100 -726.016785
49.157299 17.617800 -723.590088
49.156300 17.051901 -731.569824
49.155102 18.981899 -727.584717
49.152100 19.477600 -728.402527
49.152000 17.275999 -724.850830
49.148201 15.453600 -727.601379
49.147202 16.274599 -730.634399
49.146400 16.740101 -725.624817
49.145901 20.149300 -728.565430
49.144798 14.518200 -729.065674
49.136600 16.853600 -725.427429
49.131802 15.731300 -729.857971
49.129799 16.750700 -731.243286
49.129601 19.670601 -727.954529
49.128399 18.635599 -727.564514
49.128201 17.442101 -724.482422
49.125000 18.781500 -732.766296
49.119900 19.888300 -728.536316
49.110401 19.367001 -728.886230
49.107399 15.006000 -729.920471
49.107300 19.993700 -733.491516
49.107300 17.915899 -732.323486
49.105598 15.796600 -730.139709
49.098400 19.380199 -728.222229
49.086899 14.452100 -729.285583
49.086399 17.096100 -725.142212
49.083599 17.532801 -724.047913
49.081299 16.332300 -726.237000
49.081100 19.490000 -728.657227
49.080502 17.754101 -727.592590
49.078800 17.445801 -724.708984
49.077702 18.331200 -732.529785
49.074501 15.082500 -728.003784
49.072701 17.599001 -732.111511
49.072399 19.210501 -727.746704
49.072102 17.173300 -725.332886
49.071400 15.519000 -727.311279
49.069199 17.644800 -723.125488
49.055500 15.990800 -726.707214
49.052700 16.556101 -725.815186
49.052101 19.456200 -727.809998
49.049301 17.222200 -731.769714
49.048401 19.763700 -733.258728
49.047298 17.493799 -727.599182
49.046501 16.476200 -730.878784
49.046101 19.061800 -729.015198
49.042999 17.605700 -723.415222
49.042702 17.541599 -723.801392
49.041801 15.152300 -727.756897
49.036701 19.280399 -732.990479
49.036499 17.162901 -727.546997
49.034599 16.915400 -725.606018
49.028599 18.826900 -727.570313
49.016201 16.905701 -731.432373
49.007900 15.641900 -729.989075
49.007198 17.467100 -724.296570
49.006901 14.588900 -729.474426
49.001801 15.972500 -730.402771
48.998901 18.109900 -732.380981
48.997398 19.311800 -727.939392
48.994701 16.979601 -725.296326
48.992401 18.202200 -727.536011
48.988701 16.299601 -730.800415
48.988602 15.623700 -727.155090
48.988098 16.580500 -731.086792
48.977200 19.658199 -728.482117
48.974098 19.323999 -728.409180
48.966801 14.525900 -728.720825
48.966801 18.976999 -727.690125
48.965302 17.205099 -724.954529
48.963001 16.101400 -726.556519
48.960300 15.421600 -727.455078
48.957298 18.511299 -732.653015
48.957298 19.180300 -728.873901
48.955399 19.905899 -733.382874
48.953499 19.011900 -732.874878
48.953098 18.649099 -727.429504
48.947300 19.603600 -733.179993
48.947201 16.988600 -731.621887
48.935799 19.514500 -728.254211
48.933300 17.546000 -723.598022
48.930000 17.409300 -731.967285
48.928902 19.215500 -728.141907
48.927898 17.371401 -724.579224
48.927299 15.712100 -726.965271
48.925499 17.823799 -732.303711
48.923901 16.103300 -730.609619
48.923199 16.396500 -726.098816
48.922298 14.990800 -727.862610
48.921398 15.792900 -730.268005
48.919701 16.761101 -731.316711
48.915798 18.886900 -729.069885
48.909599 16.758101 -725.530396
48.902302 17.899401 -727.569580
48.894402 14.409100 -729.379028
48.894402 17.477400 -724.098816
48.892899 18.252501 -732.500305
48.887199 19.381701 -733.079224
48.887199 15.461100 -729.852722
48.886398 18.388000 -727.452881
48.885700 19.107599 -727.872925
48.884300 17.506599 -723.027710
48.881302 17.386801 -724.893921
48.877701 19.286200 -728.667419
48.876301 16.586599 -725.691284
48.876099 17.098801 -725.109375
48.875500 19.854200 -728.523926
48.867500 16.791500 -725.741028
48.866501 17.474001 -723.332214
48.865299 16.211201 -726.333984
48.865002 17.631399 -727.588318
48.863701 14.814000 -728.259888
48.861198 16.558001 -725.903015
48.858898 14.398100 -728.843628
48.848598 17.595800 -723.803406
48.846802 19.770100 -733.272522
48.846199 19.141001 -728.343079
48.846001 17.150999 -731.822571
48.843601 15.824100 -726.758423
48.843102 17.040001 -727.590576
48.842800 17.424299 -727.619690
48.841499 15.528900 -730.049316
48.841099 17.148701 -725.308411
48.837299 16.462200 -731.003174
48.835400 14.305300 -729.075806
48.831699 16.843100 -731.496521
48.831402 14.666200 -728.405823
48.830200 14.577400 -729.646973
48.828300 18.732901 -727.656189
48.827400 15.271100 -727.590027
48.826698 17.574400 -732.166626
48.820000 16.985500 -725.462708
48.817501 19.944901 -733.570129
48.815399 17.350599 -723.179382
48.815102 16.585600 -731.209290
48.810299 15.405200 -727.319092
48.808399 14.852500 -728.001587
48.805302 17.408100 -724.402283
48.805099 15.976400 -730.470703
48.798698 19.031000 -728.915771
48.788399 18.537001 -727.574097
48.786598 18.190800 -727.619812
48.783501 15.585800 -727.045471
48.778702 18.930599 -727.787781
48.777802 17.293301 -724.744202
48.771599 16.254601 -730.783875
48.771099 18.050400 -732.422913
48.768700 18.755301 -729.021606
48.768600 18.764700 -732.748474
48.767502 14.532600 -728.557983
48.751900 17.295601 -731.952271
48.751598 15.947500 -726.551514
48.748699 19.044300 -728.091797
48.748501 16.995600 -731.700684
48.747601 19.357000 -728.396606
48.745399 17.175600 -724.963928
48.743000 18.452499 -732.623230
48.740200 19.218800 -732.998108
48.739399 16.955000 -725.269775
48.734299 17.516300 -724.245178
48.733700 15.700900 -730.253723
48.733299 18.840700 -732.992371
48.729099 14.396400 -729.547485
48.726101 19.106300 -728.696777
48.725601 17.513000 -723.498413
48.725300 17.515800 -723.966675
48.713100 19.634600 -733.190613
48.711498 16.300600 -726.126282
48.703999 16.741301 -725.465271
48.702000 16.667999 -725.797913
48.700001 17.763300 -732.290527
48.696499 19.115601 -728.484802
48.695999 15.719300 -726.857422
48.695400 16.054399 -730.666626
48.687500 17.948299 -727.491577
48.681900 17.767300 -727.579895
48.681599 14.699300 -728.072815
48.670898 17.493799 -723.699219
48.670300 16.691401 -731.389526
48.669701 16.461000 -725.793091
48.666500 15.336700 -729.955688
48.662601 17.596800 -723.265381
48.662201 15.211600 -727.486511
48.661701 17.180201 -727.575989
48.659302 17.559900 -727.611877
48.657700 18.368601 -727.611877
48.657200 18.740601 -727.773376
48.651798 15.463300 -727.142578
48.650700 15.785200 -730.418884
48.650398 16.421600 -731.108826
48.645599 18.920200 -728.810608
48.644199 14.583100 -728.343018
48.642601 17.469101 -732.150818
48.642502 16.094101 -726.344299
48.639000 17.356600 -724.584595
48.634399 18.933001 -727.947571
48.630901 19.784100 -733.508606
48.625999 18.264299 -732.543030
48.621300 18.951500 -728.278015
48.620701 17.090099 -725.368713
48.615898 19.465500 -733.091125
48.615700 17.335800 -723.294617
48.610298 18.585100 -729.069519
48.609001 16.301500 -730.950317
48.599701 19.030300 -732.879211
48.599602 16.792500 -725.648376
48.598900 15.833800 -726.632080
48.598000 17.243299 -724.840271
48.596298 17.738501 -729.029297
48.594002 14.182700 -728.941589
48.590801 15.307700 -727.280090
48.589802 17.164301 -725.175781
48.587700 14.451700 -728.494873
48.579800 16.815399 -731.581299
48.577900 18.087099 -727.614014
48.577801 15.482700 -730.162476
48.577202 20.013800 -733.514893
48.574699 16.577600 -725.648804
48.570400 18.574699 -732.655884
48.568699 18.957600 -728.609680
48.564701 17.272499 -732.031616
48.564201 17.001400 -731.820313
48.563999 16.166800 -726.150574
48.561600 14.196400 -728.658325
48.557800 17.480600 -724.082825
48.557701 17.973499 -732.411682
48.557098 15.913100 -730.613281
48.551399 14.540000 -729.853271
48.549999 15.578700 -726.918701
48.543999 18.524200 -727.720886
48.542099 16.342100 -726.018799
48.541500 19.035400 -728.097473
48.539799 17.466000 -724.436829
48.539700 19.509100 -728.524597
48.529701 18.691700 -728.917480
48.527199 19.213600 -728.423584
48.527000 17.518900 -723.547180
48.524502 16.872499 -725.350281
48.518101 17.655100 -732.275208
48.510700 19.728901 -733.281189
48.510601 18.759100 -727.927979
48.505699 16.069901 -730.730896
48.503300 15.962300 -726.425903
48.491798 18.784800 -728.258118
48.491402 16.351000 -725.809021
48.490601 18.295900 -727.699585
48.488800 19.189301 -732.931824
48.488400 15.621400 -730.296692
48.482201 17.870300 -727.621277
48.481300 16.508600 -731.221191
48.478100 16.658400 -731.494324
48.475601 17.545000 -723.801270
48.473999 17.129499 -725.007385
48.461300 17.282000 -727.619080
48.460701 15.206800 -729.949585
48.459599 18.828899 -728.719604
48.457699 17.307899 -724.681396
48.457001 17.511600 -727.611511
48.453899 18.870501 -732.790222
48.442799 16.188601 -730.932190
48.442200 18.462799 -729.045471
48.441002 16.716600 -725.475220
48.439301 18.855700 -728.452515
48.436798 17.420799 -732.132385
48.428799 15.720800 -726.693787
48.422600 14.081400 -729.264404
48.416401 15.362600 -727.115417
48.412201 19.512199 -733.089294
48.405899 18.968300 -728.260376
48.403099 18.200399 -732.530518
48.400002 17.899099 -728.933899
48.400002 14.274100 -728.534912
48.398800 16.721701 -725.710327
48.398701 17.418501 -724.221924
48.398701 17.288700 -723.376709
48.396301 15.034200 -727.629028
48.392502 15.777200 -730.501709
48.390800 18.664400 -728.084717
48.388401 17.077101 -731.895081
48.386501 17.346500 -724.489380
48.386101 16.493200 -725.694275
48.380600 16.051201 -726.226074
48.379101 17.860901 -732.396973
48.377399 17.065701 -725.349609
48.376400 18.675501 -732.723328
48.374802 16.297600 -731.145813
48.370800 16.254000 -726.079590
48.358200 18.441700 -727.835876
48.355099 17.306801 -724.930786
