40.630100 220.284805 -742.880920
40.629501 246.559296 -733.597473
40.629501 1.278500 -728.382019
40.619202 76.976997 -735.169312
40.618000 238.825607 -735.557922
40.613300 234.455002 -751.240173
40.603100 29.876699 -730.719727
40.600498 259.881714 -733.533386
40.597698 269.506500 -734.055298
40.597500 92.488899 -737.867676
40.595600 73.412598 -737.414429
40.595501 239.548492 -753.034485
40.589199 81.235199 -736.137085
40.588699 31.101700 -730.842407
40.588100 102.502800 -743.860229
40.586800 25.464300 -734.509399
40.586601 224.221695 -746.907715
40.577202 72.550697 -734.619873
40.575298 19.712700 -729.622375
40.570099 248.801697 -733.382324
40.561401 79.640602 -735.731079
40.557301 222.549194 -744.468872
40.555599 243.319199 -734.039917
40.554798 4.078500 -728.335510
40.547199 57.398998 -733.101318
40.547100 231.936005 -738.188416
40.546101 108.457100 -746.629089
40.545700 226.690094 -740.603882
40.543999 252.783005 -733.410278
40.542500 82.530998 -737.054016
40.541500 235.631302 -737.053223
40.541401 -0.944500 -732.652771
40.537998 229.973206 -749.270813
40.537800 65.354698 -737.060791
40.536701 59.420799 -733.301086
40.528000 266.496490 -734.033813
40.522598 223.040894 -743.431885
40.517601 99.828003 -742.502502
40.515999 51.687199 -732.472107
40.514900 7.399100 -732.218506
40.513500 61.882401 -736.907471
40.512600 250.298401 -733.531128
40.502800 12.609300 -729.167480
40.497898 56.530499 -736.595215
40.495701 241.705597 -734.582214
40.491501 254.987396 -733.472778
40.491001 13.942200 -733.262695
40.487900 228.443604 -740.166382
40.477901 34.837399 -729.727722
40.475101 213.805405 -742.779724
40.465000 223.547607 -745.036316
40.464802 7.059500 -728.606018
40.461601 240.251099 -735.313904
40.453800 74.367599 -734.865479
40.453300 230.117798 -739.274719
40.448502 221.555206 -741.948914
40.447300 224.482300 -743.894287
40.443802 226.964203 -747.787903
40.442200 237.223495 -752.003479
40.438801 47.111698 -735.934387
40.435501 28.415600 -730.500916
40.434601 -0.077200 -728.085388
40.433701 24.782600 -730.228394
40.430901 260.955505 -733.760925
40.425900 240.894394 -753.231995
40.423801 29.859800 -734.373718
40.422199 93.956596 -736.930176
40.413601 24.113400 -734.137695
40.411900 21.892500 -730.092285
40.411098 11.082200 -728.963013
40.410198 0.693000 -731.839111
40.403400 54.512402 -732.670776
40.403301 31.606701 -734.496277
40.401001 218.236298 -743.464172
40.400799 40.960800 -735.658081
40.398602 69.254303 -734.352295
40.393902 3.868000 -731.829285
40.381699 66.420403 -734.000488
40.377201 233.678696 -738.022217
40.374802 80.316101 -736.780518
40.373001 270.715607 -733.989075
40.371700 98.796898 -742.129028
40.368698 27.387300 -734.289978
40.365601 93.884903 -740.053284
40.362000 231.232300 -739.291321
40.350899 244.363098 -734.270020
40.348400 238.288696 -736.446899
40.337700 224.369095 -745.730286
40.336601 223.999802 -741.476379
40.324402 41.504200 -731.784485
40.321602 235.562195 -751.287415
40.320999 228.954102 -748.318298
40.317902 38.838600 -735.528687
40.317402 92.510300 -735.246399
40.314800 53.135201 -732.800171
40.313999 242.895096 -753.906982
40.313099 225.940903 -744.198914
40.300301 5.480800 -732.129272
40.299702 78.271599 -736.133179
40.297798 48.416100 -732.432922
40.287701 93.762001 -738.384521
40.285400 16.683800 -729.250671
40.283901 56.177601 -733.082581
40.282101 225.256302 -746.645996
40.281200 22.276800 -734.282227
40.279900 67.707397 -734.098022
40.279202 76.324898 -737.346130
40.277500 106.561096 -745.346619
40.271400 34.207298 -734.773987
40.271198 5.097200 -728.077576
40.264301 258.761200 -733.780884
40.259701 63.936401 -736.947388
40.259399 247.828903 -734.011414
40.256599 244.714096 -754.657227
40.255001 26.589800 -730.396973
40.252102 216.945099 -743.133179
40.251999 23.178400 -729.826721
40.249699 109.548698 -747.093689
40.249199 79.091599 -736.885620
40.245899 267.529114 -734.142578
40.243000 54.621700 -736.463623
40.237598 75.548599 -735.528320
40.233799 229.584198 -740.235474
40.229801 70.606102 -737.142029
40.228901 242.935806 -734.996704
40.227299 18.109800 -733.701172
40.224701 233.295593 -750.459412
40.218601 58.712799 -736.667114
40.218300 44.778198 -731.823792
40.216999 224.997604 -744.834473
40.213402 225.773804 -741.361816
40.209900 253.875793 -733.746887
40.207802 50.086700 -736.151001
40.205601 241.334503 -735.616577
40.195999 257.504608 -733.822021
40.195400 9.038900 -728.433777
40.194401 35.593800 -735.217285
40.192799 251.587601 -733.678223
40.191799 74.382896 -737.816223
40.187801 71.378304 -734.789429
40.187599 236.616501 -737.365173
40.179600 103.588699 -744.327087
40.179401 239.746796 -736.281921
40.179001 68.824600 -737.090881
40.176201 245.509796 -734.401123
40.175098 13.694000 -729.021423
40.173199 0.158500 -733.060730
40.166302 60.465698 -733.370605
40.165100 232.904495 -738.755188
40.164001 238.893295 -752.229797
40.163101 15.495500 -729.128723
40.161201 232.370804 -749.779175
40.159500 231.202301 -749.121277
40.155800 215.356094 -742.555725
40.153702 222.552795 -742.369873
40.151798 76.666901 -736.096375
40.150501 -1.353900 -733.579773
40.141998 230.665207 -740.181885
40.141102 65.343399 -733.994080
40.135601 226.296295 -746.942627
40.134998 16.317699 -733.659485
40.132702 234.994507 -737.950684
40.130199 227.247299 -744.483704
40.127399 63.930500 -733.880371
40.125500 10.046800 -732.890015
40.120499 36.378700 -731.327209
40.119202 12.672200 -733.272522
40.118198 14.943700 -733.552795
40.113800 72.472099 -737.121887
40.112499 17.936899 -729.510315
40.107899 247.119400 -755.577209
40.093201 227.853195 -741.002808
40.089298 228.071899 -747.480225
40.085602 -1.076300 -728.263123
40.084702 100.892899 -743.075012
40.081402 66.344498 -736.992981
40.080200 271.894501 -734.045227
40.078602 42.228001 -735.578613
40.078602 20.749001 -729.585327
40.067902 225.763000 -745.621704
40.061001 73.072197 -735.406128
40.051102 96.344597 -741.219482
40.046101 45.640900 -735.836670
40.042000 255.955704 -733.795593
40.037300 268.748505 -734.598694
40.034698 264.014587 -734.212280
40.032799 2.936100 -728.104919
40.025299 94.687897 -737.635498
40.017502 246.878998 -734.448792
40.005901 94.434998 -739.179016
40.005299 21.134300 -733.895020
40.003502 237.732803 -737.357910
40.001499 37.213200 -735.157776
39.997002 2.698500 -731.881592
39.994099 26.302900 -734.201721
39.992599 228.334305 -744.852478
39.992500 74.569702 -736.068970
39.989101 249.334106 -734.209778
39.988602 223.625793 -742.633179
39.986599 262.279907 -734.254089
39.986000 243.976303 -735.215820
39.985298 230.255203 -748.159302
39.981800 39.622501 -731.782776
39.979599 58.504601 -733.227783
39.977798 236.589096 -751.229187
39.976700 42.629299 -731.893677
39.972698 234.330002 -750.339294
39.972500 97.785797 -741.778503
39.969601 242.044006 -753.227478
39.967999 231.869202 -740.089417
39.954102 234.337494 -738.820801
39.950699 60.239498 -736.696411
39.941002 225.656296 -743.170776
39.939201 48.228001 -735.982178
39.926399 226.791504 -745.989014
39.923401 1.974500 -727.465881
39.912998 242.288498 -736.051880
39.910999 32.920799 -734.689209
39.907501 19.610701 -734.080383
39.900002 228.934692 -741.059509
39.897598 94.069702 -735.752930
39.897202 28.744600 -734.277222
39.890598 38.042301 -731.693420
39.887901 95.421600 -740.501282
39.879002 241.039597 -736.596985
39.876801 6.282000 -727.939819
39.872898 8.700400 -732.760010
39.869202 46.642899 -732.370117
39.867001 239.272400 -737.211914
39.863300 95.481201 -738.406616
39.862701 219.114395 -743.030029
39.856300 69.997597 -734.902588
39.855000 229.298004 -747.413513
39.854301 73.532402 -736.456909
39.854099 107.333900 -745.991028
39.853001 224.872604 -741.943481
39.849499 228.129593 -743.750977
39.840698 232.934402 -739.849487
39.840500 245.057800 -735.345581
39.840302 252.572906 -734.197510
39.838299 240.286896 -752.495728
39.838200 62.136101 -733.832886
39.835999 259.631989 -734.271118
39.830101 236.059097 -738.278015
39.828800 110.559898 -747.595520
39.827301 238.038895 -751.652283
39.823299 227.737595 -746.497192
39.823299 229.431000 -744.909119
39.817402 43.821201 -735.726807
39.815800 7.866500 -728.185974
39.814800 72.053596 -735.694580
39.814800 33.049198 -731.136230
39.812801 10.189100 -728.624084
39.809601 226.900299 -741.585083
39.809299 55.673801 -736.475708
39.806499 265.351715 -734.507813
39.804501 226.968094 -743.362488
39.798302 95.024498 -736.607178
39.787601 222.186600 -743.416382
39.787399 53.014000 -736.304626
39.776001 221.084702 -743.266785
39.774200 233.321198 -749.414978
39.771999 50.563000 -732.692078
39.769901 68.442200 -734.773010
39.763500 104.634102 -744.796326
39.760300 232.161102 -748.751709
39.755501 244.261200 -753.810730
39.754101 254.764099 -734.246094
39.751400 6.360700 -732.466125
39.746700 11.293300 -733.094421
39.738602 27.534800 -730.357971
39.738201 67.011597 -734.711426
39.732399 31.803699 -730.809387
39.731899 34.218300 -731.342773
39.730301 246.246597 -754.898071
39.723801 101.889198 -743.525818
39.720402 243.395905 -736.138916
39.713299 71.521004 -736.711487
39.712601 62.918701 -736.733398
39.710602 230.066498 -741.056519
39.706902 269.792603 -734.743774
39.703800 272.932495 -733.970825
39.691799 23.328300 -734.041626
39.688900 25.692499 -730.240417
39.683800 248.187500 -755.616028
39.678902 250.939606 -734.413513
39.678902 30.528099 -730.751709
39.678799 260.710785 -734.497498
39.676899 235.448196 -750.402771
39.675400 40.103298 -735.427124
39.672901 29.195499 -730.528381
39.663898 70.951401 -735.623474
39.662800 234.174194 -739.866882
39.662102 25.047100 -734.120972
39.660198 52.228001 -732.907715
39.656399 246.341705 -735.316223
39.647400 67.793999 -737.128723
39.642399 49.338600 -732.622986
39.640400 248.109802 -734.949585
39.637798 237.112106 -738.359924
39.634800 1.676300 -732.098022
39.633801 3.820100 -727.590576
39.631901 43.709301 -732.243713
39.625401 229.202606 -743.802307
39.610100 40.708302 -731.988525
39.607899 105.688599 -745.250977
39.607800 51.787800 -736.236389
39.604900 231.285797 -747.955872
39.602402 57.200600 -736.475830
39.594799 266.511993 -734.706726
39.587898 11.785600 -728.790527
39.580002 96.368301 -737.825928
39.580002 4.540900 -732.296082
39.579498 69.680000 -736.814514
39.578800 235.587997 -739.275574
39.574902 45.508202 -732.321228
39.566799 230.594894 -745.171082
39.563202 231.156799 -740.967529
39.561501 30.904301 -734.516113
39.558701 54.965302 -733.229187
39.557400 57.085701 -733.460510
39.555302 245.434097 -754.112427
39.552101 24.154400 -730.045227
39.550800 258.273499 -734.538025
39.546501 256.703400 -734.479919
39.540401 96.071404 -739.298096
39.537300 35.296001 -731.512512
39.535099 240.286102 -737.438110
39.528400 64.678101 -736.650391
39.525799 225.907501 -742.196594
39.519402 108.728401 -746.383118
39.518600 53.866001 -733.095215
39.518398 228.804596 -745.835327
39.514500 65.822800 -734.813782
39.501202 244.639297 -736.275879
39.500301 19.489901 -729.604370
39.498901 241.394394 -752.506775
39.498901 111.527702 -748.044800
39.496201 238.669403 -738.048279
39.478199 59.594200 -733.724121
39.476700 230.407303 -744.076416
39.471199 0.321800 -727.688293
39.470699 224.225906 -743.466980
39.469700 68.659401 -735.817627
39.468201 230.491501 -747.149170
39.465401 47.701099 -732.630127
39.463402 13.519700 -733.291016
39.462601 271.259094 -734.755188
39.462299 253.643906 -734.522522
39.460602 232.728897 -740.862976
39.457401 242.147507 -737.038208
39.456902 100.079399 -742.701782
39.453999 239.086197 -751.436584
39.448399 64.757698 -734.624329
39.446602 243.400497 -753.081970
39.433300 63.150902 -734.284973
39.431099 -2.032700 -734.106873
39.428902 234.351105 -749.343323
39.425800 61.815201 -736.571411
39.420601 38.236198 -735.254395
39.420101 227.882294 -741.884827
39.420101 263.271912 -734.805786
39.419800 49.199799 -736.037720
39.413700 249.979904 -734.909729
39.404900 7.679500 -732.783081
39.401199 -0.497100 -733.593201
39.396801 61.028599 -734.014404
39.392899 229.757507 -746.360413
39.386799 237.488007 -750.744385
39.385300 267.918213 -734.879883
39.381901 46.773201 -735.877930
39.381802 1.113600 -733.477783
39.381302 22.493900 -729.983215
39.378899 67.357597 -735.703918
39.373402 273.954498 -733.760620
39.372002 236.492706 -750.251770
39.370602 94.363899 -740.092712
39.362900 14.766300 -729.095581
39.359699 231.682404 -745.294983
39.353699 236.621307 -739.508972
39.348400 36.266300 -735.090515
39.345501 233.081100 -748.317627
39.345299 3.489900 -732.247375
39.343399 -2.663700 -727.543274
39.337399 102.936401 -743.999023
39.328701 249.352997 -755.638977
39.316898 96.288200 -736.748779
39.316799 247.232407 -754.836182
39.314602 41.292801 -735.478027
39.303600 27.461100 -734.190674
39.300098 97.113197 -738.674011
39.298100 17.171900 -729.331909
39.284401 247.195007 -735.919800
39.283501 54.112499 -736.265015
39.282600 245.811005 -736.255188
39.280399 98.830101 -742.201904
39.275299 65.918503 -736.402893
39.264900 18.684099 -733.664978
39.264000 233.836807 -740.878418
39.262199 231.491501 -744.198914
39.256500 16.979200 -733.562073
39.256199 56.042702 -733.429504
39.256100 96.595596 -740.268372
39.253899 97.159599 -741.208496
39.245998 59.459900 -736.434326
39.245602 237.951904 -738.918518
39.245602 35.060001 -734.920227
39.240398 235.006104 -740.393188
39.238400 -1.606300 -727.864685
39.235401 50.547199 -736.099182
39.235100 22.223600 -733.835205
39.234798 33.906601 -734.847900
39.231400 240.414993 -751.606079
39.231400 229.410400 -741.798523
39.226601 29.620800 -734.390930
39.224499 243.512100 -737.099426
39.216099 42.919498 -735.584412
39.199299 235.490906 -749.391418
39.191502 41.857101 -732.098022
39.190201 228.904800 -742.863220
39.186501 239.669403 -738.281799
39.186501 36.936699 -731.608093
39.181702 222.887802 -742.836121
39.181400 44.975700 -735.714111
39.173401 251.960800 -734.778381
39.172501 21.442699 -729.891174
39.171101 255.493103 -734.854919
39.169800 242.610703 -752.407410
39.168701 97.529900 -737.014587
39.164700 109.859001 -747.046570
39.159901 232.334503 -747.554321
39.159401 9.197800 -728.076416
39.155800 241.172699 -737.930725
39.155499 32.117802 -734.619812
39.153198 261.987396 -734.962280
39.150200 249.133606 -735.565125
39.149101 12.788600 -728.884094
39.143398 272.306793 -734.708984
39.139599 58.435600 -733.916687
39.137798 38.845901 -731.866577
39.129902 232.881302 -744.825378
39.128101 20.253300 -733.700317
39.106701 106.570900 -745.684814
39.100700 264.613892 -735.025513
39.098400 231.430893 -746.506287
39.094101 5.457900 -732.747620
39.086700 64.384003 -735.644775
39.080200 244.933701 -753.219177
39.072800 61.938000 -734.572021
39.070599 9.702100 -732.937378
39.060600 15.257300 -733.422180
39.059101 233.019302 -745.999817
39.045101 58.389198 -736.325989
39.042900 112.614403 -748.501709
39.033401 60.624901 -736.265381
39.033199 230.090393 -743.038025
39.033001 12.123000 -733.152771
39.029099 230.462906 -741.826477
39.025299 234.294800 -748.078125
39.014900 236.068405 -740.432922
39.010300 97.693604 -739.599609
39.008999 18.202400 -729.253113
39.006100 250.788498 -735.513672
39.004700 237.660202 -739.980713
39.001499 259.113190 -735.005676
39.000500 63.375500 -735.283081
39.000198 103.891998 -744.371277
38.987400 44.605701 -732.396118
38.979401 7.276700 -727.825378
38.974201 25.937599 -734.065430
38.971699 26.541100 -730.373901
38.968498 28.346500 -730.557312
38.967701 24.191799 -733.953430
38.966900 39.313000 -735.253723
38.966202 238.677597 -750.503479
38.964001 246.690598 -753.757813
38.963799 16.080099 -728.988281
38.962700 231.777893 -741.650391
38.953300 47.811100 -735.900391
38.948799 244.901001 -737.198120
38.948601 248.331299 -754.796814
38.948502 226.219406 -743.313110
38.948101 257.506714 -735.024902
38.944500 268.868103 -735.156677
38.937698 241.797195 -751.666687
38.933800 239.137299 -739.265320
38.929901 32.426300 -731.241516
38.928299 242.388107 -737.997192
38.928001 101.180099 -743.167114
38.928001 98.633102 -737.266113
38.923302 2.663800 -727.699585
38.917599 232.642899 -743.713684
38.908199 39.907501 -731.775513
38.908100 251.112900 -755.622681
38.901299 60.014801 -734.604187
38.900501 252.941299 -735.233215
38.893902 10.776100 -728.632324
38.893002 53.040199 -733.412720
38.887402 51.446098 -733.181519
38.885399 227.530807 -743.519775
38.884102 254.488602 -735.089172
38.879299 275.437286 -733.534729
38.874100 265.871490 -735.215210
38.870602 98.036697 -738.293518
38.870399 231.195206 -743.164795
38.868801 236.649796 -749.285522
38.866199 237.632202 -749.765930
38.865601 55.134102 -736.115723
38.855499 42.939098 -732.361023
38.854599 260.408997 -735.122070
38.852501 233.916901 -744.986389
38.851898 234.286499 -746.299194
38.851398 37.308601 -735.115479
38.851200 5.460100 -727.794922
38.850101 107.728798 -746.228516
38.843102 48.596001 -732.895874
38.842800 46.339001 -732.711182
38.841000 61.101799 -735.302124
38.839199 31.129499 -731.045227
38.838501 246.656494 -736.812012
38.838402 244.130905 -752.504578
38.837898 52.562698 -736.087585
38.835098 273.480804 -734.583496
38.832802 225.058197 -742.860229
38.832500 248.446503 -736.351501
38.829102 239.792206 -750.720276
38.827301 33.637199 -731.116272
38.821999 50.051102 -733.058716
38.818001 1.868800 -732.964417
38.815102 233.547104 -747.315002
38.806198 240.256699 -739.095215
38.805199 56.496201 -736.137512
38.803501 235.506393 -748.391602
38.796902 -1.256700 -734.509277
38.782902 1.197600 -727.666504
38.778900 29.843201 -730.903870
38.777401 23.394199 -729.938293
38.775600 56.915401 -734.200806
38.773800 270.514191 -735.148315
38.768398 233.009094 -741.703613
38.766201 105.038803 -744.990906
38.764900 233.708603 -743.916321
38.762501 234.967606 -741.386719
38.748199 -0.536800 -727.731384
38.736500 110.816299 -747.654907
38.734699 245.930801 -753.028076
38.725101 54.996300 -733.903870
38.725101 24.935900 -729.975525
38.718300 267.091614 -735.296692
38.717999 98.255997 -740.476929
38.714199 -2.625700 -726.616821
38.708900 43.866299 -735.551880
38.696301 256.422607 -735.223572
38.695202 251.969803 -735.752319
38.687901 274.602997 -734.304016
38.686798 98.781303 -739.084900
38.679199 6.535100 -732.547180
38.677502 58.823700 -734.871704
38.669300 35.930801 -731.703308
38.666401 102.184898 -743.616089
38.665298 237.040497 -740.897217
38.661900 252.199997 -755.546875
38.656101 238.657806 -740.240479
38.655998 13.925500 -728.862183
38.655201 234.950394 -745.193726
38.648701 244.079193 -737.896912
38.647701 4.258200 -727.537903
38.637100 249.817795 -736.283813
38.629700 243.308594 -751.738708
38.629398 113.634598 -748.678284
38.629398 241.617996 -738.790100
38.626999 37.867500 -731.920715
38.626801 4.203600 -732.756714
38.624401 20.162201 -729.485779
38.612999 40.493198 -735.347473
38.605900 45.984798 -735.732178
38.600399 249.641296 -754.863525
38.589699 17.822001 -733.465820
38.575500 234.747894 -744.122070
38.572498 23.073601 -733.764282
38.561600 235.632294 -746.525085
38.559700 247.941406 -753.849487
38.552700 241.246506 -750.782288
38.552700 51.377499 -735.876282
38.547901 -3.379400 -727.684021
38.546700 99.787804 -737.533203
38.542400 57.899399 -735.505920
38.541698 1.893700 -734.099182
38.536999 21.215700 -733.672424
38.533600 55.891800 -734.498230
38.532700 30.491400 -734.442688
38.530499 53.930500 -734.028381
38.528198 236.481003 -748.032715
38.528198 33.102600 -734.698120
38.526100 42.021999 -735.419922
38.516399 34.771599 -731.640991
38.515099 40.866600 -732.169495
38.502800 239.158997 -749.632629
38.501701 262.914490 -735.388794
38.500301 10.607100 -732.974487
38.496799 232.347702 -742.770386
38.489101 276.477203 -733.364929
38.485298 49.661800 -735.791077
38.485199 16.183201 -733.408203
38.480202 59.883801 -735.591187
38.475101 0.145100 -733.708313
38.474800 47.351601 -733.033325
38.474701 235.982605 -744.870789
38.470001 98.121002 -741.976929
38.469398 253.663300 -755.473816
38.464802 245.878403 -737.535889
38.462601 240.017197 -740.168518
38.461498 237.802902 -748.737976
38.455399 241.103699 -739.744019
38.453899 245.098404 -752.252502
38.442001 108.852997 -746.766479
38.434799 11.750100 -728.819275
38.426701 99.753098 -742.280884
38.417599 19.464701 -733.484192
38.415699 243.263000 -738.565979
38.411301 28.908701 -734.276917
38.411201 -2.267700 -728.130615
38.410000 111.821899 -748.060913
38.403702 235.984299 -741.434875
38.398998 8.105900 -732.711975
38.396500 2.907200 -733.739075
38.394100 247.836899 -737.198425
38.393799 99.464401 -739.938416
38.393501 52.205002 -733.989197
38.391499 242.490906 -751.003784
38.379398 53.556499 -735.768188
38.374298 235.783401 -743.767517
38.370201 238.062103 -741.118530
38.369801 236.722305 -746.489624
38.369099 13.604500 -733.187378
38.356899 35.751900 -734.933105
38.355801 99.084602 -741.126404
38.354900 253.891006 -735.897522
38.353199 18.944500 -729.676880
38.348701 114.559502 -749.521423
38.337799 258.366913 -735.555481
38.337601 255.239502 -735.710205
38.332401 8.451400 -728.254089
38.329201 240.227798 -749.798523
38.327900 54.681801 -734.901672
38.316502 250.687195 -754.805908
38.312500 242.208801 -739.625305
38.311401 234.161804 -741.962219
38.306599 9.869900 -728.329224
38.305901 26.988300 -734.149475
38.300999 246.974304 -752.966187
38.298000 50.580200 -733.837708
38.295898 45.329399 -732.826782
38.294498 43.816200 -732.656982
38.292198 38.307098 -735.115112
38.286800 248.952103 -737.120972
38.286800 271.698303 -735.205322
38.285801 251.251205 -736.508972
38.283901 22.196899 -729.823608
38.283699 233.576096 -742.889099
38.283199 238.009094 -746.935791
38.271999 261.651489 -735.565674
38.271400 99.742401 -738.775818
38.266102 237.033798 -745.006775
38.265701 255.401505 -755.316101
38.248402 103.116997 -744.106995
38.245800 244.318207 -751.481323
38.244701 263.960693 -735.350403
38.239201 3.187500 -732.406921
38.237400 100.698402 -738.075684
38.234001 252.803696 -736.336609
38.231201 17.058500 -729.467224
38.224499 244.998001 -738.331116
38.220798 49.401901 -733.684814
38.218700 25.128799 -733.945007
38.217701 249.042603 -753.721680
38.217300 27.254601 -730.735718
38.214500 34.423698 -734.789429
38.213200 268.006592 -735.609619
38.208302 42.039001 -732.576782
38.207100 56.832802 -735.267273
38.199600 -1.164600 -735.522827
38.199299 236.843002 -743.906677
38.197601 238.963806 -747.697083
38.181000 239.189301 -741.044373
38.180599 25.739000 -730.549072
38.180500 259.745514 -735.644592
38.178799 106.079803 -745.399170
38.177799 229.334106 -742.976990
38.168400 15.178400 -729.298584
38.156799 39.303902 -732.255127
38.155701 246.940704 -737.828918
38.153999 246.135101 -752.131592
38.153702 47.172600 -735.532227
38.147999 52.647099 -734.952881
38.127201 6.314100 -728.028870
38.120602 48.162201 -733.660217
38.117001 234.955902 -743.019470
38.116798 109.805801 -747.284180
38.112099 257.231598 -735.771729
38.107300 48.391800 -735.558228
38.105598 239.722504 -748.780273
38.104301 265.157410 -735.655884
38.099701 5.204600 -732.396606
38.097198 -4.289000 -728.329773
38.095100 44.972698 -735.453430
38.079899 1.065800 -733.101624
38.079300 275.765411 -734.221375
38.078098 243.505005 -750.800781
38.077801 51.347301 -734.693420
38.076401 237.769897 -745.865906
38.062901 36.873501 -732.008423
38.062801 272.902313 -735.133179
38.062801 277.533997 -733.193970
38.057999 243.280197 -739.597473
38.057098 12.753400 -728.879883
38.054001 115.659203 -749.918823
38.050598 230.496902 -743.237671
38.048599 252.026505 -754.617615
38.048302 28.841700 -731.021973
38.039902 31.862700 -734.499329
38.034401 269.678314 -735.520874
38.029900 46.215401 -733.460876
38.027802 100.507401 -743.152222
38.024200 107.027100 -745.947510
38.018200 31.780100 -731.411621
38.012798 242.070801 -750.028381
38.012501 240.730301 -740.866272
38.011101 244.322403 -739.142517
38.010101 238.390900 -744.989990
38.002602 32.857700 -731.654724
38.002102 248.277206 -752.986389
37.989700 240.072601 -747.473694
37.987202 -1.268900 -728.016785
37.986698 21.148600 -730.065613
37.975601 2.054500 -727.778381
37.973900 100.387604 -740.378113
37.972698 241.224396 -747.750122
37.971699 112.738197 -748.659912
37.970600 250.095596 -753.759277
37.970200 43.072399 -735.646729
37.969700 104.430099 -744.523193
37.967701 7.367800 -728.272217
37.963600 24.404400 -730.562927
37.955799 12.171800 -732.980774
37.951801 266.272797 -735.723022
37.941898 238.200394 -743.887329
37.940899 3.321800 -727.565491
37.936298 256.210205 -736.097229
37.934200 49.705200 -734.708679
37.930801 39.358002 -735.642273
37.927799 0.288300 -727.739380
37.917500 253.151001 -754.611206
37.915001 15.271200 -733.160706
37.913502 246.136795 -738.492615
37.908501 241.353699 -749.216980
37.907299 -0.747800 -734.115479
37.906898 36.844101 -734.910400
37.906601 30.556601 -731.212402
37.891300 239.326706 -746.682983
37.889198 100.707199 -739.182312
37.888901 9.751400 -732.739685
37.878101 241.912201 -740.629700
37.877300 250.524704 -737.295593
37.874500 231.660797 -743.314514
37.869701 236.824295 -741.925415
37.864498 101.434998 -743.668518
37.862202 254.501404 -754.808472
37.860199 256.723602 -755.144287
37.857800 254.692596 -736.591309
37.848801 44.712898 -733.580017
37.845200 245.479401 -751.262695
37.838600 47.169701 -734.116821
37.827900 40.238602 -732.720093
37.825600 100.552803 -741.440918
37.820599 252.080002 -737.109070
37.816299 235.969894 -742.845520
37.814800 42.918701 -733.154724
37.814201 5.036200 -728.001404
37.813301 274.247192 -734.907471
37.812698 17.027100 -733.299011
37.807201 247.413101 -752.116577
37.799301 242.386002 -748.732788
37.794998 251.248505 -753.914490
37.791901 248.197906 -738.070618
37.791901 41.286499 -735.128723
37.790401 239.639694 -745.067322
37.780201 33.947102 -731.684509
37.774399 22.299200 -733.602783
37.767300 23.067400 -730.474609
37.759399 18.525600 -733.341003
37.757401 108.000397 -746.427307
37.744701 28.078199 -734.040283
37.743099 245.430405 -739.329895
37.730099 270.735992 -735.393005
37.725101 10.856000 -728.716125
37.720600 35.547401 -732.026978
37.717999 45.993500 -735.111389
37.712399 38.211601 -732.382507
37.697498 19.844200 -730.034912
37.696098 239.439499 -743.959106
37.693001 237.198105 -743.029480
37.685398 23.706900 -733.717529
37.685101 29.726400 -734.209778
37.680199 20.588800 -733.446716
37.674301 2.268700 -733.055786
37.673698 116.600098 -750.296570
37.673302 6.923400 -732.365784
37.671600 240.950806 -746.669312
37.668201 13.830900 -729.266296
37.667599 249.587006 -737.818970
37.662601 16.108299 -729.577026
37.658401 244.682693 -750.459717
37.656101 110.756302 -747.793701
37.653500 -2.274900 -734.829712
37.653301 243.354004 -749.787781
37.649799 243.271805 -740.591187
37.631901 18.107901 -729.874817
37.631599 246.680099 -751.326172
37.629700 242.537598 -747.675171
37.628899 43.975899 -735.170715
37.617901 253.385101 -736.997681
37.616001 26.017401 -733.877197
37.613400 257.843811 -755.063721
37.610401 244.690598 -740.148010
37.604000 40.171200 -734.930481
37.598598 243.681396 -748.747803
37.598499 276.792694 -733.946411
37.597198 41.536999 -733.300476
37.596199 -3.051200 -728.583984
37.590599 263.100586 -735.958374
37.590401 113.747597 -748.979614
37.578701 238.476593 -741.759521
37.574902 258.130310 -736.320923
37.574699 247.227097 -738.767090
37.570599 239.815598 -741.666016
37.567402 249.688293 -752.783203
37.563301 260.854401 -736.065186
37.554600 9.241000 -728.770630
37.534801 240.587204 -744.563416
37.532501 43.506401 -734.059082
37.528801 101.764297 -740.625122
37.526798 48.042301 -734.720886
37.520599 2.683400 -734.359619
37.519600 232.803604 -743.127686
37.518501 33.583000 -734.510315
37.507999 101.219498 -742.289978
37.507000 248.449707 -752.040588
37.499100 244.872101 -749.370972
37.499001 255.930695 -754.518372
37.477100 252.585693 -753.737183
37.462601 243.605103 -747.630005
37.443401 268.851501 -735.887512
37.437302 246.369797 -739.762329
37.430599 22.017000 -730.491272
37.428600 42.254601 -734.819214
37.428600 278.622589 -733.176575
37.426300 267.232910 -735.774170
37.421501 259.500397 -736.401123
37.419300 257.054504 -736.662170
37.415001 39.371498 -733.249329
37.406502 264.418213 -736.054810
37.405800 238.600601 -743.032715
37.403900 241.464493 -741.513794
37.403599 250.783997 -752.961182
37.401402 27.901800 -731.190186
37.400398 35.099800 -734.578674
37.390598 241.107193 -745.525024
37.389702 31.004999 -734.202881
37.383801 101.733597 -739.448181
37.382401 242.295197 -746.648926
37.376099 38.864700 -734.801819
37.371899 8.856900 -732.444275
37.370499 37.740601 -734.654724
37.367100 36.392200 -732.735596
37.365700 111.824898 -748.342224
37.361500 26.531401 -731.008301
37.356701 44.878101 -734.571899
37.345402 245.974503 -749.687683
37.339802 102.435799 -743.985901
37.337700 109.004601 -746.934998
37.336601 240.345398 -743.435120
37.334099 255.933701 -736.968994
37.333199 13.585200 -732.884888
37.317200 11.959500 -729.079285
37.309200 105.400101 -745.141418
37.306900 254.370804 -753.843689
37.306099 114.824203 -749.404419
37.304699 244.618805 -748.287781
37.303501 240.080200 -746.140381
37.299500 271.703705 -735.658813
37.294300 248.337006 -739.079590
37.283901 234.237106 -743.163208
37.283100 37.411800 -733.052673
37.281700 251.140701 -737.952271
37.276199 40.721699 -733.977417
37.272900 29.795700 -731.651672
37.259499 101.430099 -738.391113
37.256901 19.488800 -733.236694
37.240398 241.905106 -744.338379
37.239399 4.412700 -732.114380
37.235001 275.428192 -734.833618
37.233898 34.531799 -732.403015
37.233601 32.156700 -732.047119
37.228699 242.593796 -741.309326
37.226601 103.579002 -744.458313
37.226601 3.190300 -733.457092
37.225201 261.845215 -736.316284
37.223999 265.566986 -736.149475
37.222401 259.075714 -755.041077
37.222198 4.036300 -728.040405
37.217201 14.810200 -729.712280
37.216702 248.021103 -751.093323
37.215500 25.456400 -730.989807
37.206299 -1.855200 -728.464478
37.205898 11.386000 -732.643616
37.204300 30.926901 -731.969910
37.200600 117.602699 -750.761719
37.197399 1.122300 -727.922180
37.186901 102.093697 -741.588928
37.185299 247.326996 -750.033997
37.184399 273.482208 -735.371826
37.181599 244.201508 -741.035217
37.181099 8.051600 -728.543518
37.176601 106.431297 -745.649902
37.175301 -1.297200 -735.067017
37.165100 16.175501 -733.059204
37.164600 252.537598 -737.840515
37.163399 249.589798 -751.750671
37.162201 242.253799 -745.376587
37.156200 2.720500 -728.009521
37.153400 254.509995 -737.494080
37.150101 26.950701 -734.234070
37.146999 249.484497 -738.779785
37.141399 17.129200 -729.920227
37.139301 247.621902 -739.861816
37.136299 245.712997 -748.603088
37.134102 5.664900 -732.096130
37.132801 -0.481300 -728.133179
37.126999 5.885100 -728.222412
37.126598 33.345798 -732.283691
37.121399 36.168098 -734.408630
37.115799 32.514999 -734.604370
37.109600 277.909210 -733.955322
37.109299 245.430298 -740.786804
37.105099 1.469800 -732.535828
37.090099 252.165298 -752.808228
37.085400 38.459900 -733.832397
37.081501 -0.153900 -733.527710
37.077801 102.278198 -742.651917
37.075100 243.262695 -746.281372
37.072201 244.698807 -747.146606
37.071499 20.982401 -730.624817
37.070499 249.755295 -750.688782
37.068199 12.973400 -729.533997
37.056000 18.970200 -730.303284
37.053001 257.300903 -754.285706
37.046600 -2.673500 -733.981628
37.046501 28.881901 -733.875488
37.045101 -1.743000 -733.390625
37.041199 24.698299 -734.014404
37.020802 253.542694 -753.109680
37.020599 248.657394 -750.182983
37.019199 -3.923900 -732.966614
37.011200 242.989594 -744.576599
37.005001 269.899902 -735.798889
37.002399 255.436996 -753.697327
36.995499 279.747101 -732.823730
36.976601 239.677902 -742.638977
36.972000 250.724792 -751.966919
36.969299 24.167801 -731.046021
36.957901 6.954800 -728.552795
36.956600 21.564699 -733.384277
36.951900 115.728996 -750.027771
36.946800 241.641998 -743.290100
36.942200 245.858795 -747.493286
36.938900 247.427399 -748.900879
36.935902 39.674801 -734.159180
36.935699 10.321900 -729.208191
36.920200 258.671204 -737.036621
36.908901 112.859299 -748.798889
36.904202 240.725494 -742.199402
36.898201 246.754898 -740.698181
36.896198 34.918301 -733.440125
36.893101 235.429504 -742.893127
36.879902 28.786600 -731.745728
36.879501 17.846901 -733.088379
36.876701 107.449898 -746.093811
36.875900 251.270203 -750.978821
36.866299 -4.106100 -730.627380
36.863800 23.078300 -733.339417
36.845402 260.632202 -736.832275
36.839001 102.591797 -738.857117
36.834202 249.000107 -739.805908
36.831501 110.110703 -747.522583
36.824200 102.553398 -739.959717
36.819199 242.766693 -743.543579
36.806099 251.067001 -738.921692
36.804600 256.705505 -737.557129
36.801498 23.096001 -731.028625
36.799599 260.378998 -755.118530
36.794998 -2.578700 -732.656311
36.794399 15.738200 -730.097412
36.792900 244.441498 -746.106812
36.790600 118.664597 -751.075684
36.789600 243.903000 -745.115173
36.778400 253.515701 -738.156128
36.772999 262.802887 -736.586182
36.766399 267.962006 -736.255005
36.760399 252.236496 -751.431213
36.756599 27.567301 -732.061890
36.755600 33.244400 -733.593201
36.755100 29.987301 -733.744324
36.754002 244.102493 -743.900879
36.744999 258.450592 -754.294373
36.741798 254.573105 -752.937927
36.728500 -2.836100 -731.328796
36.725700 246.808807 -748.048523
36.722900 256.490814 -753.620789
36.708099 4.898300 -728.494202
36.707100 31.846001 -733.313293
36.703400 7.359400 -732.049805
36.696201 276.545013 -734.505615
36.695499 17.942900 -730.454285
36.685200 239.199203 -743.581482
36.685200 241.920197 -742.167603
36.681301 26.333799 -733.431519
36.675400 272.569305 -735.848389
36.674999 9.680400 -732.293579
36.673599 26.136200 -731.851929
36.662701 253.647598 -751.973816
36.659698 103.206596 -743.155396
36.658699 252.126297 -738.713684
36.656898 103.219902 -742.054199
36.655399 20.537100 -733.097107
36.653000 0.684300 -728.811829
36.650600 104.426102 -744.907593
36.637798 111.047699 -748.137573
36.637299 255.582901 -737.826477
36.637100 266.794586 -736.378418
36.636101 102.999702 -740.981384
36.631199 236.923096 -742.890991
36.627300 1.879200 -728.515381
36.623798 243.343307 -741.864014
36.623100 12.823400 -732.584717
36.619099 245.585297 -746.444275
36.608700 248.870895 -748.945374
36.607800 4.137000 -733.813477
36.607101 15.236000 -732.755920
36.603001 27.916300 -733.450928
36.600800 116.665298 -750.412781
36.599899 278.989899 -733.787598
36.596298 244.855804 -741.665527
36.596298 250.294098 -739.748779
36.591400 9.256400 -729.289307
36.587898 270.992096 -736.137207
36.582401 28.916700 -732.844421
36.581402 19.940300 -730.820923
36.577099 30.163500 -732.474487
36.576401 248.009293 -740.750671
36.573200 259.654297 -737.288879
36.572201 274.374298 -735.482483
36.570999 13.929500 -730.039673
36.570702 250.064194 -749.756714
36.565601 -0.970800 -732.815613
36.554798 113.983704 -749.433899
36.554798 11.512000 -729.723572
36.536800 247.013199 -747.001770
36.530899 264.552094 -736.712219
36.530499 255.892105 -752.432617
36.525501 108.349602 -746.560486
36.509701 248.227203 -747.927002
36.508701 21.851601 -731.143799
36.500198 245.260300 -744.522400
36.497601 24.756001 -731.890686
36.490200 25.139999 -733.208618
36.473400 257.838104 -737.688599
36.461102 259.586212 -754.437378
36.461102 -1.655000 -731.418884
36.459999 3.386900 -728.655518
36.456501 246.013702 -741.409912
36.453300 18.851999 -732.728577
36.440800 280.664001 -732.943481
36.440102 269.016602 -736.331726
36.418201 -3.828800 -732.044617
36.414600 8.097100 -729.310120
36.412399 254.574905 -738.304993
36.400101 257.397797 -752.961121
36.395302 261.576691 -737.146301
36.394901 119.672897 -751.272278
36.391701 253.339096 -750.893372
36.383202 5.936900 -729.028015
36.379902 251.846100 -750.141296
36.364700 16.910900 -732.690186
36.363201 -2.788800 -728.399719
36.359901 261.393311 -755.158813
36.348301 104.101501 -743.865417
36.341999 251.695801 -739.723511
36.336201 243.802505 -742.921814
36.332001 265.634094 -736.753479
36.329899 5.014000 -731.609924
36.326302 246.176895 -745.142822
36.321201 22.529600 -731.978882
36.309399 109.277199 -747.087097
36.306301 253.181900 -739.155396
36.299900 -0.561000 -728.838989
36.296501 250.023697 -748.619629
36.293701 105.615196 -745.473083
36.291302 255.063400 -751.751709
36.289902 277.590698 -734.570923
36.286999 16.740601 -730.598083
36.286701 12.502300 -730.102783
36.285500 245.013107 -743.377686
36.279800 3.105100 -732.941711
36.270100 249.366898 -740.748108
36.268200 104.106697 -742.690491
36.267700 240.220901 -743.279419
36.266399 24.033100 -732.941711
36.252300 10.701000 -732.517029
36.243401 111.946899 -748.597107
36.232700 23.705799 -731.724915
36.221802 0.194100 -732.716980
36.218800 18.799900 -731.049683
36.211601 103.945999 -741.303772
36.208401 6.401800 -731.693176
36.196098 2.820300 -734.551086
36.195900 263.528809 -737.128723
36.191101 275.852509 -735.197205
36.189098 246.423996 -743.869385
36.185299 21.030001 -731.765076
36.184399 247.025497 -745.881226
36.183701 14.892000 -730.582825
36.179501 11.789500 -732.550476
36.170101 103.483398 -739.400696
36.162102 8.768300 -731.965088
36.157501 14.263300 -732.396912
36.155998 -3.085000 -733.404175
36.153400 247.388504 -741.524292
36.142899 10.498900 -730.030273
36.140900 258.463013 -753.087891
36.133499 2.745200 -729.471313
36.129101 115.047096 -749.958008
36.128700 1.628600 -729.486206
36.123199 248.393906 -746.856628
36.110401 117.753304 -750.860779
36.109402 256.512512 -738.362427
36.096401 19.964399 -732.056580
36.089901 250.979706 -740.528809
36.088299 2.124100 -733.517212
36.085899 21.775000 -732.715881
36.085701 252.933594 -749.950195
36.070702 251.508499 -749.096313
36.070099 1.455700 -732.052917
36.062099 273.503815 -735.934570
36.057400 247.191101 -744.729614
36.053200 281.634308 -732.373779
36.026501 -0.741500 -731.893311
36.014599 254.273697 -739.283630
36.004601 17.957701 -731.756775
35.996498 249.760696 -747.562683
35.995899 106.811203 -746.083313
35.985600 259.480988 -753.416382
35.982101 13.530300 -730.841675
35.981800 259.057312 -737.955872
35.981201 255.447906 -738.845276
35.973999 6.813800 -729.505188
35.971802 254.671799 -750.661316
35.965500 260.374908 -737.853821
35.958401 257.000488 -751.954407
35.951698 15.965000 -732.313477
35.945000 241.248703 -743.206726
35.918800 4.424800 -729.146790
35.918098 280.007507 -733.710876
35.910702 105.200600 -744.436829
35.905399 262.551208 -737.600830
35.903099 270.092804 -736.222229
35.902802 11.531300 -730.627930
35.900398 248.463501 -741.505981
35.895401 248.160400 -745.806824
35.887699 5.265400 -729.866882
35.886299 245.542007 -742.264526
35.885601 262.953796 -755.207275
35.883999 8.794000 -730.049011
35.878399 271.785889 -735.995483
35.876400 112.878700 -749.101318
35.874001 -3.344900 -729.173889
35.869701 252.850601 -740.111511
35.867500 120.571503 -751.630981
35.853199 105.009499 -743.135986
35.849899 16.893000 -731.606323
35.848999 -1.684000 -732.378784
35.845299 267.617188 -736.927490
35.842800 -2.301800 -730.818787
35.831299 247.867996 -743.879272
35.830101 15.852000 -731.177795
35.828602 -1.831600 -728.450378
35.825100 260.971985 -754.270325
35.815601 255.831100 -751.119507
35.808102 12.513800 -731.734314
35.802200 110.492302 -747.753174
35.786098 3.170200 -731.844604
35.771900 278.664215 -734.392029
35.771000 258.096985 -752.090027
35.768902 242.518997 -743.298828
35.767899 251.246307 -748.038330
35.767399 258.135986 -738.506775
35.756100 7.516200 -731.567017
35.754002 249.520706 -746.511414
35.752899 248.539795 -744.776428
35.749298 7.682700 -730.153870
35.748501 9.886000 -731.750488
35.743599 11.122300 -731.619690
35.741901 105.002701 -742.012878
35.735901 4.334500 -730.985229
35.724998 246.421097 -742.861877
35.717899 116.026100 -750.331116
35.716801 264.668213 -737.415894
35.716499 118.813904 -751.062622
35.706100 250.113495 -741.326172
35.694698 4.463300 -733.231323
35.689899 252.643494 -748.977600
35.686501 9.690600 -730.664429
35.684200 3.089800 -730.382629
35.680000 104.193398 -740.179688
35.674599 266.445313 -737.142822
35.662701 254.095001 -749.694214
35.648701 251.896393 -740.918030
35.648499 3.536300 -733.889587
35.628399 259.114014 -752.403320
35.621300 276.841003 -734.973694
35.620201 260.631500 -753.151611
35.612000 8.470600 -731.046997
35.601898 262.079803 -754.632385
35.589401 6.577200 -730.509216
35.582199 14.832600 -731.658630
35.578999 0.752500 -729.122375
35.575001 107.790100 -746.589111
35.572601 256.424713 -739.310181
35.570400 268.682312 -736.919128
35.563599 274.732910 -735.884094
35.560699 -0.471100 -730.890991
35.556599 253.972702 -740.244080
35.546799 255.097595 -739.897583
35.537300 249.065201 -743.845886
35.516899 282.853699 -732.027771
35.496201 250.996002 -746.980530
35.494999 113.907204 -749.577820
35.490002 255.313293 -749.924927
35.477200 5.547300 -731.108276
35.476700 106.192101 -745.091125
35.470699 245.599792 -743.765625
35.449402 -3.616500 -730.146973
35.444500 257.471802 -751.081604
35.443199 247.537598 -742.575684
35.440399 261.275696 -738.145325
35.434601 281.339691 -733.299316
35.424099 264.087585 -755.202393
35.422901 2.265900 -732.683472
35.420200 249.648804 -745.174316
35.420101 252.390396 -747.925415
35.416199 105.880402 -743.646484
35.402199 256.546509 -750.404724
35.400398 259.747986 -738.549683
35.392101 104.917900 -740.967529
35.375900 272.691498 -736.293579
35.369999 111.392097 -748.257324
35.330898 263.696899 -737.860596
35.323200 271.086395 -736.589478
35.303101 257.474304 -739.281677
35.297699 117.039703 -750.631470
35.291500 108.871803 -746.941406
35.291000 253.296494 -741.057922
35.287300 253.812607 -748.722412
35.284500 121.542503 -751.544617
35.276699 260.153595 -752.237488
35.273399 244.694199 -743.169800
35.265598 105.915298 -742.583679
35.265400 250.761902 -745.925720
35.258801 -2.406800 -729.914917
35.255901 -0.678900 -728.611389
35.252399 119.695702 -751.518127
35.248501 261.954315 -753.430725
35.234402 250.512497 -744.203979
35.212700 277.877014 -735.038513
35.212502 3.384400 -729.115417
35.211601 249.064697 -742.105225
35.202000 4.062800 -732.359070
35.198399 246.928894 -743.713928
35.187199 258.705109 -751.389587
35.154999 258.850006 -739.106995
35.142200 252.132996 -746.865295
35.128399 269.851105 -737.077087
35.112598 251.210495 -741.698120
35.087399 279.674896 -734.304626
35.084099 -1.323800 -730.139526
35.077999 262.731201 -738.265320
35.077202 265.643585 -737.587219
35.073502 5.106000 -728.898926
35.071400 263.225311 -754.512573
35.070499 255.997299 -740.273621
35.055500 107.369400 -745.746887
35.054100 115.029900 -749.950317
35.043900 112.386200 -748.578979
35.043201 255.000900 -748.937378
35.027401 2.073300 -729.271179
35.027199 276.260193 -735.723572
35.027000 282.223999 -732.750977
35.025501 254.571198 -740.993408
35.024300 261.218506 -752.411011
35.021599 273.701202 -736.303772
35.003700 253.553406 -747.664490
34.987999 267.310394 -737.630188
34.977402 105.036102 -739.974915
34.973000 258.092590 -750.270386
34.967899 250.261703 -743.127319
34.954601 251.855103 -745.416870
34.948101 109.891403 -747.440796
34.945999 107.088402 -744.519714
34.945202 105.880402 -741.408386
34.939800 251.691193 -744.304016
34.936600 118.062103 -751.142883
34.923100 265.086609 -755.114014
34.906502 256.212006 -749.408386
34.882900 -0.199800 -730.067810
34.873001 106.809998 -743.434814
34.860802 283.716309 -732.030884
34.833099 264.693115 -738.039673
34.832699 257.270386 -740.231018
34.827900 260.547607 -739.069214
34.815498 263.154297 -753.382324
34.812000 252.279694 -741.583130
34.789101 248.224899 -743.606812
34.779800 254.750397 -747.884827
34.768501 259.725098 -751.307312
34.765900 251.474594 -743.249878
34.754501 253.307693 -746.608215
34.746899 122.691704 -752.233521
34.744400 261.653595 -738.868286
34.735802 3.943700 -733.488892
34.730000 5.867400 -729.766479
34.727901 268.382996 -737.622925
34.703999 258.405487 -739.981384
34.700500 262.436188 -752.544495
34.689899 120.572800 -751.834900
34.686298 272.040710 -736.921387
34.681702 252.675003 -744.690918
34.657501 259.588989 -739.724426
34.655300 1.173000 -731.440918
34.653999 115.942101 -750.493408
34.644798 4.216900 -729.679199
34.637600 252.497299 -743.568726
34.635101 264.384796 -754.035522
34.626499 106.851303 -742.392273
34.603500 280.752289 -733.816895
34.587601 0.245200 -729.075073
34.586399 255.935806 -748.345215
34.577499 113.360100 -749.315918
34.576302 278.821106 -734.783325
34.568401 266.106415 -755.128418
34.566399 255.691803 -741.193115
34.563702 275.170197 -736.171387
34.562000 257.254913 -749.636902
34.540001 270.801392 -737.288513
34.538799 259.378906 -750.228882
34.528599 249.340897 -743.545715
34.514599 254.498199 -746.825317
34.508598 253.388702 -745.561218
34.499401 110.806000 -747.950989
34.495602 260.779388 -751.471313
34.488899 108.390198 -746.245972
34.485500 105.892502 -740.410278
34.456299 108.038002 -744.929016
34.453098 263.848694 -738.630493
34.450100 253.509995 -741.790100
34.442902 2.918200 -733.801575
34.439098 253.538803 -743.880127
34.433201 121.581398 -752.261475
34.402100 266.434601 -737.934082
34.389702 285.037109 -731.456970
34.386700 107.746696 -743.627380
34.371498 118.912003 -751.506714
34.355499 255.695999 -747.296082
34.343498 264.037292 -752.946716
34.340199 4.800200 -730.930481
34.319099 2.287900 -730.406982
34.318802 0.752700 -730.182922
34.318600 277.515411 -735.627930
34.303398 258.558014 -749.526184
34.297798 254.123505 -744.765198
34.293598 256.906586 -741.187805
34.276798 5.489000 -727.778687
34.270401 252.484406 -742.523987
34.268501 265.687195 -754.171387
34.261600 256.919312 -748.624573
34.260899 262.510315 -739.309875
34.260799 116.943100 -750.942078
34.249699 258.044189 -740.944275
34.244301 -3.465800 -731.483582
34.239201 106.736504 -741.248291
34.238201 269.518799 -737.758118
34.229401 260.462585 -750.475830
34.221199 3.734700 -730.836914
34.214001 260.969696 -739.869080
34.200699 111.685402 -748.490784
34.181801 267.244598 -755.110779
34.181400 282.866913 -733.053284
34.181099 254.766403 -741.757385
34.179600 1.955000 -732.122620
34.175201 262.013885 -751.693726
34.170502 114.387802 -749.787170
34.165100 254.767502 -745.773621
34.163700 3.696100 -732.213318
34.162998 123.723099 -752.514404
34.151100 273.352905 -736.936829
34.138699 109.313400 -746.965820
34.127201 265.355499 -738.603271
34.105202 263.114014 -751.921021
34.083302 254.388901 -743.333618
34.078602 279.765106 -734.880127
34.072300 259.366211 -740.652527
34.067699 284.481903 -732.326904
34.043301 107.786102 -742.536804
34.043098 267.544708 -738.188904
34.033600 3.344900 -729.850281
34.019402 255.122604 -744.204407
33.978100 276.137085 -735.926025
33.965099 265.348999 -753.168701
33.965000 261.851105 -750.643311
33.952000 257.001495 -747.578125
33.937599 256.214691 -746.375610
33.925499 108.954903 -745.115173
33.919498 282.020599 -733.709412
33.910900 4.436500 -732.961121
33.910000 258.266602 -748.540771
33.909599 266.804199 -754.143372
33.897598 108.725304 -743.958008
33.876301 260.023590 -749.476196
33.869202 250.821701 -743.086609
33.852798 263.710693 -739.540771
33.852200 5.662200 -730.450317
33.825901 119.913101 -751.861511
33.816299 256.004913 -745.241394
33.809700 271.692596 -737.570129
33.799900 264.650299 -752.181519
33.790699 261.950714 -740.143799
33.788700 112.714500 -748.929321
33.780300 255.714096 -743.315430
33.778801 118.025597 -751.208313
33.778099 255.865005 -741.983704
33.765701 1.536400 -729.634583
33.720001 274.839386 -736.809082
33.715199 115.462303 -750.199829
33.713501 122.676003 -752.575623
33.709999 278.690796 -735.500671
33.694302 107.727402 -741.521423
33.685501 270.458710 -737.866089
33.677898 257.998688 -747.288818
33.671001 264.753601 -739.373108
33.656601 268.026001 -754.517029
33.648998 266.295197 -738.923401
33.648102 286.114288 -731.558289
33.646900 109.570297 -745.993225
33.645500 110.427498 -747.417725
33.634701 256.661194 -743.862122
33.624500 281.040802 -734.256592
33.620098 263.209595 -750.908813
33.611900 251.972702 -743.206787
33.608501 2.314900 -731.281128
33.605400 260.829590 -740.789001
33.599800 120.879303 -752.283020
33.592701 257.633087 -741.693970
33.583199 266.453186 -753.130127
33.553501 259.181091 -748.065918
33.539001 257.232513 -746.451904
33.527100 268.450195 -738.441223
33.514400 108.789101 -742.914185
