29.924500 269.045990 -780.272705
29.904600 307.821899 -807.498718
29.878500 253.919998 -768.044922
29.877300 316.577515 -815.668884
29.834900 272.631592 -782.245728
29.829100 286.562286 -793.232178
29.821899 4.006400 -735.491211
29.818001 114.878700 -754.550293
29.812500 123.297401 -757.780579
29.794500 119.212700 -756.764282
29.785101 110.172401 -745.958374
29.777500 121.349602 -757.540405
29.757299 309.510010 -808.725098
29.750000 117.558998 -756.143921
29.747499 304.659088 -805.359619
29.746000 284.742004 -791.087585
29.737600 110.342300 -748.290283
29.731501 3.182200 -732.504395
29.718800 312.022491 -811.024902
29.718100 256.786804 -770.919128
29.717400 306.624390 -806.616882
29.712799 279.537689 -786.449219
29.711901 252.624802 -766.490601
29.689899 113.146599 -753.639282
29.689699 289.045807 -794.750183
29.673500 110.910103 -752.637024
29.663500 258.651611 -772.716187
29.644899 255.541397 -769.508118
29.635599 268.147614 -779.674622
29.617701 280.617096 -787.109619
29.608601 110.325600 -751.204773
29.602100 260.909790 -774.533386
29.599100 300.471985 -802.470886
29.584101 264.294312 -777.032776
29.579300 293.264008 -797.284302
29.574900 110.603203 -749.626587
29.573500 283.524597 -789.366882
29.564600 296.757813 -799.897522
29.554399 3.327500 -731.134583
29.538500 281.550812 -787.814697
29.535601 282.613190 -788.485413
29.531000 285.507996 -791.944885
29.517200 299.523712 -801.818604
29.505800 311.102814 -810.232422
29.491600 270.043488 -780.560791
29.490400 110.357201 -747.043030
29.487200 291.092590 -795.712830
29.467400 294.221802 -797.869507
29.458300 318.371002 -817.289917
29.456900 275.244385 -783.512512
29.437799 301.594604 -803.190613
29.417500 266.161804 -778.250916
29.416500 303.125702 -804.196411
29.406799 271.460693 -781.271606
29.402599 295.774902 -799.031921
29.384701 260.110107 -773.671509
29.379700 273.645905 -782.473389
29.375999 278.616211 -785.554321
29.375999 253.570908 -767.111023
29.366100 312.890411 -811.864929
29.365200 276.193115 -784.127808
29.355000 287.593903 -793.709229
29.326900 284.487396 -790.040283
29.285900 315.376312 -814.686279
29.279100 262.498505 -775.653381
29.275000 292.320190 -796.425415
29.268999 310.272308 -809.383301
29.248899 254.814606 -768.464600
29.229000 124.105301 -758.382324
29.226299 2.115700 -735.869629
29.219601 115.770699 -755.257385
29.218201 257.918213 -771.355103
29.194099 305.602295 -805.742798
29.188000 114.056396 -754.132690
29.177200 298.381409 -800.942627
29.174999 111.266502 -747.898193
29.173401 256.579712 -769.965576
29.171301 286.525787 -791.545715
29.153299 111.255302 -750.601013
29.141899 111.931396 -752.721985
29.117599 290.107605 -795.105225
29.107401 120.350197 -757.303223
29.105101 313.939606 -812.909790
29.092400 267.326111 -778.786621
29.084400 2.962900 -734.304688
29.078600 285.511688 -790.528015
29.064199 277.357086 -784.569702
29.058599 122.465698 -757.887024
29.040600 111.301804 -751.723816
29.040300 111.596298 -746.568604
29.037399 111.552498 -749.413086
29.028700 265.298309 -777.399719
29.004200 263.675598 -776.303711
29.001499 317.222290 -816.199707
28.960400 308.413391 -807.790222
28.945400 269.022797 -779.693726
28.931101 272.630005 -781.490479
28.910999 307.493591 -807.104675
28.905899 287.807312 -792.643982
28.895700 304.110291 -804.642700
28.895399 261.760895 -774.786316
28.888901 319.419098 -818.139221
28.867701 280.217407 -786.122192
28.852699 116.877197 -755.893799
28.844101 295.114197 -798.252014
28.840500 118.100998 -756.500610
28.827400 274.668915 -782.687378
28.824800 258.898712 -771.990723
28.814800 288.578613 -794.095581
28.795700 297.684814 -800.124573
28.788799 316.155212 -815.305115
28.775600 259.762909 -772.759827
28.772200 284.277893 -789.061401
28.738199 281.505615 -786.993530
28.727800 255.823502 -768.891113
28.704300 3.059600 -732.988281
28.691900 119.317703 -757.002686
28.680700 282.595795 -787.727295
28.679399 302.369812 -803.488220
28.675400 311.720001 -810.640625
28.674299 257.534302 -770.419678
28.663099 112.685303 -753.684692
28.658501 270.997101 -780.544922
28.653601 112.198601 -748.565125
28.652901 114.972504 -754.662598
28.647600 121.403297 -757.653870
28.630899 296.622406 -799.233276
28.624500 254.456802 -767.611816
28.623899 309.190491 -808.571289
28.621700 306.560303 -806.329529
28.620501 300.227509 -802.000916
28.610100 287.491486 -791.503174
28.607500 314.805298 -813.981079
28.601900 260.991791 -774.019287
28.593599 112.177399 -750.915771
28.585400 275.849487 -783.136475
28.564899 293.934296 -797.188171
28.557699 276.870605 -783.591675
28.546600 279.101288 -784.989990
28.544800 285.377014 -789.556580
28.544001 125.023399 -758.849121
28.516701 299.233704 -801.272095
28.509899 301.254608 -802.649780
28.495300 286.653503 -790.641418
28.482800 268.273499 -778.967896
28.474800 291.466888 -796.135498
28.470200 289.224304 -793.213074
28.435499 112.494598 -749.802490
28.415100 273.670685 -781.851685
28.411900 112.178596 -747.399292
28.410900 266.508087 -777.875916
28.408199 318.079315 -817.030579
28.369101 270.093994 -779.817383
28.350599 310.816895 -809.803101
28.346399 312.570404 -811.397888
28.327900 263.160614 -775.494324
28.327400 112.515602 -752.006592
28.314800 264.505707 -776.606323
28.303699 305.012909 -805.126221
28.296600 290.037811 -794.311401
28.296400 313.425690 -812.268311
28.279600 258.470703 -770.999878
28.279301 320.422791 -818.924683
28.277000 288.553711 -792.069092
28.272699 278.084991 -784.258301
28.239599 283.785187 -788.175781
28.222700 123.578300 -758.396179
28.202700 256.956390 -769.578674
28.195299 116.242599 -755.112671
28.184900 292.854401 -796.544617
28.177799 113.289299 -747.488525
28.170000 303.482208 -804.028320
28.160000 113.756798 -753.741577
28.151800 290.502197 -795.584106
28.141199 280.127411 -785.279175
28.141100 2.509100 -734.791870
28.127001 281.040588 -785.928223
28.119801 260.674286 -773.061584
28.106199 298.548798 -800.420227
28.089199 271.954010 -780.708923
28.082899 113.179604 -748.844177
28.066700 314.320892 -813.059326
28.053600 295.959991 -798.391724
28.043600 255.329605 -768.157104
27.980000 120.169403 -757.579102
27.967600 282.447510 -786.863770
27.962601 113.110298 -750.746582
27.952000 122.218399 -758.142517
27.948900 117.484299 -756.157715
27.943600 316.848999 -815.897583
27.943600 265.689392 -777.265381
27.941500 318.896606 -817.657593
27.929899 284.951691 -788.703674
27.924200 275.228088 -782.185303
27.923000 290.190704 -792.922119
27.909800 294.880798 -797.688782
27.899200 297.562592 -799.444824
27.894800 259.515289 -771.693420
27.891600 261.928894 -774.164124
27.883499 291.049988 -794.078491
27.871901 308.097687 -807.393677
27.867701 267.431793 -778.166626
27.860201 126.140099 -759.551392
27.849400 113.340302 -752.740784
27.836700 269.168304 -779.177002
27.834101 286.226288 -789.716614
27.829901 287.643188 -790.721191
27.804800 315.786407 -814.726379
27.780100 302.063812 -802.911682
27.775900 321.412292 -819.366699
27.768999 118.581902 -756.876709
27.768499 276.578705 -782.805481
27.748899 310.021790 -809.215271
27.746401 291.698212 -795.249878
27.740999 273.165985 -781.112671
27.713200 306.250214 -805.758301
27.690701 113.785004 -749.820923
27.682501 277.601990 -783.357788
27.673500 307.128906 -806.452820
27.673401 300.044312 -801.308228
27.666300 279.185913 -784.173584
27.660000 309.019806 -808.042114
27.658600 258.079712 -770.158325
27.624800 270.993713 -779.920715
27.610701 311.507996 -810.367188
27.603399 289.489502 -792.092407
27.601601 301.001099 -802.029724
27.600300 115.371902 -754.741821
27.578400 283.716705 -787.244019
27.576300 114.179298 -748.514282
27.572300 304.426697 -804.420715
27.559999 262.889893 -774.661987
27.547199 274.236908 -781.389771
27.534901 113.638496 -751.717773
27.530500 124.422897 -759.024719
27.516701 315.093811 -813.795898
27.506800 264.106812 -775.842529
27.495100 293.659210 -796.890076
27.490299 288.649597 -791.257874
27.464800 317.703796 -816.507324
27.426399 292.716614 -795.583984
27.421600 319.863312 -818.436401
27.397100 126.826698 -760.330078
27.395901 260.380188 -772.212585
27.362499 281.932495 -785.625977
27.352400 302.971985 -803.410828
27.344500 121.200302 -758.075378
27.335100 261.512390 -773.210022
27.329000 292.010803 -793.849121
27.326900 280.598511 -784.668579
27.323299 114.293198 -753.052185
27.300400 265.053986 -776.416321
27.289200 285.884796 -788.801025
27.280399 284.877808 -787.734070
27.277300 123.015701 -758.641602
27.268101 291.071503 -793.101013
27.266199 266.566589 -777.569824
27.261600 259.005493 -770.909973
27.255600 268.411804 -778.564026
27.254400 296.683197 -798.663086
27.250601 313.843506 -812.421082
27.247499 312.315796 -811.038574
27.245001 114.251099 -754.324280
27.233999 114.415298 -750.828613
27.229799 116.451698 -755.679382
27.227200 305.485687 -805.078674
27.219900 283.032990 -786.192078
27.219101 287.145691 -789.490479
27.153601 119.450104 -757.338684
27.152800 322.225006 -820.537170
27.149200 298.337891 -799.753479
27.124800 299.477814 -800.486511
27.105400 114.665703 -749.411072
27.028999 293.942993 -795.866028
27.023199 278.607788 -783.296509
27.019800 290.435394 -792.131714
27.014000 295.539307 -797.915405
27.006201 271.973206 -780.243530
26.996401 293.271790 -794.661011
26.985600 270.232788 -779.382019
26.981300 276.094299 -782.112427
26.940100 115.070702 -748.261475
26.938999 125.492104 -759.666504
26.933701 117.914398 -756.362915
26.927700 288.405487 -790.306213
26.925100 127.571602 -761.207520
26.923000 316.836487 -815.423279
26.922600 310.852386 -809.784302
26.916599 277.420685 -782.571777
26.908199 294.402710 -797.636230
26.898800 114.785698 -751.909912
26.878000 301.834686 -802.255127
26.854601 289.730011 -791.289307
26.844801 308.062714 -806.919983
26.826799 318.677704 -817.260681
26.824800 309.696686 -808.394470
26.823099 262.562988 -773.862671
26.815901 279.906799 -783.855774
26.803900 115.076698 -753.673523
26.799400 267.642792 -777.878784
26.787800 300.723602 -801.185791
26.770599 259.885101 -771.438782
26.765200 294.837585 -796.624390
26.764400 284.427185 -786.831299
26.761600 313.125397 -811.698120
26.757401 275.032013 -781.402100
26.731800 265.961304 -776.745178
26.730400 315.735199 -814.314575
26.724199 320.908600 -819.328430
26.721100 285.993286 -787.834412
26.716200 263.869385 -774.958984
26.712200 115.283699 -750.335388
26.687700 273.175812 -780.659912
26.679300 303.889801 -803.774414
26.668501 306.884399 -806.041687
26.664600 116.306000 -748.743286
26.658800 291.929413 -792.732910
26.642000 286.948486 -788.562073
26.632799 297.564514 -799.122803
26.568800 269.290802 -778.745422
26.558300 115.808197 -754.765015
26.556299 281.407104 -784.584717
26.548599 314.700806 -813.203003
26.524401 261.179413 -772.360779
26.521700 294.426910 -794.960205
26.518801 282.441895 -785.091675
26.516600 123.623299 -759.198425
26.509600 287.969208 -789.217285
26.506399 292.959412 -793.708374
26.490400 311.662201 -810.536377
26.489700 323.191895 -821.304810
26.453899 283.808807 -785.877380
26.419600 295.852295 -796.982422
26.407801 126.268501 -760.364990
26.400900 302.861511 -802.732727
26.396000 115.732002 -752.309387
26.385799 118.729599 -756.913208
26.380699 317.969086 -816.450989
26.371700 264.701691 -775.610107
26.359600 122.110001 -758.779785
26.348000 128.255798 -762.255676
26.341299 116.231400 -749.824829
26.334400 120.104401 -757.788330
26.325001 289.494385 -790.301392
26.313900 295.325989 -795.657593
26.297899 285.531799 -786.817017
26.295099 271.264008 -779.661377
26.274900 319.902008 -818.486206
26.264700 296.410889 -798.152771
26.263901 117.060799 -755.956970
26.253401 115.969002 -751.135498
26.237301 305.189789 -804.538025
26.236799 290.680115 -791.189087
26.222401 298.939514 -799.888428
26.202000 309.036713 -807.715027
26.177000 116.054802 -753.492188
26.174200 310.417389 -808.958496
26.171801 124.592903 -759.706177
26.167400 266.883301 -777.154114
26.162701 262.059692 -773.090515
26.152399 279.447113 -783.079590
26.122299 278.276215 -782.513428
26.105000 313.980408 -812.409729
26.104900 121.071899 -758.312500
26.082899 268.512207 -778.057312
26.079201 321.882813 -820.212830
26.073500 301.610199 -801.502625
26.054199 276.738098 -781.935425
26.041401 286.775085 -787.350220
26.026899 300.026398 -800.694702
26.003799 297.022797 -797.174683
26.002899 293.951691 -793.905029
25.997499 117.334297 -749.248901
25.997200 280.641388 -783.614990
25.978100 263.428894 -774.252625
25.961800 312.465393 -811.114319
25.945801 270.302490 -778.880188
25.945101 272.500885 -779.979370
25.923901 324.102692 -821.786316
25.916300 288.933197 -789.345581
25.910900 288.044495 -788.182617
25.905600 291.851288 -791.895081
25.888201 319.197998 -817.634888
25.885201 284.803314 -785.990112
25.877600 316.757690 -814.887512
25.877001 296.428802 -796.112671
25.874001 116.937401 -750.627930
25.873400 292.825806 -792.773071
25.873100 306.372406 -805.381287
25.863300 297.458191 -798.210205
25.861601 127.069099 -761.107910
25.861000 275.681885 -781.511108
25.858200 116.680901 -754.844727
25.847099 265.706787 -776.047913
25.834000 274.597687 -780.941772
25.812099 283.346985 -784.869080
25.801300 129.041199 -763.059082
25.786501 116.605904 -751.923096
25.766300 307.563293 -806.254028
25.716200 303.904114 -803.159912
25.716101 282.240204 -784.335327
25.691900 298.246399 -799.011475
25.686300 125.416496 -760.364014
25.684099 117.967598 -756.238586
25.669500 295.326202 -794.666626
25.666901 315.775604 -813.874573
25.638201 289.991486 -789.539429
25.619600 317.565002 -815.703979
25.600401 311.160095 -809.560181
25.598499 264.317108 -774.803711
25.578400 320.773590 -819.262207
25.560101 117.019096 -753.341370
25.559601 122.787903 -759.238220
25.539301 302.503693 -802.024719
25.534800 322.708893 -820.905579
25.526100 273.686798 -780.371277
25.500601 298.388702 -797.698181
25.493999 285.860687 -786.102112
25.488300 313.272614 -811.715576
25.481501 291.179291 -790.484680
25.458599 119.429604 -757.359375
25.457800 267.761902 -777.333130
25.414600 269.518585 -778.298523
25.406000 310.033997 -808.233887
25.400499 325.240814 -822.539185
25.389299 262.868103 -773.421997
25.378599 314.762604 -812.898376
25.375000 308.701111 -807.028809
25.365601 117.740501 -751.381226
25.357700 261.592499 -772.184814
25.352501 304.948700 -803.772522
25.348499 127.784203 -761.958618
25.333700 318.464905 -816.627380
25.332399 271.790894 -779.369507
25.328199 311.959808 -810.299072
25.322901 287.807007 -787.256287
25.318501 117.880501 -749.976013
25.316000 300.907898 -800.878723
25.313400 293.787415 -793.015625
25.311100 299.316711 -798.995728
25.303301 297.785492 -796.761414
25.302000 117.556099 -755.268616
25.295200 289.053589 -788.059814
25.292200 284.432800 -785.062500
25.265200 277.595612 -781.957214
25.257999 120.439201 -757.811584
25.256500 121.804001 -758.715576
25.255501 266.721497 -776.491272
25.252199 278.964508 -782.476685
25.245899 129.408798 -764.044189
25.232500 123.974899 -759.938171
25.224800 294.799500 -793.636475
25.195999 296.524292 -795.172729
25.188000 286.897614 -786.601013
25.184999 126.182404 -761.040283
25.184700 292.796295 -791.658813
25.181999 299.394287 -800.230530
25.154100 320.153992 -818.402283
25.129000 280.329498 -782.923279
25.115999 117.812202 -752.542419
25.111500 305.915497 -804.557129
25.109100 265.238312 -775.312012
25.087601 281.631012 -783.497681
25.079300 276.711609 -781.281494
25.036100 321.647308 -819.881470
25.025000 290.982788 -789.424377
25.020399 275.516815 -780.723999
25.005899 117.781799 -754.121094
24.983200 290.059906 -788.527222
24.969000 299.447388 -797.922729
24.968201 300.329407 -799.639282
24.938101 307.121094 -805.530518
24.931700 303.399200 -802.415283
24.926399 270.778198 -778.719604
24.921801 268.700287 -777.593323
24.921600 272.992401 -779.701721
24.915300 292.118591 -790.284973
24.914499 263.750305 -774.096375
24.896799 283.021606 -784.139526
24.870199 316.640686 -814.423096
24.862700 326.230408 -823.257019
24.850100 323.784698 -821.722900
24.833500 128.468796 -762.987488
24.809401 301.680511 -801.656128
24.806700 118.808998 -750.868713
24.803200 295.818695 -794.069824
24.759701 297.565399 -795.705688
24.750500 312.770203 -810.902710
24.745600 274.463013 -780.222473
24.743401 118.738197 -756.838684
24.721001 285.623993 -785.221191
24.716200 310.889587 -808.851196
24.683001 118.498497 -755.543091
24.667999 129.929596 -765.054199
24.667200 125.164200 -760.743408
24.666599 313.941895 -812.052429
24.665199 298.692810 -796.851929
24.661400 294.231506 -792.149475
24.656000 317.479309 -815.152222
24.650101 304.275513 -803.152527
24.648701 288.845886 -787.111572
24.645500 126.897301 -761.765686
24.621500 118.849197 -752.049011
24.594900 266.145905 -775.742310
24.586700 309.717407 -807.541687
24.579300 319.674713 -817.554016
24.575001 301.429901 -800.213989
24.568001 315.591797 -813.434387
24.563101 307.954315 -806.176025
24.558701 118.573799 -753.339783
24.558001 278.480804 -781.726685
24.552601 300.470398 -798.589172
24.551800 293.294098 -790.839783
24.512699 284.181610 -784.272095
24.498600 123.052200 -759.510010
24.492500 287.839386 -786.376282
24.483000 267.613800 -776.797729
24.481400 286.854614 -785.718872
24.479200 295.291504 -792.928528
24.427999 291.974792 -789.218384
24.427299 322.759888 -820.786011
24.424000 324.672089 -822.400879
24.421101 119.615196 -757.741089
24.407600 121.078499 -758.372620
24.406700 327.064514 -823.873230
24.385700 311.770294 -809.583313
24.380899 279.632507 -782.089172
24.378300 318.459198 -816.057129
24.372999 305.470703 -803.687683
24.361500 269.983704 -778.119629
24.358999 297.005005 -794.580322
24.345900 264.753815 -774.548706
24.316900 281.375214 -782.695801
24.312300 290.949310 -788.469177
24.304501 306.672607 -804.692993
24.299999 320.818512 -818.783813
24.299700 118.809601 -754.517212
24.295700 271.734497 -778.895874
24.288000 282.398285 -783.333313
24.264500 277.575897 -781.120117
24.260700 302.744507 -801.705322
24.251699 119.623299 -750.328430
24.228901 290.144714 -787.685486
24.199400 124.126999 -760.342896
24.177700 129.056107 -763.773987
24.172001 300.228302 -797.460388
24.170700 292.884705 -789.869812
24.156200 119.852203 -751.766602
24.155899 301.905701 -799.270996
24.137400 298.499207 -795.788086
24.117599 296.312286 -793.303284
24.116400 302.496002 -800.306885
24.100500 119.369301 -756.155273
24.092100 294.303406 -791.098999
24.090099 276.398285 -780.760376
24.074100 122.142700 -758.912476
24.065300 130.721893 -765.656616
24.050100 285.186188 -784.425781
24.047300 119.443497 -752.874878
24.039200 295.214111 -791.883728
24.035601 309.097107 -806.748230
24.019699 125.920303 -761.372375
23.983400 327.990601 -824.529907
23.979799 283.668213 -783.370728
23.979799 275.308899 -780.357178
23.962601 272.795990 -779.138794
23.959900 315.008209 -812.688782
23.958300 273.920502 -779.577820
23.935699 321.946014 -819.867981
23.926300 313.540314 -811.292725
23.926201 299.545593 -796.607910
23.892799 269.160889 -777.518127
23.886900 286.268494 -784.745422
23.884800 267.001495 -776.034790
23.872499 288.952911 -786.232788
23.867399 312.722595 -810.230774
23.864300 301.396912 -798.271179
23.848200 303.712585 -802.258423
23.835800 127.873497 -762.896729
23.818501 120.927399 -751.116211
23.806400 316.485809 -813.971924
23.795000 287.706696 -785.460205
23.785900 307.841614 -805.305298
23.785400 298.013489 -794.779419
23.781500 325.435791 -822.914429
23.778099 303.567108 -801.084229
23.749500 265.651001 -775.085693
23.746599 324.016113 -821.703186
23.739799 280.679596 -781.983521
23.725599 297.502106 -793.755188
23.722900 311.041992 -808.349609
23.682301 296.321899 -792.205322
23.681601 119.830101 -755.169617
23.671101 290.063293 -786.726379
23.670799 119.620399 -754.018616
23.665501 291.887207 -788.142700
23.647400 292.770203 -788.879395
23.635799 120.122902 -757.082886
23.634501 293.940491 -789.867126
23.620300 319.668701 -816.986084
23.606701 126.985397 -762.187073
23.606600 317.403503 -814.727295
23.606400 320.525391 -817.936401
23.600599 129.677002 -764.733582
23.590900 310.239410 -807.525574
23.580999 291.042297 -787.399414
23.580700 279.036499 -781.340881
23.571699 120.570503 -752.488403
23.570700 304.907410 -803.096130
23.563900 270.750610 -778.260681
23.544300 124.922203 -760.943787
23.529800 326.373993 -823.616577
23.526501 268.338196 -776.868713
23.491699 123.493698 -759.764771
23.473900 282.050293 -782.420898
23.468700 302.778687 -799.447571
23.465900 299.300690 -795.387573
23.448900 295.174713 -790.598572
23.447399 284.759705 -783.487305
23.422800 301.036987 -797.242188
23.393801 311.972687 -809.085022
23.375900 131.133499 -766.780029
23.375500 120.782898 -757.994812
23.365000 314.553802 -811.830627
23.364000 304.723511 -801.967224
23.356899 297.338501 -792.680908
23.348801 318.401306 -815.508179
23.326401 322.976105 -820.615601
23.307699 321.552399 -818.962280
23.304001 306.179993 -804.353271
23.277500 277.234192 -780.656616
23.256300 287.382813 -784.486877
23.250999 298.913391 -794.338928
23.249901 300.357788 -796.084229
23.239201 303.690094 -800.050476
23.212799 285.834991 -783.758972
23.211599 288.810394 -785.291992
23.209101 296.105713 -791.178223
23.201300 274.789886 -779.688171
23.196899 329.016602 -825.402222
23.191299 121.746101 -751.645508
23.184900 302.274506 -798.204224
23.182199 272.043793 -778.720520
23.174101 128.524796 -763.508728
23.167299 327.275513 -824.207520
23.164200 304.529510 -800.862671
23.160500 120.376404 -756.025024
23.152700 120.659103 -753.859924
23.134001 283.228699 -782.633301
23.120100 313.543213 -810.509216
23.120100 289.852386 -785.710083
23.117599 293.834106 -788.889404
23.117500 276.002289 -780.159180
23.069401 316.110107 -813.180786
23.067900 292.897614 -787.882202
23.059799 309.461487 -806.361572
23.039101 291.175995 -786.413330
23.034000 269.864288 -777.517273
23.014700 122.580399 -759.146973
23.006500 273.428711 -779.252686
23.001699 298.319305 -793.372375
22.991100 294.939697 -789.596619
22.990200 130.286804 -765.456726
22.960501 308.603699 -805.658875
22.960300 305.794800 -803.370178
22.945499 292.034210 -787.167725
22.944500 280.002686 -781.529419
22.940800 325.010101 -822.286499
22.932600 121.449699 -752.853882
22.924700 121.039200 -757.005676
22.923401 126.062103 -761.677979
22.911900 312.852600 -809.661316
22.882799 297.225098 -791.677124
22.881201 300.201202 -794.959412
22.879999 322.448090 -819.645386
22.859900 278.269714 -780.899475
22.833599 120.836899 -754.978394
22.806999 305.678894 -801.725098
22.794100 303.301208 -798.653687
22.761900 301.971100 -797.020020
22.758600 307.343201 -805.073975
22.756300 323.870392 -821.142822
22.743999 311.086090 -807.747803
22.737499 127.553101 -762.783081
22.727301 124.132896 -760.328491
22.668699 131.784897 -767.348816
22.666100 315.491791 -812.241699
22.663700 295.882385 -790.233276
22.660000 321.142487 -818.051025
22.658800 301.288086 -795.840881
22.657801 281.554413 -781.758484
22.654600 299.415314 -793.464783
22.652201 121.627296 -758.245789
22.650600 284.332886 -782.822327
22.649099 298.392914 -792.223816
22.645100 319.543396 -816.454529
22.633101 328.204712 -824.894287
22.630100 317.308502 -814.085083
22.614401 330.132202 -826.174805
22.584801 129.234299 -764.454590
22.559999 306.653015 -802.741882
22.558300 294.317291 -788.042786
22.552299 304.605286 -799.764282
22.542900 288.321411 -784.312622
22.538300 122.422203 -752.316223
22.534401 271.309906 -778.105530
22.525101 326.133789 -823.095703
22.512800 121.387199 -755.920288
22.511101 305.480011 -800.636597
22.491199 310.260895 -806.884888
22.482700 290.908295 -785.471313
22.475100 286.817902 -783.506714
22.465099 293.395386 -787.035522
22.456200 289.632507 -784.814026
22.453501 296.920593 -790.601685
22.448601 121.616997 -754.121704
22.412701 292.260315 -786.150513
22.410500 312.037811 -808.554382
22.408300 125.194199 -761.034485
22.400801 314.329590 -810.821777
22.399700 302.931610 -797.670471
22.394199 295.436188 -788.745178
22.389400 307.084808 -803.803223
22.379400 130.936203 -766.195984
22.350100 285.747498 -782.995178
22.333000 276.816589 -780.093872
22.324600 274.451691 -779.014893
22.322100 300.462189 -794.028687
22.287901 321.997803 -818.812317
22.284599 318.322388 -814.965027
22.282301 320.461304 -817.221130
22.278299 298.081207 -791.174316
22.272200 279.289215 -780.820923
22.270800 272.792694 -778.708008
22.270399 282.742493 -782.101929
22.239401 301.320801 -794.795776
22.223801 296.646912 -789.491821
22.219601 121.936302 -757.130188
22.203400 123.159500 -759.666992
22.202900 126.618202 -762.321899
22.187799 302.467194 -796.148926
22.182301 275.565186 -779.643799
22.169500 306.637909 -801.598999
22.165100 304.217987 -798.629517
22.144800 326.972107 -823.761780
22.103500 299.897095 -792.606628
22.093500 128.222000 -763.624329
22.090599 280.674500 -781.248474
22.078699 323.571106 -820.286072
22.077400 308.205414 -804.855286
22.064699 313.589508 -809.807617
22.064199 329.114105 -825.552612
22.055799 295.238007 -787.665527
22.047600 122.543198 -758.523804
22.039499 330.781586 -827.127380
22.014799 316.520996 -812.839417
22.001699 297.680786 -789.899292
21.999800 132.080795 -768.245117
21.997700 122.382103 -753.369995
21.996300 308.977600 -806.098572
21.969999 307.613586 -802.745605
21.968000 277.870605 -780.309387
21.966000 129.808105 -765.323975
21.957899 122.094498 -755.117920
21.955200 299.153107 -791.789612
21.944201 294.352600 -786.738220
21.917601 324.958405 -821.755188
21.912100 296.452698 -788.397522
21.889299 303.953796 -797.545776
21.872801 293.236298 -786.003418
21.858700 291.810303 -785.297913
21.846001 308.269592 -803.755188
21.840900 283.794800 -782.177429
21.840599 312.933594 -808.896423
21.833099 305.428192 -799.536499
21.832600 302.421997 -795.032288
21.821800 315.293701 -811.397095
21.805300 301.158203 -793.241089
21.802401 287.793396 -783.631775
21.789600 306.417206 -800.578003
21.788099 322.760406 -819.544983
21.772499 303.482300 -796.528625
21.739000 298.734497 -790.145020
21.718000 289.039703 -784.102722
21.707600 311.009491 -807.320129
21.706699 290.478302 -784.500671
21.688801 125.861603 -761.631287
21.679501 297.641296 -788.834473
21.670900 122.415703 -756.276489
21.665400 124.423698 -760.553711
21.645201 284.957001 -782.340576
21.642099 300.366486 -791.702393
21.634001 281.812286 -781.138184
21.622299 309.194305 -804.588623
21.616301 327.888611 -824.392822
21.613199 319.463196 -815.909302
21.603399 123.183403 -752.692688
21.602200 302.049713 -794.007874
21.600100 127.361702 -762.896118
21.598801 317.519409 -813.549194
21.590700 131.429703 -767.056030
21.581900 331.710510 -827.756714
21.545000 312.066589 -807.821716
21.537800 296.206085 -787.360107
21.517799 321.500305 -817.952271
21.509800 330.029297 -826.262207
21.502600 128.936096 -764.374817
21.500700 122.811897 -754.400330
21.496599 303.449005 -795.396484
21.477301 305.256714 -798.421387
21.471901 307.549713 -801.522217
21.470200 300.069092 -790.640320
21.464001 326.051605 -822.585327
21.454000 286.731995 -782.927124
21.443399 324.440002 -820.851318
21.434900 301.407410 -792.224121
21.432899 282.960785 -781.363281
21.429001 308.583588 -802.761230
21.417000 310.183899 -806.510010
21.414801 314.701385 -810.461792
21.400801 304.618286 -796.725098
21.387199 122.887497 -757.694702
21.368999 123.467598 -758.902588
21.350500 298.720490 -789.029297
21.334900 295.265900 -786.499878
21.321800 130.517807 -766.263489
21.284100 318.371490 -814.298096
21.281700 279.958405 -780.724487
21.280600 294.213989 -785.828674
21.260799 292.747192 -785.113892
21.251200 132.697296 -768.967896
21.243799 278.755096 -780.557922
21.222200 303.130707 -794.320801
21.209499 306.361511 -799.591980
21.209299 302.438293 -793.024902
21.205000 297.562805 -787.830200
21.199100 320.368195 -816.687012
21.185200 299.802887 -789.580017
21.183001 310.256592 -805.357300
21.168400 301.427002 -791.106201
21.156401 316.381805 -812.065125
21.134800 291.608093 -784.399170
21.125700 309.528595 -803.612427
21.121901 322.346802 -818.718872
21.102800 314.032806 -809.394470
21.087299 123.132797 -755.410400
21.086000 326.892090 -823.286682
21.083500 332.516510 -828.390625
21.073500 288.631714 -783.047974
21.059099 289.846405 -783.413086
21.046101 305.635803 -797.400391
21.033501 328.800903 -825.235779
21.024401 124.135803 -753.114014
21.022699 302.576294 -791.869812
21.003000 125.207901 -760.998474
21.000000 307.212006 -800.352417
20.997499 323.762512 -819.995483
20.987801 126.664299 -762.224182
20.976999 300.831909 -789.943115
20.968000 304.433685 -795.075623
20.936800 285.898010 -782.232971
20.932199 128.084000 -763.550720
20.914000 303.525391 -792.779297
20.907700 132.058594 -767.886475
20.901501 331.005707 -826.952881
20.893801 280.999390 -780.934326
20.876801 130.002594 -765.213318
20.876499 306.341797 -798.480225
20.861500 124.222900 -759.772705
20.857500 298.687592 -788.033020
20.857000 308.465302 -801.752686
20.854099 123.719398 -754.259583
20.839899 315.707794 -811.008179
20.834600 304.273010 -793.938721
20.825399 123.449402 -756.824707
20.822399 296.713196 -786.590088
20.821400 311.158203 -805.901123
20.812401 305.517792 -796.233521
20.798700 312.897186 -808.297974
20.798599 294.710785 -784.869019
20.752399 299.794189 -788.546509
20.738100 302.399414 -790.721985
20.730200 325.188293 -821.267273
20.727900 310.409088 -804.335022
20.718399 319.371704 -815.205811
20.712099 284.589996 -781.856201
20.686501 123.722801 -757.941772
20.654301 295.895599 -785.350525
20.648100 307.288391 -799.177612
20.646500 317.470398 -812.904114
20.643700 311.133789 -807.028687
20.628300 309.507202 -802.573181
20.622801 303.686798 -791.686218
20.582199 292.576508 -784.112305
20.581499 290.903900 -783.656128
20.577000 298.058289 -787.003418
20.575300 306.648712 -797.286316
20.560101 304.744904 -792.880188
20.559299 293.649689 -784.600708
20.558901 327.811310 -823.962891
20.552601 287.690491 -782.734375
20.552200 308.238800 -800.572388
20.547501 305.431885 -794.654114
20.531300 333.743011 -828.846680
20.502899 329.618195 -825.776428
20.493000 131.171906 -767.057922
20.481001 300.994812 -788.929199
20.468100 302.028015 -789.701904
20.454000 326.025299 -821.996521
20.447901 314.980896 -809.893311
20.445801 331.885406 -827.612183
20.439501 133.091003 -769.773376
20.426800 321.821808 -817.913818
20.400999 312.115112 -806.568115
20.383200 311.450897 -804.886230
20.376600 126.101501 -761.474670
20.375200 129.033600 -764.533875
20.348600 321.023010 -816.994385
20.338301 124.386703 -758.804688
20.334000 124.001198 -755.900879
20.333099 303.487091 -790.628784
20.332300 299.583893 -787.520996
20.327700 127.503304 -762.692505
20.321199 306.527710 -795.944824
20.312799 318.330688 -813.615479
20.312700 305.890686 -793.603882
20.299900 310.432098 -803.211975
20.283899 304.742706 -791.525513
20.275101 307.738312 -798.181396
20.222601 320.363007 -816.106323
20.206699 130.525497 -765.966980
20.189100 305.670990 -792.360596
20.176701 132.524094 -768.617676
20.163601 316.674805 -811.520874
20.153799 309.351196 -801.516174
20.153299 297.646210 -786.036682
20.152901 300.739410 -787.879211
20.134600 125.035400 -760.008789
20.106800 303.078186 -789.540588
20.092199 306.548615 -794.767090
20.090799 322.850800 -818.847778
20.079201 313.761200 -808.769226
20.073400 324.345215 -820.272888
20.070299 301.980804 -788.579224
20.066601 308.807587 -799.663086
20.061300 307.612396 -796.922607
20.049299 312.864105 -807.345581
20.036699 328.830902 -824.714478
20.027201 327.032013 -822.813721
20.021799 124.487801 -754.219971
20.019899 124.307503 -756.947571
20.003099 312.327515 -805.472229
20.002001 330.618591 -826.421997
20.001400 304.521088 -790.316772
19.996901 306.806091 -792.986572
19.958799 334.266998 -829.644897
19.932501 307.493011 -795.544617
19.929199 319.270996 -814.374329
19.913799 307.378204 -793.985596
19.889299 305.896210 -791.241272
19.886000 303.473389 -788.478882
19.866600 298.774292 -786.539612
19.858999 316.094086 -810.541992
19.810801 304.629211 -789.056824
19.804300 311.497711 -803.842896
19.792900 131.794800 -767.785889
19.783199 310.283600 -802.166077
19.766100 308.736115 -797.958008
19.753500 333.060486 -828.425720
19.746000 313.161285 -806.258789
19.737499 317.664886 -812.238403
19.716200 133.335800 -770.840820
19.716000 129.757797 -765.133972
19.693800 305.661407 -789.505371
19.688900 128.569901 -763.687622
19.675501 309.546814 -800.521179
19.674700 306.841797 -791.795898
19.645500 320.128204 -815.128174
19.642401 126.626701 -762.188171
19.641600 308.656891 -796.632690
19.628799 124.851700 -757.945190
19.623600 307.852905 -792.943787
19.618700 308.456085 -795.027771
19.616899 323.666687 -819.487183
19.611099 124.622002 -755.326294
19.592699 314.062286 -807.750427
19.576900 306.716187 -790.028076
19.551600 125.246002 -758.984497
19.527201 309.687286 -799.217407
19.517000 328.242310 -823.858215
19.513100 125.839302 -760.512207
19.504601 301.630096 -787.526611
19.498600 314.666412 -809.400818
19.473801 321.836212 -817.322571
19.462400 329.946198 -825.543213
19.459700 325.884003 -821.479126
19.450300 308.892212 -794.000000
19.444099 130.971603 -766.654480
19.443800 308.093506 -790.626099
19.385000 132.909805 -769.301392
19.383900 125.089500 -753.460876
19.381300 318.558197 -812.912109
19.379900 312.404205 -804.478516
19.374399 332.219910 -827.793518
19.370701 321.145599 -816.180115
19.369301 308.025909 -791.825073
19.364799 335.194000 -830.223083
19.344299 311.355194 -802.805786
19.342400 309.789886 -798.029297
19.322500 310.509003 -800.963684
19.314600 308.922913 -792.648071
19.303801 309.546387 -794.976379
19.301399 331.355713 -826.933289
19.287399 325.087585 -820.673584
19.246201 125.091599 -756.485107
19.223200 127.793404 -762.652100
19.212999 310.599915 -799.805481
19.184500 309.751892 -796.089172
19.137600 317.191315 -811.187317
19.124201 314.118103 -806.353821
19.124001 310.076813 -793.976685
19.119400 309.556000 -791.443481
19.089399 322.830200 -818.278198
19.064100 313.415985 -805.358582
19.063400 327.668304 -822.966125
19.054001 310.323212 -797.083923
19.044300 315.317688 -810.178772
19.032499 315.276001 -808.424194
19.028900 319.463715 -813.715698
19.026699 333.876495 -829.091614
19.004101 129.185196 -764.318115
19.001200 125.290199 -754.591309
18.972099 329.091095 -824.467529
18.958300 132.345001 -768.436584
18.950800 309.970215 -792.510315
18.941999 326.705597 -822.045227
18.931801 130.289703 -765.723022
18.926001 133.676407 -771.625977
18.925501 126.096100 -759.494324
18.923100 125.557800 -757.445679
18.907700 311.484802 -801.330627
18.885799 312.437408 -803.479675
18.873301 310.550812 -795.352173
18.862801 126.715599 -761.346802
18.809799 336.170807 -830.935913
18.792801 310.650513 -798.716919
18.787500 330.745697 -826.074280
18.777300 315.150787 -807.284973
18.755301 133.389099 -770.245117
18.747299 320.795410 -815.135010
18.742500 131.580902 -767.388672
18.725500 318.123596 -812.013306
18.666800 125.606201 -755.629578
18.653601 311.533203 -794.796509
18.641100 332.987793 -828.122314
18.632099 322.015411 -816.591797
18.629700 128.558197 -763.334106
18.621201 311.002686 -793.508789
18.613501 324.222198 -819.409180
18.568300 311.270386 -796.652283
18.566900 316.333099 -810.371582
18.556999 315.995697 -809.248779
18.539200 313.260986 -804.188782
18.538799 311.966614 -802.264893
18.516800 126.051498 -758.457886
18.505899 312.378296 -793.125610
18.505600 312.023102 -800.437683
18.491100 311.227692 -797.810730
18.479799 311.021912 -792.331421
18.445801 325.803589 -820.969971
18.441200 332.092712 -827.195679
18.432699 320.324890 -814.151978
18.411100 319.069885 -812.698730
18.384100 127.574997 -761.887573
18.361300 131.073502 -766.385681
18.329700 328.670898 -823.641602
18.323200 316.267609 -808.176575
18.299000 311.595001 -799.040222
18.293501 330.132507 -825.182007
18.284901 323.041901 -817.536377
18.278000 314.627686 -805.681274
18.264999 127.106697 -760.408020
18.264299 336.982513 -831.533325
18.258900 125.977402 -756.643799
18.247499 335.006195 -829.823730
18.235100 312.368713 -796.682983
18.220600 132.877701 -769.323730
18.214701 130.006897 -764.893127
18.188801 312.590607 -801.347778
18.182800 312.212402 -795.574707
18.129700 323.818604 -818.484619
18.092300 312.883392 -802.739929
18.081499 321.703705 -815.632813
18.076900 316.982605 -809.575317
18.070700 126.862297 -759.322815
18.062099 312.552704 -794.310120
18.057400 134.082397 -772.398987
18.057100 327.589600 -822.497314
18.049000 127.625000 -762.972229
18.039700 312.576813 -799.547485
18.029699 324.982513 -819.973328
18.026100 317.536987 -811.110474
18.020300 312.194702 -798.118530
17.980400 333.682190 -828.730225
17.938801 315.659790 -806.606689
17.927999 133.687607 -770.989014
17.920000 319.994385 -813.154785
17.906799 132.312103 -768.065186
17.893999 129.309799 -764.053528
17.881500 314.195007 -804.258118
17.837299 326.847687 -821.673096
17.834499 126.424400 -755.193970
17.827900 331.282501 -826.258423
17.825100 313.742004 -794.067017
17.778999 313.271210 -798.256775
17.778500 126.592598 -757.802612
17.750500 313.944092 -802.776001
17.749599 335.992004 -830.550476
17.747499 329.662903 -824.336121
17.716999 313.496185 -800.842224
17.710400 337.816895 -832.015076
17.688801 321.164703 -814.375000
17.659100 131.687103 -767.030273
17.657900 318.649902 -811.996887
17.656500 322.606812 -816.317993
17.649000 317.390594 -808.571411
17.635900 313.272705 -795.573975
17.605301 128.591599 -762.539978
17.591101 332.904510 -827.649292
17.583000 318.327301 -810.332886
17.562500 316.752197 -807.508911
17.545401 127.881599 -760.799622
17.514200 130.825699 -765.690979
17.500799 313.829895 -797.255005
17.492800 315.111298 -805.030273
17.488501 133.449600 -769.956909
17.389799 324.875092 -818.983398
17.384001 326.042999 -820.492126
17.378401 126.665001 -756.731628
17.371099 313.633911 -799.260986
17.369600 332.126587 -826.862793
17.342300 134.548996 -773.231323
17.332001 330.728485 -825.270813
17.322300 328.582489 -823.078491
17.321699 324.034088 -817.748413
17.309500 314.016205 -801.754578
17.289900 127.286003 -758.593628
17.226601 314.997894 -803.797424
17.216900 132.916702 -768.819092
17.209900 318.135986 -809.300293
17.206301 334.392609 -829.096619
17.204500 338.563812 -832.710205
17.198500 322.346893 -815.314087
17.197300 314.392609 -796.258911
17.160801 130.127899 -764.547424
17.150200 316.146912 -805.948486
17.143101 336.820709 -831.090576
17.118999 319.312286 -812.784424
17.108801 134.139999 -771.773682
17.101500 314.135712 -795.124512
17.085400 323.459900 -816.816223
17.053101 320.599213 -813.646423
17.052601 327.736694 -822.034485
17.033400 314.658813 -798.814819
17.023399 128.647507 -761.519409
17.020201 319.238586 -811.233582
17.018200 314.842712 -802.545776
17.012501 127.958099 -759.740784
16.981800 129.209000 -763.348572
16.971201 333.622711 -828.265503
16.953199 314.294891 -800.633423
16.939400 317.666504 -807.662781
16.858200 335.492310 -829.935303
16.841400 132.292099 -767.593994
16.828100 127.327599 -757.464417
16.827000 314.640015 -797.719421
16.818100 319.029785 -809.925720
16.815701 126.904701 -755.714600
16.807600 316.085114 -804.885071
16.796801 131.519302 -766.342773
16.760900 331.584412 -825.873413
16.752501 329.579987 -823.830688
16.708200 321.813995 -814.455688
16.674400 133.937897 -770.676025
16.666401 317.066589 -806.741516
16.598200 337.828888 -831.884888
16.589199 323.225006 -815.803772
16.577101 327.251404 -821.115173
16.569500 320.100403 -812.210815
16.568100 325.619110 -819.071228
16.543699 339.541412 -833.438782
16.541100 315.005890 -795.569824
16.540701 315.341095 -800.542419
16.512300 128.735199 -760.465881
16.504801 332.964203 -827.242188
16.503799 315.640015 -803.208008
16.485001 130.833603 -765.230225
16.481600 320.174194 -810.774719
16.466999 318.626587 -808.598999
16.449100 324.716705 -817.541626
16.444799 326.433197 -819.963684
16.442200 134.875702 -773.813110
16.435400 127.995697 -758.765320
16.427000 315.581299 -797.240112
16.419701 133.575302 -769.645508
16.410700 134.519196 -772.581787
16.406799 129.444397 -762.310730
16.396999 330.445404 -824.626587
16.340200 315.600708 -798.898682
16.334900 328.625488 -822.514587
16.331699 315.460114 -801.728088
16.234501 320.930603 -812.968079
16.202400 316.651398 -804.034485
16.202200 316.264587 -795.954529
16.194599 334.331512 -828.629395
16.191401 129.965195 -763.883423
16.157900 316.858398 -805.352173
16.156000 132.958298 -768.445313
16.104401 318.365112 -807.343018
16.065300 336.619385 -830.720581
16.041401 340.581909 -834.122803
16.037399 129.414398 -761.238586
16.027700 338.679413 -832.478088
16.012199 132.182999 -766.774475
16.008301 321.032806 -811.804016
15.989000 319.717987 -809.395386
15.987000 324.325012 -816.595215
15.973900 134.415405 -771.526123
15.963600 127.251297 -756.371094
15.944300 128.080597 -757.749023
15.920300 316.322601 -802.477417
15.918500 322.779907 -815.033630
15.879000 317.699585 -806.269775
15.869700 331.341492 -825.222412
15.861300 329.488892 -823.172729
15.861300 128.870605 -759.490173
15.858400 335.441101 -829.431213
15.844000 316.163300 -800.960571
15.833000 332.204315 -826.039185
15.812300 135.582199 -774.463989
15.788500 316.512604 -798.531677
15.770100 131.544907 -765.864014
15.749800 130.200195 -762.792725
15.746800 327.311096 -820.288574
15.745800 325.720490 -818.271423
15.741500 320.689789 -810.076294
15.724100 333.821686 -827.735596
15.723100 321.944305 -813.914124
15.720500 328.347687 -821.572815
15.624600 322.047302 -812.798218
15.617100 326.540588 -819.123413
15.615400 319.263397 -808.095703
15.600100 316.282288 -796.915771
15.597900 130.731003 -764.568726
15.597700 134.167297 -770.386719
15.597100 317.871887 -805.127319
15.578100 135.112106 -773.073486
15.560700 337.653687 -831.497192
15.538400 317.230804 -803.187012
15.531600 129.645599 -760.226379
15.505200 316.853210 -800.021118
15.492400 330.361603 -823.855103
15.465900 325.371887 -817.241882
15.432400 133.598099 -769.087280
15.424500 323.830902 -815.746216
15.419300 339.869812 -833.390381
15.396200 321.504211 -810.971313
15.375200 128.873199 -758.459717
15.360000 132.922897 -767.638672
15.338600 130.307404 -761.754822
15.330500 316.959290 -801.656921
15.328200 318.917786 -806.596680
15.299400 329.209015 -822.237427
15.268000 341.305603 -834.543274
15.247700 317.072113 -797.666504
15.203800 130.994598 -763.549194
15.182600 333.371490 -826.859985
15.164500 322.863892 -813.442688
15.132300 128.033905 -756.939819
15.113700 334.757507 -828.364502
15.099800 317.860596 -804.083923
15.084900 134.980698 -772.029785
15.068900 336.567413 -830.215698
15.019900 320.614990 -809.172424
15.009400 317.765015 -802.362976
14.984900 332.006592 -825.349487
14.970200 317.845306 -800.813416
14.957900 322.608612 -811.957520
14.955700 328.285309 -820.705200
14.953900 132.295807 -766.414429
14.949800 317.693512 -799.447388
14.947000 129.715500 -759.274475
14.936700 338.456787 -832.110474
14.930100 327.429413 -819.429871
14.887000 131.610306 -765.145508
14.885100 342.257507 -835.343018
14.879200 135.766602 -773.766418
14.865500 326.410706 -817.960388
14.858400 331.326904 -824.454285
14.853400 320.166199 -807.901123
14.841800 136.561600 -775.295288
14.833000 330.116211 -822.954102
14.831900 323.098785 -815.110779
14.811600 134.699493 -770.991211
14.807900 318.799713 -805.589600
14.801000 131.052994 -762.456116
14.800100 335.718201 -829.206909
14.797200 324.920105 -816.456970
14.783100 130.520706 -760.743896
14.765200 321.395294 -809.978882
14.715700 324.076202 -814.596680
14.694300 134.188202 -769.701294
14.657300 128.839798 -757.556885
14.644900 133.571396 -768.218384
14.602500 340.562714 -833.814270
14.602000 322.371185 -810.804688
14.550000 317.732910 -798.327026
14.547500 337.580811 -830.999390
14.544700 323.500000 -812.708923
14.507700 334.337311 -827.530823
14.492300 131.702393 -764.037170
14.461700 319.877991 -806.867798
14.443300 332.956909 -826.133728
14.433800 318.739502 -803.937622
14.423800 329.289612 -821.478394
14.412600 135.630096 -772.746826
14.343400 130.595200 -759.664307
14.337000 339.714508 -833.080688
14.334500 318.334198 -801.587585
14.325200 343.131897 -835.887329
14.317100 132.972900 -767.036987
14.293900 129.693298 -758.285278
14.272700 131.313202 -761.463928
14.257300 324.287292 -813.497681
14.257200 327.321686 -818.484009
14.236900 328.316193 -819.850281
14.213700 136.473602 -774.341919
14.198700 318.313507 -800.094604
14.196000 321.590515 -808.977417
14.148800 341.689789 -834.620728
14.144200 319.727386 -805.526978
14.124300 131.893005 -762.779175
14.109600 132.337296 -765.592285
14.097500 135.401993 -771.637207
14.087300 326.090302 -817.179871
14.083900 330.922699 -823.191772
14.064100 137.330795 -775.586792
14.063800 323.148804 -811.491516
14.058300 325.084991 -814.533813
14.057300 332.117004 -824.690308
14.048600 318.792206 -802.896179
14.022600 335.409607 -828.429321
14.018000 325.498810 -815.839417
14.016500 336.551910 -829.634827
14.013400 131.511902 -760.338684
13.998500 330.033997 -822.208008
13.961400 134.200394 -768.864075
13.919500 134.892197 -770.334412
13.909200 333.807495 -826.738403
13.896200 318.549408 -798.958130
13.889200 322.213287 -809.965210
13.881800 321.073700 -808.040405
13.881500 338.815887 -831.984314
13.800000 132.552994 -764.381714
13.774700 320.911499 -806.902100
13.772900 329.182587 -820.508118
13.758200 130.745895 -758.695923
13.726700 136.375305 -773.304321
13.723000 132.258698 -761.776489
13.719500 319.019806 -800.920410
13.684100 324.168091 -812.361572
13.670600 133.646805 -767.665527
13.657100 343.899902 -836.415771
13.619600 319.630402 -804.523193
13.600800 319.391388 -801.972778
13.576700 319.365601 -799.816406
13.566400 138.074402 -776.285217
13.557400 342.684906 -835.203979
13.550200 338.110596 -831.136719
13.536700 328.214996 -818.984680
13.528200 340.886597 -833.885681
13.510700 326.091095 -814.870728
13.488200 333.060913 -825.551514
13.485800 132.528793 -760.394897
13.461400 325.115601 -813.064514
13.431500 132.762405 -763.297180
13.426600 132.987701 -766.239990
13.426300 136.053802 -772.234985
13.409900 323.276215 -810.586304
13.402800 334.768005 -827.389587
13.390400 322.081085 -808.361511
13.386000 131.720200 -759.315308
13.371200 331.666412 -823.675476
13.349900 339.655914 -832.547119
13.334100 137.297195 -774.671875
13.314000 319.811096 -803.463501
13.313100 330.230713 -821.351807
13.307100 337.310608 -830.090698
13.299800 327.263214 -817.882813
13.265600 326.579407 -816.373230
13.247700 133.182495 -765.137817
13.211200 336.117615 -828.718506
13.209400 320.326294 -805.454529
13.208300 133.231293 -761.467896
13.207700 331.082092 -822.499512
13.197100 344.780212 -837.107788
13.134500 134.722595 -769.401672
13.128000 135.443497 -771.041016
13.120100 324.065186 -811.407593
13.078200 329.081787 -819.635681
13.053100 322.819000 -809.507813
13.035300 332.596893 -824.495178
13.009000 341.708405 -834.461304
12.999600 321.684113 -807.360779
12.987200 133.162598 -759.302124
12.972300 320.591095 -804.340271
12.970100 333.959015 -826.091675
12.959100 134.247498 -768.293091
12.954100 320.259705 -801.571411
12.936700 325.986298 -813.919983
12.918200 133.544998 -762.685303
12.826800 133.601196 -764.137085
12.823700 338.865692 -831.584717
12.821200 133.504196 -760.347778
12.821000 343.531189 -835.752319
12.820400 326.997192 -815.354492
12.804300 324.866486 -812.134521
12.793400 137.130203 -773.628113
12.786200 133.626495 -766.973877
12.779400 138.086807 -775.235229
12.708900 340.621002 -833.154907
12.685500 320.037415 -799.666382
12.684800 138.906799 -776.491089
12.658900 345.468597 -837.795715
12.654800 134.184601 -761.618530
12.648500 320.415314 -802.689270
12.643900 327.832306 -816.476074
12.597300 136.718994 -772.609680
12.595600 133.814102 -765.891785
12.587300 328.291687 -817.734009
12.551100 338.133514 -830.529419
12.542800 323.940399 -810.208313
12.540900 337.023102 -829.243896
12.533200 135.410400 -770.064026
12.530100 335.726410 -827.906982
12.524200 322.898407 -808.513489
12.523700 331.047394 -821.520020
12.516800 332.364807 -823.516479
12.512300 325.669708 -812.844421
12.503600 333.479797 -825.156006
12.479100 136.164597 -771.629517
12.472200 321.513000 -806.307007
12.463300 330.317688 -820.534912
12.449600 134.965393 -760.390015
