71.448402 58.630501 -738.757019
71.448303 72.211800 -743.396790
71.425797 56.002102 -730.927185
71.423302 57.066299 -732.510315
71.418999 71.475601 -743.409424
71.414902 53.693100 -731.825378
71.414497 61.576900 -740.592285
71.413597 65.674896 -742.123474
71.389000 65.105003 -741.892212
71.381500 53.959000 -732.796570
71.364998 55.207298 -735.733887
71.358398 60.616901 -739.963074
71.354797 56.389301 -732.129517
71.354698 67.501099 -742.722107
71.354599 70.873901 -743.331970
71.352303 70.245102 -743.237183
71.349297 60.003899 -739.590027
71.348701 53.941200 -732.208618
71.343903 59.293598 -739.136230
71.343597 63.659599 -741.314880
71.341797 55.852200 -730.599487
71.340698 54.548698 -734.996887
71.338402 57.670601 -728.749817
71.326599 56.063702 -729.635498
71.322800 68.868401 -743.007080
71.320702 58.073101 -728.715271
71.320198 55.666302 -736.332703
71.320099 57.389900 -732.769714
71.316101 66.934402 -742.532593
71.308502 56.014198 -731.365173
71.306396 57.394901 -738.061279
71.306198 56.596100 -737.413330
71.298500 56.077000 -736.790771
71.281998 55.994900 -730.004272
71.273499 58.939301 -738.950928
71.271400 56.437698 -729.416870
71.270599 58.239601 -738.453430
71.255402 56.089699 -731.926697
71.254601 71.824402 -743.336914
71.254303 68.108101 -742.799377
71.253998 56.733101 -732.435181
71.253197 56.748901 -729.146729
71.246101 55.325802 -736.140381
71.242699 66.068497 -742.206482
71.239197 64.009499 -741.436218
71.236000 57.020199 -733.056519
71.220901 63.172901 -741.116028
71.209000 59.610802 -739.329224
71.201401 69.718201 -743.128784
71.199898 61.998100 -740.693481
71.197601 57.803699 -738.421082
71.193398 54.935699 -735.547791
71.192902 62.563999 -740.868286
71.192802 66.591599 -742.377808
71.189301 60.293598 -739.791199
71.183601 64.594101 -741.616882
71.182503 61.243401 -740.374390
71.173203 57.180599 -737.577881
71.170799 57.517300 -728.360718
71.168404 55.732201 -730.909424
71.162201 57.311401 -728.741028
71.159302 55.745701 -730.281616
71.146301 65.469101 -741.958313
71.136803 60.900799 -740.226379
71.134903 53.485100 -731.655579
71.107399 55.835899 -731.646301
71.105797 71.235901 -743.360474
71.092796 56.988201 -732.659973
71.085403 70.614197 -743.262573
71.084900 69.302696 -743.020691
71.083298 68.578003 -742.818481
71.076103 56.368999 -737.188416
71.073097 67.746002 -742.654785
71.071198 58.537300 -738.637817
71.056503 61.630901 -740.510803
71.053703 55.652901 -729.844727
71.050697 53.951599 -732.625183
71.038803 55.736698 -736.606201
71.038300 67.328796 -742.540405
71.033501 57.088402 -738.043701
71.023499 56.375500 -732.342285
71.015198 53.794701 -732.086609
71.015099 56.754700 -737.684814
71.012299 55.510799 -730.617615
71.005302 62.898800 -740.906921
71.002296 64.963303 -741.799622
70.998299 70.122101 -743.166382
70.997002 63.489799 -741.182129
70.992401 59.850899 -739.580872
70.990700 55.026402 -735.866882
70.975197 54.679100 -735.383789
70.974701 55.705700 -731.319824
70.972801 57.645802 -738.125977
70.968697 66.906197 -742.405212
70.965797 56.053600 -729.498596
70.965202 55.887100 -736.952026
70.957802 57.076801 -728.953491
70.955200 53.963200 -733.414429
70.948097 55.852901 -731.982178
70.945900 57.632198 -728.681824
70.945702 65.853699 -742.044617
70.942802 59.128700 -739.051819
70.942398 55.336300 -736.369995
70.942001 60.540100 -740.029480
70.935898 64.285400 -741.479309
70.934799 66.269798 -742.162781
70.924599 71.659500 -743.445984
70.920197 62.341999 -740.707092
70.917099 56.375599 -729.173706
70.914101 58.720200 -738.929016
70.908203 68.208603 -742.695496
70.905701 58.074600 -738.422974
70.902603 56.769901 -733.079529
70.882301 55.418499 -730.953674
70.875000 63.921501 -741.320618
70.870399 53.215900 -731.390930
70.863403 56.679298 -732.589783
70.862602 55.493698 -730.156372
70.851402 59.534401 -739.388123
70.847504 69.635597 -743.013916
70.847298 54.349800 -735.080383
70.839600 68.933899 -742.839417
70.822502 65.304100 -741.837585
70.817497 60.223499 -739.834229
70.816002 70.977997 -743.572815
70.814697 61.114700 -740.245911
70.806999 56.672100 -737.369324
70.805603 57.341801 -728.401428
70.799500 56.133598 -737.262024
70.794403 56.736301 -729.054626
70.788696 53.813801 -733.725525
70.782700 63.179699 -740.999084
70.779404 53.586300 -731.516602
70.773598 56.075199 -732.316711
70.770500 53.652901 -732.359924
70.766502 70.421204 -743.220276
70.762802 54.648602 -735.694214
70.761902 61.906601 -740.495483
70.759102 55.619202 -731.746826
70.750504 55.060699 -736.162415
70.744797 55.251598 -730.563110
70.737801 71.218498 -743.226624
70.735397 66.609703 -742.237610
70.731201 57.056599 -737.793091
70.725899 53.487900 -731.904602
70.724297 64.778801 -741.611816
70.720100 67.522102 -742.504395
70.715401 61.559200 -740.361389
70.710503 55.624001 -729.604126
70.695297 55.438702 -731.401184
70.693703 53.679100 -733.274475
70.686798 53.599400 -732.902588
70.681198 55.647900 -736.709106
70.679703 57.361801 -738.115173
70.678497 57.022900 -728.669922
70.677498 58.375099 -738.603088
70.676102 68.514999 -742.713318
70.675201 55.169201 -730.131470
70.670998 56.347301 -732.571777
70.670097 56.007099 -729.248108
70.666199 62.644299 -740.739014
70.660202 57.743801 -738.351929
70.650902 60.768200 -740.076782
70.650101 69.306396 -742.913696
70.633003 67.912201 -742.549011
70.630402 70.784203 -743.250122
70.626297 59.292000 -739.187805
70.625702 63.547699 -741.091797
70.620697 53.872898 -734.369385
70.620003 59.890999 -739.661072
70.614799 65.660004 -741.861816
70.612900 70.087196 -743.124023
70.608498 56.506901 -732.983215
70.599503 55.167301 -730.912109
70.599297 55.805099 -732.116028
70.597603 66.046799 -742.021179
70.593102 67.087402 -742.321716
70.592300 58.924500 -739.041016
70.584602 55.979599 -736.990417
70.584297 53.443001 -731.235779
70.581902 64.278503 -741.359924
70.570198 62.251900 -740.534607
70.561798 52.964001 -731.127075
70.560997 56.407600 -737.522888
70.546997 55.449402 -729.915222
70.536903 57.505100 -728.725220
70.530998 53.282299 -731.588623
70.530197 56.454300 -729.119385
70.516502 65.090202 -741.639221
70.515099 63.905800 -741.228271
70.508301 53.395599 -732.294617
70.507202 55.285702 -736.443481
70.506302 56.810699 -737.626526
70.501701 56.651600 -728.802917
70.500900 54.742699 -735.966675
70.499603 60.434502 -739.918030
70.492500 55.354198 -731.762024
70.492203 57.099602 -728.346313
70.481499 58.631599 -738.818115
70.480499 69.754898 -743.024475
70.480202 63.020802 -740.830872
70.473099 55.163399 -731.290222
70.473099 55.001900 -730.411377
70.471100 70.572502 -743.520081
70.471001 59.564602 -739.484985
70.465103 61.266899 -740.201782
70.439903 58.104099 -738.508484
70.438202 56.024200 -732.517273
70.432297 61.825802 -740.334778
70.415298 64.591301 -741.474304
70.412102 54.211899 -735.099487
70.408096 68.798203 -742.740723
70.404800 54.447701 -735.628418
70.399696 68.283997 -742.575928
70.397202 55.685902 -729.338623
70.384003 55.422199 -732.110901
70.383598 67.582802 -742.357422
70.382797 54.888302 -730.019287
70.374001 66.409599 -742.075012
70.370003 57.122299 -738.026306
70.366096 70.453796 -743.169128
70.356796 57.517601 -738.268616
70.350700 55.155998 -729.758972
70.339203 56.102901 -729.099670
70.337997 55.951801 -737.353516
70.331703 65.411697 -741.706299
70.328499 55.779400 -736.788208
70.327698 60.117500 -739.759888
70.323997 54.967602 -736.356995
70.323502 66.779800 -742.167725
70.320999 54.895000 -730.774170
70.318901 57.000401 -728.754517
70.311996 71.067497 -743.162598
70.309303 60.951801 -740.022400
70.307297 53.542500 -733.357422
70.293602 53.304199 -731.967896
70.289497 63.336800 -740.970703
70.289200 56.321400 -732.691223
70.287399 69.367203 -742.834473
70.286903 52.710701 -731.047424
70.281303 65.880997 -741.867371
70.274300 62.699902 -740.632324
70.268402 55.313000 -736.776978
70.267403 59.229401 -739.298523
70.261703 57.334301 -728.527710
70.260902 55.625198 -732.413818
70.256203 67.919998 -742.455322
70.253502 53.742199 -734.517822
70.253197 55.055401 -731.624329
70.244400 54.895802 -731.165894
70.237602 55.370499 -729.478516
70.227699 56.546700 -733.030884
70.224503 64.143997 -741.265686
70.221397 62.155102 -740.417480
70.216202 67.206596 -742.239380
70.212097 58.360500 -738.729126
70.204498 53.038200 -731.541504
70.202202 70.026100 -743.088074
70.197403 58.832001 -739.008179
70.190201 56.167900 -733.084473
70.182899 54.716702 -730.398376
70.171997 56.380501 -737.398499
70.166000 64.983101 -741.542725
70.161598 63.707100 -741.094788
70.158699 61.614700 -740.198975
70.157799 55.056400 -732.054688
70.157700 54.629700 -736.075928
70.147797 55.553600 -737.059326
70.143303 59.780602 -739.534180
70.139198 56.570000 -728.728821
70.135498 56.965599 -728.414917
70.123001 60.633301 -739.903625
70.116699 56.874901 -737.728027
70.111702 57.816200 -738.454285
70.093498 55.797298 -729.090515
70.085602 69.644997 -742.973877
70.085098 68.607697 -742.628113
70.083801 55.868599 -732.680908
70.072899 53.004200 -731.888428
70.072601 70.556396 -743.431702
70.072197 54.644901 -730.038696
70.067101 64.534897 -741.354492
70.055199 54.589001 -730.803711
70.053902 66.276001 -741.918274
70.049202 54.777901 -731.488770
70.047897 55.347698 -732.286987
70.044197 70.777802 -743.094177
70.040497 63.121799 -740.796021
70.035301 52.443600 -730.939575
70.034401 55.058399 -729.587524
70.033798 54.046700 -735.339417
70.031097 55.141998 -736.521912
70.024002 68.211304 -742.475830
70.022102 68.964500 -742.709717
70.019798 57.409801 -738.109985
70.009697 67.641800 -742.309570
70.006401 53.694099 -734.810303
70.005302 54.780602 -736.381714
70.001701 54.354099 -735.781982
69.995003 53.255100 -733.403198
69.992798 65.575401 -741.638489
69.991600 56.341999 -728.990784
69.986000 59.454498 -739.384583
69.983597 61.220100 -740.055786
69.976700 52.804401 -731.356018
69.965401 62.461102 -740.508423
69.962898 54.683800 -731.897827
69.959198 55.460999 -732.657288
69.959000 60.091599 -739.642273
69.957199 70.332802 -743.150085
69.957199 56.912800 -728.773926
69.956703 66.726097 -742.043030
69.948898 56.005901 -737.397705
69.944397 61.960701 -740.257202
69.922897 59.022400 -739.253113
69.913498 52.959499 -732.601013
69.912598 58.568401 -738.894714
69.910698 55.939999 -733.000671
69.910004 52.880600 -732.226501
69.902702 69.828598 -743.250183
69.897697 58.161701 -738.647583
69.892502 53.042599 -733.048218
69.891502 63.485901 -740.919312
69.885803 54.432301 -730.468323
69.885696 54.972599 -732.333374
69.885002 54.597801 -731.147522
69.882797 65.234596 -741.532288
69.878700 55.371700 -729.255127
69.874397 64.237297 -741.187012
69.867996 67.081703 -742.143372
69.862900 55.165298 -736.920715
69.855202 65.932297 -741.721497
69.852600 56.550499 -737.583374
69.846298 54.302601 -730.119324
69.842903 60.915798 -739.876770
69.841698 64.848999 -741.400574
69.840401 69.350601 -742.912476
69.835602 57.089699 -738.141785
69.834297 55.750900 -736.996521
69.825104 53.165199 -733.785522
69.814903 62.880299 -740.599182
69.803398 56.038700 -728.885620
69.795898 54.360199 -731.587097
69.788200 54.773399 -729.746887
69.785103 67.938904 -742.380920
69.783699 52.756500 -731.702576
69.781700 61.622601 -740.155884
69.781601 56.722198 -728.336670
69.778503 57.643700 -738.289001
69.777702 54.349899 -730.866089
69.775398 63.906502 -741.044312
69.765404 54.470299 -736.133789
69.752800 52.176102 -730.678223
69.752701 59.784199 -739.489075
69.748802 60.532501 -739.774109
69.741898 69.761703 -742.897217
69.735397 56.547001 -728.818115
69.723801 52.653500 -731.029175
69.722298 68.485802 -742.588074
69.707603 53.618198 -735.078125
69.703201 55.667301 -729.074402
69.700401 56.931301 -737.821228
69.695198 54.966599 -736.471924
69.687897 66.308197 -741.865906
69.680099 53.015598 -733.404907
69.667000 55.737301 -732.659485
69.660103 55.059601 -729.421326
69.659500 55.277802 -732.506714
69.659401 58.776901 -739.125305
69.658401 54.165001 -735.841919
69.657799 63.250999 -740.747314
69.656700 62.221298 -740.277527
69.651299 53.908699 -735.483276
69.651199 59.277901 -739.268494
69.650902 64.565903 -741.239990
69.641602 67.407097 -742.199097
69.641098 54.756100 -732.108582
69.633102 54.330299 -731.234680
69.628098 61.323700 -739.986084
69.621597 68.982697 -742.782715
69.617699 55.967899 -737.210388
69.615700 65.606796 -741.557312
69.602303 57.935398 -738.543213
69.601196 62.547699 -740.450623
69.594902 60.189499 -739.591370
69.590401 53.124100 -734.085999
69.586800 54.421799 -729.817810
69.580299 58.297100 -738.833374
69.579903 54.141899 -730.373413
69.571602 66.704102 -741.979980
69.555801 56.346298 -737.463074
69.548203 70.082199 -743.029175
69.543297 52.707100 -732.141602
69.530998 69.491898 -743.112671
69.526901 54.575901 -736.400513
69.523201 65.057899 -741.391479
69.516998 64.256302 -741.087830
69.515800 54.575699 -731.802429
69.513397 54.723499 -729.474915
69.510101 61.888302 -740.176208
69.508797 55.399101 -729.272217
69.505699 54.036999 -730.791016
69.501099 56.259701 -728.709229
69.496902 68.189903 -742.455811
69.494400 63.636600 -740.865601
69.493202 55.319599 -736.809509
69.488602 57.221699 -738.130493
69.483902 60.991501 -739.815002
69.478500 56.752499 -728.646484
69.473900 65.949699 -741.685120
69.468803 52.374500 -731.417725
69.467499 52.423801 -731.871704
69.463097 67.737297 -742.320313
69.446198 51.819599 -730.437683
69.441498 55.795700 -732.952393
69.434601 67.096199 -742.075806
69.433296 54.235001 -731.609619
69.426201 54.056000 -730.007813
69.423897 52.520100 -730.815613
69.420303 59.632000 -739.335571
69.415497 55.895401 -729.016113
69.412804 54.401100 -736.032715
69.402000 57.564899 -738.422302
69.397400 62.887699 -740.546875
69.391403 54.052898 -731.193787
69.387604 52.444500 -732.567688
69.386703 56.647598 -737.659912
69.384201 52.147099 -731.137817
69.383400 52.920200 -733.674377
69.383301 69.105003 -743.074402
69.372200 54.873001 -732.409973
69.365196 68.753799 -742.572876
69.345299 52.051300 -730.757507
69.344299 58.637600 -738.976318
69.343803 59.043301 -739.083923
69.342796 55.514198 -732.647095
69.336304 56.426800 -728.397522
69.328201 54.363098 -732.072083
69.323997 66.287903 -741.794006
69.323997 58.027500 -738.834473
69.323502 52.493099 -732.938904
69.322800 60.551899 -739.646729
69.320503 53.954700 -735.798828
69.320198 54.976700 -729.226929
69.317101 55.759602 -737.111206
69.308998 62.360298 -740.268127
69.308800 53.057598 -734.363892
69.308296 64.787102 -741.209717
69.299400 63.987000 -740.945007
69.294701 61.578602 -739.932312
69.292099 63.236301 -740.653870
69.291801 53.839401 -730.503723
69.285103 54.910198 -736.444580
69.279900 65.447899 -741.495483
69.267303 53.431801 -735.111389
69.260902 54.339901 -729.617676
69.259697 60.065399 -739.447327
69.252800 69.779503 -742.895996
69.247299 52.635700 -733.284119
69.244598 55.538700 -729.023682
69.223503 69.095703 -742.733582
69.221603 56.806400 -737.983276
69.219597 56.170601 -737.405518
69.211601 53.719200 -730.149597
69.210297 55.154999 -732.618408
69.207397 53.806000 -730.880981
69.205399 66.665703 -741.905029
69.199501 52.166000 -732.028809
69.198898 64.448402 -741.014221
69.193398 59.377701 -739.187805
69.181602 67.489998 -742.225220
69.179802 53.898201 -731.516785
69.176201 68.400101 -742.572083
69.175003 54.576000 -736.285828
69.169800 56.479099 -728.846680
69.163498 54.069401 -731.882813
69.162300 67.959000 -742.443420
69.160400 61.989700 -740.075012
69.156197 58.363998 -738.762329
69.151398 61.165298 -739.748718
69.146500 51.579899 -730.343323
69.137802 57.248501 -738.259888
69.135101 56.043800 -728.769775
69.133797 54.580101 -732.423279
69.131302 63.578400 -740.691772
69.130798 39.398399 -722.498474
69.129601 65.118401 -741.287170
69.127899 55.620399 -733.121887
69.124802 54.636200 -729.401794
69.117401 51.963200 -731.356812
69.113197 65.835899 -741.593811
69.112503 39.154701 -722.793884
69.111298 57.831200 -738.546570
69.105598 62.659000 -740.384216
69.082497 54.071701 -729.855591
69.077003 52.101700 -730.460999
69.076897 52.160000 -732.392700
69.075897 52.662399 -733.702820
69.071404 68.839897 -742.996582
69.070900 53.014999 -734.664185
69.068199 54.170300 -736.022583
69.067596 39.740398 -722.200073
69.064903 59.772900 -739.251221
69.054398 55.334000 -736.855591
69.040199 55.252201 -729.188477
69.040100 67.134201 -742.037476
69.039101 51.845699 -730.944702
69.035004 42.168598 -719.384583
69.033699 53.724499 -731.204285
69.025398 40.050999 -721.929688
69.024002 58.893799 -738.953491
69.021599 42.097698 -719.834778
69.021301 53.579102 -730.630371
69.019798 69.342697 -742.960876
69.012497 53.667400 -735.670471
69.006401 54.213200 -732.252686
69.002403 56.618301 -737.695496
68.999199 55.916199 -737.247375
68.996399 60.329300 -739.461792
68.996300 63.031601 -740.504578
68.983002 52.201000 -732.780579
68.981796 60.838402 -739.625610
68.980598 55.521400 -732.772278
68.974602 56.563900 -728.532715
68.968002 64.158997 -740.935730
68.960701 53.393398 -730.284790
68.945602 51.714500 -731.615906
68.944901 62.345001 -740.161926
68.939796 66.296997 -741.711487
68.938103 51.632702 -731.237427
68.929298 64.779602 -741.129028
68.928902 57.508598 -738.425110
68.927696 52.368599 -733.184082
68.923103 39.333599 -722.122070
68.919403 68.492599 -742.901672
68.913399 53.368301 -730.982178
68.913200 61.588200 -739.896301
68.909302 53.794998 -731.854797
68.907799 51.791302 -732.066223
68.907600 54.907700 -729.133179
68.906303 65.541496 -741.446106
68.898804 56.176300 -728.445984
68.893204 55.612202 -728.821899
68.890198 41.421101 -720.761719
68.887100 51.411098 -730.128113
68.877800 67.665497 -742.371887
68.872101 51.523899 -730.853821
68.871201 54.278900 -729.464783
68.867104 39.132099 -722.480591
68.866699 53.645199 -730.010620
68.864403 58.160702 -738.650879
68.863899 38.793598 -723.288513
68.863701 58.615398 -738.769592
68.856499 53.547501 -731.565125
68.855499 51.845798 -732.439819
68.855301 53.295300 -735.326782
68.853600 52.502102 -733.983215
68.852303 59.304600 -739.026123
68.848801 54.309101 -736.304382
68.848503 57.043900 -738.140686
68.832901 55.182301 -732.513123
68.829498 68.153900 -742.591980
68.825401 53.875702 -735.957092
68.814796 66.725197 -741.878479
68.814499 63.777500 -740.768982
68.809097 60.053398 -739.239380
68.808403 42.331100 -719.085876
68.801003 56.317600 -737.530090
68.798698 51.787701 -730.282288
68.792503 61.240501 -739.687073
68.783501 41.969601 -720.177185
68.778702 54.647400 -732.503723
68.777901 62.014999 -740.025391
68.773903 39.641701 -721.973389
68.764000 53.916199 -729.745483
68.761101 63.423901 -740.583374
68.758904 69.000504 -742.717896
68.749496 65.103104 -741.230408
68.749496 53.931099 -732.264221
68.746002 52.925499 -734.922729
68.745697 67.393303 -742.087830
68.745598 53.262001 -730.603699
68.743202 39.150799 -722.893494
68.740997 41.233601 -721.114929
68.737297 65.851799 -741.578491
68.736603 55.507900 -737.014282
68.735802 55.222099 -728.943970
68.734703 56.099899 -728.839172
68.726601 39.558102 -722.432129
68.725403 57.824299 -738.458374
68.724701 42.291302 -719.630310
68.722298 60.649502 -739.438721
68.719902 51.879501 -732.890930
68.712502 52.230301 -733.467224
68.706802 40.901199 -720.844482
68.703796 62.793201 -740.337891
68.699203 54.653900 -736.473328
68.696602 59.676399 -739.086121
68.690300 41.863800 -719.770325
68.687897 53.116699 -730.189270
68.686699 56.701801 -737.892883
68.683296 38.444801 -723.890625
68.683098 52.513699 -734.402405
68.681801 40.035702 -722.142822
68.677696 64.543404 -740.994873
68.672798 53.382301 -731.265991
68.671898 54.566898 -729.265808
68.660896 55.200802 -733.127014
68.645401 41.714199 -720.534119
68.644096 53.589600 -732.043396
68.642097 51.131599 -729.996277
68.638901 53.517799 -735.739319
68.638603 59.009899 -738.844727
68.631203 67.019402 -742.093811
68.622398 38.722698 -723.563782
68.618896 57.332901 -738.257080
68.615196 51.292999 -730.644775
68.610603 39.480598 -721.461975
68.603996 56.390900 -728.548523
68.597099 53.857899 -735.585205
68.596497 40.174999 -721.730286
68.589897 68.564598 -742.678711
68.584801 42.607300 -718.819214
68.582802 54.041401 -729.448120
68.576698 62.417099 -740.086609
68.575699 64.068604 -740.799011
68.573601 67.950996 -742.854309
68.566704 58.447899 -738.613525
68.566597 66.169800 -741.690918
68.563698 53.244999 -731.616577
68.561401 61.534599 -739.787720
68.557198 40.924500 -721.246826
68.556503 53.168800 -730.966370
68.555603 53.383099 -729.908020
68.550598 55.770599 -728.733521
68.549797 56.299999 -737.806030
68.549202 38.788898 -722.787292
68.546097 39.205299 -722.207703
68.545403 67.794601 -742.500916
68.542702 51.222698 -731.381592
68.542099 55.889198 -737.406677
68.541000 54.956799 -729.184204
68.540802 51.380001 -732.323975
68.536400 55.129101 -732.739502
68.533302 52.234100 -733.845886
68.528603 54.230801 -736.107727
68.528099 65.532600 -741.418884
68.527603 42.028400 -719.429871
68.524902 41.248100 -720.761780
68.520599 39.645901 -721.037292
68.518600 51.857300 -733.212280
68.513199 53.110600 -735.201172
68.512398 39.830200 -721.602112
68.512100 63.156502 -740.424927
68.508202 40.040401 -720.559509
68.508003 54.352901 -732.437317
68.504097 51.049000 -731.005310
68.503899 40.589600 -721.034485
68.499001 51.204399 -731.763306
68.498703 60.995201 -739.577026
68.497803 51.655499 -732.641785
68.497200 52.902100 -730.643982
68.496399 39.157799 -722.610779
68.494698 38.952099 -723.252075
68.492897 60.369301 -739.301086
68.489601 42.097698 -719.019714
68.487602 40.033501 -721.210327
68.487099 42.448700 -719.306702
68.481499 40.535599 -720.588318
68.475197 67.463699 -742.331482
68.469101 53.695801 -729.683289
68.462898 58.097198 -738.469604
68.460701 59.409901 -738.944580
68.457298 53.827702 -736.018677
68.451500 42.136902 -719.872375
68.450500 59.976601 -739.128601
68.449097 61.896900 -739.826721
68.448700 50.813301 -729.918823
68.445297 66.583900 -741.911987
68.444901 39.377300 -721.841675
68.444504 56.943199 -738.126221
68.443604 41.766602 -720.153809
68.440598 63.647301 -740.626587
68.435997 40.952000 -720.443176
68.419701 41.573101 -719.636902
68.419098 41.393700 -720.410095
68.414597 64.944801 -741.169312
68.413902 57.649502 -738.312622
68.411003 53.684799 -732.349670
68.410004 38.506901 -723.216919
68.401604 55.393200 -728.837280
68.401100 40.640099 -721.452087
68.394302 51.443401 -730.088013
68.389801 53.277901 -732.015381
68.389702 52.441399 -734.677673
68.382301 51.870701 -733.566528
68.382103 52.792702 -730.229675
68.379402 38.347599 -724.091614
68.378304 54.818600 -736.638428
68.377502 54.792900 -732.503479
68.374298 38.051399 -724.415771
68.370499 40.697498 -720.148010
68.370300 52.245098 -734.227112
68.369202 58.775700 -738.700073
68.362099 38.421799 -723.639404
68.361900 50.904598 -730.614014
68.361504 41.208000 -720.084717
68.361298 54.373600 -729.362000
68.359398 64.362602 -740.865479
68.359200 52.958401 -731.249695
68.352600 62.727699 -740.163330
68.351799 41.591999 -720.751587
68.332497 39.721401 -720.677429
68.329399 40.333401 -720.309998
68.324997 56.507702 -738.146118
68.324898 55.467098 -737.051575
68.323402 56.127499 -728.646606
68.321503 67.513901 -742.751709
68.317802 54.412201 -736.517578
68.317703 38.883099 -722.434998
68.311996 40.935501 -719.809021
68.310600 52.776501 -735.128784
68.310501 65.884499 -741.570374
68.308998 67.149696 -742.227783
68.305801 55.928902 -729.116394
68.302597 60.705101 -739.411682
68.296600 53.121799 -729.992981
68.295601 65.284401 -741.272827
68.293900 68.182503 -742.634583
68.288399 42.355900 -718.778809
68.267998 41.159000 -721.104187
68.266098 53.552200 -735.737915
68.265297 52.932899 -731.658508
68.264099 53.276100 -735.471680
68.263100 61.340698 -739.652710
68.262001 41.223598 -719.581116
68.261902 57.267101 -738.137817
68.261597 62.174500 -739.987976
68.256599 59.136299 -738.768188
68.255898 51.889301 -733.925476
68.255501 40.093800 -721.924377
68.252998 41.627300 -719.127197
68.250801 51.100201 -732.046021
68.242599 38.594200 -722.891785
68.238998 54.613701 -729.084595
68.234596 42.740799 -719.082825
68.233597 55.649200 -737.361816
68.233299 51.260201 -732.596924
68.233200 56.071201 -737.824402
68.231697 39.394798 -721.490784
68.229797 40.388901 -721.671997
68.229500 52.764599 -730.911682
68.221397 53.981499 -729.377319
68.220100 53.394600 -729.668030
68.219498 50.775799 -730.297729
68.218498 54.938702 -732.937378
68.213501 63.939400 -740.635498
68.208603 42.848598 -718.712219
68.205299 39.971001 -720.351013
68.199303 66.806900 -742.086609
68.195099 55.050098 -728.972595
68.194702 66.250198 -741.791199
68.192398 41.943901 -718.784790
68.190102 50.749298 -731.165283
68.186203 38.184601 -723.240295
68.184502 53.353001 -732.325317
68.183601 58.393799 -738.478210
68.183403 39.028500 -722.042114
68.177200 54.127800 -736.203613
68.174004 42.261002 -719.174072
68.168503 50.840599 -731.647278
68.166100 51.181499 -729.876770
68.162804 39.713402 -721.104004
68.160599 40.370899 -719.976501
68.157997 52.647499 -730.496277
68.154404 59.793800 -738.994385
68.153702 60.291199 -739.148315
68.153198 63.068401 -740.324829
68.148499 40.588902 -719.669678
68.147003 50.705101 -729.730896
68.130203 55.834400 -728.794373
68.126503 54.585098 -732.744507
68.124199 67.588799 -742.430420
68.122200 37.598400 -724.836487
68.121300 38.094799 -723.844421
68.115097 61.701801 -739.676208
68.112701 56.905899 -737.915894
68.112701 40.872601 -721.351624
68.111000 52.197498 -734.518188
68.110901 58.043800 -738.331604
68.107201 51.279400 -732.957886
68.091698 64.782799 -741.037476
68.091301 63.458302 -740.484619
68.088203 39.611698 -720.420471
68.084198 50.634998 -730.827820
68.066902 37.943802 -724.197388
68.064201 51.872501 -734.252197
68.060699 57.698601 -738.179626
68.058998 61.037498 -739.479980
68.057503 54.989399 -736.826904
68.057297 65.584999 -741.427612
68.056999 52.991699 -732.052612
68.056396 52.968201 -735.440979
68.056198 52.648300 -730.093018
68.053101 52.466000 -734.890686
68.048897 67.110497 -742.529419
68.047600 54.283501 -729.177124
68.046997 54.625599 -732.342896
68.043602 62.495098 -740.028870
68.043503 56.436600 -737.848083
68.042999 52.630199 -731.245483
68.041199 40.903000 -719.389893
68.041000 39.774300 -720.050903
68.037598 53.657600 -729.405884
68.031799 41.314800 -719.219177
68.028397 50.767601 -732.043030
68.022202 58.895599 -738.607422
68.021202 37.842098 -724.552307
68.020599 53.062901 -729.738586
68.017601 42.211498 -718.526978
68.016701 55.297298 -737.189209
68.016701 38.775200 -722.638977
68.003502 53.586899 -736.003723
67.997002 64.231400 -740.778076
67.994698 39.264500 -721.760071
67.989601 52.433498 -730.781372
67.981300 51.298801 -733.318726
67.976196 52.585201 -731.657288
67.975700 38.328400 -723.526123
67.974297 55.391201 -728.827820
67.974197 55.692299 -737.648010
67.973801 41.641201 -718.711670
67.970299 60.622398 -739.218811
67.969498 67.838501 -742.671387
67.968697 39.494701 -720.853821
67.967697 52.198002 -730.322876
67.963799 39.290501 -721.179077
67.955002 40.061100 -719.750916
67.953598 50.416000 -730.514587
67.941101 65.192902 -741.208130
67.941101 43.176998 -718.854675
67.937599 59.436600 -738.799316
67.932800 37.432201 -725.127319
67.931099 66.531799 -742.010071
67.926903 55.689899 -729.131287
67.919403 65.931198 -741.535522
67.916298 50.364498 -729.626404
67.915703 42.627399 -718.650085
67.915497 38.821602 -722.269714
67.914200 50.549000 -730.059326
67.909599 62.113400 -739.813782
67.907898 37.771801 -723.814819
67.906799 40.439602 -719.414917
67.906197 39.366402 -719.971619
67.905800 54.786400 -728.975586
67.905800 39.647999 -719.703125
67.901901 61.396099 -739.570984
67.901901 57.353001 -738.017822
67.900299 50.377998 -731.405273
67.896400 52.730099 -735.148682
67.893700 38.277901 -722.955017
67.890099 39.239399 -720.381592
67.881302 62.884300 -740.128418
67.880699 56.065399 -737.607605
67.871300 50.877300 -732.418396
67.868202 39.912701 -719.320679
67.865196 53.171001 -735.700928
67.863297 40.997398 -718.984009
67.862297 39.041599 -721.444397
67.855003 54.301300 -736.400818
67.850899 63.737701 -740.569580
67.849197 60.124699 -739.017517
67.848801 53.359100 -729.594971
67.848297 53.069901 -732.361694
67.845901 52.654900 -729.747925
67.837997 50.428799 -731.781372
67.833099 51.305801 -733.668274
67.832603 40.175201 -718.998901
67.831398 38.971001 -721.936279
67.828201 58.584801 -738.450378
67.824699 66.984100 -742.255188
67.824699 54.254002 -732.739319
67.822098 50.262501 -731.018311
67.814301 40.581501 -718.900024
67.806099 52.339100 -731.353577
67.804001 51.818501 -734.545898
67.803200 66.208099 -741.865601
67.794601 41.283600 -718.676697
67.790398 39.157902 -720.879089
67.782402 37.646702 -724.241821
67.780197 53.926800 -729.255676
67.779404 38.006699 -723.460388
67.779297 52.636299 -732.052673
67.776398 52.133900 -734.771790
67.775002 55.003101 -737.083191
67.774696 63.206501 -740.330322
67.773697 64.478699 -740.945923
67.772598 53.817902 -736.194885
67.769798 59.753700 -738.895630
67.767899 41.815800 -718.419373
67.765800 38.417801 -722.559692
67.763802 39.434399 -719.409119
67.763000 67.381699 -742.359985
67.761803 42.427601 -718.318726
67.759499 52.424099 -730.080078
67.759300 50.760799 -729.714417
67.758301 54.729500 -736.829224
67.758301 37.493599 -724.784912
67.754601 54.362000 -732.331970
67.750397 52.141499 -730.626099
67.742996 60.893101 -739.347229
67.741501 50.904099 -732.806824
67.738098 40.877701 -718.587524
67.736198 57.908100 -738.227417
67.733398 56.764999 -737.798828
67.730698 43.007301 -718.551575
67.730598 66.603500 -742.518921
67.723801 39.003201 -719.726013
67.720497 54.465401 -729.055481
67.711403 40.309299 -718.602173
67.710297 50.115398 -730.551514
67.710098 64.851700 -741.078918
67.703102 52.321098 -731.760925
67.701500 39.626900 -719.024780
67.699303 65.574402 -741.330994
67.698502 61.749500 -739.664917
67.698402 43.404301 -718.633484
67.694801 55.377899 -737.580322
67.693901 37.130100 -725.306396
67.691498 38.823101 -720.404419
67.691200 50.215500 -730.110718
67.689102 51.315300 -734.020020
67.686996 59.136299 -738.636475
67.682297 52.993698 -729.593384
67.679398 56.389999 -737.634888
67.674896 55.597599 -728.714783
67.670700 51.864300 -730.299011
67.670700 55.145000 -728.947510
67.669502 52.811798 -735.506226
67.668098 50.429901 -732.148010
67.664101 53.416500 -735.971191
67.663200 38.539200 -722.156677
67.659203 64.036499 -740.686218
67.658699 39.912498 -718.731079
67.656403 62.500801 -739.972229
67.650002 38.827099 -721.129883
67.645798 41.381199 -718.347717
67.644798 52.099400 -731.010498
67.642700 60.469501 -739.139221
67.635300 50.113701 -729.485779
67.634697 55.796398 -737.458618
67.627899 42.106899 -718.118286
67.622902 50.070400 -731.470093
67.618797 40.636200 -718.322327
67.617401 39.056198 -720.088196
67.615898 38.620201 -721.736206
67.615700 50.816200 -733.154785
67.615601 53.529900 -729.297729
67.608803 39.187302 -719.086670
67.608299 38.215599 -723.197327
67.605103 66.438904 -742.183777
67.602798 58.319698 -738.320129
67.600800 52.434101 -735.074402
67.599297 55.522999 -729.270874
67.594902 52.042599 -731.424377
67.590202 65.730698 -741.653687
67.585602 42.749599 -718.215820
67.584297 49.972801 -731.085815
67.581100 38.853298 -720.763672
67.570503 57.606300 -738.055786
67.560997 51.584301 -734.389404
67.559898 41.007500 -718.176819
67.557999 52.210300 -729.775818
67.554497 50.456501 -732.517273
67.550003 53.972500 -732.714722
67.545898 61.326302 -739.453796
67.532204 54.487099 -736.643982
67.524399 57.236099 -737.894409
67.523102 50.959202 -733.508606
67.520599 59.493000 -738.741577
67.516701 54.807899 -729.001221
67.514297 62.966702 -740.115417
67.514000 51.832699 -730.732178
67.513000 65.188698 -741.254517
67.512604 63.596001 -740.488403
67.509201 58.796902 -738.489929
67.508698 37.853401 -723.756714
67.505600 66.904999 -742.452820
67.505402 50.096199 -731.842896
67.504997 43.254299 -718.340515
67.502899 55.283001 -737.252808
67.502403 52.375401 -732.155273
67.500900 43.753201 -718.736511
67.499199 41.695499 -718.032227
67.498497 38.461399 -721.196106
67.485703 54.135799 -732.214417
67.483902 40.282398 -718.238770
67.481400 54.166199 -729.155579
67.481300 38.528400 -720.283813
67.479301 60.016701 -738.915527
67.478203 49.858002 -730.340271
67.476196 39.144699 -719.449707
67.474297 39.542900 -718.702271
67.469299 52.564800 -729.696289
67.463303 50.552799 -729.524719
67.461700 37.033501 -725.581421
67.459297 62.101200 -739.732483
67.458397 51.924198 -734.726379
67.458000 52.050301 -731.827271
67.457703 53.140499 -735.707825
67.457100 37.242001 -725.016724
67.457001 38.074902 -722.831970
67.456398 42.450901 -717.931396
67.454803 54.902199 -737.271973
67.454201 37.453800 -724.492676
67.453102 50.489799 -732.892517
67.443497 38.462700 -720.738586
67.439697 39.844101 -718.422974
67.438400 66.050201 -741.903625
67.437599 54.085098 -736.330627
67.424103 51.509201 -730.274170
67.421204 50.027100 -729.781128
67.417000 55.447300 -728.945618
67.415298 39.474300 -719.243225
67.409500 51.967999 -730.034729
67.407799 37.672600 -724.189026
67.407204 51.249599 -734.304504
67.406799 49.726799 -730.819824
67.405502 64.304100 -740.799988
67.403198 54.609901 -737.001526
67.401901 53.658501 -736.205322
67.401299 56.182701 -737.470276
67.399498 41.265800 -717.917908
67.398804 38.198601 -722.391296
67.398399 38.277500 -721.955200
67.397400 53.204601 -729.380981
67.396500 40.609501 -718.023621
67.391800 49.780102 -731.353699
67.389900 38.700298 -719.961426
67.389397 43.723900 -718.140930
67.386597 37.974998 -723.395630
67.385498 60.865700 -739.206177
67.378998 42.847301 -717.910583
67.374603 50.117401 -732.221924
67.367302 57.961399 -738.093018
67.363197 64.752800 -740.934814
67.359901 38.341900 -721.570190
67.356201 50.851002 -733.874512
67.355202 52.596500 -735.328674
67.352798 56.642700 -737.626099
67.351898 61.642700 -739.553711
67.347198 55.118801 -729.160522
67.341499 66.759697 -742.150085
67.340698 41.911201 -717.765076
67.338898 43.711399 -717.729614
67.336304 65.464500 -741.540527
67.334396 40.889301 -717.740295
67.332199 59.139198 -738.528625
67.330597 53.780998 -729.223206
67.329102 38.167801 -720.419006
67.328697 38.570000 -719.552612
67.327797 50.509899 -733.255371
67.324699 51.661701 -731.151794
67.324501 66.061996 -742.309204
67.316498 38.893299 -719.221985
67.308098 36.789600 -725.838196
67.307800 63.306099 -740.244080
67.302803 39.088799 -718.841370
67.296501 60.388401 -739.015015
67.295700 50.119400 -729.227478
67.294800 55.089100 -728.707214
67.291901 58.527802 -738.323120
67.288002 63.907101 -740.564880
67.287498 49.720402 -729.465881
67.286400 44.064899 -717.951721
67.285004 50.157398 -732.603577
67.283501 55.595901 -737.326172
67.282501 41.535400 -717.671814
67.282204 62.500301 -739.917419
67.279503 52.032101 -735.063599
67.278000 49.581299 -729.894470
67.277397 38.196499 -721.039001
67.269096 51.609402 -731.565125
67.266998 57.005699 -737.748291
67.261398 54.229401 -736.705627
67.260201 43.341702 -718.009277
67.257004 49.543201 -730.503174
67.251900 42.588299 -717.648682
67.247101 54.488899 -729.074219
67.246399 65.763702 -742.091919
67.246002 53.299599 -736.023621
67.243103 49.838501 -731.953003
67.238297 44.094101 -717.580322
67.236397 38.277302 -719.977295
67.229301 37.220699 -725.332275
67.227699 40.051498 -718.094727
67.219803 53.990601 -732.528503
67.217796 37.543999 -723.872620
67.209297 51.588902 -734.573975
67.208801 57.608101 -737.899475
67.207901 50.532799 -733.620728
67.205704 37.967899 -722.040527
67.201797 52.806999 -729.509399
67.199501 43.929199 -718.388123
67.195503 59.757801 -738.772888
67.191399 39.478100 -718.439819
67.190399 51.366600 -730.539001
67.187798 52.211700 -729.750916
67.180298 61.242001 -739.299927
67.179001 52.899399 -735.643494
67.174599 50.186001 -732.974487
67.169800 42.153099 -717.526611
67.168503 64.997803 -741.210327
67.162804 51.873901 -732.048218
67.152000 38.024502 -721.351013
67.143799 51.625900 -730.034729
67.143402 37.180698 -724.741516
67.142601 37.959900 -723.041687
67.140297 62.879601 -740.080627
67.140297 42.964699 -717.643494
67.135002 37.679100 -723.358276
67.133904 53.886902 -736.467224
67.133102 55.074001 -737.099609
67.131699 36.880901 -725.501526
67.126900 40.383202 -717.861572
67.123199 63.625999 -740.369385
67.121002 61.946999 -739.550781
67.116096 38.012501 -720.714722
67.113297 37.467400 -724.284485
67.112099 49.412399 -730.185181
67.110703 38.612900 -719.068115
67.108902 37.870899 -722.395081
67.096497 56.399799 -737.475525
67.086304 54.119099 -729.133484
67.083504 58.258099 -738.163391
67.080399 55.998600 -737.355408
67.079597 39.405399 -718.825317
67.077103 60.699799 -739.025391
67.074402 50.220001 -733.350098
67.071602 51.075298 -730.299072
67.067596 36.621300 -726.155029
67.066803 58.862999 -738.397705
67.066299 50.893200 -734.105530
67.065201 66.360802 -742.055786
67.061897 53.376499 -729.273926
67.061302 64.475502 -740.920288
67.060799 49.859901 -729.066101
67.059601 41.730801 -717.450073
67.056503 43.597401 -717.487671
67.050598 59.404499 -738.570190
67.045700 55.366299 -728.924072
67.043404 49.360500 -731.049011
67.042000 54.977798 -729.002502
67.040199 49.911701 -732.740173
67.037102 65.636803 -741.801025
67.036797 51.278500 -734.440613
67.034401 41.128700 -717.539978
67.031998 52.260399 -735.352417
67.030701 65.202202 -741.520813
67.029900 38.624100 -719.788025
67.023903 37.819801 -721.668579
67.023300 49.699699 -732.260498
67.018799 37.976200 -720.292725
67.014397 37.754002 -721.050720
67.013100 64.123497 -740.733215
67.010696 60.098598 -738.814819
67.009903 51.324501 -731.176514
67.006599 57.282902 -737.757324
67.005997 54.649399 -737.174377
67.003098 39.860001 -718.400330
67.000198 62.271999 -739.716919
66.997803 49.427502 -731.450500
66.995102 42.573799 -717.377319
66.991096 51.445702 -731.853516
66.987503 39.140400 -718.564087
66.987099 49.250301 -729.810181
66.987099 49.504002 -729.510681
66.978104 44.225899 -717.346313
66.977699 55.447399 -737.081116
66.974503 53.836601 -732.800781
66.974403 37.671299 -722.713013
66.973000 38.400299 -719.441528
66.970901 38.785999 -719.455872
66.966904 39.063400 -719.138611
66.966797 56.773701 -737.563171
66.960701 49.236301 -730.631287
66.960602 52.485001 -729.543030
66.959396 51.782902 -734.937012
66.959297 53.710499 -732.254028
66.959099 54.420799 -736.823914
66.952797 50.481998 -733.919983
66.952797 51.920898 -729.765930
66.950996 36.959499 -725.146179
66.943802 40.640301 -717.624817
66.940201 53.579201 -736.305420
66.937798 63.192699 -740.151489
66.936600 57.882198 -738.013184
66.931900 36.693001 -725.783508
66.929199 40.259602 -718.244080
66.926804 53.086800 -735.952881
66.924896 37.631401 -722.122620
66.917999 66.031799 -741.935425
66.917900 65.317398 -742.056274
66.917397 42.057701 -717.225586
66.912903 43.199402 -717.392273
66.908798 61.539902 -739.381104
66.905800 37.495098 -723.607300
66.905701 49.474098 -731.846375
66.902199 37.550800 -723.087097
66.902000 51.336800 -730.034912
66.901703 38.269100 -719.802002
66.900398 61.021000 -739.159790
66.891403 62.625401 -739.909485
66.884499 53.786800 -729.206116
66.877403 52.995300 -729.374817
66.873199 51.103901 -731.461426
66.863403 64.762398 -741.157104
66.861298 52.702099 -735.589417
66.857002 54.659901 -729.078674
66.853302 54.934799 -729.336182
66.850403 36.358299 -726.486816
66.848701 40.041100 -717.906921
66.846703 50.717499 -730.272827
66.846100 63.802700 -740.599670
66.845001 37.166100 -724.434082
66.841797 49.794899 -733.107422
66.836304 50.166100 -733.725403
66.832802 37.334099 -724.059875
66.832298 59.723598 -738.618774
66.821602 39.476398 -718.495728
66.820000 37.478401 -721.309814
66.812103 49.100101 -730.285828
66.808601 60.400799 -738.893494
66.807800 43.682098 -717.169495
66.807701 39.685398 -718.130493
66.807098 58.589100 -738.228027
66.787697 51.465698 -734.778687
66.787003 49.357800 -732.199219
66.782997 57.583000 -737.843628
66.782204 41.406799 -717.296387
66.779198 53.784401 -736.726074
66.771202 51.009499 -734.503784
66.769096 51.288399 -732.122803
66.764999 49.649502 -729.213318
66.758698 59.188801 -738.404114
66.749802 56.266998 -737.358582
66.749702 49.562199 -732.560425
66.748802 37.936001 -720.713379
66.747902 54.891602 -736.907471
66.747498 63.472698 -740.352478
66.737099 65.143997 -741.767883
66.736504 52.158298 -729.577087
66.727203 42.446301 -717.152527
66.725899 49.186600 -729.454285
66.725197 36.915699 -725.559998
66.724602 51.596699 -729.774719
66.724403 62.042099 -739.596619
66.722603 38.709000 -719.141418
66.721703 39.110298 -718.820618
66.721497 37.458801 -721.765625
66.719398 64.307098 -740.978027
66.717598 50.644299 -734.241516
66.712601 36.724899 -726.089478
66.710297 54.140400 -736.926025
66.709198 40.882301 -717.463684
66.707901 55.874802 -737.189880
66.705399 37.409599 -722.380615
66.705399 42.809101 -717.240479
66.698303 36.963299 -724.859619
66.696999 53.610901 -732.540283
66.692902 48.921299 -730.953125
66.691597 49.800800 -733.458130
66.689796 37.377602 -722.820618
66.689301 54.202702 -729.150879
66.688599 37.326199 -723.342407
66.686401 58.265701 -738.073914
66.683899 57.096699 -737.643188
66.677498 38.097301 -720.208374
66.676102 53.317200 -729.293579
66.673798 40.434399 -717.816895
66.672302 50.985699 -730.029419
66.668999 65.640404 -741.726196
66.660500 64.932404 -741.464783
66.649597 48.990398 -731.355774
66.649399 49.442299 -732.898682
66.648903 37.693501 -721.059021
66.646500 48.799801 -729.813477
66.645401 60.743500 -738.908508
66.644897 55.134300 -728.975403
66.639000 53.293800 -736.285400
66.635399 51.969700 -735.170471
66.629097 44.136200 -717.199829
66.626503 50.923698 -731.776184
66.622902 52.704498 -729.422424
66.622704 55.363400 -737.019226
66.622704 38.513901 -719.629822
66.622200 63.000301 -739.994690
66.620399 60.062199 -738.686218
66.619499 56.687199 -737.448181
66.617798 62.418701 -739.721619
66.617401 61.340099 -739.255127
66.609497 37.232800 -723.711914
66.606697 36.792301 -725.186584
66.606598 41.733101 -717.146179
66.595497 50.722099 -731.369385
66.594200 50.338299 -733.974182
66.591301 48.787701 -730.531982
66.591202 52.872501 -735.927673
66.590897 52.353500 -735.579712
66.583603 49.049400 -731.755676
66.583099 36.566299 -725.745117
66.580498 50.371601 -730.273376
66.578102 54.511501 -736.802795
66.575500 39.767300 -718.446716
66.570396 36.043900 -726.746826
66.570198 43.177700 -717.170105
66.565201 64.130699 -740.633118
66.558098 36.218800 -726.303284
66.548897 58.873501 -738.238403
66.548103 39.458302 -718.757874
66.544800 42.110401 -717.081787
66.536003 57.869598 -737.903320
66.532700 49.974400 -733.824280
66.530998 37.056198 -721.865295
66.527100 38.165199 -719.776611
66.519501 53.703499 -729.262695
66.519096 53.616100 -736.493774
66.515198 59.573002 -738.434326
66.514099 64.573700 -741.202881
66.513397 49.456200 -733.257080
66.512703 37.066898 -724.290894
66.504097 49.155201 -732.398376
66.503700 54.895000 -729.588623
66.498596 54.753700 -729.126587
66.488899 48.657902 -731.125183
66.488197 40.182499 -718.062012
66.480797 63.757801 -740.542114
66.479897 51.160500 -734.696228
66.477097 49.342499 -729.151123
66.474297 61.035198 -739.072021
66.472000 39.115501 -719.105286
66.470596 51.836201 -729.585815
66.468399 51.264099 -729.784119
66.466103 37.269798 -721.509888
66.464401 63.291599 -740.166382
66.463898 48.915100 -729.436218
66.461304 37.169899 -722.556580
66.456100 48.728401 -731.533203
66.455597 61.871300 -739.366089
66.454002 39.799000 -718.097778
66.451797 37.807201 -720.100098
66.450104 57.466702 -737.698486
66.448097 37.867802 -720.479675
66.440201 43.594398 -717.111389
66.430199 37.149899 -723.001099
66.428200 60.461899 -738.733093
66.425598 39.381500 -718.357483
66.424400 54.025101 -736.702271
66.424301 65.277603 -741.617615
66.420799 38.768799 -719.398987
66.415802 48.813702 -732.028076
66.410103 52.388199 -729.447571
66.409203 55.666698 -737.032104
66.405098 50.687500 -730.005676
66.404503 48.633701 -730.181030
66.401398 64.664200 -741.554382
66.395401 41.268101 -717.306519
66.392502 56.255199 -737.247986
66.392403 58.494900 -738.055115
66.389702 42.727001 -717.038696
66.384804 37.108200 -723.407593
66.383301 36.897099 -724.635071
66.380402 50.797901 -734.476379
66.380096 37.370399 -721.163086
66.379303 48.538700 -729.656006
66.378601 55.068501 -736.887207
66.369698 62.740601 -739.815674
66.367897 49.617298 -733.563721
66.367798 44.304100 -716.953186
66.367302 40.727402 -717.572510
66.363800 36.559399 -726.130676
66.357697 53.009399 -736.262878
66.356400 53.282902 -736.580017
66.351898 53.061798 -729.348877
66.351196 37.043400 -723.930725
66.350098 54.108002 -729.312988
66.349899 48.920300 -732.679871
66.348503 56.990398 -737.489197
66.347900 54.402599 -729.631287
66.343498 59.202499 -738.262329
66.336403 51.499699 -734.952515
66.336098 53.182999 -732.254578
66.327904 36.640099 -725.385071
66.320099 52.642399 -735.774475
66.319298 50.034698 -730.243530
66.319099 64.170403 -740.982117
66.319000 53.106499 -732.650085
66.317703 62.165600 -739.566528
66.316902 36.849800 -722.293884
66.308296 50.254601 -734.201904
66.307800 35.818901 -726.910828
66.306198 36.924900 -725.010681
66.302902 36.299999 -726.622192
66.296898 59.894901 -738.491577
66.285400 49.138199 -728.901672
66.282997 48.395599 -730.742188
66.277901 54.459000 -729.032471
66.276001 37.617500 -720.809021
66.264999 61.518799 -739.249329
66.262802 54.664501 -736.636902
66.253403 44.490799 -717.335388
66.252998 38.450802 -719.719421
66.251999 41.842800 -717.116089
66.249603 52.205101 -735.586670
66.244904 36.355900 -725.732727
66.244797 43.065601 -716.975220
66.242699 56.606998 -737.255920
66.242104 51.536499 -729.633972
66.241699 38.207802 -720.042603
66.239700 51.923901 -735.247925
66.228302 60.777302 -738.880127
66.225700 58.152199 -737.922913
66.225098 49.181499 -733.373779
66.224800 42.322102 -717.003601
66.219902 48.937801 -733.042480
66.213699 48.722099 -732.367126
66.213303 39.616600 -718.596313
66.205101 39.960899 -718.355286
66.204201 63.566399 -740.386719
66.202499 36.977299 -722.751526
66.197502 36.126301 -726.281372
66.197098 64.938103 -741.393494
66.196899 43.889198 -716.895325
66.195000 58.834400 -738.109985
66.194504 50.932598 -729.800293
66.194504 39.228401 -718.851379
66.182503 64.436501 -741.328918
66.180901 53.453999 -729.322815
66.178703 52.095299 -729.461670
66.175102 63.868801 -740.749817
66.175102 49.800400 -733.910278
66.174004 53.819401 -736.447876
66.172600 54.881699 -729.289124
66.172401 37.131699 -721.985413
66.165298 48.298698 -730.099915
66.152802 59.533600 -738.258423
66.151802 57.804401 -737.748596
66.150002 36.924000 -723.163574
66.146400 48.938301 -729.197815
66.140602 37.087799 -721.568115
66.140404 57.313202 -737.557800
66.137398 52.690601 -736.163391
66.134399 50.963699 -734.739685
66.133797 36.893501 -723.602478
66.132599 48.230400 -729.669495
66.132004 52.710701 -729.384521
66.122498 43.480099 -716.934692
66.117302 48.276001 -731.218384
66.115799 36.830399 -724.387817
66.115601 63.133202 -740.151306
66.113403 48.596901 -729.383972
66.101898 49.744499 -730.319702
66.100403 37.963299 -720.316406
66.097099 35.915600 -726.596313
66.096497 50.321400 -729.967773
66.093102 41.523300 -717.346924
66.092903 55.439899 -736.909912
66.088402 39.062199 -719.299011
66.080902 60.240101 -738.543091
66.080002 56.093800 -737.110291
66.079697 54.446201 -729.350525
66.079201 48.366901 -731.704285
66.075996 53.423100 -736.330078
66.070602 40.299900 -717.945679
66.070198 36.731998 -724.757324
66.068604 48.452000 -732.111206
66.067497 61.174999 -739.042175
66.065498 44.591599 -717.656372
66.064598 50.484100 -734.427795
66.056297 40.980801 -717.480896
66.055603 35.567699 -727.068787
66.045601 52.930199 -732.396301
66.044296 61.930500 -739.410522
66.043297 40.749100 -717.770630
66.040604 55.073200 -736.735291
66.040398 49.407902 -729.101074
66.038696 48.097099 -730.554321
66.035301 54.176601 -736.502625
66.033302 62.558800 -739.715027
66.032898 51.270901 -734.931580
66.026703 51.513401 -735.225281
66.024200 42.764500 -716.912476
66.012398 58.502399 -737.942810
66.010902 37.441898 -721.032593
66.005699 56.905998 -737.372925
66.002602 38.732201 -719.602783
66.000504 54.112900 -729.171387
65.996803 48.545898 -732.674316
65.996597 36.160301 -725.948181
65.987503 36.617699 -722.804382
