46.570202 44.650799 -749.876526
46.566399 216.622604 -786.085388
46.565701 44.094398 -748.486511
46.564999 46.823898 -754.224915
46.556301 185.033997 -769.852722
46.554798 178.319199 -764.180298
46.546799 45.435699 -751.649597
46.546101 53.631100 -765.560486
46.537102 177.666702 -763.458801
46.532200 177.626495 -760.656372
46.518799 177.331100 -762.491882
46.514500 42.070099 -746.357117
46.513901 184.723694 -771.364624
46.506100 205.527405 -781.301880
46.505501 188.263397 -772.697693
46.492901 42.993401 -747.427429
46.488998 54.166199 -766.456726
46.483898 181.657501 -767.230530
46.477100 177.760605 -758.131714
46.464001 177.583893 -759.778687
46.462700 212.268204 -783.325989
46.454102 182.973206 -768.415771
46.441898 184.175507 -769.447327
46.430000 204.793594 -780.868896
46.429699 47.600300 -756.622375
46.395599 51.118099 -761.670471
46.392700 191.269608 -774.047607
46.385601 195.838394 -776.800476
46.382900 176.768402 -761.784424
46.365299 208.334702 -782.225281
46.358601 46.644699 -755.073303
46.346100 185.289505 -770.701782
46.343700 207.038605 -781.790222
46.342899 218.812103 -787.452026
46.342701 199.588806 -778.504883
46.337399 217.570496 -786.617920
46.337200 48.843601 -758.396790
46.322201 213.453094 -783.899902
46.318401 196.991806 -777.421814
46.317200 176.548294 -762.804077
46.313900 187.205093 -772.311279
46.311001 49.798801 -759.913818
46.309700 176.843002 -760.929321
46.308498 52.065300 -763.275513
46.306099 177.168198 -758.860229
46.300701 194.696198 -776.290405
46.295898 178.996994 -765.464417
46.292000 44.021801 -749.305420
46.289902 44.654701 -750.971680
46.289600 180.821899 -766.993591
46.289101 179.774704 -766.132324
46.272598 50.534401 -761.041992
46.265800 43.802299 -750.183716
46.262299 45.642700 -752.948486
46.253300 183.412506 -770.849487
46.251598 203.712204 -780.433716
46.233700 192.567795 -775.057617
46.226898 178.237000 -764.984070
46.224800 176.853806 -763.653076
46.224701 46.040001 -753.879883
46.222099 43.314999 -748.358582
46.219002 190.380295 -773.648071
46.215698 52.950600 -764.891785
46.209801 184.403198 -770.541626
46.206100 177.563705 -764.355286
46.200100 202.203796 -779.758179
46.197498 181.865906 -768.009827
46.193600 177.322098 -757.380310
46.190701 219.667603 -788.333313
46.188400 176.790695 -760.062927
46.187801 183.396103 -769.148987
46.187698 175.916000 -761.907227
46.179600 45.694401 -755.228271
46.172001 214.089005 -784.557983
46.164398 210.247406 -782.601318
46.130501 54.080002 -767.246521
46.120602 47.900299 -757.406189
46.119301 49.081501 -759.291626
46.113300 198.753098 -778.161316
46.098099 186.303802 -771.938171
46.095501 42.284599 -747.134216
46.095402 215.419800 -785.110718
46.066898 175.735794 -760.927490
46.062801 209.291199 -782.347717
46.051998 175.728806 -762.893188
46.050999 176.757599 -758.040710
46.039902 51.366299 -762.447327
46.034698 183.652496 -769.999023
46.028599 176.392395 -759.102417
46.019001 201.255295 -779.335388
46.007301 181.038406 -767.768982
46.006302 206.225296 -781.377991
45.992599 41.132999 -746.054993
45.992001 189.476700 -773.310791
45.991001 182.451004 -770.544922
45.976002 211.639297 -782.880798
45.973400 53.497002 -766.351685
45.971401 175.091507 -761.841614
45.966801 182.461304 -768.977478
45.949600 42.593601 -747.976013
45.949200 185.535995 -771.472900
45.948200 216.267303 -785.554382
45.935398 176.755493 -764.473572
45.931301 176.010101 -763.698303
45.929298 43.240501 -749.303772
45.923599 52.193901 -764.077820
45.923500 200.327896 -778.883179
45.923302 178.984604 -766.233826
45.922401 46.906300 -756.364807
45.918400 197.665802 -777.804016
45.914902 179.711502 -766.916870
45.910999 49.773899 -760.675415
45.905602 175.769104 -759.990173
45.903702 44.566200 -751.800293
45.893799 177.474792 -765.166382
45.887501 45.083000 -754.671082
45.887199 193.929504 -775.979614
45.876900 212.916901 -783.328979
45.854599 48.081501 -758.240601
45.854301 178.174698 -765.766418
45.838001 217.102493 -786.020813
45.835899 174.842102 -762.692993
45.833302 191.610901 -774.737610
45.827099 182.851898 -769.763794
45.823299 174.569000 -761.179504
45.802299 202.970505 -780.028198
45.797699 44.883202 -752.777710
45.794800 50.490200 -761.852173
45.789398 41.523800 -746.890503
45.785000 52.913200 -765.629517
45.775600 43.927898 -750.909790
45.775398 218.214798 -787.099121
45.774700 45.181999 -753.633728
45.768600 176.463699 -757.156616
45.764099 174.890198 -760.330994
45.760201 181.537094 -768.719177
45.758598 187.871094 -772.521790
45.758499 174.093994 -761.881592
45.756199 188.693695 -772.926208
45.755600 193.050797 -775.620422
45.740398 181.921494 -769.900879
45.731499 196.371201 -777.219727
45.728600 207.651993 -781.802673
45.718899 190.792297 -774.265320
45.718201 42.555500 -748.817017
45.716301 214.834503 -784.514587
45.716000 46.218300 -755.771790
45.710098 175.505798 -759.031799
45.683701 205.341003 -781.007690
45.672600 174.952103 -763.576477
45.672001 204.346802 -780.613098
45.663200 175.724503 -758.170288
45.660500 195.215393 -776.766113
45.648102 48.308800 -759.099121
45.645699 214.004395 -783.858521
45.643398 180.050705 -767.689819
45.639702 175.914200 -764.517029
45.635502 51.396999 -763.289612
45.635300 180.929092 -769.942688
45.633801 173.994797 -760.538818
45.631001 173.330902 -761.249023
45.629501 184.040100 -771.141418
45.618000 173.933304 -762.769287
45.612999 41.684101 -747.717712
45.611401 48.888401 -760.034119
45.606400 40.171799 -745.787781
45.572201 44.464901 -754.136780
45.563900 52.261799 -764.925110
45.563301 43.135300 -750.139282
45.559898 176.696106 -765.251526
45.545799 52.705002 -766.431824
45.544701 178.872299 -767.029419
45.536098 210.854706 -782.745117
45.534302 174.727997 -759.503479
45.534302 47.252998 -757.438171
45.533798 180.719604 -768.465088
45.527699 173.154099 -762.151489
45.526798 177.410599 -765.950623
45.509899 208.591705 -782.019714
45.508499 199.394104 -778.513672
45.488499 183.176895 -770.559998
45.483799 40.745899 -746.669006
45.477901 187.057907 -772.247070
45.476299 179.955795 -769.575928
45.466702 178.119095 -766.541382
45.453098 50.716099 -762.694580
45.443901 189.851700 -773.919373
45.432201 212.349899 -782.835083
45.430801 173.754196 -759.735779
45.426701 172.455307 -761.101685
45.415199 209.849503 -782.316223
45.413502 173.107300 -760.406189
45.409199 175.668396 -757.305298
45.404400 49.578999 -761.420715
45.400101 51.570499 -764.330688
45.397202 192.336304 -775.328430
45.387100 201.972702 -779.589294
45.386902 41.788101 -748.594299
45.380299 44.105202 -752.797913
45.380001 174.152100 -763.805786
45.373901 184.859100 -771.376282
45.365101 215.885300 -784.902527
45.331902 198.294296 -778.131714
45.323799 175.123993 -764.637695
45.316700 174.556000 -758.606018
45.315899 179.245102 -767.774719
45.308800 206.776993 -781.452271
45.308498 172.263702 -762.091919
45.306702 47.407501 -758.324585
45.306400 173.030106 -762.999573
45.301201 43.933601 -751.861084
45.296501 46.569801 -756.845215
45.288700 38.889702 -745.475525
45.284100 185.976898 -771.818176
45.282200 45.327202 -755.231384
45.280800 217.634399 -786.429626
45.277199 194.422104 -776.429199
45.276001 40.805801 -747.534973
45.273300 175.852097 -765.299072
45.263199 40.938301 -748.432007
45.247002 172.197495 -760.254822
45.244400 171.500397 -760.763977
45.241001 52.227901 -765.751221
45.234402 200.805801 -779.112122
45.223400 179.905197 -768.563782
45.222599 42.460400 -749.569519
45.217602 189.095795 -773.568909
45.205601 172.887405 -759.578491
45.204498 213.440506 -783.226196
45.196701 43.040600 -750.967224
45.194401 178.761597 -769.160522
45.194199 176.632004 -766.035278
45.188900 48.605202 -760.792725
45.184299 197.041199 -777.624329
45.183102 49.806301 -762.263000
45.179901 171.306793 -761.684387
45.177299 175.046402 -757.843628
45.176899 50.828800 -763.726501
45.172901 47.919399 -759.741821
45.172901 39.936501 -746.515076
45.155800 177.856506 -768.996216
45.145500 211.635498 -782.408813
45.145199 216.707001 -785.726929
45.139000 173.561798 -758.867310
45.125198 43.481400 -753.684814
45.100300 51.532001 -765.198914
45.096901 188.204803 -773.241516
45.094299 182.404602 -770.387817
45.089500 195.796600 -777.140991
45.089500 173.307602 -763.834229
45.088299 178.059204 -767.322021
45.087799 170.656998 -760.970825
45.081402 177.363297 -766.744873
45.080299 193.462296 -776.050110
45.078899 172.191895 -762.943420
45.073898 203.493500 -780.223022
45.070400 45.915501 -756.255371
45.063202 191.130005 -774.866882
45.044899 205.893600 -781.130615
45.040600 170.977493 -760.123779
45.033600 214.778000 -783.978821
44.997799 171.900299 -759.417419
44.996101 37.636101 -745.476807
44.995300 174.101196 -764.577087
44.993099 173.946701 -758.071594
44.990200 50.818100 -764.576416
44.973801 39.989201 -747.440430
44.972000 170.057297 -760.355713
44.970600 181.470505 -770.075012
44.970600 46.649502 -757.739197
44.965099 171.181198 -762.534485
44.962700 200.044296 -778.839172
44.961201 50.139099 -763.210022
44.954300 43.313301 -752.402222
44.949402 204.811096 -780.758484
44.937698 170.411102 -761.818481
44.934299 175.073700 -765.407715
44.933399 187.397095 -772.839905
44.926399 175.005402 -757.006592
44.923100 172.652298 -758.784912
44.912998 178.357498 -768.134888
44.911701 48.972401 -761.785583
44.908298 47.147202 -759.134094
44.895401 202.607498 -779.896912
44.889999 210.863998 -782.123230
44.883900 190.205994 -774.468506
44.880901 169.558197 -761.048523
44.880199 207.751297 -781.660522
44.872898 175.805496 -766.064209
44.864101 183.589294 -770.997620
44.857399 47.800301 -760.573181
44.849899 170.289795 -759.539978
44.844002 180.616394 -769.753113
44.831200 42.543598 -753.105896
44.828999 186.481705 -772.437195
44.826801 42.057701 -750.276184
44.824200 38.686798 -746.177917
44.822899 209.406097 -781.879395
44.806198 179.514297 -769.283386
44.805901 169.229507 -760.082581
44.805199 176.636902 -768.474487
44.802299 44.533901 -754.744690
44.796200 49.921902 -764.798523
44.792099 50.585201 -765.570007
44.789398 172.496201 -763.914978
44.780800 48.885502 -764.469971
44.757999 176.576904 -766.880493
44.756100 177.498596 -768.061829
44.737400 49.027599 -762.649719
44.735802 168.751099 -760.803711
44.732300 42.690498 -751.614929
44.728699 38.998299 -747.164612
44.720402 170.959106 -758.951477
44.719898 195.051804 -776.958679
44.718201 172.919205 -757.943787
44.717899 184.314697 -771.457581
44.717201 169.298996 -761.947083
44.715302 212.829102 -782.635620
44.712299 185.181702 -771.939514
44.706402 49.529202 -763.785583
44.704899 215.462601 -784.508301
44.702499 174.084305 -757.273071
44.701801 171.409698 -763.391724
44.696999 191.780197 -775.348999
44.695400 199.145401 -778.522583
44.693501 168.336395 -760.028015
44.690800 46.457802 -758.531006
44.690102 170.218094 -762.621521
44.687801 169.459702 -759.269226
44.687599 171.689301 -758.506226
44.676998 192.568207 -775.745972
44.670898 48.127300 -763.947876
44.670799 173.333099 -764.748779
44.669498 201.455597 -779.379089
44.666302 175.755997 -768.198608
44.666199 48.018700 -761.430725
44.640301 45.297298 -762.302429
44.635300 41.490101 -749.573914
44.633301 45.736000 -757.046082
44.623299 214.029495 -783.517517
44.619598 46.873501 -759.931824
44.613701 197.692001 -777.930725
44.612999 189.384796 -774.137390
44.612499 168.462601 -761.661011
44.611599 36.469799 -745.448181
44.609501 46.682899 -763.200317
44.606300 44.896702 -755.552795
44.602901 37.938599 -746.605530
44.588299 174.060501 -765.337402
44.574200 167.718506 -760.670288
44.566002 168.593002 -759.114929
44.562801 44.487499 -761.805908
44.560299 170.121994 -758.647705
44.558201 167.598999 -759.587708
44.534199 193.979904 -776.454407
44.523499 41.829201 -752.611694
44.522499 175.735596 -766.856201
44.518299 175.035507 -766.164307
44.486900 48.191601 -763.082092
44.484600 41.953701 -751.103088
44.472801 47.835602 -762.279724
44.471199 206.874207 -781.288818
44.467300 172.065903 -757.686096
44.467098 196.318405 -777.448425
44.460701 46.149899 -759.344910
44.458401 188.528397 -773.716919
44.457500 47.121498 -760.969116
44.454300 167.551895 -761.567627
44.450100 170.565903 -763.370789
44.449501 174.239304 -767.716919
44.443501 176.488800 -767.693481
44.439201 166.912994 -760.371582
44.433102 182.840103 -770.818420
44.432598 173.220993 -757.071411
44.432301 208.688904 -781.598206
44.413300 43.298801 -760.823914
44.412601 43.679001 -754.209595
44.401901 172.447906 -764.682190
44.400501 204.017700 -780.438477
44.399101 45.573200 -757.882874
44.395699 212.121994 -782.104675
44.391399 168.798492 -762.552673
44.390400 169.162903 -758.440125
44.387501 173.895706 -756.463684
44.375198 170.814606 -758.079712
44.371101 210.179001 -781.918274
44.363602 171.573196 -764.209717
44.354301 167.012497 -758.991089
44.353699 41.355801 -750.405579
44.353600 178.725601 -769.297791
44.342899 166.216202 -759.729492
44.339901 46.135700 -762.603577
44.334999 181.975296 -770.462402
44.328201 166.535995 -761.130981
44.326500 169.618500 -763.190186
44.323898 173.265198 -765.539124
44.314400 45.163700 -756.335815
44.307598 46.889198 -761.903381
44.303902 190.677505 -774.900879
44.301399 205.375900 -780.947327
44.299301 46.323299 -760.507324
44.291698 177.959000 -768.930420
44.290100 168.106995 -758.459106
44.281101 36.924999 -746.131104
44.273899 174.915894 -767.130920
44.272999 198.419098 -778.231384
44.269600 40.697102 -749.386780
44.258301 185.821503 -772.487305
44.254299 174.217407 -766.151184
44.254101 167.962006 -762.295593
44.241901 186.845901 -772.955322
44.237099 45.372700 -758.729919
44.230301 41.179100 -751.974121
44.228600 165.431900 -760.593994
44.228500 200.576401 -779.128906
44.227798 40.929798 -758.668823
44.217201 203.145401 -780.093628
44.211899 45.952702 -761.769775
44.211800 170.016098 -757.825073
44.211601 173.337708 -767.344421
44.208900 42.450401 -760.272522
44.202999 187.600204 -773.372375
44.200699 193.167603 -776.156006
44.192402 211.292603 -781.868530
44.189899 172.915604 -756.264587
44.182499 165.444595 -759.324219
44.181198 44.153198 -761.077393
44.178299 202.102905 -779.709473
44.178299 171.178696 -757.272705
44.172001 181.077896 -770.137817
44.156300 44.008999 -754.979919
44.154099 180.052002 -769.750000
44.147999 183.612396 -771.542175
44.146500 172.204498 -756.817322
44.139599 45.004501 -757.206970
44.137100 45.117100 -761.366577
44.132099 213.530807 -782.935913
44.129501 39.605099 -748.100220
44.128399 175.114700 -767.954712
44.126400 45.614201 -759.973389
44.123100 167.290802 -758.187378
44.108002 177.124207 -768.477173
44.106998 166.023193 -758.681824
44.096100 35.757599 -745.628174
44.087002 164.687805 -760.083374
44.086399 166.898102 -762.036621
44.076698 170.612793 -764.174805
44.073799 207.721802 -781.341675
44.056499 184.337997 -772.033325
44.048698 42.760700 -753.509216
44.046001 44.272701 -755.793030
44.040699 199.817398 -778.758728
44.038200 169.011398 -757.622925
44.030899 44.665298 -757.987427
44.015800 165.800201 -761.545227
44.011398 170.381607 -757.016296
44.010700 172.439896 -765.465271
44.004398 44.896599 -760.520386
44.003502 164.366302 -759.261780
43.999001 209.474701 -781.500671
43.994301 40.104599 -748.832275
43.989101 173.433105 -766.362305
43.972198 171.903397 -756.015930
43.964401 41.894100 -759.621216
43.962299 40.577099 -750.214905
43.958099 163.720795 -759.861511
43.948700 164.857498 -758.523315
43.947300 168.095505 -757.596130
43.946098 164.671600 -760.982178
43.945599 176.261002 -768.359680
43.940701 37.764702 -747.154114
43.939098 191.372696 -775.423096
43.938999 189.789398 -774.629028
43.935600 40.660801 -751.193970
43.931400 44.680599 -759.158630
43.930302 168.661697 -763.266724
43.929798 171.934799 -766.925293
43.928001 195.559601 -777.158630
43.903301 174.050903 -766.997375
43.901501 197.180099 -777.781616
43.897202 43.646198 -760.213623
43.891899 163.606598 -758.864624
43.879299 166.409393 -757.849121
43.873699 171.136505 -756.416321
43.867599 194.481903 -776.827698
43.865799 171.217407 -764.828796
43.857300 162.874405 -759.540527
43.856602 34.499699 -745.112976
43.842800 192.403198 -775.926392
43.837299 188.990402 -774.155579
43.822201 44.501400 -756.598816
43.814999 165.562698 -757.941284
43.814499 169.390793 -756.803589
43.811401 169.445694 -763.937683
43.794399 212.791794 -782.399475
43.784302 185.110992 -772.399109
43.782700 43.172600 -754.543274
43.782200 163.485794 -760.704224
43.780499 206.420807 -780.995789
43.774601 167.758606 -763.014404
43.772099 39.675400 -751.226929
43.762001 201.324905 -779.424194
43.761799 162.723999 -758.638916
43.760399 170.749298 -766.573181
43.753502 42.911301 -759.607483
43.749599 43.838402 -757.130920
43.737202 167.044205 -757.239990
43.727299 188.064697 -773.930481
43.725300 44.002399 -758.498230
43.724098 39.825500 -749.634705
43.719002 204.554001 -780.515381
43.717400 210.564896 -781.535278
43.709202 163.971207 -758.046387
43.708599 170.240601 -756.156006
43.707401 162.029099 -759.218872
43.706902 162.221100 -760.090271
43.701302 168.461502 -756.848083
43.699001 182.496704 -771.172913
43.697201 171.620499 -766.150391
43.684700 36.314899 -746.357971
43.671902 199.044205 -778.545288
43.671501 41.789501 -752.814819
43.638199 43.386700 -755.374878
43.627602 161.837402 -758.346619
43.624401 208.750900 -781.187683
43.622501 186.217499 -772.932617
43.620602 43.580898 -756.220825
43.619598 161.139297 -759.137024
43.609798 179.199707 -769.460815
43.599899 166.355896 -762.474670
43.595299 181.625305 -770.774597
43.594898 164.678696 -757.582581
43.580101 43.221100 -758.825073
43.577099 170.796005 -765.705017
43.573399 178.379807 -769.125000
43.572701 169.156906 -755.978577
43.569099 165.957901 -757.104919
43.566502 39.157700 -748.971375
43.553902 41.479599 -758.904175
43.546600 169.298203 -766.220581
43.535999 163.113297 -757.801270
43.531200 212.022095 -781.940613
43.519299 164.703201 -761.789978
43.518700 203.663300 -780.243896
43.516800 172.856400 -767.240784
43.513802 196.228500 -777.483093
43.511902 35.090000 -745.691406
43.505001 180.496704 -770.277588
43.504902 160.288696 -759.185425
43.502300 40.786301 -758.245728
43.501099 198.048798 -778.145325
43.500500 190.424606 -775.078674
43.498299 38.948101 -750.828918
43.490799 187.151703 -773.528320
43.487701 42.967701 -757.704712
43.480499 160.659500 -758.148926
43.480400 169.889206 -764.664307
43.477200 163.960403 -761.340576
43.476700 167.412003 -756.493286
43.471901 169.856598 -755.314514
43.458900 202.735107 -779.907898
43.458099 193.643005 -776.490417
43.447498 205.615799 -780.735901
43.445301 161.391098 -759.948608
43.423302 42.366600 -758.861877
43.413601 162.562500 -760.933472
43.409599 42.397400 -754.023621
43.407299 174.371399 -767.638916
43.405201 200.335007 -779.009277
43.400700 161.334793 -757.628174
43.390099 166.990005 -763.160889
43.389400 177.554703 -768.958313
43.384102 166.522293 -756.435303
43.378700 168.277893 -763.802124
43.378502 42.834400 -756.684387
43.375301 162.268097 -757.549622
43.375099 175.568695 -768.103394
43.373901 168.109802 -755.789429
43.369499 207.314896 -780.989685
43.366100 159.637299 -758.622620
43.363800 167.842194 -765.797119
43.354000 183.111603 -771.670105
43.349098 39.074600 -749.953796
43.344601 163.918503 -757.165283
43.344101 40.366001 -751.788086
43.338600 165.324295 -762.403625
43.334000 165.081802 -756.739075
43.315102 168.815201 -765.499512
43.311401 169.021606 -764.651794
43.311401 159.555695 -757.667480
43.287102 42.619301 -755.061218
43.283199 168.899307 -755.130981
43.281200 33.488701 -745.041687
43.278099 42.025200 -758.079102
43.276001 176.707108 -768.658081
43.273300 171.108002 -755.609375
43.270100 38.330898 -748.539185
43.268101 160.532700 -760.002380
43.252102 209.968002 -781.108887
43.242001 161.743698 -760.733093
43.234200 38.239601 -750.316711
43.223099 166.445099 -765.389099
43.220501 160.368698 -757.275024
43.217800 211.274597 -781.497620
43.212601 184.061096 -772.128723
43.209400 158.906693 -758.213379
43.201302 159.473007 -759.472473
43.200802 163.007904 -757.005127
43.200401 167.119202 -755.713074
43.190601 40.000900 -757.929626
43.178398 165.693405 -756.099670
43.168098 42.373100 -755.984497
43.160702 166.049606 -763.171326
43.159302 168.079895 -764.926025
43.159000 179.649200 -770.030518
43.153198 191.687500 -775.696472
43.150101 163.240005 -761.698181
43.148800 189.481094 -774.694885
43.145302 42.013401 -757.229370
43.144199 170.033096 -766.432007
43.139400 158.596893 -757.351196
43.127300 40.667198 -759.059814
43.119202 164.302597 -756.340027
43.108299 167.457199 -764.152588
43.107399 164.074203 -762.196716
43.105499 171.257202 -766.788696
43.104401 38.443199 -749.421875
43.099098 158.012695 -758.616882
43.091301 194.975800 -776.983521
43.087002 158.632797 -759.393799
43.075500 167.799393 -754.835388
43.071701 161.747696 -756.840210
43.069901 192.852295 -776.152222
43.068901 201.840698 -779.632019
43.049999 35.684299 -746.455200
43.045200 165.235199 -765.109314
43.042900 196.908798 -777.755371
43.041500 41.175400 -752.920410
43.038101 157.752899 -757.783508
43.035301 185.334000 -772.849609
43.034698 41.241699 -757.690979
43.031101 37.766701 -747.911804
43.027302 188.568604 -774.325989
43.026501 180.967300 -770.918396
43.021400 41.704700 -753.716675
43.014000 160.906296 -760.828125
43.007500 173.576797 -767.451599
43.002602 159.490005 -756.835327
43.000900 159.546799 -760.305115
42.999401 37.392101 -749.939697
42.994099 166.154404 -755.360413
42.991199 1.236600 -743.476013
42.985901 156.923294 -758.271484
42.980701 178.820694 -769.893188
42.977100 182.047501 -771.333923
42.969200 208.172607 -781.052979
42.964500 206.563797 -780.655518
42.963799 163.396393 -756.231873
42.962502 166.532104 -764.491028
42.955200 161.953796 -761.508972
42.945000 165.013107 -763.176514
42.932400 157.293304 -756.892883
42.928600 157.317596 -759.094788
42.928501 187.775803 -773.992920
42.922298 163.781998 -764.716187
42.921398 41.898499 -754.620483
42.913502 201.031494 -779.305176
42.910999 37.623501 -748.900513
42.903900 41.333099 -756.527710
42.899899 198.658096 -778.422180
42.897800 186.498795 -773.467102
42.894402 166.819901 -754.621521
42.889999 204.336700 -780.305176
42.887001 39.654900 -751.418213
42.880600 209.192093 -780.872498
42.878502 162.476196 -756.239807
42.872700 160.684799 -756.456482
42.871498 156.084305 -758.132996
42.868198 39.524700 -757.285889
42.867802 164.902893 -755.757080
42.864700 172.086502 -766.928406
42.863400 174.861298 -768.087830
42.860802 34.509998 -745.743774
42.860298 165.676605 -764.315308
42.851002 158.259506 -756.599182
42.840801 194.188599 -776.725830
42.836498 32.752701 -744.811584
42.830502 41.495800 -755.500427
42.820301 164.695099 -764.315918
42.816601 156.484604 -757.228088
42.810200 167.179092 -765.631287
42.808899 157.997299 -759.924622
42.800800 40.433300 -757.292908
42.797298 199.724792 -778.841370
42.787800 155.048203 -757.965393
42.782700 175.913193 -768.651917
42.779400 162.716705 -762.292297
42.774700 161.921494 -764.233826
42.772900 203.234894 -779.988586
42.765301 164.033905 -762.995117
42.764000 190.887497 -775.421997
42.755299 160.039398 -760.975403
42.755199 156.455505 -759.109314
42.736500 165.475296 -754.904114
42.728298 36.464600 -749.518188
42.724400 36.932598 -747.657776
42.721199 155.959198 -756.546570
42.715500 40.467800 -752.422119
42.713600 161.435501 -756.005615
42.709301 161.009903 -761.671875
42.707802 155.473007 -758.824097
42.696201 163.770096 -755.483887
42.693901 158.664993 -760.509827
42.685299 197.765106 -778.163025
42.680000 163.782700 -763.889893
42.676399 205.171707 -780.363770
42.663200 159.875793 -756.138672
42.661999 -0.350600 -744.197327
42.661900 195.933197 -777.414673
42.645802 162.832001 -763.931885
42.644402 155.207993 -756.984802
42.641300 154.116394 -757.605408
42.640900 38.957401 -750.978821
42.633099 152.609406 -758.172913
42.629200 183.134293 -772.132019
42.626900 156.985397 -759.825012
42.619701 176.962097 -769.204773
42.616001 164.495804 -754.952698
42.606201 177.785400 -769.609314
42.604698 162.854507 -755.488220
42.604500 41.088001 -754.728699
42.601898 40.742298 -755.943970
42.599998 154.360703 -758.443176
42.589100 184.603302 -772.796875
42.587898 160.070099 -763.762573
42.580601 -0.895200 -743.317200
42.575199 168.686996 -765.987976
42.573002 172.762405 -767.385315
42.568199 157.539902 -756.121582
42.555698 159.000900 -756.012573
42.553902 36.764801 -748.508423
42.551498 161.912201 -762.505127
42.549702 207.507202 -780.636475
42.543201 163.076401 -763.087585
42.543098 151.696899 -757.673584
42.539902 152.411102 -756.952881
42.537201 189.988800 -775.068787
42.528801 40.109001 -756.528320
42.525799 154.265106 -756.710327
42.525200 33.776798 -745.321228
42.521801 179.945206 -770.612427
42.510899 169.519806 -766.160706
42.508999 40.774399 -753.540588
42.508900 153.386703 -757.103271
42.503799 0.003300 -743.398376
42.500401 155.141800 -756.072815
42.499699 160.600403 -755.666809
42.490398 36.056599 -747.709229
42.486301 162.192902 -763.390930
42.475399 161.182404 -763.792480
42.472599 159.176300 -761.226501
42.471500 155.720398 -759.676086
42.468102 156.620605 -756.074219
42.465599 165.933899 -765.315613
42.459599 193.456406 -776.470520
42.452499 157.794907 -760.674194
42.450298 153.493607 -758.531616
42.447102 154.677002 -759.229004
42.443600 39.045601 -756.599792
42.435101 174.059494 -768.041016
42.431499 160.089005 -761.796814
42.426498 185.790894 -773.460999
42.421902 41.080799 -758.361816
42.412899 192.089798 -776.118591
42.412498 0.776600 -744.251221
42.409500 158.784195 -763.443787
42.405499 -1.134300 -742.487427
42.400600 161.995499 -755.428589
42.390202 150.689804 -757.312012
42.373001 160.582504 -763.026428
42.361900 163.704300 -754.664673
42.360901 202.350906 -779.669617
42.358002 153.514603 -756.232788
42.353001 35.709900 -749.098328
42.351200 2.336100 -744.294373
42.346100 188.978104 -774.707214
42.337898 152.540207 -755.905029
42.337700 170.759903 -766.715393
42.335899 37.884300 -750.261230
42.335499 166.030502 -754.391296
42.334900 -0.263700 -742.568176
42.331299 32.124802 -744.427979
42.325600 3.512100 -744.201477
42.324402 164.676193 -754.161621
42.324100 40.186199 -755.276489
42.321499 154.273193 -755.722229
42.317501 156.274002 -760.327026
42.317299 39.757198 -752.085815
42.309200 159.623505 -755.292419
42.304298 181.247406 -771.306580
42.303501 157.906799 -763.309082
42.300201 159.539398 -763.019592
42.292702 149.862503 -756.915100
42.289299 151.620407 -756.742188
42.286800 187.201401 -774.056580
42.283798 1.743200 -743.404724
42.280399 0.989600 -742.744629
42.277401 179.050293 -770.356689
42.268398 158.065994 -755.488770
42.261600 164.633102 -764.966187
42.259899 200.502701 -779.091919
42.258701 35.107700 -746.944275
42.255100 40.316101 -754.275330
42.253300 2.811000 -743.504883
42.245701 153.841797 -759.324524
42.243301 155.977707 -755.528687
42.241901 196.568207 -777.795593
42.238800 158.283905 -761.341614
42.235699 194.984299 -777.119995
42.235298 162.858398 -754.669128
42.232498 39.577202 -755.866272
42.232101 156.558304 -762.963379
42.230202 161.244598 -755.046997
42.209000 159.281693 -762.085205
42.205799 -1.229000 -744.126587
42.204498 40.134399 -753.043030
42.202400 206.200302 -780.390930
42.196098 4.309000 -743.659302
42.195301 151.846603 -758.497803
42.194901 181.993103 -771.747986
42.193501 163.171097 -764.633423
42.188999 6.465800 -744.313110
42.188000 183.804901 -772.552979
42.186901 158.459106 -762.601624
42.184299 148.865097 -756.404907
42.183998 175.087494 -768.653992
42.182201 187.994003 -774.425476
42.178600 201.488205 -779.440125
42.178501 34.750599 -748.642029
42.173500 150.689102 -756.443420
42.165100 199.099792 -778.681885
42.164299 155.009506 -760.217102
42.160801 152.869003 -759.112976
42.157799 3.702100 -743.032715
42.146301 157.130203 -755.413879
42.145199 151.591400 -755.875000
42.142899 171.705902 -767.226318
42.132702 157.359299 -762.647827
42.129501 208.650101 -780.652283
42.129501 203.989899 -780.075378
42.129101 155.702499 -762.771973
42.119400 149.691696 -756.072571
42.102901 37.016499 -749.836670
42.100899 147.707108 -756.917175
42.099400 148.519699 -757.655212
42.098301 153.305206 -755.405029
42.097900 157.380707 -761.379211
42.097198 5.511400 -743.789307
42.095299 2.996400 -742.531982
42.081501 4.818100 -744.442078
42.080700 155.057205 -755.291687
42.072601 161.993301 -754.602112
42.071800 167.604004 -765.682129
42.067799 -0.896700 -741.556702
42.064602 38.254799 -755.953918
42.061401 156.400497 -762.088318
42.060902 150.566498 -758.192017
42.058201 176.160095 -769.279175
42.056301 154.728500 -762.560120
42.056099 152.245102 -755.102600
42.044800 39.044300 -751.615479
42.038898 158.821594 -754.962708
42.034599 149.659195 -757.703674
42.032299 0.450600 -742.109680
42.032101 33.044601 -745.018921
42.026501 39.542599 -754.771729
42.021801 160.388306 -754.816223
42.020599 152.770706 -761.768005
42.016899 150.480499 -755.471680
42.015099 163.677505 -753.846313
42.011600 4.966900 -742.976379
42.010799 156.530807 -761.221802
42.006802 0.044600 -744.593506
42.004101 191.247406 -775.709778
41.992599 146.836304 -756.513794
41.988098 34.899700 -747.784180
41.985802 198.296097 -778.412720
41.984299 153.621994 -762.279480
41.980400 6.350800 -743.485901
41.977501 173.236298 -768.061279
41.970001 154.041306 -760.192688
41.965000 166.626495 -765.445618
41.953999 155.231903 -761.856323
41.947300 186.447495 -773.814819
41.938801 147.919205 -756.013916
41.935101 7.573200 -743.931030
41.932201 194.104904 -776.773376
41.931999 151.268906 -754.831970
41.928902 192.813004 -776.298828
41.926899 38.872799 -755.317688
41.917099 156.470596 -754.902771
41.911900 1.560200 -744.384705
41.911499 177.970795 -770.083374
41.911201 155.404007 -760.982788
41.904999 148.779800 -755.457825
41.898701 162.038498 -764.320923
41.895802 153.119400 -759.986389
41.891102 145.982193 -756.101318
41.890202 151.935196 -761.474426
41.889900 39.472198 -753.480286
41.878601 151.035995 -758.903870
41.871899 206.994995 -780.382507
41.868900 146.765198 -755.638916
41.868500 152.173203 -759.575073
41.868099 154.275299 -761.727173
41.864399 197.463501 -778.145386
41.863098 8.696500 -744.605774
41.854698 34.110901 -748.148376
41.850399 31.513100 -743.826904
41.849499 149.572006 -755.066772
41.846100 160.628204 -763.994995
41.845299 195.815201 -777.695984
41.845200 147.199905 -754.854309
41.844299 157.918198 -754.758911
41.842400 154.058304 -755.049072
41.838600 145.013107 -756.582275
41.834301 154.534607 -760.907227
41.832298 177.099594 -769.751221
41.831402 9.791700 -744.232422
41.830299 180.128601 -771.088013
41.826401 8.252800 -743.325012
41.823898 205.244797 -780.145020
41.823799 165.390106 -765.133972
41.815201 7.061600 -742.791870
41.811199 182.634796 -772.209412
41.805698 184.920502 -773.186890
41.790901 163.925598 -764.744812
41.789299 150.819199 -761.632629
41.788101 153.518295 -761.264282
41.784901 161.038101 -754.272278
41.783600 162.550201 -754.017212
41.780399 145.155396 -755.746216
41.779800 169.553406 -766.674011
41.776199 144.162201 -756.028809
41.766499 9.258300 -743.552429
41.764400 5.774500 -744.709290
41.762901 190.397293 -775.412415
41.762901 145.527603 -757.315430
41.762501 149.736694 -761.138672
41.761200 203.095505 -779.813477
41.759899 39.239101 -752.582520
41.758801 145.866898 -755.223206
41.750999 151.825806 -760.595886
41.747898 147.151596 -757.543823
41.747501 148.139603 -754.874512
41.745602 149.591400 -758.510193
41.743801 172.433899 -767.879517
41.729301 159.616302 -754.527222
41.725399 170.881302 -767.300720
41.724800 34.226101 -747.064819
41.722698 189.425293 -775.188171
41.721699 159.494995 -763.695618
41.720501 10.653800 -744.274414
41.719200 148.857101 -761.277100
41.701599 148.265900 -758.830017
41.699902 38.864201 -754.242920
41.693100 4.732200 -742.117188
41.687901 144.751999 -754.958191
41.683300 155.480392 -754.562073
41.680801 174.282104 -768.635620
41.676998 38.003601 -750.893677
41.675598 7.326300 -744.776489
41.666000 152.777802 -760.835388
41.658501 -0.101000 -741.552917
41.651001 10.229600 -743.467712
41.647598 153.074005 -754.717529
41.637402 1.315400 -741.344116
41.636200 11.708800 -744.534302
41.629902 151.001801 -760.285828
41.625099 150.181702 -759.127502
41.622501 143.128006 -755.629822
41.618698 199.978500 -778.875671
41.612801 150.334198 -754.706177
41.608299 168.096100 -766.226929
41.605900 157.162094 -754.309875
41.600800 33.505501 -747.537415
41.593899 11.496900 -743.641479
41.591301 158.787704 -754.237915
41.587299 38.090900 -755.204285
41.584599 2.918800 -744.424072
41.583900 149.429092 -760.294373
41.580799 188.587997 -774.748779
41.578499 3.875300 -741.674011
41.577099 4.047000 -744.514709
41.576801 12.675400 -744.681824
41.567402 8.010700 -742.438110
41.560600 147.654999 -758.203430
41.560299 36.085400 -749.479797
41.557598 161.759903 -753.782593
41.551498 154.504898 -754.381470
41.547001 148.256500 -760.551575
41.537601 -0.710000 -744.375916
41.530499 146.802399 -760.497925
41.525600 6.063400 -742.211426
41.522598 12.464600 -743.792114
41.518700 146.275803 -757.714172
41.518700 148.918396 -754.585388
41.517502 160.225204 -753.926575
41.515301 181.444595 -771.795715
41.507000 178.557602 -770.608215
41.503201 158.574295 -763.459106
41.502201 9.523400 -742.779297
41.490601 145.448502 -754.482422
41.488899 13.676300 -744.448425
41.479401 184.122604 -772.982422
41.479401 38.689301 -753.362122
41.475800 200.880997 -779.152222
41.474300 146.509598 -754.410828
41.474098 175.285294 -769.159973
41.472401 149.343796 -759.282104
41.471699 38.440601 -751.892029
41.469101 144.304001 -756.919678
41.463299 187.453094 -774.384583
41.463299 156.219299 -754.200684
41.460098 157.402496 -763.225586
41.456001 145.279404 -758.168518
41.446701 141.797501 -756.211487
41.446400 152.324493 -754.331482
41.445301 148.234604 -759.706177
41.443199 14.712700 -744.591614
41.437500 143.391296 -756.484680
41.424000 143.852997 -754.603027
41.416100 194.658600 -777.229187
41.413200 142.722305 -754.847107
41.410702 0.696800 -744.460083
41.410301 15.759000 -745.232422
41.407398 13.467000 -743.556824
41.406300 10.254100 -745.140625
41.402500 145.902100 -760.122681
41.401199 191.824493 -776.052795
41.399101 202.066803 -779.521484
41.395699 157.950302 -753.977905
41.393600 37.188202 -750.389404
41.391201 193.321701 -776.765625
41.387699 204.438904 -780.012512
41.387600 156.206100 -762.943787
41.378700 185.815994 -773.576599
41.375900 7.264100 -742.044800
41.373600 196.742905 -777.971802
41.372601 2.175300 -741.053223
41.371700 10.792800 -742.836121
41.370602 14.664000 -743.653381
41.365501 140.875000 -755.651794
41.365501 33.197300 -746.726074
41.363300 16.605400 -744.574524
41.360901 15.829800 -744.113220
41.351601 35.060699 -748.903320
41.346199 146.707794 -758.494690
41.342701 32.779301 -748.020020
41.338200 166.028702 -765.590393
41.333900 142.204300 -756.978821
41.332802 147.697205 -754.259094
41.328602 176.281693 -769.700684
41.327202 37.986698 -754.291992
41.325500 31.682899 -744.527222
41.321701 160.956497 -753.240479
41.318199 17.693501 -744.594421
41.316898 153.595001 -753.826294
41.313599 145.121307 -759.719421
41.313000 198.995605 -778.680481
41.306599 12.138000 -742.915588
41.302799 6.487600 -744.765808
41.298500 162.682800 -764.545898
41.298000 167.310501 -766.109375
41.297798 171.559006 -767.796570
41.293098 143.761093 -759.952026
41.292900 141.782104 -755.350708
41.286098 140.082993 -755.205078
41.279999 147.405396 -759.028381
41.278198 149.805099 -754.104004
41.270802 151.436295 -754.224487
41.270401 18.779301 -744.927917
41.260700 16.991501 -743.810425
41.257500 32.036701 -747.517517
41.250900 159.417297 -753.607971
41.249100 9.296800 -744.947876
41.244301 4.957500 -744.623718
41.242199 18.424200 -744.055603
41.242100 8.821800 -741.995605
41.241600 152.711304 -762.127197
41.233101 179.369202 -770.939392
41.230499 19.771200 -744.493774
41.230202 147.562500 -761.000427
41.228401 146.697098 -759.668091
41.221901 141.598297 -754.508118
41.221699 17.416300 -745.448181
41.221001 155.498093 -753.812927
41.220299 168.921295 -766.813110
41.220001 173.006699 -768.416321
41.219101 183.102402 -772.654602
41.214401 144.417999 -757.752930
41.209301 2.097000 -744.498718
41.209000 164.790207 -765.276001
41.206501 180.596893 -771.555420
41.204300 -1.354300 -745.595276
41.201302 154.842407 -762.586304
41.201000 19.367901 -745.561523
41.195099 143.440796 -757.301514
41.193401 153.910599 -762.404907
41.185001 11.099700 -745.041992
41.184799 161.527100 -764.203125
41.182701 8.127400 -744.883606
41.180099 0.556400 -741.178284
41.179501 20.632999 -744.721924
41.178200 142.919601 -759.577026
41.167099 13.030100 -742.826416
41.165798 197.953003 -778.342285
41.165401 38.158501 -752.669312
41.162498 3.094400 -741.026978
41.156399 143.862900 -759.118713
41.154900 4.513600 -741.061279
41.154499 144.697205 -753.951782
41.153198 21.336399 -745.287109
41.152199 15.904300 -743.226013
41.147099 151.641006 -761.863586
41.144100 14.174300 -742.944580
41.142799 177.808899 -770.421814
41.141201 139.199707 -754.904480
41.140099 169.935394 -767.233521
41.138000 145.860992 -758.785278
41.132702 20.495701 -745.599670
41.125900 142.361694 -757.851685
41.120201 186.464096 -774.075928
41.118999 9.699400 -742.037781
41.114300 190.958099 -775.817688
41.111198 -0.323200 -740.936584
41.109001 19.250401 -743.712891
41.104301 32.164001 -746.628113
41.103500 13.866100 -745.300293
41.099300 143.265701 -753.929077
41.099098 137.884796 -755.205017
41.098499 140.768295 -754.194824
41.097301 142.158295 -759.157227
41.093300 5.601700 -741.148376
41.093201 16.514700 -745.539429
41.086700 37.560799 -751.319824
41.083199 34.159801 -748.585083
41.083000 12.007800 -745.160278
41.078899 182.003204 -772.269226
41.078400 22.574200 -745.565613
41.076900 156.949493 -753.678711
41.076401 20.536100 -743.857605
41.074600 148.551804 -753.844910
41.070202 144.565399 -758.594604
41.068001 140.962799 -756.455505
41.063999 17.840401 -743.350891
41.060101 22.717199 -744.689575
41.058998 176.964203 -770.160278
41.058800 150.266693 -761.621521
41.058102 147.138107 -753.590515
41.055901 31.079100 -743.763611
41.052799 37.725399 -753.459473
41.050900 160.273499 -763.875183
41.048801 140.117798 -756.047485
41.046501 160.016907 -753.010620
41.045502 23.663700 -745.005920
41.045200 142.996002 -758.715027
41.042599 -1.410700 -744.535583
41.041199 138.423401 -755.905029
41.041100 140.613403 -759.633423
41.040798 18.420200 -745.668213
41.040798 21.523701 -744.386414
41.031399 145.795593 -753.855103
41.031200 154.415405 -753.713318
41.027802 145.257599 -760.538879
41.027802 142.363907 -754.162781
41.023701 141.415298 -758.728577
41.023701 150.687500 -753.905823
41.021999 6.445200 -741.228699
41.021400 11.625500 -742.203491
41.012299 195.559402 -777.670227
41.010399 184.727707 -773.454102
41.007999 158.496994 -753.392212
41.001202 24.237801 -745.974121
40.994900 138.995895 -756.595398
40.994499 139.846497 -759.067627
40.991199 174.470596 -769.102295
40.983700 148.386200 -761.181580
40.982399 152.114700 -753.629822
40.980999 203.473297 -779.689026
40.980701 30.893999 -747.018921
40.978802 14.904100 -745.337524
40.965000 16.918100 -742.881897
40.959599 24.854601 -745.151306
40.957802 23.380800 -744.160828
40.956001 138.871994 -754.107300
40.955502 149.389496 -761.416809
40.954201 15.065200 -742.682312
40.953899 163.352707 -764.947388
40.952301 23.362700 -745.996216
40.952202 25.756399 -745.041687
40.952099 37.088100 -754.397583
40.946602 190.115906 -775.539673
40.945400 8.045000 -741.565125
40.937801 136.478806 -754.471191
40.930199 141.423096 -757.218506
40.926701 139.744904 -754.280701
40.925800 24.833401 -744.282227
40.920799 12.954200 -745.280396
40.918701 138.926300 -759.270691
40.910801 140.540604 -758.316284
40.905602 137.668503 -754.328491
40.897099 25.052601 -746.368713
40.896900 189.066193 -775.172180
40.891102 21.312700 -743.452271
40.886101 139.425903 -757.373230
40.886002 137.730194 -759.027710
40.883900 166.525604 -766.120117
40.880798 3.539000 -744.546692
40.874100 -0.147000 -744.385010
40.870800 173.661697 -768.838684
40.868599 26.836800 -745.535706
40.868401 31.279600 -746.217102
40.865200 26.099400 -746.086304
40.863800 36.277199 -749.957825
40.863300 10.542100 -741.820129
40.860901 22.641800 -743.707275
40.860298 5.742200 -744.741516
40.859501 13.620800 -742.255188
40.856499 26.589199 -744.553772
40.848099 138.612595 -758.431274
40.845699 170.759903 -767.695007
40.843700 157.666000 -753.177185
40.842400 159.129196 -752.782227
40.839500 156.072998 -753.302612
40.839401 167.989502 -766.676025
40.832600 141.774902 -753.549194
40.827499 140.426300 -757.118896
40.818802 159.180695 -763.683777
40.818001 144.373596 -760.333374
40.817402 146.232895 -760.767212
40.812000 137.038498 -755.180725
40.811199 192.393494 -776.488525
40.810001 18.854500 -742.934021
40.809700 136.705994 -758.847473
40.802700 187.996597 -774.819519
40.801800 143.976501 -753.441284
40.800800 27.949200 -745.654175
40.794800 28.268400 -746.495117
40.788799 141.605896 -759.831482
40.784100 137.890305 -757.983276
40.783001 153.001999 -753.380676
40.782902 201.404495 -779.271973
40.779202 21.694300 -746.003479
40.769100 135.646103 -754.292603
40.766998 200.391602 -779.038574
40.766300 27.572201 -744.865784
40.766102 20.283600 -743.094604
40.765800 25.807501 -744.002380
40.764599 1.270000 -744.449524
40.762100 12.669400 -742.050781
40.761799 37.453899 -752.130188
40.760899 158.151398 -763.429626
40.758598 156.839905 -763.041687
40.758400 137.586395 -755.929504
40.754299 29.973900 -746.666687
40.752102 183.694595 -773.157104
40.750702 139.643600 -758.258728
40.743000 36.882801 -750.886780
40.742500 149.346893 -753.519470
40.740799 178.627106 -771.016479
40.739201 175.481400 -769.677612
40.720100 30.260599 -745.533813
40.719799 29.020399 -745.726318
40.719200 135.655304 -758.130188
40.712700 179.874207 -771.531616
40.709099 7.259000 -741.096680
40.706200 24.377600 -743.580078
40.702301 142.839005 -753.304199
40.701698 139.699905 -753.437073
40.700901 28.641600 -744.956116
40.700802 172.327301 -768.375305
40.698399 136.190796 -755.328308
40.693100 140.933395 -753.295471
40.693001 164.118393 -765.411621
40.680698 134.373093 -755.073425
40.680401 137.242294 -753.596130
40.671200 145.017395 -753.309875
40.670898 146.404602 -753.350708
40.670101 138.255295 -753.439697
40.669899 9.127500 -741.268127
40.669498 15.852000 -742.281311
40.667400 137.059296 -757.618103
40.665501 187.093002 -774.512024
40.664799 185.408798 -773.889771
40.664799 165.602295 -765.953918
40.664001 151.324097 -753.310730
40.660900 1.513800 -741.052185
40.657200 134.862503 -753.960693
40.652401 147.879303 -753.403015
40.652302 155.225204 -753.186707
40.651199 133.254105 -754.135986
40.650501 181.080002 -772.054688
40.650501 0.349200 -740.441772
40.645901 202.561798 -779.451416
40.636002 17.880600 -742.567383
40.635300 35.287201 -749.309021
40.633301 138.013702 -756.711914
40.627800 193.793701 -777.025024
40.619202 27.000500 -746.447815
40.618900 197.207306 -778.140320
40.615200 133.188797 -758.115601
40.611198 27.357500 -743.940491
40.610001 30.450500 -744.649170
40.605202 134.831406 -757.759094
40.603901 155.539001 -762.788574
40.602699 14.498000 -742.090576
40.598999 135.351501 -755.116577
40.597500 150.210693 -753.307129
40.591202 22.090799 -743.026123
40.590401 162.244400 -764.819092
40.583801 153.894394 -753.203918
40.576599 23.607800 -743.233582
40.573299 158.333801 -752.616699
40.571098 3.718200 -741.062622
40.562901 135.466293 -756.501526
40.562199 136.777405 -756.235413
40.561501 32.630798 -747.675476
40.558601 191.531097 -776.232483
40.555698 182.567993 -772.765930
40.552200 199.426498 -778.768127
40.552101 136.161697 -757.185974
40.548401 2.719400 -744.423096
40.544102 143.405502 -760.193787
40.543701 33.377300 -748.109680
40.543598 6.970600 -744.797974
40.541100 2.491400 -740.999878
40.539600 9.806100 -745.099915
40.538502 150.989807 -761.688782
40.537899 156.893402 -752.919617
40.537201 25.260201 -743.393311
40.535900 15.663100 -745.511597
40.535000 134.039902 -753.628906
40.534801 198.553802 -778.742920
40.532799 136.318100 -753.275391
40.529800 194.890793 -777.411377
40.526001 132.357300 -753.739197
40.522800 153.396606 -762.260010
40.520901 31.614201 -747.413818
40.520802 160.902298 -764.359314
40.517700 29.283501 -744.427917
40.517300 28.227301 -744.180786
40.514801 152.288895 -761.972717
40.513000 26.477400 -743.494812
40.503300 29.041201 -746.710815
40.500702 134.032898 -757.378418
40.492802 4.308500 -744.531616
40.489601 16.844601 -742.120117
40.487900 176.317795 -770.122375
40.486698 169.048798 -767.267700
40.485199 37.126301 -753.040588
40.480701 11.307900 -741.597778
40.478199 8.862600 -745.018677
40.446602 20.001600 -745.869812
40.437302 147.084503 -760.924927
40.419102 131.099594 -757.273499
40.416199 17.148199 -745.598022
40.411900 11.400600 -745.252014
40.408699 32.170399 -745.674622
40.406300 133.190994 -753.295288
40.404598 148.711197 -753.045898
40.404400 133.255798 -756.989197
40.393299 22.648199 -746.101379
40.392399 132.934494 -754.909180
40.388500 152.392105 -752.919373
40.387299 131.409500 -753.342224
40.385899 171.406494 -768.017578
40.383701 139.029205 -752.974182
40.375000 20.929899 -746.000183
40.373100 130.280899 -754.329285
40.373001 135.345901 -752.954407
40.371799 9.966200 -741.409607
40.369099 36.803101 -751.690979
40.365398 133.593002 -755.449829
40.362202 130.004395 -757.537415
40.358700 130.996201 -755.044983
40.354801 19.577801 -742.678101
40.352402 21.184401 -742.651428
40.352299 177.592102 -770.688171
40.351501 167.113495 -766.648987
40.350498 13.744000 -741.575928
40.350101 159.799698 -764.164673
40.345100 134.660400 -755.846008
40.344200 147.090897 -752.912170
40.332401 137.556305 -752.822876
40.331100 131.562805 -754.256104
40.330399 132.485397 -757.368774
40.325298 142.129303 -752.856873
40.319698 186.183304 -774.335510
40.316002 154.652496 -762.676575
40.315201 34.480801 -748.837219
40.313301 5.138400 -741.082520
40.301399 19.108999 -745.786682
40.296799 132.301697 -756.474487
40.294899 31.375299 -744.369629
40.294601 -1.043400 -744.210815
40.292099 143.537003 -752.916077
40.291698 13.597500 -745.386414
40.289600 190.655807 -776.041870
40.287998 140.168594 -759.515076
40.284199 156.026794 -752.562378
40.282299 181.734894 -772.459717
40.282200 30.525499 -743.618530
40.281898 169.816299 -767.650879
40.280701 132.106094 -755.097595
40.273602 129.464706 -753.914978
40.271099 189.540298 -775.625183
40.269501 142.292801 -759.952087
40.267700 195.993896 -777.754028
40.265400 129.858093 -756.647705
40.265400 22.886801 -742.798401
40.257301 134.160797 -756.540222
40.255299 140.346298 -752.729980
40.248901 145.720795 -752.961304
40.247898 184.384003 -773.683777
40.247200 0.576100 -744.289612
40.246799 134.000702 -758.266907
40.245701 130.496201 -753.440430
40.245499 131.590698 -755.990784
40.244499 132.154999 -752.904724
40.234699 154.636093 -752.640930
40.231800 12.233700 -745.239807
40.225899 33.505199 -745.235779
40.224499 164.765305 -765.819275
40.221100 35.707600 -750.058289
40.220200 128.259293 -757.225220
40.219200 132.733597 -755.742310
40.213200 193.046707 -776.882629
40.210701 5.991300 -741.166199
40.210201 174.566605 -769.495422
40.208401 14.493800 -745.389893
40.206200 128.678696 -753.417114
40.206001 134.414307 -752.695374
40.201900 24.240499 -746.277527
40.200500 5.176100 -744.568726
40.197899 150.798798 -752.781311
40.196999 144.404495 -752.870789
40.190399 32.914001 -746.432129
40.187000 125.511299 -756.677307
40.186401 36.071301 -746.571716
40.183300 179.150299 -771.405579
40.181999 24.406099 -742.819824
40.180302 188.442993 -775.299927
40.178799 163.270294 -765.343384
40.171799 18.109200 -745.707092
40.169300 18.825100 -742.265381
40.169102 7.730000 -744.883789
40.168999 129.066498 -756.242920
40.168201 136.619003 -752.563782
40.166901 12.119100 -741.606506
40.164700 145.430298 -760.569824
40.164600 25.586800 -746.380371
40.160301 141.215195 -752.669312
40.160198 149.557999 -752.836975
40.159500 127.142601 -756.959290
40.156700 1.047400 -740.265198
40.154400 36.275299 -751.038696
40.154099 27.815001 -743.306824
40.149899 34.563301 -746.318909
40.148102 30.960501 -745.488281
40.143101 150.143707 -761.588501
