36.808998 5.918400 -742.020081
36.807701 48.273800 -745.003418
36.807400 39.856899 -759.549622
36.806400 32.620899 -757.013672
36.806198 45.330299 -748.352722
36.804401 18.544500 -745.873230
36.804001 5.297000 -743.774170
36.803799 21.894699 -746.635315
36.803398 20.643400 -745.131470
36.803299 48.922401 -745.150085
36.799500 25.452101 -744.625488
36.798100 19.426201 -744.813721
36.797901 21.029200 -745.134827
36.797798 28.366600 -744.383118
36.797100 26.527599 -747.164001
36.796799 52.560799 -745.038879
36.796700 42.117401 -760.187805
36.796200 29.981400 -746.944275
36.795200 45.951900 -761.883179
36.793301 47.108299 -763.013428
36.792900 32.016998 -755.464417
36.792400 26.877001 -749.842773
36.791901 38.177200 -759.590576
36.791401 20.175501 -745.072510
36.790699 7.483200 -740.638977
36.789902 29.325899 -744.253601
36.789700 24.748400 -748.335388
36.789001 43.164501 -744.878723
36.786900 50.469700 -745.238220
36.785198 25.031601 -745.763184
36.784698 29.835199 -744.306824
36.784199 25.831600 -746.974121
36.783600 57.898300 -745.543030
36.783501 59.784599 -746.120117
36.781799 23.750000 -744.668213
36.780499 32.115101 -744.424622
36.778301 44.971401 -748.683594
36.778000 46.807098 -748.847473
36.777599 57.100101 -745.442871
36.776402 29.568100 -752.636475
36.776402 18.091499 -744.684387
36.776299 1.965900 -742.924683
36.775501 17.951599 -745.707581
36.775002 52.253300 -745.598389
36.774601 49.044998 -749.149597
36.774502 25.102501 -748.540710
36.774300 38.706600 -760.315186
36.772999 11.711600 -743.980530
36.771599 6.759900 -741.739685
36.771400 49.879299 -745.094971
36.771301 51.522499 -744.760803
36.770901 59.405899 -745.765625
36.770901 42.773899 -744.783325
36.770699 6.119900 -743.916626
36.770199 44.262199 -760.933777
36.769100 55.597198 -745.286499
36.768799 17.494801 -745.448120
36.768299 26.889299 -744.564209
36.768002 27.779400 -750.608887
36.767502 51.555500 -745.466675
36.764900 54.144199 -745.831116
36.763901 23.935900 -746.365112
36.762901 53.229401 -745.695618
36.759800 32.683201 -756.645081
36.758598 34.034199 -747.690918
36.758400 40.399899 -759.731812
36.757900 43.955101 -748.309875
36.757702 48.284000 -749.048706
36.756500 42.625099 -760.405090
36.756302 58.508598 -746.092224
36.755299 3.485400 -744.329712
36.754799 56.664700 -745.398987
36.753101 55.469898 -745.925720
36.752499 0.584700 -742.820496
36.751099 38.569599 -759.567871
36.750801 43.673401 -744.907227
36.748600 19.243799 -745.963318
36.747700 29.841499 -752.986084
36.747101 46.943199 -762.660217
36.746899 3.045300 -743.480774
36.746700 48.906101 -744.430786
36.746498 52.715599 -745.687012
36.745998 40.814602 -759.944275
36.745201 23.475599 -746.223816
36.744701 44.971199 -761.690186
36.744099 46.397999 -744.977783
36.743401 23.454399 -747.664917
36.743099 24.692400 -744.688782
36.742199 53.075199 -745.035095
36.741901 25.403700 -746.673096
36.741699 34.043800 -744.617493
36.738701 39.229900 -759.705688
36.737801 32.002201 -755.831482
36.737701 18.856199 -744.924377
36.735600 46.848301 -744.456116
36.735401 41.418900 -760.131592
36.735298 30.710300 -754.016479
36.734901 38.500099 -760.000916
36.733898 56.137299 -746.070129
36.733002 4.277300 -743.059021
36.731998 32.935398 -744.283386
36.731602 19.439199 -745.177917
36.731499 21.114100 -745.577820
36.725899 36.106701 -748.132324
36.725101 26.967800 -747.183899
36.721500 46.607800 -762.443298
36.720600 3.882700 -743.502380
36.720001 46.480499 -748.600281
36.719200 44.729000 -744.457214
36.718201 33.372101 -744.457520
36.717098 32.012699 -756.355225
36.715599 54.306599 -745.144775
36.714001 30.846701 -747.077820
36.713402 31.028700 -754.435120
36.713001 31.978901 -747.294495
36.710602 30.250700 -744.291809
36.709202 21.589300 -746.428772
36.709099 43.187000 -760.670776
36.709099 42.167801 -744.886780
36.707901 37.029301 -744.789185
36.706402 60.482601 -746.307800
36.706100 18.247900 -745.375122
36.704399 52.134399 -744.808411
36.704201 28.725000 -746.669128
36.703800 5.858100 -743.537415
36.703499 4.919200 -742.415894
36.702599 19.802799 -746.063110
36.701801 59.387501 -746.278687
36.701199 45.376999 -744.905579
36.701000 50.902599 -745.179321
36.701000 23.050900 -744.922424
36.700199 24.634199 -746.397583
36.699299 61.797600 -746.049988
36.698502 22.273899 -745.948486
36.695900 44.567200 -744.894470
36.695301 3.004900 -743.890991
36.694901 57.521400 -745.415527
36.693699 38.910801 -759.991699
36.692699 22.963200 -746.072205
36.692600 31.458900 -755.076904
36.691799 7.064400 -742.361328
36.689999 57.533501 -746.036987
36.687801 38.428001 -744.777893
36.687099 37.361698 -748.471375
36.686600 21.859699 -745.800720
36.685501 28.626801 -744.659180
36.684200 41.001701 -744.884583
36.683701 29.437799 -746.776672
36.683102 50.688999 -744.497375
36.682201 45.675098 -744.419128
36.681599 28.249901 -751.155579
36.681099 54.519600 -745.747314
36.680099 28.302999 -746.528870
36.679501 22.409000 -744.970825
36.679298 6.642700 -742.868591
36.678600 53.707298 -745.699524
36.678200 25.826401 -744.690125
36.678200 7.386100 -740.150024
36.676701 3.461200 -743.502319
36.676399 3.627900 -743.078186
36.676201 30.074600 -753.397522
36.675999 15.472900 -744.576294
36.675400 21.521601 -745.627319
36.672901 27.387300 -747.215820
36.671600 28.853100 -751.963623
36.670799 6.420000 -743.256287
36.669998 39.174099 -760.412109
36.669998 59.013699 -745.602905
36.668201 57.147099 -745.948425
36.667400 39.798599 -759.901917
36.667301 4.116200 -744.391174
36.667099 17.847000 -745.336487
36.666401 35.915798 -744.698608
36.663200 46.106899 -748.798523
36.661499 46.043800 -744.885193
36.661301 41.384201 -744.627319
36.660999 45.340599 -748.698120
36.660400 24.754101 -745.411682
36.659901 50.293701 -744.454102
36.657398 26.377899 -746.800781
36.656700 28.584000 -751.652527
36.654202 25.415199 -745.612793
36.653599 47.701599 -749.013916
36.653000 48.586601 -744.868286
36.652401 35.739601 -748.019775
36.652100 42.942501 -748.305176
36.651100 43.730900 -760.824890
36.649899 21.718100 -745.221619
36.648800 35.347801 -744.667419
36.646900 26.261000 -749.492188
36.646400 41.772800 -760.203918
36.645302 31.620300 -747.173584
36.643600 46.212101 -762.583984
36.643299 42.281200 -748.243286
36.642899 45.324001 -761.575989
36.641800 14.536900 -744.403809
36.640800 56.263599 -745.240784
36.640499 40.358601 -744.831116
36.640301 40.967201 -748.192322
36.640301 37.747200 -744.718872
36.639599 19.756201 -744.971680
36.638699 58.384998 -745.501282
36.638302 51.289600 -745.239685
36.636902 41.070599 -760.217224
36.636501 31.443600 -755.444519
36.635201 39.368198 -760.042419
36.634602 51.919800 -745.497009
36.631901 46.832500 -744.880188
36.630501 26.218599 -744.825073
36.629200 55.871201 -745.811218
36.629200 7.444000 -742.353882
36.628502 44.018398 -761.320984
36.627998 40.346901 -760.085388
36.627499 19.218399 -745.595276
36.626701 56.427502 -745.862427
36.621601 22.461201 -746.929382
36.621201 39.584900 -749.093079
36.620499 47.765800 -744.867798
36.619801 41.526798 -748.223083
36.619701 42.301800 -760.553284
36.618801 46.112000 -762.226685
36.618801 4.577700 -742.845215
36.616798 43.370399 -744.614624
36.616600 30.990801 -754.795471
36.615799 4.491500 -743.566284
36.615200 32.360001 -747.327209
36.615002 43.977699 -744.740112
36.614201 54.900299 -745.689270
36.611301 25.106100 -746.425415
36.610001 34.927200 -747.831116
36.609200 23.522800 -744.943115
36.608299 46.422501 -744.425781
36.606602 34.786400 -744.549622
36.606098 44.934799 -744.857727
36.605999 22.120501 -745.218872
36.603500 7.256500 -741.969604
36.602901 30.328300 -753.815796
36.601398 4.604900 -744.207581
36.600899 27.917999 -750.992920
36.600601 33.807098 -744.288330
36.598900 19.091200 -745.243103
36.597900 31.441200 -755.890686
36.597401 24.048300 -744.870300
36.597000 49.736900 -749.642090
36.596699 53.538399 -744.910217
36.596401 47.696800 -744.391113
36.596001 27.830999 -747.254395
36.593601 43.441799 -761.170410
36.593201 38.867401 -748.897522
36.593201 3.391800 -743.983826
36.592999 24.517599 -745.110413
36.592499 45.639099 -761.837708
36.592300 36.739700 -748.289307
36.591999 50.187801 -744.987122
36.591999 49.548401 -744.902283
36.591702 31.153000 -744.369812
36.590801 22.881201 -747.160278
36.590801 26.397499 -745.812683
36.590401 38.391499 -748.749512
36.590099 25.876200 -746.561829
36.589401 13.966800 -744.299927
36.588799 39.772999 -760.263977
36.588600 20.178400 -745.395325
36.588200 56.803799 -745.819885
36.587799 7.444800 -741.604919
36.587002 38.835400 -744.773010
36.585098 52.866798 -744.754578
36.584900 58.940899 -746.010986
36.584000 3.808400 -744.190613
36.581902 26.819799 -746.859009
36.581699 28.074900 -744.591125
36.580101 60.987301 -746.221985
36.579899 55.006302 -745.088501
36.579700 41.806900 -744.685974
36.579601 39.702599 -760.640320
36.579498 31.005301 -755.614624
36.579399 44.363400 -748.526489
36.578800 24.411400 -748.166016
36.576900 49.054401 -744.875488
36.576698 49.805801 -744.364075
36.575699 39.839901 -744.807617
36.575001 46.440399 -748.962830
36.574902 47.270599 -749.094788
36.574600 48.153900 -744.366394
36.573101 42.423599 -744.618713
36.572498 29.205099 -752.513428
36.570099 30.634300 -754.364014
36.570099 59.966000 -746.880371
36.569199 42.834900 -760.800415
36.568401 58.199200 -745.978882
36.568401 5.198700 -743.476318
36.567001 53.006802 -745.465820
36.566898 5.579600 -741.787720
36.565701 19.738800 -745.660095
36.565399 59.817699 -746.517029
36.564999 26.673500 -744.854126
36.564800 7.020400 -742.795715
36.563702 30.393000 -746.906616
36.563202 20.988800 -746.082092
36.563099 6.245600 -742.000977
36.561199 22.574600 -745.685730
36.561100 44.526501 -761.264709
36.560299 24.174000 -746.155212
36.560001 22.786400 -745.206421
36.559200 59.885700 -745.777222
36.556400 29.098400 -744.532593
36.554600 53.983101 -744.950623
36.554501 41.932098 -748.377991
36.551998 41.536999 -760.534912
36.551701 35.612900 -744.400574
36.551102 30.699900 -744.421021
36.550301 36.303398 -744.487000
36.549301 52.642799 -745.314819
36.548302 26.777399 -745.829102
36.546398 27.231300 -746.875000
36.546200 40.731400 -760.436523
36.545898 26.121201 -745.511475
36.545799 27.408300 -750.541992
36.545700 45.786900 -762.476624
36.545399 43.535599 -748.433472
36.543201 6.644300 -742.106506
36.541199 37.918400 -748.607483
36.539902 20.529400 -745.710693
36.539902 24.872499 -745.005188
36.538799 51.934399 -744.537415
36.538700 23.193899 -745.807617
36.534401 39.342899 -744.745422
36.534401 51.300701 -744.463318
36.533600 2.588700 -743.061890
36.531601 52.209499 -745.281494
36.529598 48.667801 -749.205505
36.529400 32.403599 -744.275085
36.529099 40.124802 -760.384888
36.528500 49.181198 -744.307007
36.528301 25.138599 -745.262573
36.525700 54.578800 -744.978271
36.525398 24.065100 -747.970581
36.524799 29.439301 -752.888306
36.523998 27.612900 -746.942200
36.522900 39.243099 -748.985413
36.521099 52.481201 -744.555298
36.521000 40.055901 -760.766418
36.519600 55.396000 -745.033325
36.519199 54.007801 -745.538025
36.518501 25.350100 -748.748291
36.518200 20.201500 -745.922729
36.517700 22.132999 -746.701721
36.513100 25.540001 -744.900391
36.513000 25.715000 -749.002319
36.512699 56.894299 -745.189819
36.512199 3.983900 -743.148010
36.511700 48.132500 -744.807617
36.511101 30.951401 -755.230225
36.508900 45.333401 -744.292419
36.507599 23.773300 -745.945984
36.507500 55.791901 -745.078674
36.502102 25.610399 -745.299988
36.501701 41.987900 -760.738525
36.500401 23.248899 -745.207275
36.499199 4.922700 -742.757813
36.498501 50.620998 -744.898987
36.497898 53.518200 -745.410522
36.497601 58.042599 -745.336426
36.496799 62.222198 -746.241577
36.496300 45.775299 -748.728027
36.495800 25.463499 -746.348083
36.494801 57.854500 -745.833008
36.491501 55.436699 -745.663696
36.490898 41.156601 -760.561218
36.490002 37.300098 -744.637817
36.489601 47.356701 -744.805908
36.489399 28.214100 -747.216370
36.489300 29.641500 -744.515503
36.488602 47.331200 -744.344910
36.486401 4.108900 -743.960327
36.484600 36.712799 -744.484985
36.483501 51.353401 -750.006226
36.479500 31.733101 -744.404785
36.479500 7.818600 -741.387390
36.479301 5.716800 -742.247925
36.477600 33.378700 -747.472229
36.476002 17.279301 -744.863525
36.475899 28.131001 -746.251221
36.475700 7.011300 -741.706604
36.473701 40.431099 -760.683777
36.472301 45.975800 -744.325073
36.471901 51.723801 -745.129028
36.471600 44.762798 -761.542603
36.471298 29.995501 -746.723999
36.470200 23.751301 -745.231079
36.466801 60.392200 -746.682922
36.465401 34.439098 -744.208618
36.463699 34.394100 -747.685913
36.463299 40.858700 -761.106079
36.461201 58.765499 -745.424072
36.459599 30.264299 -754.167786
36.458900 29.968800 -753.734070
36.457600 49.201401 -749.431519
36.457001 46.852001 -749.104187
36.456402 28.832300 -746.379028
36.456299 29.693899 -753.306702
36.455898 40.703499 -744.768921
36.455799 44.307598 -744.483582
36.455101 44.791500 -748.652588
36.454800 27.031200 -744.756470
36.454700 24.520901 -746.046387
36.454601 61.449100 -746.084412
36.454399 26.292400 -746.475220
36.454201 21.355301 -746.118774
36.454102 48.004299 -749.107910
36.452999 27.535500 -744.736084
36.452702 38.105202 -744.689575
36.452099 43.879501 -748.540527
36.452000 31.288700 -747.016479
36.450901 7.474000 -740.833923
36.450699 23.532101 -745.633118
36.448601 26.591600 -749.650574
36.447899 45.502899 -744.659119
36.445900 42.487999 -760.953491
36.444698 45.372898 -762.284912
36.444199 23.007601 -747.482727
36.443501 59.591202 -745.526428
36.443298 24.946301 -746.117798
36.442600 30.586000 -754.870911
36.439800 26.964300 -750.111328
36.439201 57.454300 -745.758423
36.439098 57.322701 -745.180786
36.438801 43.064999 -761.076721
36.435799 51.030701 -744.925415
36.435501 35.270000 -747.859314
36.432701 3.716100 -743.668091
36.430698 50.694099 -744.190186
36.429901 45.267502 -761.885986
36.429199 6.829200 -743.098328
36.427898 24.780500 -748.409973
36.427502 24.154200 -745.217102
36.426498 6.124300 -743.556396
36.424500 28.662201 -747.228882
36.422199 6.520100 -741.757324
36.422100 59.374298 -746.027588
36.421398 29.610201 -746.567383
36.419998 5.051800 -744.156921
36.419498 54.565102 -745.489075
36.418400 40.129700 -749.223877
36.418400 29.127701 -747.410522
36.416901 43.013100 -744.741882
36.416500 60.410999 -745.884583
36.415901 30.365499 -744.540771
36.414501 48.774101 -744.265381
36.413700 41.248001 -748.020813
36.410801 26.808500 -745.460388
36.408699 43.166199 -748.475525
36.408501 44.977299 -744.536377
36.408401 35.142200 -744.223572
36.408100 25.900999 -744.966919
36.407799 29.244801 -746.461914
36.407101 32.674702 -747.307129
36.405998 49.882198 -744.787415
36.405800 53.278599 -744.662292
36.402901 46.717300 -744.286926
36.402000 41.217400 -748.434387
36.401798 28.181499 -751.519226
36.401699 59.735901 -746.146973
36.401699 46.556702 -744.758484
36.400101 23.695200 -747.773621
36.400101 27.415300 -745.778015
36.399899 24.103100 -745.816711
36.398102 27.824900 -745.958984
36.397301 33.133099 -744.318115
36.395500 41.823399 -761.321777
36.394798 4.883600 -743.128784
36.394600 58.602299 -745.861511
36.394299 26.693701 -746.537415
36.394100 4.503900 -743.173218
36.391499 41.255299 -761.132019
36.390301 50.281200 -749.803406
36.389801 32.116402 -744.475830
36.384602 44.910400 -762.148499
36.382500 28.605801 -751.932922
36.382000 7.583000 -740.009827
36.381001 43.678902 -744.682373
36.379799 42.118801 -744.709778
36.379601 46.548199 -749.412170
36.379101 50.112598 -744.216919
36.378899 31.899000 -747.129395
36.376801 30.715300 -746.856384
36.372398 5.388400 -742.545227
36.370899 56.139801 -745.547485
36.369801 28.169201 -746.850281
36.369099 26.030001 -749.258423
36.368900 30.273701 -754.650879
36.368401 50.782501 -749.887878
36.367401 33.958801 -747.562805
36.367298 5.607700 -743.523071
36.367199 48.433601 -744.629272
36.365002 5.754800 -744.061584
36.363800 37.589298 -744.408020
36.362701 28.511999 -744.830017
36.361000 21.877899 -746.484009
36.360401 44.269299 -761.464722
36.360298 19.910900 -745.167725
36.360199 24.394199 -745.589783
36.359699 26.262800 -745.176025
36.359299 41.679199 -760.952576
36.359001 19.379700 -745.150513
36.358700 44.631302 -744.686829
36.358299 56.561798 -745.064026
36.358200 55.134102 -745.468872
36.357399 43.751099 -761.272705
36.356998 57.067902 -745.654419
36.356201 41.099602 -744.725098
36.355000 57.712200 -745.176208
36.354801 51.413898 -744.913086
36.354599 48.803101 -744.677795
36.353802 4.607900 -743.891418
36.353600 49.416401 -744.605286
36.348499 44.438099 -761.810791
36.348301 27.454500 -746.629272
36.347500 61.001301 -746.550171
36.347099 25.892599 -746.237488
36.343498 36.276001 -748.081116
36.343201 56.517200 -745.570374
36.339600 42.274200 -761.374878
36.338902 42.717400 -748.353027
36.337200 46.141899 -748.622925
36.336601 50.299099 -744.696228
36.334599 53.743599 -744.634216
36.332100 45.936501 -744.692383
36.331902 51.701000 -744.293518
36.331200 61.411499 -746.534912
36.330502 59.214600 -745.411621
36.330299 61.069199 -745.949524
36.328899 47.529499 -748.933228
36.327499 42.727798 -761.211121
36.327499 38.470901 -744.644287
36.327301 4.249600 -743.637817
36.326900 24.764299 -745.708313
36.326801 53.162800 -745.227173
36.325699 34.060699 -744.310120
36.325600 31.373699 -744.555725
36.322800 32.747700 -744.438416
36.322701 52.065300 -744.959412
36.321701 27.884199 -744.808716
36.321701 7.261300 -742.218323
36.320900 52.950699 -744.460999
36.319500 28.867599 -752.446228
36.319000 48.362202 -749.200317
36.318100 60.101200 -746.434570
36.317501 40.116001 -744.697815
36.316898 35.948502 -744.539612
36.316601 54.322201 -744.721191
36.312901 49.616001 -744.157227
36.312801 53.818001 -745.277771
36.311401 29.070801 -752.763428
36.311401 30.010900 -744.619080
36.310501 55.717899 -745.499023
36.309799 47.864799 -744.573975
36.309700 29.901199 -754.085388
36.308899 62.572498 -746.052979
36.308399 27.461201 -750.865479
36.305599 25.472700 -745.954590
36.305000 23.469601 -747.479614
36.303902 37.946499 -744.330017
36.303600 36.174400 -744.216675
36.303101 51.183998 -744.175781
36.300900 29.730200 -747.475281
36.300900 52.460201 -745.031616
36.300598 45.420799 -748.868774
36.300301 47.004299 -744.722778
36.300301 39.626999 -744.666870
36.299301 5.283400 -742.952271
36.298599 37.288399 -748.354187
36.298000 54.813499 -744.778198
36.297798 28.335699 -745.885376
36.297600 43.681198 -761.702881
36.297298 47.140499 -749.331909
36.296902 30.313000 -746.600830
36.296299 33.581902 -744.421875
36.295200 45.122501 -748.586670
36.294601 52.212502 -744.373596
36.289200 27.749399 -751.151184
36.285099 29.317200 -753.143616
36.284599 28.617100 -746.849304
36.282700 38.650200 -748.717712
36.281601 41.570499 -744.705078
36.280800 58.243301 -745.747986
36.280701 29.611200 -753.652588
36.280602 38.989201 -744.614380
36.279800 27.231400 -745.199219
36.279400 7.577600 -740.476807
36.278702 43.328701 -761.417480
36.277802 27.871201 -745.561279
36.277401 29.902000 -754.529175
36.276901 30.889500 -744.590088
36.275902 29.083799 -746.135193
36.275799 60.570599 -746.990784
36.275101 46.848900 -748.771301
36.274601 39.533001 -748.971680
36.274300 29.121799 -747.034912
36.272400 29.509300 -747.171509
36.271599 37.072899 -744.414673
36.271500 45.948601 -749.059387
36.270302 26.782301 -745.052429
36.268799 38.185699 -748.580078
36.266499 47.607601 -749.289612
36.265800 29.896299 -746.381714
36.264900 40.666199 -749.305786
36.263802 35.662998 -747.896118
36.259102 27.060801 -746.417114
36.258999 42.661900 -744.684021
36.258598 25.185801 -745.677185
36.257500 26.299900 -746.154785
36.255699 60.173801 -745.585815
36.254101 20.366199 -745.374573
36.253799 29.229700 -744.727173
36.252399 7.466500 -741.371094
36.251499 44.078602 -761.863525
36.251202 32.362202 -747.148376
36.250702 22.775101 -747.044617
36.250401 42.105099 -761.054626
36.249802 7.643200 -742.390381
36.247700 55.591000 -744.822388
36.247299 58.948502 -745.807312
36.246899 27.809900 -746.598816
36.246700 42.239700 -748.432678
36.245701 29.473400 -746.211609
36.245602 3.569300 -743.366882
36.243698 39.004799 -748.822021
36.243500 52.848801 -745.007629
36.242298 41.588402 -748.128784
36.241199 56.259499 -744.881714
36.240002 46.234001 -744.176392
36.238499 58.470200 -745.196228
36.236401 55.216499 -744.808716
36.234501 44.469101 -748.772827
36.233799 6.460100 -743.692810
36.232899 54.196201 -745.278198
36.231098 48.887600 -749.378174
36.230099 48.034302 -744.217590
36.229900 34.841599 -747.691589
36.229599 57.743900 -745.595581
36.228199 6.820700 -742.192200
36.228100 26.593599 -749.954224
36.227901 4.859900 -743.525085
36.226200 20.719200 -745.768127
36.225601 60.193802 -746.927979
36.225399 36.644199 -748.139526
36.225300 28.721300 -745.830078
36.223900 25.872700 -745.334473
36.223000 7.300100 -741.830078
36.222599 6.512100 -743.303223
36.220600 35.485100 -744.548279
36.215801 50.730301 -744.609985
36.215302 34.835701 -744.300903
36.213799 40.634300 -760.944092
36.212799 7.060500 -742.687073
36.210602 25.490101 -748.934875
36.207699 6.233500 -742.154907
36.201900 27.646000 -745.274902
36.201599 25.783701 -745.765015
36.200001 51.755299 -744.785217
36.199501 58.933601 -745.202393
36.199100 30.082600 -747.381287
36.198502 61.724499 -746.018616
36.197601 56.918999 -744.916992
36.195202 42.958599 -761.527588
36.193401 27.151199 -750.630615
36.193298 22.443001 -746.831726
36.192799 61.176701 -746.871216
36.192600 60.474800 -746.261414
36.187901 47.548801 -744.204285
36.186001 53.519299 -745.078308
36.184700 31.065300 -746.668823
36.183701 21.038401 -746.211487
36.181900 28.285000 -745.475830
36.179001 5.088400 -743.869019
36.176998 5.989500 -743.797424
36.176399 60.087898 -746.053772
36.175201 45.588501 -748.535828
36.173500 41.848701 -748.490723
36.173100 49.748600 -744.524109
36.173100 49.071701 -744.175720
36.172798 44.103802 -744.628113
36.172298 30.530701 -747.561096
36.171299 60.829201 -745.646118
36.170502 51.096500 -744.664124
36.169899 53.336300 -744.366882
36.167900 26.773701 -746.145386
36.166599 37.832802 -748.472595
36.163399 49.660301 -749.586487
36.158600 52.602901 -744.287170
36.156700 23.145599 -747.265930
36.156601 54.854500 -745.202026
36.155499 44.834999 -748.877686
36.153999 37.364201 -744.182190
36.153900 47.441799 -744.634888
36.153301 26.167601 -745.737488
36.151600 24.348200 -748.187012
36.151199 29.257900 -753.498718
36.150501 29.554399 -754.028625
36.150398 4.112300 -743.290710
36.150101 43.654598 -748.617676
36.149700 57.380798 -745.516418
36.149399 30.701000 -746.507629
36.148201 62.169201 -746.035522
36.146801 31.751301 -744.633972
36.143600 60.625099 -746.601501
36.140800 25.093201 -748.623413
36.140701 57.405399 -744.962219
36.139000 5.551300 -743.154785
36.137501 50.402000 -744.129517
36.136799 56.813202 -745.453125
36.134701 36.476700 -744.545105
36.133999 28.308201 -745.100586
36.132801 31.716999 -746.865479
36.131199 59.618099 -745.895813
36.130001 23.934299 -747.910583
36.128601 51.129501 -749.966309
36.127800 6.866000 -741.729919
36.126801 26.548599 -745.348877
36.126801 57.973499 -745.013794
36.126598 33.168201 -744.597778
36.126099 33.263199 -747.285828
36.125301 34.341099 -744.473083
36.123501 7.772700 -741.631775
36.123100 28.300900 -751.993103
36.117599 61.944199 -746.516113
36.116901 46.338402 -744.592712
36.115601 40.548901 -744.625122
36.113998 29.260799 -745.809082
36.113602 44.798000 -748.508301
36.113499 59.620899 -745.223389
36.113400 29.909100 -747.037720
36.111301 31.107201 -747.672302
36.110802 6.073400 -741.797729
36.110500 28.948099 -746.750977
36.108700 5.788200 -742.787476
36.108101 39.317902 -744.567505
36.106899 30.288601 -746.281982
36.106602 26.561001 -745.815796
36.105099 45.252399 -744.596313
36.103802 54.146599 -744.453796
36.103600 55.365601 -745.250977
36.102798 63.120602 -746.169006
36.100800 46.901199 -744.159119
36.099998 5.223800 -743.505981
36.099899 45.571400 -749.181580
36.099400 34.292999 -747.521423
36.099098 35.656700 -744.223999
36.098400 6.865300 -743.319824
36.098202 28.254601 -746.510498
36.094501 43.292099 -744.632324
36.093800 28.923700 -745.510681
36.092899 44.049301 -748.648682
36.092602 32.440899 -744.636292
36.091900 27.299400 -746.155823
36.091499 29.576099 -744.820129
36.091202 49.142200 -744.535583
36.090099 38.538898 -744.262085
36.084301 50.884102 -744.090088
36.084202 47.957298 -749.342224
36.083000 58.526001 -745.610901
36.082401 21.717899 -746.270691
36.081799 43.275299 -748.631470
36.079601 29.760000 -745.994080
36.078899 54.584801 -744.545593
36.078400 28.540300 -752.369202
36.077499 33.880600 -744.572388
36.076500 7.766600 -740.935181
36.075500 28.632000 -745.274292
36.075500 7.395900 -739.737122
36.075100 5.621200 -743.860718
36.074699 7.702900 -742.020020
36.074501 30.526501 -744.729980
36.072899 28.741301 -752.699707
36.071899 48.652100 -744.115112
36.071602 27.994801 -751.585815
36.071201 28.951401 -753.095825
36.070599 56.127800 -745.292908
36.069099 42.879799 -748.580322
36.068100 25.814501 -749.189514
36.066799 53.939800 -745.005920
36.064499 26.987900 -745.486328
36.063599 41.880402 -744.617371
36.062801 40.111099 -749.077515
36.062801 60.877899 -746.262573
36.062199 35.178299 -747.711975
36.061600 52.339401 -744.692078
36.061001 24.682899 -745.280823
36.059299 26.227800 -749.807495
36.056900 51.487400 -744.553528
36.054798 6.016600 -743.317322
36.054600 28.989000 -744.944580
36.050400 48.624599 -744.558716
36.049400 49.901100 -744.111084
36.044498 42.358898 -744.612976
36.040199 30.384199 -747.098022
36.039501 61.484699 -745.714783
36.038898 27.872999 -746.277771
36.035099 7.483600 -740.172180
36.034302 35.962502 -747.901794
36.032299 33.828201 -747.354919
36.031300 32.102100 -746.907288
36.029800 48.471401 -749.440308
36.029598 38.185902 -744.467285
36.029400 50.199402 -749.734070
36.029400 46.738300 -744.548828
36.027699 56.563099 -744.780029
36.027302 41.253399 -744.616577
36.025799 30.147301 -744.831299
36.025600 61.252701 -746.305298
36.025002 58.116100 -745.494812
36.024502 59.321701 -745.654602
36.020901 51.867001 -744.115417
36.019100 44.756001 -744.580688
36.018101 29.428801 -746.774414
36.016602 29.293100 -745.440613
36.016102 26.751699 -750.275330
36.013699 53.792599 -744.323425
36.012699 55.366100 -744.530029
36.011299 27.222601 -745.788818
36.011101 39.980499 -744.538208
36.010799 49.995800 -750.165588
36.009300 49.105000 -749.581421
36.006302 54.977798 -744.552185
36.005699 61.596500 -746.623718
36.005699 35.174099 -744.471802
36.004799 41.144798 -749.336975
36.004299 50.710400 -749.831604
36.004002 52.795101 -744.702087
36.003399 53.023300 -744.237915
36.002201 30.788900 -747.259094
36.000702 28.624500 -746.483215
35.999298 31.523300 -747.664001
35.998901 60.622898 -745.390076
35.998299 50.159401 -744.513977
35.995201 42.906502 -744.596924
35.994900 30.659300 -746.155884
35.994900 37.512402 -744.496216
35.991501 60.226501 -745.294983
35.991501 59.238701 -745.110718
35.989498 27.588499 -751.331482
35.987202 7.920200 -741.300476
35.987000 51.500599 -744.068970
35.986900 56.053101 -744.617371
35.985802 60.405701 -745.902771
35.985401 23.537001 -747.708679
35.982300 27.597799 -745.668701
35.981400 39.003300 -744.253113
35.981400 44.724701 -744.178589
35.979401 21.291401 -746.027527
35.977100 53.163700 -744.763672
35.976200 45.859299 -744.531616
35.973801 49.457500 -749.930908
35.973400 32.132198 -747.597595
35.972900 51.963402 -744.557617
35.972500 7.080100 -742.054199
35.971100 45.978600 -748.643982
35.971001 31.101101 -746.347717
35.970901 22.182699 -746.556519
35.970001 31.505699 -746.537476
35.968700 29.724400 -745.562805
35.966900 47.369900 -749.364014
35.966900 54.482498 -744.976318
35.965000 47.761398 -744.457825
35.963799 31.431101 -744.754883
35.963699 44.517300 -749.086182
35.963200 58.345001 -744.889771
35.961700 48.125801 -744.533203
35.961102 24.776501 -748.431885
35.959599 36.816101 -744.213806
35.958599 49.380199 -744.133179
35.957401 62.791500 -746.046570
35.956699 30.195299 -745.866882
35.955799 56.537399 -745.239075
35.955200 39.302898 -748.827271
35.955101 48.292099 -744.075073
35.952999 44.437099 -748.462219
35.952499 31.037201 -744.780884
35.952000 58.706100 -744.993774
35.943401 38.512901 -748.564026
35.937401 32.566399 -747.771301
35.936501 58.920200 -745.583679
35.935600 40.527802 -749.151611
35.935101 6.614000 -743.010315
35.933701 37.192402 -748.203918
35.933399 34.688499 -744.580872
35.933102 47.351501 -748.976318
35.932598 36.130299 -744.398926
35.932301 42.438702 -748.595520
35.931000 39.779301 -748.929871
35.930599 27.360001 -751.020081
35.930000 50.373402 -750.289673
35.929100 59.927399 -745.706116
35.928600 20.610701 -745.410278
35.926201 57.121498 -745.304321
35.926102 44.883801 -749.242126
35.925499 7.433500 -742.380493
35.923801 55.730598 -745.111877
35.923401 57.778900 -745.365723
35.919300 45.460999 -744.195313
35.918301 35.544601 -747.711487
35.917900 28.396400 -746.181885
35.915298 27.989799 -745.627686
35.915199 46.566002 -744.096924
35.914398 47.731201 -749.101318
35.914200 45.876999 -744.165527
35.913101 61.912601 -745.718506
35.911999 53.566700 -744.800171
35.910000 31.421301 -747.278687
35.909500 61.726501 -746.252075
35.908699 41.851299 -748.200500
35.907700 50.691898 -744.379089
35.905201 6.218600 -743.598206
35.904499 29.214701 -746.487976
35.903000 39.613098 -744.474487
35.902100 32.554798 -746.835876
35.901199 36.972801 -744.552979
35.900398 45.188099 -748.512512
35.899799 22.706800 -746.939514
35.898899 40.404999 -744.309875
35.898701 55.345901 -744.936218
35.895000 47.897900 -744.117615
35.894901 24.246401 -747.938110
35.893902 28.184700 -752.271729
35.892799 34.713699 -747.490784
35.890598 29.829100 -746.691284
35.890400 51.178101 -744.382507
35.888599 37.678001 -744.173096
35.887501 7.498000 -741.742004
35.886600 37.660301 -748.280090
35.886200 35.658699 -744.722473
35.885799 46.785000 -748.853271
35.885601 43.622700 -744.539429
35.884300 52.364201 -744.104187
35.884102 48.639999 -749.745972
35.883099 31.891300 -746.500916
35.881901 57.207802 -744.729492
35.878201 7.238700 -742.887878
35.877800 33.492401 -744.707214
35.877102 32.813000 -744.729797
35.874802 57.751801 -744.747925
35.872200 54.388802 -744.263916
35.871601 40.852600 -744.522522
35.870701 36.536900 -747.972717
35.868900 29.867901 -745.088623
35.868301 30.604401 -745.712280
35.867802 61.277100 -745.456421
35.867298 7.604000 -740.554993
35.865601 54.888100 -744.951172
35.865398 6.445100 -741.813416
35.863899 60.801701 -745.921204
35.863800 30.208500 -746.770325
35.859798 44.365398 -744.549683
35.859299 50.764999 -750.417786
35.855499 62.396500 -745.894775
35.853901 38.027901 -748.404785
35.852100 33.070499 -746.987488
35.849998 6.574500 -743.429016
35.849701 28.848301 -746.227722
35.847698 47.254501 -744.509216
35.846600 30.108400 -745.503174
35.843601 43.851200 -748.917175
35.841099 31.826300 -747.359924
35.840698 62.430401 -746.448486
35.839600 42.040798 -748.705078
35.837101 28.484301 -745.757202
35.834099 32.023998 -744.787170
35.833900 54.766300 -744.291016
35.833801 23.405500 -747.391174
35.833199 25.234800 -748.809021
35.831402 48.224499 -749.666077
35.830200 22.939699 -747.415283
35.826500 6.871900 -742.746582
35.824902 26.911200 -750.649719
35.824902 48.955299 -744.034180
35.823502 38.716000 -744.484192
35.820801 47.451698 -744.087524
35.820000 37.837700 -744.526184
35.819599 34.176399 -744.690918
35.818401 31.116301 -745.925476
35.816299 30.634701 -746.918030
35.814602 43.842400 -748.444824
35.813702 27.915899 -751.892578
35.813599 53.477798 -744.120300
35.813099 30.525000 -745.026794
35.812302 56.408600 -744.499084
35.811401 48.853600 -749.350281
35.810799 32.240501 -746.635681
35.810101 52.545502 -744.505493
35.810001 48.915901 -744.445618
35.808498 54.202202 -744.751282
35.807701 38.101501 -744.167786
35.807598 49.561798 -749.495117
35.805099 34.122398 -747.256226
35.801601 56.806198 -744.567810
35.801201 32.964298 -747.849915
35.798100 31.579800 -746.103027
35.796398 41.577499 -744.548584
35.795601 49.472599 -744.463074
35.794102 51.099499 -744.002319
35.793900 7.181900 -739.427612
35.791801 44.121101 -749.167725
35.791599 51.502602 -750.573608
35.790401 45.051701 -744.527100
35.790001 31.127399 -746.994385
35.787300 58.383999 -745.379395
35.786999 36.616901 -744.647217
35.783699 45.564602 -748.543518
35.782101 51.007801 -749.844421
35.780499 32.425999 -747.403076
35.779499 50.295601 -744.004028
35.778702 25.582001 -749.086792
35.777802 53.315800 -750.600586
35.777100 43.411400 -748.469116
35.775799 7.029400 -742.406616
35.775200 47.677898 -749.525879
35.775101 23.939301 -747.734680
35.774700 48.139999 -749.156982
35.772202 60.036201 -745.045105
35.771900 59.627201 -745.554016
35.770599 28.862600 -745.683777
35.768299 29.237801 -746.094788
35.762901 61.261299 -746.042786
35.762501 57.498501 -745.181580
35.762299 33.632702 -747.052612
35.761902 56.121601 -745.004211
35.759800 49.903198 -749.846130
35.756901 52.771801 -744.065918
35.756500 60.255600 -745.635376
35.756100 6.879700 -741.734497
35.755501 62.046299 -746.725708
35.755402 39.035000 -748.613098
35.751301 50.338699 -749.966675
35.749599 43.199001 -744.508606
35.749100 47.084499 -744.035278
35.747601 55.831699 -744.330688
35.747501 29.558201 -746.317993
35.746300 28.172199 -745.303528
35.744202 35.310902 -744.820313
35.743999 63.458199 -745.957581
35.743500 55.172001 -744.284119
35.741699 7.760000 -742.466675
35.737301 60.754799 -745.121094
35.735901 42.032501 -744.510681
35.733200 59.033001 -744.867188
35.731201 33.533600 -747.938171
35.729198 21.073700 -745.842529
35.728600 46.238800 -744.478882
35.726398 42.588501 -744.512817
35.724899 31.153900 -745.556213
35.721001 51.096699 -750.272705
35.720402 22.317200 -746.808472
35.718899 43.000999 -748.494873
35.716599 44.735802 -748.430481
35.716400 51.571400 -744.335693
35.715500 56.849899 -745.121887
35.715401 59.211300 -745.433716
35.714901 31.514299 -745.702881
35.710300 32.683201 -746.540283
35.709702 39.203400 -744.488098
35.709702 53.859001 -744.117981
35.708401 36.117199 -744.760376
35.706299 34.181900 -747.930420
35.705601 30.073999 -746.441772
35.705002 32.062099 -746.210327
35.704601 21.609301 -746.123108
35.704498 59.638000 -744.935730
35.703300 7.000200 -743.120605
35.702702 32.882401 -747.439880
35.699402 31.498199 -745.028320
35.699001 42.697899 -748.848877
35.698399 32.394001 -744.887329
35.694599 24.524799 -748.305786
35.693298 54.647099 -744.720215
35.692902 48.554699 -744.422974
35.691399 22.024099 -746.345398
35.690701 51.910500 -750.580872
35.690102 7.777200 -741.969482
35.688702 52.114201 -744.366272
35.688000 33.036499 -746.655884
35.687801 61.624199 -745.356812
35.687801 31.070400 -745.131226
35.687801 45.456799 -744.515198
35.687500 35.072701 -747.321228
35.687199 49.750999 -743.954102
35.686901 48.571701 -744.026428
35.686298 62.064800 -746.153320
35.685799 52.898102 -750.481506
35.685501 62.791199 -746.502075
35.683201 53.149300 -744.436279
35.681400 43.267899 -748.848206
35.678398 41.031502 -749.170715
35.678200 58.537498 -744.735474
35.677601 33.248600 -747.595886
35.677399 50.310501 -744.383728
35.676300 58.167900 -744.672729
35.674900 50.539501 -749.644104
35.671700 53.823101 -744.602600
35.670300 46.609600 -744.443970
35.670101 38.374001 -744.534973
35.670101 51.752899 -743.979980
35.669899 40.250000 -748.960999
35.668800 7.648300 -741.353516
35.668598 29.490000 -745.693420
35.667801 7.443800 -740.286316
35.666599 31.489599 -746.941589
35.664902 34.606602 -747.190796
35.664501 63.852901 -745.937805
35.664299 62.165199 -745.585693
35.663700 45.062199 -744.175110
35.663502 30.593599 -746.571472
35.662800 50.695301 -750.099487
35.662498 36.031502 -747.703186
35.657299 29.846100 -746.094788
35.656898 58.792400 -745.336304
35.655998 39.591702 -748.756287
35.653599 56.492199 -744.952820
35.653599 37.271099 -744.487488
35.653500 43.976200 -744.494080
35.649899 41.416401 -749.270813
35.648102 44.306301 -744.222778
35.647900 34.540501 -748.013428
35.647499 52.436501 -750.233826
35.646801 33.821800 -744.844604
35.645100 32.452801 -746.246216
35.644600 49.963600 -749.468079
35.644299 52.076599 -750.113525
35.643002 33.206402 -744.906006
35.640598 50.730000 -743.936829
35.638000 38.341900 -748.364319
35.638000 23.161100 -747.185974
35.636398 58.056499 -745.166809
35.632599 34.943699 -744.743286
35.632500 40.998901 -744.220825
35.631100 33.825500 -747.722107
35.630600 62.813000 -745.790588
35.629700 24.938299 -748.613220
35.627602 35.566002 -747.427795
35.626999 31.880501 -747.058716
35.625801 57.157398 -744.460876
35.624500 7.436500 -742.133423
35.622700 61.595100 -745.963074
35.622101 61.010601 -745.711182
35.621799 46.255699 -744.112488
35.620201 55.176102 -744.708374
35.619400 47.953800 -744.410217
35.618000 49.806099 -744.349182
35.617401 48.581501 -749.185974
35.615101 37.050999 -747.987488
35.614700 55.692600 -744.776978
35.613602 44.227200 -748.364624
35.613098 40.043499 -744.479004
35.612400 57.556000 -744.518311
35.610699 49.237900 -749.330078
35.608200 30.396000 -746.257019
35.607201 34.567699 -744.789001
35.605499 33.529598 -746.709778
35.604599 32.096500 -745.787903
35.604401 42.561199 -748.400879
35.601700 54.218102 -744.068909
35.601002 60.620300 -745.613281
35.597099 30.587200 -745.361511
35.597000 24.062700 -748.125305
35.596901 44.689499 -744.171997
35.596500 34.976398 -748.046326
35.594799 56.162102 -744.250427
35.590000 32.075199 -745.062195
35.584599 47.542500 -744.444580
35.583599 7.192400 -741.832825
35.582199 37.592098 -744.684570
35.580898 47.002998 -744.420715
35.576302 51.642700 -750.294128
35.576099 31.175501 -746.642822
35.575001 48.113300 -743.984619
35.572399 40.609299 -744.441223
35.570801 37.498001 -748.091980
35.566502 54.587502 -744.084717
35.564999 49.383202 -743.934021
35.564899 45.929600 -748.590698
35.564602 30.190901 -745.738525
35.562599 51.383400 -749.869019
35.561699 32.287399 -747.110474
35.560902 47.466400 -748.929382
35.559502 32.842201 -744.992310
35.559101 52.610500 -750.730286
35.556000 56.566799 -744.277405
35.555099 33.285900 -746.397705
35.554798 34.138000 -746.906006
35.554699 62.434799 -746.198730
35.552200 22.697500 -747.111511
35.551102 7.738100 -740.845825
35.550400 59.913101 -745.394287
35.548401 45.802799 -744.106384
35.548100 22.344700 -746.473022
35.547901 36.539501 -747.728271
35.545300 53.170898 -750.980286
35.544102 49.175900 -744.356384
35.543701 50.813499 -744.349609
35.543400 40.719898 -749.015015
35.542801 46.701599 -744.084106
35.538101 32.931599 -746.207214
35.536201 7.261500 -739.984802
35.535801 6.596200 -743.219421
35.530102 39.657902 -744.491821
35.528702 52.252300 -743.975586
35.528599 36.881401 -744.790100
35.527401 47.874699 -749.013916
35.526600 53.248600 -744.011475
35.526402 43.543098 -744.463318
35.525902 32.660400 -747.157471
35.524799 32.449001 -745.583374
35.522400 39.958698 -748.764099
35.521000 61.324001 -745.088074
35.520802 57.175999 -744.974792
35.520401 35.834400 -744.939270
35.519199 41.289200 -744.467712
35.519100 23.584000 -747.722778
35.519001 37.966599 -744.704529
35.518200 37.949402 -748.179016
35.518101 42.898300 -744.452026
35.513699 45.118999 -748.430115
35.512299 41.937599 -749.353699
35.511600 52.228001 -750.753296
35.510101 46.707199 -748.757813
35.509899 34.184898 -744.951782
35.508499 31.752501 -745.287170
35.505600 54.158798 -744.471924
35.503101 43.804501 -748.224915
35.501099 56.139801 -744.718994
35.500401 30.690500 -746.036682
35.498798 53.479301 -744.455017
35.498699 61.937099 -745.297485
35.497799 63.120300 -746.503906
35.497501 34.445599 -747.676697
35.494701 31.746099 -746.729675
35.494301 39.847500 -744.151672
35.492298 36.467899 -744.884094
35.490601 59.506001 -745.309387
35.487000 60.480598 -744.903687
35.486900 52.728901 -744.364929
35.485001 49.012699 -749.015625
35.484798 45.385399 -744.141113
35.484402 38.813999 -744.609009
35.483700 33.508598 -745.049072
35.480099 30.851299 -745.660217
35.476299 32.793598 -745.789978
35.474701 44.597599 -744.514771
35.472401 51.306801 -743.872498
35.470001 58.458698 -745.140930
35.469799 35.430302 -748.029480
35.468300 55.646599 -744.098572
35.467400 35.339802 -747.145813
35.467201 43.154598 -748.216370
35.466301 33.835800 -746.520813
35.462299 33.557598 -747.370483
35.462299 33.145500 -747.256470
35.461201 57.547901 -744.971130
35.460499 57.960899 -744.450623
35.459702 42.340900 -744.441772
35.457901 25.180201 -748.983215
35.456100 58.973900 -744.619019
35.454601 54.995499 -744.064575
35.453499 23.234800 -747.538086
35.452599 31.177601 -746.271118
35.452099 51.219002 -744.340088
35.451599 6.918200 -742.793030
35.449501 41.723801 -744.432678
35.447800 7.524300 -741.739014
35.447300 51.831600 -744.328491
35.444801 60.273102 -745.404724
35.442600 59.441700 -744.705688
35.441002 50.789299 -749.794678
35.440498 33.170799 -745.662415
35.439800 49.736599 -749.195679
35.437698 53.564098 -751.242798
35.437599 39.293400 -748.518311
35.435001 48.880001 -743.953796
35.433701 21.713800 -746.361572
35.433601 61.364601 -745.683777
35.433498 22.017000 -746.614075
35.433300 60.125198 -744.793030
35.430500 35.146599 -745.060791
35.430199 56.760300 -744.823730
35.429501 38.884701 -748.442200
35.427601 47.438900 -744.043396
35.426601 35.958199 -747.347717
35.425701 33.581699 -746.194885
35.424900 45.074200 -744.460022
35.420799 34.810699 -747.684814
35.420799 21.362301 -745.994385
35.419399 48.287701 -748.903076
35.418900 36.444099 -748.403015
35.418499 62.577400 -745.483826
35.417500 59.110901 -745.161804
35.416698 34.761902 -746.937073
35.414600 35.863201 -748.143616
35.413399 32.179600 -746.729187
35.413399 56.946400 -744.172180
35.411598 50.199100 -743.893494
35.406799 62.040001 -745.905273
35.406700 46.003799 -744.445618
35.405899 52.779400 -743.946777
35.403801 47.158401 -748.722412
35.402500 7.800000 -742.258972
35.402100 64.300102 -746.026611
35.401600 49.754601 -749.677612
35.399101 34.109299 -747.465088
35.397202 62.835602 -746.201904
35.395500 48.660500 -748.743225
35.394001 31.357500 -745.830078
35.393002 40.359600 -744.164917
35.392200 54.544102 -744.440613
35.391899 32.617500 -745.260620
35.391701 50.233501 -749.821472
35.390400 44.604599 -748.251282
35.387699 57.466499 -744.235413
35.376099 63.288601 -745.776611
35.375099 33.170502 -745.209595
35.374802 36.327900 -747.466370
35.374599 50.909901 -750.197998
35.374500 41.222900 -749.079712
35.372299 58.407101 -744.449585
35.371601 32.064899 -745.442688
35.371201 45.653500 -748.373230
35.370399 52.173401 -750.375000
35.370201 50.449600 -749.340820
35.370201 31.719500 -746.339172
35.364201 32.531502 -746.841980
35.361301 53.101200 -750.663086
35.360298 49.529598 -744.249512
35.358200 34.528198 -746.638672
35.357300 51.289600 -750.168884
35.356499 31.712000 -745.673096
35.353699 60.811901 -745.368530
35.353600 6.998800 -742.314880
35.352901 7.952400 -741.892517
35.352299 37.225201 -744.713928
35.350498 40.331100 -748.778870
35.349899 53.705002 -743.955872
35.347500 50.950802 -743.856873
35.346298 39.723900 -749.237976
35.345402 38.425499 -744.736572
35.343700 58.097900 -744.926025
35.342800 47.866001 -748.664673
35.339500 34.721001 -745.050720
35.338299 33.893200 -745.129211
35.336899 36.869099 -747.712219
35.336300 39.207001 -744.466919
35.335400 33.763599 -745.651184
35.334202 51.842602 -743.848572
35.333698 7.471100 -740.609070
35.333000 44.141399 -748.054382
35.332901 48.461300 -743.893127
35.331902 61.709400 -745.009888
35.329899 55.318802 -744.492004
35.329899 46.368198 -744.418274
35.321098 38.499001 -748.233215
35.320202 52.314499 -744.320984
35.318199 55.817200 -744.509216
35.318100 40.874699 -744.492126
35.316002 46.451302 -748.400024
35.315701 53.804100 -744.369202
35.315399 41.171398 -744.134705
35.314999 32.959702 -746.958313
35.314301 51.875500 -750.654724
35.313999 22.898701 -747.330200
35.313400 48.382198 -744.327209
35.312698 34.083302 -746.066223
35.312401 24.382200 -748.319275
35.310902 52.578300 -750.431396
35.309299 37.281200 -747.829224
35.308399 35.111000 -746.860474
35.308300 62.569698 -745.945007
35.305698 49.655602 -743.870911
35.304699 63.576900 -746.350220
35.304298 45.526798 -744.456787
35.303799 51.672699 -750.033630
35.303501 56.343399 -744.009277
35.301399 40.359200 -744.523499
35.298100 54.923302 -744.447021
35.296700 39.692600 -748.536621
35.294201 49.977699 -744.222778
35.292900 51.502602 -750.487488
35.292099 46.912102 -748.374512
35.290401 35.349998 -747.706116
35.288502 38.906399 -749.012878
35.287102 53.057598 -744.308289
35.286701 23.776800 -747.976013
35.285400 62.355000 -745.186584
35.284401 44.038502 -744.463623
35.283001 49.464100 -749.440125
35.282799 7.675200 -741.289124
35.282501 35.579800 -745.120972
35.279598 52.862701 -750.995483
35.278301 50.484699 -744.238770
35.275799 61.113800 -744.819885
35.275200 58.794601 -745.025513
35.274200 31.946199 -745.953430
35.273499 61.719700 -745.575928
35.272400 36.915901 -748.387573
35.271000 35.727402 -747.059570
35.269001 43.187199 -744.427612
35.267200 55.934200 -743.979919
35.266399 60.028301 -745.179626
35.263302 32.291100 -745.802002
35.263100 32.516499 -746.452576
35.262699 50.460899 -750.191101
35.262501 32.892700 -745.479980
35.262299 36.132099 -745.081116
35.260502 47.881302 -744.322021
35.259899 45.504299 -747.996582
35.259602 45.055599 -748.158508
35.259399 54.099701 -743.943604
35.258900 41.707100 -749.176208
35.256302 53.496101 -750.898376
35.254601 42.460400 -749.371582
35.252899 63.221802 -746.224426
35.252499 61.174801 -745.404114
35.252499 56.353600 -744.521118
35.251499 37.738201 -747.924316
35.249298 34.877998 -746.562805
35.249100 63.719101 -745.812622
35.249100 34.285301 -745.228821
35.247299 47.269199 -744.373901
35.244999 46.479698 -744.043030
35.242001 57.106701 -744.660828
35.241901 48.957802 -744.285278
35.241600 49.060398 -749.309387
35.240002 33.422100 -747.000977
35.237499 50.111198 -749.484619
35.236500 44.743900 -747.908020
35.236099 33.807701 -747.189819
35.235401 34.499599 -746.073975
35.235100 37.371498 -748.528503
35.233398 37.001202 -745.004578
35.228199 63.008499 -745.414612
35.227200 33.485901 -745.390503
35.224800 46.825600 -744.412598
35.224400 7.281000 -741.909973
35.224098 37.736698 -744.907471
35.223000 57.765999 -744.769226
35.221298 47.073502 -744.010315
35.220600 64.685303 -745.775024
35.218899 41.706699 -744.143799
35.216999 57.784401 -744.137024
35.214802 39.532001 -744.692078
35.213799 6.847200 -743.163330
35.213200 34.606098 -747.422485
35.212399 44.998600 -744.138123
35.212002 39.974998 -744.621277
35.211800 58.888302 -744.354492
35.211399 35.698502 -747.839905
35.210899 32.852798 -746.617920
35.209301 54.731701 -743.898926
35.203499 59.429001 -745.069702
35.201801 60.372601 -744.643311
35.201599 43.650200 -748.051208
35.201599 34.951401 -745.329529
35.200600 56.737301 -743.938721
35.200298 60.483700 -745.207092
35.199699 58.165199 -744.146423
35.197399 40.766800 -748.792786
35.194901 34.216202 -745.725403
35.186699 50.603901 -743.821594
35.186100 38.996300 -744.763428
35.185600 37.785702 -748.627075
35.185600 32.634602 -746.025574
35.182098 42.104000 -749.232971
35.181099 59.900600 -744.523071
35.180199 36.239498 -747.972412
35.179699 49.298901 -743.865723
35.178799 40.050098 -748.590088
35.175900 53.130402 -743.876770
35.173500 52.419701 -743.810303
35.173000 36.664600 -747.405884
35.172199 55.234001 -743.940674
35.165798 42.766602 -744.427490
35.161701 36.619099 -745.124023
35.160999 35.449001 -746.706909
35.160999 51.574600 -744.217896
35.159698 58.413300 -744.816406
35.158501 52.032200 -750.048584
35.157700 45.751400 -744.079102
35.157600 23.371901 -747.724426
35.149200 38.501999 -748.825378
35.149101 39.105400 -748.296082
35.147999 34.873901 -745.963379
35.147400 41.993301 -744.457825
35.147301 35.169601 -746.346130
35.145699 50.991798 -744.198914
35.145302 62.232101 -745.645691
35.144798 41.518002 -744.500305
35.139999 33.232498 -746.631470
35.139099 34.199501 -747.140930
35.137402 37.389599 -745.016418
35.134701 59.495399 -744.400024
35.130901 57.247601 -743.973877
35.129902 44.378601 -744.437317
35.129700 62.981300 -745.913391
35.128700 32.976002 -746.226379
35.128300 43.664600 -744.409424
35.128201 64.133400 -745.827393
