57.080502 323.281494 -811.802429
57.078300 220.153198 -777.246094
57.055500 249.643600 -765.557678
57.055199 156.039093 -698.953003
57.053902 320.230988 -748.898315
57.053501 156.456497 -697.443481
57.047001 45.702400 -759.510986
57.046902 159.475693 -678.583374
57.037701 200.894501 -769.945618
57.030102 203.705505 -769.598816
57.023998 227.528900 -768.132690
57.020401 141.507004 -727.116272
57.013901 149.308395 -715.748291
57.010201 368.779297 -827.561218
57.003601 323.845398 -747.079529
57.000702 354.451904 -730.898987
56.998901 220.391495 -768.524780
56.997501 343.927612 -738.533020
56.996700 348.714905 -821.993530
56.991001 160.052704 -670.884216
56.982498 206.026505 -769.458496
56.981998 143.465607 -723.420288
56.980301 244.583801 -784.093079
56.979000 329.805511 -816.221313
56.977901 274.799988 -760.137878
56.974998 214.743500 -775.175781
56.974899 254.816696 -763.682495
56.974701 333.431213 -818.731323
56.963001 152.293594 -710.154175
56.954102 282.092712 -794.144897
56.949600 218.547302 -777.011719
56.944000 352.743195 -732.432007
56.942902 222.441193 -778.934570
56.935398 191.889206 -770.864502
56.935101 304.425415 -802.786377
56.925800 300.479309 -754.719482
56.924099 187.178604 -771.352478
56.922699 269.207489 -790.466309
56.920502 212.412003 -769.008789
56.919300 294.266510 -756.321411
56.913502 243.503494 -766.507874
56.908100 217.676605 -768.604004
56.906200 232.669998 -781.407227
56.898300 347.552094 -736.922974
56.886200 342.639191 -820.415527
56.883499 148.023300 -717.187622
56.882801 300.600311 -801.200623
56.879002 338.491699 -741.323608
56.873901 373.080688 -832.302979
56.863499 318.105408 -749.317993
56.854698 273.289398 -759.749878
56.852402 271.540710 -760.634888
56.848900 351.795013 -733.659180
56.848202 309.268585 -752.183472
56.835899 354.789612 -824.467285
56.835098 227.402802 -780.190308
56.833599 322.312988 -747.715576
56.822498 215.550201 -776.972473
56.820702 159.388397 -680.259216
56.818298 305.856689 -803.407715
56.815201 341.056488 -739.964111
56.813801 255.927307 -787.031677
56.808300 382.304596 -836.436218
56.799198 263.764801 -789.060791
56.798599 274.727692 -792.107300
56.797100 302.563507 -801.977783
56.797100 239.390793 -766.922729
56.794899 241.566101 -783.447876
56.790798 368.519409 -830.199524
56.786598 241.688904 -766.616028
56.784500 370.926208 -831.077271
56.769901 364.492188 -829.993286
56.768299 248.990494 -785.336487
56.763599 280.284485 -759.373230
56.761700 224.371506 -768.204590
56.752998 288.934204 -796.669373
56.751999 245.254303 -766.040283
56.747700 293.008606 -798.092224
56.742199 180.562500 -772.790222
56.741100 217.044403 -777.549927
56.740799 296.734100 -755.659729
56.740299 159.222198 -682.052673
56.735600 309.197906 -804.757629
56.732700 160.108902 -673.766724
56.730202 251.769302 -764.053223
56.723202 183.925003 -771.752319
56.722900 236.580902 -782.321899
56.716499 213.171494 -776.522827
56.711102 378.984497 -835.076294
56.710201 376.832703 -834.118408
56.706799 196.979797 -770.068420
56.705399 258.195892 -787.617126
56.703899 252.396606 -786.264282
56.697601 357.861694 -826.236084
56.696701 312.893311 -806.578125
56.693401 157.927200 -690.572083
56.685902 256.814087 -761.955872
56.682598 277.574310 -759.877686
56.674999 159.716507 -667.946411
56.674599 238.289200 -782.819275
56.667900 269.869598 -760.877197
56.654900 259.274292 -761.292786
56.653400 210.623398 -774.583923
56.652500 265.170410 -760.146179
56.652302 219.184601 -778.417114
56.651798 253.477798 -762.976013
56.639599 369.788788 -828.779785
56.625999 268.329315 -759.494873
56.625198 47.259499 -765.586670
56.613899 361.596710 -827.935913
56.606098 347.209198 -821.159180
56.601002 44.282299 -758.579529
56.596699 222.074799 -768.282776
56.596298 272.585693 -791.562317
56.593498 319.584900 -809.817627
56.590199 178.108505 -774.252380
56.587399 139.652206 -731.161377
56.581600 147.090195 -718.453613
56.578098 331.294006 -816.788086
56.577599 250.218094 -764.019470
56.577301 236.135406 -767.218079
56.575199 231.669601 -767.601318
56.571701 47.643501 -769.218018
56.570000 317.010193 -808.439697
56.569401 194.894501 -770.107117
56.563801 248.199402 -765.206177
56.562302 157.283493 -693.127930
56.560200 294.537109 -798.668274
56.558800 225.066498 -780.091187
56.551300 211.354095 -776.424072
56.550301 214.949997 -768.621094
56.546902 366.406311 -829.625427
56.544498 349.824310 -735.632690
56.542801 336.748108 -820.317322
56.530300 321.914215 -811.070679
56.529900 46.815300 -763.112488
56.528599 367.042999 -826.754028
56.526901 156.577499 -695.969421
56.520699 153.932693 -705.112122
56.518002 371.977814 -829.792175
56.513802 190.067703 -770.817688
56.509602 229.290497 -767.752380
56.509602 255.013504 -762.156677
56.507301 331.030396 -744.835205
56.505001 49.901600 -778.160278
56.495201 334.605713 -743.229980
56.492901 351.292114 -822.781677
56.491100 185.416199 -771.085571
56.490501 360.150787 -826.323730
56.485699 267.984985 -761.129822
56.482800 267.041809 -790.077881
56.481499 284.591309 -758.890381
56.469799 158.705795 -686.228271
56.467400 48.717400 -774.015381
56.467201 373.492004 -830.770874
56.464401 210.925400 -768.854675
56.450901 374.765594 -832.366577
56.449501 299.054901 -755.127319
56.445000 260.177795 -788.192017
56.438301 367.817291 -828.731384
56.435200 314.929504 -807.533630
56.435101 51.248798 -779.894287
56.433998 353.311096 -823.608276
56.429100 306.692413 -753.194885
56.428902 155.341904 -700.427002
56.424400 151.265396 -711.570801
56.421200 140.627197 -728.333496
56.414398 325.702789 -812.933716
56.403702 291.698303 -756.939270
56.395401 311.953613 -751.433777
56.387001 47.918701 -771.498901
56.386398 181.776306 -771.687988
56.382500 207.361801 -774.247681
56.381401 365.280304 -828.423279
56.374401 305.133209 -753.441406
56.371899 278.983795 -793.470520
56.370800 208.958496 -775.895813
56.362301 158.433701 -688.033081
56.360699 261.991913 -760.627930
56.349499 328.723297 -814.771606
56.349098 276.730896 -792.789917
56.337898 153.054794 -707.379517
56.336300 363.356110 -828.414795
56.326000 240.755295 -773.839722
56.316898 365.348602 -825.472412
56.308399 145.476395 -719.912415
56.305401 325.289398 -746.710083
56.304798 178.955505 -772.654785
56.302700 246.364700 -765.069275
56.298302 287.183594 -796.076721
56.291000 208.673706 -768.908630
56.285900 342.440399 -739.278320
56.283699 160.280396 -672.243713
56.282799 160.304001 -676.054626
56.282299 160.049805 -669.398926
56.278900 265.968994 -761.470276
56.271000 251.055603 -762.699585
56.268200 376.263092 -832.676270
56.266399 233.166901 -767.289124
56.261101 142.310898 -724.388977
56.247601 298.201996 -800.181580
56.247398 248.519501 -763.671387
56.237999 223.423904 -780.005676
56.233898 150.331696 -713.432922
56.227501 332.485291 -817.736694
56.224800 138.386597 -732.425903
56.203499 199.574295 -769.597290
56.197601 188.302902 -770.476929
56.192600 193.335602 -770.093018
56.186699 206.864197 -775.694702
56.184601 345.105408 -737.840210
56.181099 307.148712 -803.956299
56.178299 327.151306 -746.036072
56.163799 287.838593 -757.932495
56.162899 175.801407 -773.990112
56.153400 244.412704 -764.660828
56.148399 334.761810 -819.301025
56.145199 329.399292 -745.414429
56.142799 214.288696 -777.632080
56.138802 177.171799 -773.098999
56.138500 296.488007 -799.549072
56.127998 42.993301 -757.839722
56.127800 280.529205 -793.992676
56.121300 345.464600 -820.552002
56.116199 230.126801 -781.404114
56.108200 311.477814 -805.895386
56.105099 46.859299 -767.065674
56.103401 242.663193 -765.485107
56.099499 332.585388 -744.259399
56.095699 281.693787 -759.224121
56.071999 239.187195 -773.666870
56.070099 303.399200 -753.938110
56.069199 220.411102 -779.357300
56.062500 356.760712 -824.581299
56.053398 290.362701 -797.296570
56.052898 217.628296 -778.834473
56.048698 316.499603 -749.964417
56.048401 133.451004 -735.772705
56.045502 152.526901 -708.911682
56.043098 136.317902 -733.891479
56.035198 202.464996 -769.310303
56.028999 226.086304 -767.743774
56.027802 48.973400 -775.981873
56.026901 276.020599 -760.321716
56.016701 349.959991 -822.034180
56.009201 154.707199 -701.788086
55.999500 359.000702 -825.079102
55.996601 364.775604 -826.940308
55.995098 159.302002 -683.685181
55.994301 344.009796 -819.913330
55.994301 240.629593 -765.774414
55.987801 204.626205 -775.309326
55.987000 203.664398 -773.551819
55.974201 350.645813 -734.324219
55.971901 237.783798 -766.421509
55.970501 314.350586 -750.695129
55.969898 318.393585 -809.026001
55.966301 144.501297 -721.064880
55.966202 157.005295 -694.575073
55.963100 216.472305 -768.315796
55.959000 131.944901 -736.689880
55.947899 134.757797 -734.827393
55.947498 154.171295 -703.254395
55.944302 246.495697 -763.502686
55.938900 141.158905 -725.961792
55.938301 284.997589 -795.466614
55.937199 180.006104 -771.438782
55.937199 337.016815 -742.048096
55.931801 254.598999 -787.017822
55.931000 348.497101 -736.122803
55.928902 251.012100 -786.130371
55.927101 341.458405 -820.073975
55.927101 283.065002 -794.783691
55.924301 321.117706 -748.312622
55.921398 340.128204 -740.847412
55.918301 139.614105 -729.534119
55.918098 324.294403 -811.854614
55.917400 202.914505 -774.945618
55.916500 263.782196 -761.882019
55.911201 295.405396 -756.062317
55.908199 228.294907 -781.164429
55.898201 362.635315 -826.909790
55.894798 327.474792 -813.904785
55.888199 286.160614 -758.558105
55.885700 219.388901 -768.123718
55.871799 247.020096 -785.107727
55.865299 204.930298 -769.022095
55.863998 143.488602 -722.334473
55.853100 215.642899 -778.372681
55.853001 160.171204 -677.854675
55.849998 308.298615 -752.896729
55.840302 183.131393 -770.636475
55.835602 186.723495 -770.291321
55.823002 271.247711 -791.444702
55.822701 213.334106 -768.423096
55.822102 301.656494 -754.437683
55.811699 211.988297 -777.638916
55.807301 46.188499 -764.833374
55.806499 363.634308 -824.969116
55.803101 264.850708 -789.679626
55.801102 289.727509 -757.415894
55.795700 177.372498 -771.488586
55.791000 319.223785 -749.002014
55.766300 149.099503 -714.836121
55.763199 148.142807 -716.054016
55.760502 249.285004 -762.378113
55.758499 320.872009 -810.155273
55.758400 252.301102 -761.930176
55.757702 198.032196 -769.397522
55.751099 346.501099 -737.203125
55.749599 201.263596 -774.820801
55.748699 130.429993 -737.545227
55.743500 272.612091 -760.629822
55.734600 191.423401 -769.858582
55.734501 241.566498 -764.466187
55.723000 260.430298 -760.662598
55.720501 299.586395 -800.868896
55.720001 234.457901 -766.609375
55.719002 139.061798 -766.819519
55.718601 207.170197 -768.710083
55.718201 293.347198 -756.713989
55.715099 330.179413 -815.357910
55.702400 155.925293 -698.020020
55.693298 291.782806 -797.963989
55.691101 238.857498 -765.340271
55.688900 355.434814 -823.574097
55.682098 200.168793 -772.954712
55.676300 278.798004 -759.958984
55.673000 174.363495 -773.187683
55.668098 261.540314 -788.876587
55.659302 310.246307 -752.328125
55.655998 199.550797 -774.462891
55.652199 227.602798 -767.351318
55.650101 243.179199 -763.809814
55.648602 244.978104 -763.288879
55.640099 348.479889 -821.302979
55.636799 233.016296 -782.217712
55.636700 273.695587 -792.054016
55.631199 223.307999 -767.780212
55.631199 323.370209 -748.003784
55.621201 258.150208 -761.755676
55.620499 361.583496 -825.795288
55.613098 230.662506 -766.941895
55.611500 175.669403 -772.257385
55.611198 236.330902 -765.970703
55.609798 196.080704 -769.426025
55.598801 221.681198 -780.126587
55.595001 244.874603 -784.826477
55.594601 303.547485 -802.427917
55.594501 236.589706 -773.491028
55.591999 45.616299 -762.628723
55.591702 151.468903 -709.958008
55.572899 138.506393 -730.637024
55.563801 47.199600 -770.337219
55.563499 297.770203 -755.558716
55.553501 352.237213 -732.904419
55.550598 220.942001 -767.852905
55.547901 160.815704 -674.541992
55.543598 153.069000 -705.987488
55.536900 333.880188 -817.773804
55.532001 301.389496 -801.664795
55.530800 200.996201 -768.965088
55.529701 337.823486 -820.944092
55.526199 237.215805 -783.099121
55.525902 269.523407 -791.044373
55.524601 242.129105 -784.172424
55.518799 362.077911 -824.334473
55.517700 157.721802 -692.013123
55.517399 160.239105 -680.004395
55.513199 129.070999 -738.284485
55.502602 197.527206 -773.689819
55.500301 208.653107 -777.172913
55.491100 160.401398 -670.924316
55.489300 305.029205 -803.137817
55.484501 335.830414 -742.982910
55.483601 343.706512 -738.719116
55.474098 137.043198 -732.651001
55.456902 127.521301 -739.204224
55.455898 48.109402 -772.741516
55.452202 310.062012 -805.207520
55.451599 352.463898 -822.711670
55.448299 41.368698 -756.489075
55.444801 181.266602 -770.483276
55.442600 283.111389 -758.980286
55.442501 184.675903 -770.168518
55.439800 275.247894 -792.747925
55.435299 140.192398 -727.066223
55.433498 313.873993 -806.937378
55.431301 256.561707 -787.577576
55.430901 158.253494 -689.725220
55.429901 159.212097 -685.151672
55.409000 271.085388 -761.056519
55.403900 359.385101 -822.495972
55.403900 313.157410 -751.551819
55.397301 237.392700 -764.777710
55.393501 145.934296 -718.730774
55.393101 195.829407 -773.313782
55.390598 300.200012 -755.310730
55.390499 316.092712 -807.939209
55.382702 140.983704 -768.260925
55.375999 332.077698 -816.065674
55.369499 146.903793 -717.452087
55.367199 240.155594 -763.838379
55.362801 46.777100 -768.723816
55.361698 205.692093 -776.387512
55.357201 159.866104 -681.797119
55.352200 211.874100 -768.224426
55.348900 171.259003 -773.371887
55.346001 256.340088 -761.193176
55.338501 360.488190 -824.663818
55.331902 150.244003 -712.178101
55.314999 209.975403 -768.349426
55.310200 173.092300 -774.054199
55.302502 308.307587 -804.495728
55.301399 342.783691 -819.199280
55.297199 293.576691 -798.674377
55.296501 178.645905 -770.653198
55.296101 193.875595 -772.617615
55.293499 339.797913 -819.655029
55.289600 189.589401 -769.609497
55.286598 142.559998 -769.291870
55.280800 277.745514 -793.371521
55.279999 225.445007 -780.966370
55.278900 288.344696 -796.812012
55.275002 234.867203 -765.178101
55.274399 232.843307 -773.039307
55.271000 252.791702 -786.837402
55.269402 280.329315 -759.763977
55.267502 194.288101 -769.245789
55.267300 173.117798 -772.372986
55.262699 232.761597 -766.068970
55.259800 338.731598 -741.236206
55.258202 259.727295 -761.967712
55.252998 354.165314 -822.723511
55.250500 317.900391 -749.576416
55.242298 358.020294 -824.017822
55.236599 346.810089 -820.488525
55.232498 50.603699 -779.159424
55.232300 268.713501 -761.679626
55.218399 218.697098 -779.666321
55.215801 135.493607 -732.814575
55.214001 253.692398 -761.531982
55.203300 322.853485 -811.159302
55.193001 295.309296 -799.218323
55.191601 341.488007 -739.814819
55.189301 49.367802 -777.442078
55.179600 155.432098 -699.503174
55.173599 326.336395 -747.148193
55.169601 153.451904 -704.466980
55.167702 333.909210 -743.644775
55.153999 125.957901 -740.111877
55.148499 133.458893 -734.462524
55.144001 203.567200 -768.690125
55.143600 137.049805 -731.099121
55.136101 214.933701 -767.790405
55.132500 152.048706 -707.677673
55.132301 281.569397 -794.653198
55.131302 158.897003 -687.129578
55.128201 156.450302 -696.624084
55.127899 328.717712 -746.374573
55.122601 139.190308 -728.280212
55.116600 203.630600 -776.234314
55.115398 336.286011 -819.787598
55.110699 142.339798 -723.203979
55.110298 228.794495 -766.476013
55.106701 143.507401 -770.527527
55.104900 48.296001 -774.737671
55.097801 247.361694 -762.477783
55.088001 248.246201 -785.820190
55.082100 286.132996 -796.080017
55.082100 238.610703 -783.651611
55.081100 191.086899 -772.359985
55.074299 213.114594 -778.473877
55.073799 326.473999 -812.682983
55.072201 201.945694 -776.067078
55.057701 141.315994 -724.664429
55.052700 45.913799 -766.168091
55.043301 174.468399 -771.410522
55.040100 225.125900 -767.021179
55.037800 44.589001 -761.611816
55.032001 210.092407 -777.860413
55.031502 131.927505 -735.453430
55.028500 267.137512 -790.606689
55.023800 273.980408 -760.875610
55.013199 146.404907 -773.062927
55.012100 351.141388 -821.857178
55.006001 331.242493 -745.338501
55.004501 231.032303 -765.528015
54.999401 329.316895 -814.143616
54.996899 218.205200 -767.626221
54.994202 266.721710 -762.041321
54.989201 187.854294 -769.468323
54.984600 306.526611 -753.801575
54.981998 238.418503 -763.692871
54.977901 357.524994 -821.703674
54.972698 260.127686 -788.715027
54.966301 144.753906 -771.513977
54.961498 291.839813 -757.620728
54.958801 255.511505 -762.496582
54.957199 230.843094 -773.010071
54.952999 176.429794 -770.572815
54.949699 257.988892 -788.153381
54.948700 319.568695 -809.506226
54.948002 304.888702 -754.035217
54.947300 161.072006 -676.559021
54.933498 194.563599 -774.064209
54.932899 356.758514 -823.142090
54.929798 45.063599 -763.929688
54.928600 198.087402 -775.189026
54.923199 192.783401 -769.193726
54.921001 200.071396 -775.729126
54.910599 279.565491 -794.182678
54.906700 311.562988 -751.816223
54.905201 241.524094 -763.164185
54.904400 277.256195 -760.352722
54.902699 315.537994 -750.481079
54.898399 216.674103 -779.404114
54.896301 297.243195 -800.075012
54.894100 345.078186 -819.624084
54.891399 335.285889 -817.954590
54.887600 188.407700 -771.859070
54.879700 312.421387 -806.212830
54.878399 250.919098 -761.888184
54.868301 149.273697 -713.560791
54.867599 160.940094 -673.133118
54.866299 172.094299 -771.206482
54.864601 227.781494 -772.689026
54.864498 306.322510 -803.724182
54.862801 137.429794 -766.359619
54.861801 199.607895 -768.706726
54.853699 238.412003 -773.066406
54.849400 324.674988 -747.217712
54.842098 223.369598 -780.708496
54.827202 130.099899 -736.339783
54.824501 124.053902 -741.072327
54.817501 170.407394 -771.498291
54.817402 226.770203 -766.301514
54.816799 317.485504 -808.413879
54.814899 233.247696 -764.641418
54.812901 263.660614 -789.776184
54.803902 235.852905 -764.039795
54.803398 137.897598 -729.423279
54.802799 144.903000 -719.982971
54.796799 340.983185 -818.614990
54.792000 349.843689 -820.977722
54.788700 288.549713 -757.841919
54.788300 168.003403 -771.092407
54.788200 272.382813 -792.173706
54.785999 182.361801 -769.596375
54.781101 160.918106 -678.754517
54.769699 355.223389 -821.646912
54.769199 285.087311 -758.543274
54.762299 189.486206 -773.070190
54.758900 257.092987 -762.559875
54.749001 157.250305 -693.598816
54.745998 302.861694 -754.621887
54.741901 169.059998 -772.829773
54.739300 42.279999 -757.701782
54.737598 192.395294 -773.375183
54.733898 296.485596 -755.966187
54.733200 222.249496 -766.977417
54.724899 186.380005 -771.540283
54.721001 322.109406 -748.702820
54.718102 206.835205 -777.388184
54.715599 186.120102 -769.261414
54.714901 347.532013 -736.679871
54.700401 154.899200 -700.923706
54.696201 179.978607 -769.721802
54.695400 333.481110 -816.056213
54.689999 320.648499 -749.203430
54.688999 349.323700 -735.453125
54.681198 230.359100 -782.043091
54.679401 294.615814 -756.973083
54.678200 283.729889 -795.438721
54.665100 331.296387 -814.924316
54.663101 208.172897 -768.137817
54.662899 219.826904 -767.194519
54.650398 264.529510 -762.431824
54.641102 235.911896 -783.208984
54.633801 150.550003 -710.826294
54.629398 197.350403 -768.530579
54.626801 345.565704 -737.739685
54.624599 215.080093 -779.198608
54.621300 159.892899 -683.263672
54.618599 148.693405 -773.418091
54.609299 165.909805 -770.816406
54.608700 143.529007 -721.374329
54.599998 205.281998 -768.205627
54.598099 229.582504 -765.092896
54.596100 134.037994 -732.743713
54.590698 128.120697 -737.418030
54.581001 220.056000 -780.127808
54.579399 252.401993 -763.031311
54.576302 327.874390 -813.156616
54.576199 213.069504 -767.526184
54.568298 290.471588 -797.731323
54.556999 148.125595 -715.095581
54.556499 228.031799 -765.245789
54.556301 332.813385 -744.596191
54.544998 140.044006 -725.804626
54.543499 190.973007 -768.830811
54.543201 353.516510 -821.520325
54.541698 223.606506 -766.259277
54.537601 325.103088 -812.034424
54.529800 254.822098 -787.619995
54.528999 184.614700 -771.640686
54.525902 243.682007 -762.811218
54.516998 45.844898 -767.814209
54.514099 40.191101 -755.794128
54.513901 158.722305 -688.564026
54.509602 173.737000 -770.145386
54.506001 227.777298 -781.635986
54.505402 139.880798 -767.513123
54.504902 298.601715 -800.716187
54.496700 287.059113 -758.207275
54.496101 122.646599 -741.778076
54.492401 276.368195 -793.364502
54.487598 251.062103 -786.673096
54.483700 338.863800 -818.272705
54.475399 201.973694 -768.300781
54.474300 167.330399 -772.791321
54.474300 47.229500 -771.547729
54.471100 195.516693 -775.203430
54.469501 183.970093 -769.148682
54.466999 225.466202 -765.532593
54.465801 204.706604 -777.188416
54.463902 275.588898 -760.498230
54.463799 344.054901 -818.534302
54.461399 321.662415 -810.419617
54.460201 337.590393 -742.165283
54.443001 195.665695 -768.452820
54.442699 302.321198 -802.250122
54.438999 154.139999 -702.714417
54.438000 270.491913 -791.722717
54.437099 281.710999 -759.566406
54.433300 126.437500 -738.627075
54.429501 300.336395 -801.412476
54.429298 308.959290 -752.749573
54.426102 216.050705 -766.922485
54.411701 348.306488 -820.389526
54.402401 135.241104 -731.493713
54.399200 298.960785 -755.415405
54.396900 249.219604 -763.227417
54.391300 177.874100 -769.613770
54.384399 340.273987 -740.554810
54.383400 342.519196 -817.960205
54.383099 175.231796 -769.688477
54.378899 48.540699 -776.143616
54.375999 151.136505 -709.045776
54.357399 262.213013 -762.845520
54.349098 335.076202 -816.370422
54.346100 161.112106 -680.657471
54.341202 193.126907 -774.797913
54.339901 342.696411 -739.338989
54.339100 310.997711 -805.723816
54.338200 336.713806 -817.719727
54.336899 182.775894 -771.455627
54.327599 301.359406 -754.926575
54.326698 121.288399 -742.632080
54.325298 210.852600 -767.474670
54.324299 187.032700 -772.919800
54.323002 156.838196 -695.340271
54.319302 132.374603 -733.695374
54.313599 150.696594 -774.129028
54.304100 139.005005 -726.924622
54.302799 314.217010 -750.997986
54.294201 290.169708 -757.583984
54.289501 274.145691 -792.861206
54.283199 314.896606 -807.186279
54.279400 190.920807 -774.007202
54.273102 229.275604 -772.464111
54.271999 337.871094 -819.899170
54.271400 231.463104 -764.184570
54.270199 235.915405 -772.831299
54.268501 43.370701 -760.959595
54.257801 170.813507 -769.996277
54.243000 208.831207 -778.273804
54.242199 163.974503 -771.228394
54.241100 234.180603 -772.788330
54.238800 316.962097 -750.317505
54.234600 124.702003 -739.629395
54.232899 329.891388 -745.703918
54.230598 44.060600 -762.879883
54.227699 202.837296 -777.267090
54.225601 292.084686 -798.376282
54.224499 272.531189 -761.007874
54.222900 130.713699 -734.906372
54.222099 304.158508 -803.034424
54.211800 234.407501 -763.778381
54.205601 327.429596 -746.587219
54.203400 169.166199 -770.025818
54.200600 250.810501 -763.306396
54.197399 265.085114 -790.372620
54.195702 254.466003 -763.376587
54.193100 233.206802 -782.782288
54.188801 259.906403 -763.112915
54.186100 221.228195 -765.886719
54.174099 245.071106 -785.394470
54.173698 136.290802 -730.134583
54.171398 200.886398 -776.857178
54.171299 319.143005 -749.353271
54.164799 45.015900 -765.283081
54.157200 46.251099 -769.533081
54.151699 158.039597 -691.192322
54.138000 340.287811 -817.406921
54.137501 152.510300 -706.334473
54.135201 156.083893 -697.897095
54.132500 309.251495 -804.854492
54.116600 217.873505 -766.406921
54.112499 147.192703 -716.593628
54.103699 193.871399 -768.189209
54.101799 270.246490 -761.409973
54.101299 241.781799 -784.703613
54.098900 159.485992 -686.059204
54.095699 346.811310 -819.403870
54.093700 339.424713 -820.601013
54.091900 352.191193 -820.596680
54.087799 221.799103 -780.646118
54.087502 323.503387 -747.950378
54.077801 198.520294 -776.417419
54.075802 197.003998 -775.884521
54.073502 261.186615 -789.392090
54.071999 165.596603 -772.397095
54.070702 258.354187 -763.216125
54.070202 279.012390 -760.144897
54.069698 141.523300 -768.954590
54.067200 180.850006 -771.848999
54.065300 181.125702 -768.898926
54.056801 287.322205 -796.755188
54.049999 246.350403 -763.276672
54.047699 167.348801 -769.900879
54.046398 334.957611 -743.165405
54.034100 283.711395 -759.295471
54.031101 172.486099 -769.327576
54.028500 161.389694 -769.930298
54.023899 344.334991 -738.509521
54.020302 185.331802 -772.966187
54.019501 188.731705 -768.595886
54.016899 137.862793 -727.973877
53.999599 47.581402 -773.286072
53.991199 209.388306 -767.101624
53.987499 212.113098 -778.976318
53.972900 268.372986 -791.445313
53.971100 219.531296 -765.835693
53.970100 145.844604 -718.130981
53.968800 183.630203 -772.696228
53.960999 294.256012 -799.141479
53.959900 149.463303 -712.035889
53.959099 239.535004 -764.000122
53.958099 256.266907 -788.177429
53.953899 338.135010 -817.010681
53.952301 179.194305 -771.212402
53.942902 293.308594 -757.410400
53.936401 222.629807 -765.192322
53.936001 128.849701 -735.965576
53.928501 188.447296 -773.873779
53.920200 203.787399 -767.761597
53.919998 285.110107 -796.023621
53.919899 323.747314 -811.183228
53.918400 206.970993 -767.464600
53.913700 214.699997 -766.332214
53.911400 280.627106 -794.692383
53.905899 312.831696 -751.758789
53.896900 226.857300 -764.472229
53.896599 307.510010 -804.377625
53.896000 152.503799 -774.747681
53.894299 119.657700 -743.542603
53.883400 253.325302 -787.501526
53.881500 49.984299 -778.518677
53.877102 278.416290 -794.275085
53.876999 295.967499 -799.765625
53.871201 313.491791 -806.694580
53.869499 330.302612 -813.762878
53.862701 141.232300 -723.684387
53.860401 176.657806 -768.779785
53.859200 288.837097 -797.284302
53.855701 217.965607 -779.998779
53.848301 354.745300 -820.458618
53.847900 316.370300 -807.690674
53.840401 318.664612 -808.743286
53.835701 162.166199 -771.287598
53.829899 136.413101 -765.651917
53.828999 341.732910 -816.747375
53.827599 160.789703 -682.193604
53.826801 200.491898 -767.860107
53.820599 138.400208 -767.090088
53.813999 332.572693 -815.076904
53.811401 145.701294 -772.162415
53.810799 185.153793 -768.311401
53.809700 179.232101 -768.623230
53.807701 282.472992 -795.232178
53.794701 198.775696 -767.909973
53.784199 186.831100 -768.194275
53.781300 341.712585 -740.463928
53.778702 225.562302 -781.437683
53.778400 337.219208 -815.769714
53.778000 163.322098 -769.843628
53.769901 142.232605 -722.453674
53.768902 165.475800 -769.426880
53.767700 213.784195 -779.239380
53.764301 42.231499 -759.869507
53.762100 339.487213 -816.143127
53.756199 173.930893 -768.726074
53.755600 310.621490 -752.452576
53.746700 242.526901 -763.661926
53.746399 211.712402 -766.321899
53.741699 237.804901 -783.898804
53.741299 142.780701 -769.971130
53.741001 339.184814 -741.498230
53.740601 147.384506 -773.055481
53.732498 349.976593 -819.768982
53.731701 334.144897 -815.046570
53.724800 267.633514 -761.859314
53.723000 325.807190 -747.168823
53.721600 159.364899 -770.382324
53.710201 44.962200 -766.773804
53.709000 177.167206 -771.176880
53.706902 182.840103 -768.400330
53.705399 345.399994 -818.569092
53.704300 126.869301 -737.262207
53.698601 248.497299 -786.478394
53.694901 258.234589 -789.060303
53.691299 192.364395 -768.119629
53.689301 39.113701 -754.832886
53.682400 123.259499 -740.290588
53.680901 320.517914 -809.587280
53.665298 205.544998 -766.922729
53.658501 153.264099 -704.826416
53.653999 326.924286 -812.155029
53.649200 298.018188 -756.406677
53.630600 304.040314 -754.383728
53.630402 148.355392 -713.833130
53.630299 224.525894 -764.574829
53.619999 196.558197 -767.498718
53.615200 232.817596 -763.676086
53.613998 307.270203 -753.657776
53.612701 144.016800 -770.993225
53.608299 205.808594 -777.911377
53.608101 157.641495 -692.586914
53.606499 228.676895 -764.155029
53.599300 164.031601 -772.659912
53.598202 171.110992 -768.556274
53.592602 248.385193 -764.346375
53.591099 189.628204 -774.805786
53.587200 151.835205 -707.873901
53.586498 216.681000 -765.551880
53.581501 155.605698 -699.262878
53.570099 191.726501 -775.152100
53.568600 47.778000 -774.818481
53.568401 280.492096 -759.953491
53.552898 153.942993 -775.181580
53.551800 305.590088 -803.243530
53.547298 295.683289 -756.700928
53.540699 169.475006 -768.580322
53.540001 228.987793 -782.107971
53.539600 143.978897 -720.199585
53.536201 305.580505 -753.933777
53.534199 331.525085 -744.934204
53.533401 244.092194 -763.965576
53.529900 231.623993 -772.529419
53.526901 133.762497 -731.572388
53.516499 175.138107 -771.191895
53.512798 315.824493 -751.144470
53.512100 193.934494 -775.887024
53.509899 186.888107 -774.221191
53.507500 181.871201 -772.978027
53.503700 274.396912 -760.737305
53.501900 160.169998 -684.698914
53.492699 202.510101 -767.011597
53.486698 190.103607 -767.957275
53.482899 291.526001 -758.094788
53.468399 167.718399 -768.481323
53.467701 136.449005 -728.682495
53.467098 351.477203 -819.252625
53.466400 207.424393 -778.267578
53.466301 125.341103 -738.063171
53.464298 216.256805 -779.781921
53.463799 328.945709 -813.124329
53.454102 157.438507 -770.094971
53.452599 285.848114 -758.982422
53.451599 117.211800 -745.507874
53.448200 288.309692 -758.637878
53.442001 252.559204 -764.094971
53.429699 265.854889 -762.277588
53.425201 207.719604 -766.211182
53.421200 300.051514 -755.928284
53.417000 159.404999 -687.694092
53.414001 353.305511 -819.730103
53.408100 344.317810 -817.430786
53.406700 272.668610 -792.818420
53.404499 312.299988 -805.734314
53.404099 243.075699 -785.388672
53.401798 44.067200 -764.250427
53.397400 346.532898 -737.254395
53.393299 275.285492 -793.527527
53.384399 134.809296 -730.318970
53.381901 213.466797 -765.526489
53.372898 276.796997 -760.604675
53.371101 235.871597 -764.639526
53.369400 266.151794 -791.198975
53.366600 49.090599 -777.282471
53.361900 158.669800 -689.957581
53.360100 297.570099 -800.076172
53.360100 160.412292 -771.594788
53.357601 121.633499 -741.339722
53.357201 255.796402 -763.832886
53.347000 223.130707 -781.114685
53.346500 131.057800 -733.595703
53.345100 179.640198 -772.697327
53.341400 118.322899 -744.204285
53.338902 140.202896 -724.759583
53.337898 328.681702 -746.269714
53.336498 321.473389 -749.280212
53.334999 132.458496 -732.468079
53.333199 322.736511 -810.160828
53.327099 348.304199 -819.295288
53.326599 172.979797 -770.883484
53.324501 210.011398 -765.813721
53.322800 156.469803 -696.613281
53.318401 333.603210 -743.973511
53.312099 175.270096 -768.095886
53.309399 325.621002 -811.213928
53.306301 301.505707 -801.571899
53.295799 163.819305 -768.378784
53.295399 204.060593 -766.327576
53.287201 194.554993 -766.931519
53.285099 156.373901 -775.943481
53.282700 156.356705 -768.076477
53.282398 149.550293 -773.950623
53.275600 178.074905 -772.355530
53.275501 161.785004 -768.628296
53.271801 335.512909 -814.504822
53.263500 218.429001 -764.932373
53.260101 42.894600 -762.156677
53.259300 336.485992 -742.452393
53.258701 157.178894 -694.097717
53.257301 331.803589 -813.697510
53.255100 236.195801 -783.935181
53.250099 195.522202 -776.171082
53.246399 220.878403 -764.715881
53.242199 184.355103 -773.915771
53.237900 147.319794 -715.259888
53.237202 262.829498 -790.467224
53.234600 318.222900 -750.470703
53.232101 230.548798 -782.610718
53.226398 177.982605 -767.893127
53.216202 199.606796 -766.729675
53.216202 154.716400 -701.893127
53.201401 180.409698 -767.768982
53.193501 159.660004 -768.765076
53.192299 172.632904 -767.898193
53.192101 46.584999 -770.904114
53.192101 188.287201 -767.341370
53.189899 165.861298 -768.002197
53.179199 120.299500 -742.250977
53.174801 45.373501 -768.541992
53.169899 299.525299 -800.800720
53.166500 245.716507 -764.421509
53.165600 219.570007 -780.499390
53.160900 303.218292 -802.308777
53.157799 129.579300 -734.651672
53.147099 277.117493 -793.764771
53.145100 138.745895 -725.927429
53.140400 150.619202 -710.190186
53.132702 239.063599 -784.776672
53.130001 251.957001 -787.732422
53.122299 254.531006 -788.383423
53.121498 123.849503 -738.971130
53.115601 144.764893 -718.879517
53.108799 204.351395 -777.886414
53.106998 142.888901 -721.208618
53.105701 191.738297 -766.768921
53.096802 310.422089 -804.957275
53.095600 154.001801 -703.496216
53.088799 290.968689 -797.754578
53.084099 229.970093 -764.904419
53.084000 341.089996 -815.506470
53.080700 346.728485 -818.039612
53.079800 155.623199 -769.813599
53.063000 140.328903 -768.361572
53.062000 302.383789 -755.053101
53.055099 270.818298 -792.382629
53.043999 196.895203 -766.096619
53.042500 271.462402 -761.220886
53.041401 158.360397 -771.366211
53.040699 201.791702 -777.557129
53.037800 170.266296 -770.826477
53.031502 338.872009 -814.921814
53.030800 282.578186 -759.794678
53.026199 183.767700 -767.287476
53.022701 238.391205 -764.565125
53.016899 146.088104 -716.799194
53.016800 135.715195 -764.478271
53.016102 294.550293 -757.647583
53.012600 162.025696 -772.705383
53.011600 209.793198 -778.825989
52.988701 185.817902 -767.062012
52.976799 333.717010 -813.711182
52.976501 317.682495 -807.875488
52.971298 292.999512 -798.402283
52.964001 201.408798 -765.992615
52.963402 153.351898 -769.094604
52.961102 232.570206 -765.129822
52.960602 283.889587 -795.621826
52.959301 245.455704 -786.272278
52.954899 215.409103 -764.932617
52.946800 43.906101 -765.793579
52.945599 269.097290 -761.739319
52.940399 324.619904 -747.912476
52.935600 127.631897 -735.917480
52.935501 241.906494 -764.819519
52.921398 182.178696 -767.225281
52.920502 259.874298 -789.513123
52.910000 157.876999 -768.036011
52.907299 249.611496 -787.411011
52.902599 176.519699 -772.420288
52.899399 168.649902 -770.748718
52.890499 309.148987 -753.094727
52.888100 337.293915 -814.492920
52.885601 211.396301 -765.077026
52.883400 233.759796 -783.571472
52.879398 286.398804 -796.286072
52.876400 314.802490 -806.554626
52.875702 343.273712 -739.166626
52.866199 37.804798 -754.085205
52.865501 151.231598 -774.579773
52.858398 240.323700 -764.922607
52.854801 189.517197 -766.443481
52.838799 247.059402 -786.820618
52.836601 205.574600 -765.528870
52.833698 174.004898 -767.297180
52.828800 308.690186 -804.217773
52.826099 350.091614 -818.440979
52.823898 314.238800 -751.445923
52.821499 158.559799 -777.138428
52.807301 311.844208 -752.527710
52.805698 46.916401 -772.494080
52.801899 322.838196 -748.499390
52.800201 319.800690 -749.607422
52.787800 198.990204 -777.145996
52.786800 214.832794 -779.833313
52.782299 164.799393 -771.301086
52.778198 151.849899 -766.840881
52.778000 290.290497 -758.830383
52.774700 137.564804 -726.884277
52.766102 169.633408 -767.253113
52.762100 342.786194 -816.311279
52.749199 344.914612 -815.611816
52.746300 306.986298 -803.491211
52.742901 342.582611 -814.565125
52.742001 345.292206 -737.890625
52.741699 257.015991 -788.945801
52.738998 171.205307 -767.214172
52.733299 176.687195 -767.101624
52.730400 221.131500 -781.102905
52.729599 279.667999 -794.378906
52.726002 227.936798 -765.272522
52.725601 264.338013 -790.346680
52.724201 340.485992 -740.526184
52.723499 166.402298 -770.624023
52.722698 330.309814 -812.606628
52.721600 41.920799 -760.995117
52.721500 330.225189 -745.913696
52.716499 319.800110 -808.560120
52.714100 160.194504 -767.289124
52.702301 162.223297 -767.167419
52.700699 160.031097 -686.455200
52.698898 167.911804 -767.117188
52.697300 327.258087 -746.953979
52.695999 195.389694 -765.707520
52.693401 337.955414 -741.801514
52.691002 150.084503 -766.732727
52.690701 222.935501 -764.267029
52.676201 154.310699 -767.878723
52.676201 155.411301 -700.536682
52.672001 324.471985 -810.408386
52.671902 48.405701 -775.929199
52.668400 156.437103 -771.064026
52.667400 118.892899 -742.869385
52.660900 243.904999 -765.294617
52.659000 122.119301 -739.954590
52.658600 328.071594 -811.715881
52.658600 292.944702 -758.257080
52.653099 274.047913 -792.872803
52.649200 241.351593 -785.840576
52.643101 152.830795 -706.062073
52.639702 202.821793 -765.466370
52.635399 193.700897 -765.722717
52.635101 188.443497 -775.077820
52.633598 151.239700 -768.536499
52.632702 239.692001 -775.529114
52.629398 321.697693 -809.261414
52.628502 141.787704 -769.429321
52.622601 340.340790 -814.206177
52.619999 164.131699 -766.973816
52.619801 180.700607 -773.614929
52.616798 179.500504 -766.580200
52.615601 138.894897 -767.958374
52.611099 281.503998 -794.854614
52.604801 288.009003 -796.768616
52.604599 211.455795 -779.223511
52.602501 137.426102 -767.200378
52.599602 244.283600 -775.971191
52.596699 182.671906 -774.037476
52.594101 149.045502 -712.737976
52.592098 335.308105 -743.606201
52.585300 295.144409 -799.181213
52.583801 234.905502 -765.654114
52.581100 141.178406 -722.783203
52.578499 187.547699 -765.997925
52.575600 115.945099 -745.897583
52.574100 154.150696 -770.519470
52.566601 42.936699 -763.544189
52.553101 345.713501 -817.007019
52.549198 185.734497 -774.661072
52.547401 198.773605 -765.589722
52.542900 174.534302 -772.295227
52.542301 347.205292 -816.429382
52.540699 304.592712 -802.638184
52.536098 126.017502 -736.687622
52.529900 146.554092 -772.562500
52.528000 155.007202 -775.771179
52.527901 287.248993 -759.377930
52.522999 190.618500 -775.429321
52.518101 171.572403 -771.540894
52.510300 167.328995 -772.026917
52.507000 279.305389 -760.249023
52.506901 152.081604 -769.908203
52.497501 208.228500 -765.016785
52.493900 148.029495 -766.356201
52.480900 296.621185 -757.312500
52.473400 135.190308 -729.135498
52.469799 184.646103 -766.035889
52.466999 161.665604 -779.591919
52.462601 348.140106 -817.943115
52.461800 149.187698 -768.133972
52.454300 44.459301 -767.531677
52.446800 217.343506 -780.499512
52.443901 116.859703 -744.360474
52.440300 260.512787 -763.254822
52.428799 316.895599 -750.708313
52.428299 166.093094 -766.601379
52.416000 156.808197 -695.369019
52.415401 145.088303 -771.600708
52.414902 247.387695 -764.849976
52.402000 148.322693 -773.489990
52.400902 160.928299 -683.869080
52.400398 156.365799 -766.786377
52.399399 225.809906 -782.146423
52.399399 156.065506 -698.291626
52.394501 169.767593 -772.431580
52.387299 273.369812 -761.118286
52.385101 152.844101 -775.150391
52.382801 151.341095 -708.742676
52.382198 158.148605 -691.709412
52.376598 196.632904 -776.846130
52.375099 298.954987 -756.836304
52.372601 145.977600 -765.944275
52.371601 268.419006 -791.469788
52.370300 162.821396 -771.359375
52.362400 224.839706 -765.571777
52.358398 47.465599 -773.903198
52.357399 237.113297 -765.384583
52.356098 304.906708 -754.703613
52.355099 228.128799 -782.609497
52.353298 338.705811 -813.530823
52.347099 335.122711 -813.304626
52.346199 41.131401 -759.610718
52.346001 149.889297 -711.312073
52.342701 192.350296 -775.901489
52.341900 133.670197 -730.497192
52.337299 316.368011 -807.120117
52.336700 158.356705 -766.551819
52.336498 172.888397 -766.243530
52.335098 136.114105 -766.193787
52.334000 264.716095 -762.580627
52.333801 144.377106 -766.005005
52.330299 341.902008 -739.887085
52.314701 149.993896 -769.455200
52.313900 213.273697 -779.728394
52.301998 190.655807 -765.499878
52.301899 217.235306 -764.494080
52.296799 120.575600 -740.914673
52.292301 153.311493 -766.610107
52.291302 143.267807 -770.526001
52.290401 289.462097 -797.257324
52.287498 313.355804 -805.895081
52.276600 231.472504 -766.022217
52.274300 175.537704 -766.109497
52.273499 147.001999 -767.550903
52.271500 181.540894 -765.887207
52.268299 178.821106 -773.458984
52.260502 136.315308 -727.712830
52.250900 159.710602 -778.053589
52.242298 266.942902 -762.079590
52.241100 131.327301 -732.530823
52.233398 154.874893 -766.417175
52.232800 231.254196 -783.568970
52.231899 261.381897 -789.628174
52.229401 159.779007 -772.587402
52.223202 275.748901 -760.768127
52.222000 332.380615 -812.629883
52.221500 285.358185 -759.767822
52.220901 124.504799 -737.606812
52.217999 249.539597 -764.684082
52.216900 239.077103 -765.781006
52.210602 237.748901 -784.938599
52.202000 208.278000 -778.805420
52.186401 229.858200 -766.222778
52.185902 253.215607 -787.737915
52.184799 332.585297 -744.639282
52.182999 183.149002 -765.671875
52.179001 288.843994 -759.405029
52.173901 200.363602 -777.572021
52.167301 307.709198 -754.049072
52.166000 45.370899 -769.831421
52.163700 248.437103 -786.590088
52.149502 147.923004 -714.346924
52.148701 206.239197 -778.451904
52.145599 130.087708 -733.480286
52.140099 178.249496 -765.774475
52.139900 36.292400 -753.653870
52.139599 159.269897 -689.202881
52.139400 139.942200 -723.685486
52.134800 153.747406 -704.868530
52.129601 203.151001 -778.106384
52.125599 194.256195 -776.479919
52.124100 169.945908 -765.828979
52.123299 277.862701 -760.689026
52.112301 263.166595 -762.766602
52.110500 213.059006 -764.669922
52.110100 243.892700 -785.656311
52.103901 296.641693 -799.609009
52.094299 300.864288 -756.031006
52.091301 326.564392 -810.956299
52.085800 223.776794 -781.835205
52.078800 248.615204 -776.427002
52.076401 325.958710 -747.513916
52.072701 157.548492 -693.111572
52.070202 310.463806 -752.962402
52.063599 298.534088 -800.124023
52.061699 161.187302 -766.193604
52.061199 41.930099 -762.485107
52.058601 157.091095 -776.748413
52.051399 168.229095 -765.698425
52.051102 253.087097 -764.497681
52.045399 300.635010 -800.956421
52.044498 276.049286 -793.486877
52.041000 143.348999 -720.096985
52.040699 186.206894 -765.351929
52.038502 200.484497 -765.012878
52.029499 311.711914 -805.057312
52.027100 114.302696 -746.870728
52.019402 255.688293 -788.320190
52.008301 109.474899 -748.932312
52.007702 141.621506 -721.378906
52.004700 172.522400 -772.925293
51.986599 145.389999 -717.726074
51.983799 162.619598 -765.589172
51.975800 204.369202 -764.931396
51.964802 171.505600 -765.612793
51.961201 164.465607 -765.554810
51.954498 303.504608 -755.296875
51.951199 128.486298 -734.712219
51.944599 138.753906 -724.914978
51.943199 270.407715 -761.683289
51.943100 278.093689 -793.925171
51.930901 285.100891 -795.917725
51.928299 192.414902 -765.230713
51.927700 164.722595 -782.046021
51.927700 112.049698 -747.771118
51.925201 265.824402 -790.651001
51.922501 162.854202 -780.632080
51.918400 272.354889 -792.388123
51.914600 313.271301 -752.290588
51.913898 147.915405 -768.840271
51.912201 258.328888 -788.857422
51.908699 122.833702 -738.653015
51.908001 315.511902 -751.304688
51.906101 188.777100 -765.305786
51.901100 329.618408 -811.499878
51.899700 154.806000 -702.904480
51.898701 197.470901 -764.997925
51.897099 132.968903 -763.913574
51.890800 291.561310 -759.330200
51.890598 302.109314 -801.401672
51.880798 146.789993 -715.950195
51.877899 323.266907 -809.653015
51.859402 107.044098 -749.479919
51.858898 152.024994 -765.545898
51.858101 336.589600 -813.410889
51.856602 187.026993 -775.216797
51.856499 43.085400 -765.052979
51.848801 117.585403 -743.106384
51.845901 228.033707 -766.547485
51.845699 46.026501 -771.480225
51.844200 183.933197 -774.585693
51.843601 318.805115 -807.726624
51.842300 145.199402 -767.258301
51.840401 158.015198 -772.352905
51.837601 141.957001 -765.805481
51.835602 132.380493 -731.450928
51.834801 218.725601 -780.940613
51.833199 159.701508 -765.804626
51.831100 339.233704 -741.446472
51.821098 156.826202 -765.344788
51.816700 340.932098 -812.973328
51.816101 155.127594 -771.544373
51.809601 321.169006 -749.574219
51.807899 48.202400 -777.256104
51.807598 333.985504 -743.944092
51.806198 174.302399 -765.299622
51.802700 119.113800 -741.606201
51.798901 305.940094 -802.789612
51.798901 256.459106 -764.058777
51.793499 150.409393 -765.371887
51.793301 240.482101 -784.850586
51.774899 160.834503 -771.382324
51.766701 180.141800 -765.463379
51.766102 235.697098 -783.869019
51.755100 328.691589 -746.518616
51.754601 318.825012 -750.384888
51.747601 129.972595 -763.661316
51.746601 282.985596 -795.302917
51.739300 134.831802 -764.206177
51.737400 331.272400 -745.357971
51.735802 150.227600 -774.281982
51.735401 165.664597 -772.044128
51.733501 146.209503 -768.827271
51.726898 246.145004 -776.295288
51.723801 222.187897 -781.784180
51.723202 241.080307 -765.646118
51.720798 291.722687 -797.950073
51.720100 152.257797 -707.607117
51.714001 153.822296 -765.133728
51.711498 294.023193 -798.564026
51.709499 337.050415 -742.720581
51.693802 166.373993 -765.151672
51.693600 105.533501 -750.116699
51.691399 139.993607 -765.410889
51.687599 215.850494 -780.360474
51.683899 143.082306 -766.874329
51.682301 174.989899 -773.617981
51.680199 115.287598 -744.812500
51.678501 133.969406 -765.489502
51.672699 323.972504 -748.830322
51.666199 295.346191 -757.836121
51.663799 148.637497 -765.034302
51.651001 140.579407 -769.083130
51.647499 251.551407 -787.197815
51.647099 309.694397 -804.313171
51.636299 282.643311 -760.447083
51.634399 156.454498 -696.676270
51.630600 176.911407 -765.076904
51.622299 103.769798 -750.849609
51.619701 204.644394 -778.377075
51.611599 303.600311 -801.811218
51.611099 242.779800 -765.498474
51.609901 206.176102 -764.757690
51.609200 43.457699 -766.548706
51.592300 293.952606 -758.755920
51.592201 176.614807 -773.443970
51.588200 320.951294 -808.393982
51.583900 137.303299 -725.848999
51.582298 236.112396 -766.335327
51.582001 189.437805 -775.767090
51.575401 308.018311 -803.475281
51.571701 144.757706 -764.719421
51.571301 270.477386 -791.943176
51.564400 47.451099 -775.238525
51.563000 126.839798 -735.726807
51.560699 150.727493 -710.124329
51.555599 268.359314 -762.125122
51.554699 246.460907 -786.058228
51.547100 325.399200 -809.772095
51.541199 333.749115 -812.417419
51.539799 156.029602 -699.680176
51.537998 232.718094 -766.568970
51.530602 233.086700 -783.062012
51.529598 126.872597 -763.335876
51.529400 155.451599 -764.700073
51.526501 146.761505 -764.716187
51.525398 144.032898 -768.461975
51.520199 40.904301 -760.953430
51.519798 168.394394 -772.604614
51.518398 44.405102 -768.800171
51.517899 194.857498 -764.809326
51.504299 209.869003 -779.377075
51.504299 39.027599 -757.663696
51.503899 167.830200 -784.499390
51.502300 138.113403 -765.028198
51.501301 327.974304 -810.583374
51.498699 166.312195 -783.332581
51.494900 171.044403 -773.120789
51.493698 243.174606 -776.120422
51.491501 130.926498 -765.181580
51.477699 144.655304 -718.986206
51.475800 164.075104 -771.936829
51.473801 251.979904 -776.971619
51.472900 136.442307 -764.782715
51.470699 159.829193 -687.867126
51.470100 198.038101 -777.306519
51.469200 230.319901 -782.503296
51.467201 181.297104 -774.458374
51.462502 141.101807 -767.115784
51.459702 213.676102 -766.078979
51.449100 155.574707 -701.546814
51.444500 309.030487 -753.642700
51.437000 314.821594 -805.903687
51.434601 280.520813 -794.468018
51.427502 220.264404 -780.939575
51.426601 112.943604 -746.361694
51.424801 121.045998 -739.715820
51.416901 184.395096 -764.892090
51.415699 254.465805 -777.545715
51.415401 160.799698 -764.659790
51.412601 110.591904 -747.697083
51.410702 142.655502 -764.355530
51.392300 133.993393 -729.251221
51.387402 134.802902 -766.873291
51.383598 263.603088 -790.086121
51.377800 201.594604 -778.047974
51.369801 134.996201 -728.058777
51.364799 202.070297 -764.719727
51.364101 151.763306 -770.901489
51.362400 158.428696 -777.866211
51.361801 272.385406 -761.807922
51.357800 138.684097 -766.491211
51.357101 259.257996 -763.579773
51.355900 34.720299 -753.231812
51.355202 331.388611 -811.740112
51.354500 158.557693 -764.782288
51.352402 172.826996 -764.960876
51.350800 297.786285 -757.225708
51.348499 123.853104 -763.359497
51.346699 39.962898 -759.246826
51.343102 136.700607 -767.718994
51.341702 287.112000 -796.357788
51.337700 153.485001 -771.373718
51.337200 102.244499 -751.580688
51.336899 306.314209 -754.363220
51.333801 290.113312 -759.704102
51.333599 127.720596 -764.653076
51.332298 142.271805 -768.208130
51.327599 242.578201 -785.124390
51.321800 317.545807 -806.830811
51.321201 250.403595 -776.914917
51.313801 159.244400 -771.456726
51.311501 138.310501 -768.581482
51.310799 116.178497 -743.565186
51.308300 191.180695 -776.259399
51.301899 42.102501 -763.928711
51.300201 259.969391 -789.274719
51.263802 244.478195 -765.660217
51.263401 302.288605 -755.998718
51.256199 240.210297 -776.001770
