ply
format ascii 1.0
element vertex 680
property float x
property float y
property float z
property float nx
property float ny
property float nz
property float label
element face 0
property list uchar int vertex_indices
end_header
-7.347500 37.119999 -805.043030 -0.466834 0.867398 0.172301 1.000000
-7.965500 36.976601 -805.888611 -0.422720 0.834441 0.353577 1.000000
-8.916400 36.973202 -807.226074 -0.507239 0.776254 0.374352 1.000000
1.476500 45.820801 -793.503418 -0.959928 0.280030 -0.011006 1.000000
1.002900 45.025200 -794.036011 -0.452688 0.303347 -0.838483 1.000000
-0.419000 42.496899 -795.611328 -0.092219 0.707015 -0.701160 1.000000
-2.553100 40.238201 -798.235291 -0.265339 0.960090 -0.088446 1.000000
-3.101400 39.660400 -798.909912 -0.272481 0.954342 -0.122419 1.000000
0.241700 44.327599 -794.379028 -0.241778 0.960579 -0.137226 1.000000
-1.690300 40.994202 -796.539185 -0.076081 0.595731 -0.799572 1.000000
-3.842600 38.962898 -799.229797 -0.820473 0.562899 0.099846 1.000000
-4.767000 37.824799 -800.340576 0.865416 0.223478 -0.448456 1.000000
-7.134200 36.966099 -803.532227 -0.278795 0.945185 -0.169997 1.000000
-8.895100 36.491699 -805.934082 -0.007942 0.985961 0.166785 1.000000
-9.909700 36.647099 -807.390503 0.179945 0.983314 -0.026702 1.000000
-0.414000 43.477901 -794.645020 -0.786940 0.365307 -0.497269 1.000000
-1.311800 41.939400 -795.652283 -0.851742 0.512769 -0.107724 1.000000
-2.457300 40.371498 -797.004028 -0.831807 0.444993 0.331779 1.000000
-6.765500 36.981899 -802.509705 -0.492198 0.870399 -0.012070 1.000000
-7.943600 36.543598 -804.097473 -0.044534 0.990034 -0.133603 1.000000
1.064400 45.800900 -792.512024 -0.882212 0.464102 -0.079441 1.000000
-3.198900 39.753700 -797.517822 -0.717648 0.691446 0.082973 1.000000
-3.745400 39.157299 -798.189392 -0.944203 0.047661 0.325898 1.000000
-4.608100 38.214901 -799.249512 -0.372492 0.717088 -0.589096 1.000000
-5.488500 37.063900 -800.299683 -0.280300 0.913516 -0.294823 1.000000
-8.752000 36.327801 -804.783081 -0.402313 0.896126 0.187359 1.000000
-9.885800 36.308701 -806.380310 -0.429440 0.896649 0.107710 1.000000
0.420400 45.003502 -792.841614 -0.427669 0.902556 -0.049917 1.000000
-1.016800 42.574200 -794.468323 -0.855591 0.466274 -0.224838 1.000000
-0.233300 44.308102 -793.349121 -0.514258 0.832825 -0.204793 1.000000
-2.128800 41.304298 -795.533630 -0.676660 0.532261 -0.508754 1.000000
-6.183500 36.261902 -800.434875 -0.546629 0.829419 -0.115157 1.000000
-7.712300 36.515701 -802.638794 -0.438113 0.889069 0.132718 1.000000
-9.671100 36.122501 -805.343994 -0.682294 0.669451 0.293788 1.000000
-2.693300 40.489700 -795.978821 -0.199449 0.391620 -0.898250 1.000000
-4.511400 38.428398 -798.213013 -0.345334 0.935445 -0.075418 1.000000
-5.414900 37.438499 -799.328796 -0.512112 0.792895 -0.330240 1.000000
-0.922900 43.563599 -793.691284 -0.891443 0.356876 -0.279229 1.000000
-1.833400 41.968102 -794.722778 -0.382009 0.918738 -0.099952 1.000000
-3.272300 39.633499 -796.381409 -0.716572 0.591950 -0.368944 1.000000
-8.531300 36.226501 -803.233093 -0.689004 0.465453 0.555541 1.000000
-4.061700 39.073101 -796.909729 -0.848047 0.505878 -0.157810 1.000000
-6.145700 36.661499 -799.466797 0.667033 0.133407 -0.732987 1.000000
-6.932800 35.520302 -800.397217 0.122286 0.986597 -0.108039 1.000000
-1.613100 42.730202 -793.541809 -0.845860 0.493041 -0.203549 1.000000
-5.284000 37.775002 -797.949524 -0.953942 0.268586 0.133631 1.000000
-0.764200 44.452499 -792.133301 -0.919578 0.319916 -0.228101 1.000000
-2.698500 41.411800 -794.393616 -0.816857 0.576361 -0.023497 1.000000
-3.202100 40.691399 -794.992981 -0.837183 0.535391 -0.111721 1.000000
-4.845000 38.361198 -796.951477 -0.877254 0.477631 0.047900 1.000000
-6.019000 37.120399 -798.416199 -0.898811 0.390598 -0.198929 1.000000
-1.433700 43.715199 -792.459778 -0.476216 0.814789 -0.330662 1.000000
-2.349400 41.962700 -793.482788 -0.424704 0.893738 -0.144428 1.000000
-3.812400 39.787498 -795.213013 -0.668265 0.567774 -0.480682 1.000000
-4.258800 38.971802 -795.717590 -0.642587 0.691391 -0.330241 1.000000
-6.815400 36.081699 -798.881104 -0.743806 0.667300 -0.038253 1.000000
-7.650400 34.937099 -799.883423 -0.939696 0.341822 -0.011352 1.000000
-8.277100 35.063900 -800.787170 0.353856 0.934544 -0.037589 1.000000
-2.066800 42.830200 -792.600891 -0.733714 0.491903 -0.468716 1.000000
-5.586000 37.637699 -796.772583 -0.479849 0.864896 -0.147309 1.000000
-4.998600 38.211102 -795.900513 -0.536735 0.843046 0.034495 1.000000
-6.173200 36.972401 -797.367004 -0.778829 0.627199 -0.006892 1.000000
-8.412700 34.203999 -800.101318 -0.395189 0.915814 -0.071485 1.000000
-7.598200 35.359100 -798.919678 -0.546032 0.813725 -0.199249 1.000000
-3.492000 40.937599 -793.906128 -0.397565 0.912062 -0.100423 1.000000
-6.850200 36.291302 -797.817017 -0.625895 0.733644 -0.264619 1.000000
-1.528700 44.078800 -791.472229 -0.913793 0.392807 -0.103370 1.000000
-4.147300 40.163898 -794.283325 -0.788149 0.485139 -0.378763 1.000000
-9.149800 33.491901 -800.306824 -0.723143 0.681736 -0.110911 1.000000
-2.730900 42.056400 -792.347717 -0.582761 0.771255 -0.256038 1.000000
-4.682000 39.349201 -794.683899 -0.825487 0.492805 -0.275162 1.000000
-8.338400 34.559299 -799.103271 -0.481777 0.846529 -0.226450 1.000000
-2.170700 43.252201 -791.488708 -0.871120 0.449658 -0.197375 1.000000
-3.387900 41.391701 -792.922424 -0.470901 0.798764 -0.374471 1.000000
-5.786200 37.542801 -795.720520 -0.537541 0.842743 -0.028870 1.000000
-5.279900 38.487400 -794.891479 -0.853950 0.389004 -0.345609 1.000000
-6.426700 36.888100 -796.265320 -0.442483 0.886398 -0.136039 1.000000
-7.642800 35.575298 -797.777588 -0.418813 0.907649 -0.027745 1.000000
-9.900300 32.802399 -800.536377 -0.629208 0.752280 -0.195377 1.000000
-9.107200 33.798000 -799.285278 -0.398462 0.916595 -0.032876 1.000000
-1.891500 44.044102 -790.392212 -0.357865 0.875627 -0.324363 1.000000
-4.116800 40.633900 -793.009888 -0.675746 0.481238 -0.558370 1.000000
-7.178800 36.171398 -796.645325 -0.468061 0.863312 -0.188710 1.000000
-8.345100 34.796700 -798.077515 -0.941659 0.330429 -0.063996 1.000000
-10.633000 32.153400 -800.894409 -0.917409 0.395823 0.041039 1.000000
-2.844700 42.479900 -791.259277 -0.158648 0.984095 -0.079920 1.000000
-4.863500 39.677399 -793.673706 -0.983770 0.033843 -0.176215 1.000000
-3.485300 41.611500 -791.786621 -0.292151 0.956016 -0.026107 1.000000
-5.915400 37.702099 -794.615173 -0.922642 0.318005 -0.218183 1.000000
-9.832200 32.969601 -799.402222 -0.675770 0.721124 -0.152691 1.000000
-2.572300 43.207199 -790.514526 -0.831067 0.539826 -0.133853 1.000000
-6.503900 36.894501 -795.090271 -0.842409 0.528486 -0.105121 1.000000
-9.060900 34.060699 -798.250427 -0.897231 0.419466 0.137926 1.000000
-11.376100 31.441200 -801.103821 -0.754291 0.566930 0.331113 1.000000
-5.596400 38.878899 -793.758728 -0.985274 0.164797 0.045582 1.000000
-7.152000 36.208401 -795.544128 -0.891151 0.229069 0.391634 1.000000
-8.197200 35.206100 -796.858276 -0.989361 0.094391 -0.110706 1.000000
-10.532000 32.238300 -799.688599 -0.694404 0.082979 0.714785 1.000000
-12.067500 30.863400 -801.633423 -0.192571 0.663984 -0.722525 1.000000
-4.274200 40.907200 -791.765381 -0.272151 0.850279 -0.450510 1.000000
-4.862500 40.142700 -792.476501 0.113268 0.094585 -0.989052 1.000000
-9.745500 33.270802 -798.302124 -0.826220 0.015072 0.563145 1.000000
-12.748800 30.077101 -802.034912 -0.927106 0.160327 -0.338777 1.000000
-3.260400 42.502300 -790.172729 -0.449859 0.884009 0.127103 1.000000
-3.743700 41.735199 -790.736572 -0.843122 0.434808 -0.316366 1.000000
-5.496700 39.389198 -792.845398 -0.185634 0.980865 0.058684 1.000000
-6.597200 37.115601 -794.053223 -0.991281 0.113191 0.067457 1.000000
-7.955200 35.529999 -795.720520 -0.831055 0.554502 0.043299 1.000000
-8.970100 34.320999 -796.963074 -0.965445 0.219007 0.141253 1.000000
-11.299100 31.495800 -799.807007 -0.757603 0.526249 0.386133 1.000000
-6.304600 38.111198 -793.404175 -0.765443 0.556832 -0.322545 1.000000
-7.234000 36.327900 -794.443909 -0.781190 0.621822 -0.055494 1.000000
-10.449000 32.506199 -798.381287 -0.863499 0.504045 -0.017567 1.000000
-11.973300 30.731899 -800.253601 -0.459639 0.877493 -0.136883 1.000000
-8.736700 34.825199 -795.928223 -0.186631 0.488226 -0.852529 1.000000
-9.782400 33.476700 -797.193420 -0.875580 0.480952 0.045218 1.000000
-11.061100 31.719999 -798.724670 -0.774861 0.607406 0.175067 1.000000
-12.735700 30.260099 -800.852478 -0.502562 0.788364 0.354844 1.000000
-4.467700 41.016602 -790.457275 -0.208247 0.941938 -0.263412 1.000000
-4.985500 40.362999 -791.085571 -0.932094 0.338072 0.130028 1.000000
-5.510100 39.723999 -791.725525 -0.974527 0.184846 0.127003 1.000000
-13.757300 29.901100 -801.816711 -0.032150 0.605267 0.795373 1.000000
-3.678300 42.445900 -789.182312 -0.169270 0.423898 -0.889752 1.000000
-6.175200 38.979000 -792.163818 -0.914710 0.395514 0.082908 1.000000
-6.984800 37.365799 -793.059326 -0.934959 0.353034 -0.034915 1.000000
-8.035700 35.668999 -794.279724 -0.793622 0.602806 0.082398 1.000000
-9.505100 34.062500 -796.097290 -0.875981 0.417776 -0.241082 1.000000
-10.527100 32.519100 -797.299622 -0.479956 0.841839 -0.246878 1.000000
-11.852200 30.979500 -798.925598 -0.861692 0.504844 0.051176 1.000000
-4.222500 41.644199 -789.605286 -0.886174 0.373363 -0.274399 1.000000
-7.501600 36.507000 -793.435425 -0.704518 0.626419 -0.333548 1.000000
-8.718300 35.134602 -794.934021 -0.368900 0.929319 -0.016710 1.000000
-12.525300 30.332199 -799.442688 -0.501732 0.862308 -0.068482 1.000000
-13.553300 29.559799 -800.764709 -0.586315 0.807780 -0.061045 1.000000
-11.189600 31.686001 -797.648804 -0.575187 0.811086 -0.106300 1.000000
-10.305000 33.025799 -796.398071 -0.734997 0.353646 -0.578545 1.000000
-5.251100 40.420200 -790.049927 -0.124571 0.822172 -0.555442 1.000000
-6.966200 37.793400 -792.067078 -0.981817 0.163838 -0.095876 1.000000
-9.492300 34.361801 -795.099915 -0.874996 0.474837 -0.094404 1.000000
-14.318000 28.847601 -801.040405 -0.012427 0.600616 -0.799441 1.000000
-4.896800 40.951599 -789.152405 -0.827296 0.487653 -0.278881 1.000000
-5.950900 39.729301 -790.449219 -0.701936 0.701936 -0.120715 1.000000
-6.448000 38.958900 -791.033386 -0.971148 0.226973 0.073177 1.000000
-7.677800 36.869301 -792.452881 -0.991053 0.117738 0.062870 1.000000
-8.228400 35.800499 -793.069824 -0.929731 0.261796 -0.258966 1.000000
-8.771900 35.150501 -793.735718 0.911222 0.077638 -0.404533 1.000000
-10.153900 33.580101 -795.440308 -0.894246 0.443710 -0.058706 1.000000
-11.039300 32.079800 -796.462891 -0.697037 0.483078 -0.529882 1.000000
-12.002200 30.962000 -797.647278 -0.836471 0.509748 0.201177 1.000000
-12.572400 30.339001 -798.354187 -0.470761 0.878660 0.079624 1.000000
-13.386300 29.732000 -799.403015 -0.512397 0.721336 0.465966 1.000000
-14.124300 29.043100 -799.822510 0.240476 0.863596 -0.443141 1.000000
-15.083500 28.077600 -801.023987 -0.524260 0.622032 -0.581574 1.000000
-5.600600 40.158199 -788.966370 -0.512118 0.858906 0.004032 1.000000
-7.166000 38.183102 -790.871277 -0.669513 0.721603 -0.176188 1.000000
-7.695200 37.298698 -791.484619 0.648009 0.055789 -0.759587 1.000000
-9.790600 34.100399 -793.955994 -0.641856 0.764796 0.055751 1.000000
-10.744700 32.761002 -795.097778 -0.964604 0.061304 0.256477 1.000000
-11.841600 31.337999 -796.427002 0.654398 0.279999 -0.702398 1.000000
-13.388100 29.633699 -798.343811 -0.889069 0.438113 0.132718 1.000000
-6.328900 39.483101 -789.425476 -0.984994 0.167087 0.043232 1.000000
-6.843200 38.791302 -790.044983 -0.971403 0.231520 -0.052674 1.000000
-8.421100 36.305099 -791.894714 -0.819067 0.522907 -0.236002 1.000000
-8.890600 35.300598 -792.407471 -0.874255 0.398491 -0.277277 1.000000
-9.356300 34.488499 -792.942322 -0.898320 0.439324 0.003934 1.000000
-11.394700 31.977600 -795.430786 -0.525143 0.817745 -0.235621 1.000000
-12.444400 30.512800 -796.687927 -0.561897 0.711073 -0.422666 1.000000
-13.014400 29.876900 -797.393005 -0.708158 0.677166 0.199896 1.000000
-14.070700 28.952000 -798.735779 0.478154 0.639216 -0.602306 1.000000
-14.939600 28.352800 -799.863220 -0.395910 0.861143 -0.318885 1.000000
-10.434300 33.255001 -793.878479 -0.856562 0.501226 0.122779 1.000000
-15.816900 27.840799 -800.259521 -0.393036 0.918838 -0.035492 1.000000
-5.910700 40.286301 -787.874329 -0.478414 0.816304 -0.323679 1.000000
-7.540900 37.976200 -789.822083 -0.617118 0.773274 -0.145646 1.000000
-8.058500 37.263699 -790.443604 -0.850745 0.515038 -0.104729 1.000000
-10.036800 33.729099 -792.704712 0.419240 0.694315 -0.584948 1.000000
-11.143900 32.422901 -794.064270 -0.944315 0.321719 -0.069033 1.000000
-12.139500 31.238701 -795.285706 -0.841726 0.510995 -0.174304 1.000000
-14.075100 28.941999 -797.661194 -0.877452 0.345202 0.333036 1.000000
-14.891100 28.300400 -798.708374 -0.695601 0.695601 0.179659 1.000000
-6.554200 39.548901 -788.369995 -0.284535 0.958627 -0.008548 1.000000
-7.068300 38.862499 -788.990417 -0.966293 0.225168 -0.124807 1.000000
-8.598900 36.405300 -790.779297 -0.843833 0.485014 -0.229583 1.000000
-9.050900 35.564602 -791.291382 -0.924582 0.342697 -0.166453 1.000000
-9.500300 34.685699 -791.794678 -0.912818 0.341766 -0.223518 1.000000
-13.211700 29.872000 -796.292480 -0.658293 0.744093 -0.113907 1.000000
-16.574499 27.150499 -800.596924 -0.838876 0.494800 0.226847 1.000000
-11.811500 31.613300 -794.269287 -0.482854 0.861505 -0.157038 1.000000
-12.822200 30.481001 -795.520325 -0.853455 0.481475 -0.199490 1.000000
-15.720600 27.794399 -799.185791 -0.209668 0.964992 -0.157576 1.000000
-10.739900 32.965000 -792.577515 0.152851 0.826585 -0.541658 1.000000
-13.923800 29.051399 -796.472778 -0.366964 0.847921 -0.382580 1.000000
-6.531400 39.718800 -787.260376 -0.959318 0.272083 -0.075366 1.000000
-7.747500 38.106800 -788.731384 -0.897457 0.413660 -0.153155 1.000000
-8.199300 37.319801 -789.252014 -0.840078 0.529583 -0.117524 1.000000
-10.202000 33.942200 -791.574585 -0.804239 0.547994 -0.230003 1.000000
-11.377500 32.238899 -792.976685 -0.417443 0.848852 -0.324333 1.000000
-14.586800 28.355801 -796.910217 -0.764898 0.521300 0.378389 1.000000
-15.211700 28.025101 -797.734924 -0.745647 0.638028 0.192177 1.000000
-7.211200 38.984299 -787.777588 0.211983 0.977014 0.022501 1.000000
-8.904200 36.634499 -789.810303 -0.801181 0.566168 -0.193810 1.000000
-9.292100 35.729000 -790.225281 -0.239859 0.941413 -0.237086 1.000000
-9.751100 34.907101 -790.750916 -0.908002 0.372698 -0.191386 1.000000
-12.522300 30.882200 -794.053223 -0.842002 0.505801 0.187612 1.000000
-16.685101 27.351200 -799.360718 -0.367193 0.925434 0.093492 1.000000
-12.048500 31.450100 -793.205200 -0.846244 0.531491 0.037273 1.000000
-13.465500 29.848700 -794.956116 -0.620153 0.781306 0.070505 1.000000
-17.495300 26.925800 -800.159912 -0.427304 0.879744 -0.208477 1.000000
-16.062401 27.518400 -798.077881 -0.384578 0.916647 0.108895 1.000000
-10.863600 33.068501 -791.545471 -0.878157 0.445654 -0.173878 1.000000
-6.493200 40.328602 -786.400513 -0.929586 0.305174 -0.206731 1.000000
-11.379900 32.212002 -791.877686 -0.822844 0.568187 0.009584 1.000000
-14.161400 29.098700 -795.337708 -0.506082 0.860200 0.062737 1.000000
-7.955500 38.261101 -787.676880 -0.840197 0.530727 -0.111351 1.000000
-8.392000 37.444698 -788.178284 -0.743583 0.642394 -0.185512 1.000000
-8.890300 36.664398 -788.770081 -0.343774 0.937208 -0.058821 1.000000
-10.355800 34.043499 -790.468994 -0.812315 0.543073 -0.212640 1.000000
-13.236700 30.130899 -793.966003 -0.622490 0.782598 -0.006901 1.000000
-14.779100 28.392200 -795.883423 -0.564775 0.820576 -0.087662 1.000000
-15.348200 27.723900 -796.587524 -0.449639 0.886592 0.108534 1.000000
-9.470500 35.903702 -789.210388 -0.526185 0.839845 -0.133378 1.000000
-12.717200 30.658899 -793.054871 -0.824966 0.547518 -0.140200 1.000000
-7.570100 38.738899 -786.719910 -0.995895 0.071214 0.055875 1.000000
-10.008300 35.048302 -789.641724 -0.841875 0.451170 -0.296129 1.000000
-12.087400 31.461000 -792.078918 -0.424844 0.869343 -0.252487 1.000000
-16.996099 27.107700 -798.341492 -0.196511 0.977671 -0.074454 1.000000
-18.451799 26.492800 -800.282227 -0.245205 0.887196 0.390842 1.000000
-14.046000 29.344801 -794.139893 -0.870896 0.490473 0.031249 1.000000
-16.209000 27.201401 -796.875793 -0.328124 0.935357 0.132066 1.000000
-17.784300 26.798201 -799.010620 -0.312114 0.933568 0.176171 1.000000
-8.289100 37.942200 -786.722107 -0.844090 0.535908 -0.017727 1.000000
-9.042700 36.831299 -787.631287 -0.088230 0.944191 -0.317364 1.000000
-11.201000 33.413399 -790.205811 -0.868652 0.493832 0.039671 1.000000
-11.665200 32.598099 -790.749695 -0.951235 0.228675 -0.207026 1.000000
-13.476100 29.887800 -792.929321 -0.963460 0.236662 0.125444 1.000000
-14.788400 28.517200 -794.581421 -0.987587 0.116811 -0.105012 1.000000
-15.421300 27.664499 -795.354614 -0.869426 0.484899 0.094718 1.000000
-9.693100 36.061501 -787.921875 -0.938143 0.330558 0.103049 1.000000
-10.190800 35.252399 -788.512878 -0.939921 0.319600 -0.120019 1.000000
-10.648100 34.457802 -789.049683 -0.945645 0.292732 0.141644 1.000000
-12.107700 31.641199 -790.728821 -0.843212 0.496273 -0.206655 1.000000
-12.693500 30.896200 -791.449890 -0.756917 0.651829 -0.046864 1.000000
-16.076200 26.901800 -795.651611 -0.547742 0.825304 0.137305 1.000000
-17.312201 26.749201 -797.346985 -0.423577 0.842464 0.332922 1.000000
-8.277300 38.408401 -785.698792 -0.939247 0.203943 -0.276086 1.000000
-8.990600 37.146599 -786.532715 -0.521756 0.849797 -0.074941 1.000000
-13.337500 30.100599 -791.693970 -0.555154 0.675913 -0.484712 1.000000
-14.310800 28.752300 -792.877686 -0.596177 0.788396 -0.151672 1.000000
-15.254300 27.724899 -794.059692 -0.573236 0.810740 -0.118752 1.000000
-16.931801 26.679199 -796.257019 -0.271288 0.955405 0.116641 1.000000
-18.145201 26.400101 -797.905029 -0.522769 0.841995 0.133255 1.000000
-18.757999 26.322001 -798.744995 -0.340323 0.934881 -0.100886 1.000000
-19.406799 26.175699 -799.626404 -0.444085 0.874891 -0.193273 1.000000
-9.664200 36.350800 -786.789673 -0.404832 0.833292 -0.376478 1.000000
-11.307000 33.671398 -788.737488 -0.787783 0.559122 -0.258418 1.000000
-11.850100 33.009998 -789.408997 -0.681427 0.503954 -0.530743 1.000000
-13.944400 29.249599 -791.849487 -0.918156 0.393496 -0.046372 1.000000
-15.942500 26.980200 -794.340210 -0.809857 0.586353 0.017936 1.000000
-8.954000 37.626801 -785.440491 -0.802866 0.419936 -0.423154 1.000000
-10.325700 35.600800 -787.092773 -0.054989 0.986287 -0.155606 1.000000
-10.828900 34.805901 -787.692505 -0.894356 0.411780 -0.174826 1.000000
-12.446700 32.091202 -789.601318 -0.922406 0.362027 -0.134546 1.000000
-12.836400 31.112101 -790.020996 -0.949517 0.177442 -0.258713 1.000000
-13.309400 30.276899 -790.573975 -0.345160 0.933409 -0.098042 1.000000
-14.995300 28.002001 -792.631226 -0.763010 0.646265 -0.012508 1.000000
-16.888000 26.174299 -795.030212 -0.305879 0.436304 0.846213 1.000000
-17.866100 26.208500 -796.390381 -0.364928 0.930887 -0.016646 1.000000
-9.448600 36.722900 -785.592285 -0.922687 0.365489 -0.122749 1.000000
-14.454500 28.395201 -791.504028 -0.846759 0.529746 0.048664 1.000000
-15.688600 27.328199 -793.082581 -0.822105 0.516708 -0.239074 1.000000
-18.682400 25.982500 -797.064819 -0.143436 0.987728 0.061806 1.000000
-19.297600 25.909700 -797.908325 -0.336716 0.939945 0.055903 1.000000
-11.466500 33.924900 -787.637207 -0.926142 0.361455 -0.107754 1.000000
-12.056000 33.031601 -788.343811 -0.544208 0.838816 -0.015003 1.000000
-13.918600 29.380800 -790.474915 -0.765978 0.640455 -0.055630 1.000000
-16.520901 26.357100 -793.706970 -0.659668 0.721755 -0.209542 1.000000
-20.134300 25.930700 -798.658081 0.148713 0.987960 -0.042654 1.000000
-10.160300 35.922001 -785.654114 0.492878 0.307065 -0.814115 1.000000
-13.466100 30.363899 -789.547424 -0.363114 0.926145 0.101998 1.000000
-17.223600 25.599701 -794.163391 -0.510373 0.719842 -0.470474 1.000000
-17.922800 25.998699 -795.180115 -0.222038 0.974829 0.020185 1.000000
-9.465300 37.862801 -784.517517 -0.289797 0.286885 -0.913080 1.000000
-10.900200 35.303799 -786.188477 -0.381950 0.910149 -0.160447 1.000000
-12.789000 32.094501 -788.407471 -0.502985 0.842313 -0.193687 1.000000
-13.193100 31.199600 -788.856689 -0.887198 0.182101 0.423932 1.000000
-15.232300 27.747200 -791.254028 -0.584447 0.809125 0.061147 1.000000
-15.835700 27.268999 -792.030090 -0.477885 0.836685 -0.267554 1.000000
-18.721800 25.825199 -795.845703 -0.510480 0.825096 0.242131 1.000000
-9.945500 36.863300 -784.657776 -0.766925 0.350363 -0.537654 1.000000
-11.535200 34.481300 -786.565430 -0.803760 0.528006 -0.274187 1.000000
-12.126000 33.171600 -787.222412 -0.995797 0.085976 -0.031561 1.000000
-14.646400 28.653400 -790.155884 -0.891190 0.250601 0.378126 1.000000
-16.546499 26.646400 -792.539185 -0.133564 0.963474 -0.232116 1.000000
-19.608999 25.721100 -796.663696 -0.065318 0.995266 0.071960 1.000000
-20.271299 25.647699 -797.571228 0.739758 0.666515 -0.092287 1.000000
-14.139200 29.621099 -789.211121 -0.923770 0.304116 -0.232727 1.000000
-17.257401 25.954399 -793.077271 -0.896956 0.351370 0.268346 1.000000
-10.459600 35.862202 -784.582275 -0.957342 0.263236 -0.119177 1.000000
-13.814100 30.374901 -788.552429 -0.967324 0.068826 -0.244021 1.000000
-15.235500 27.793400 -790.203125 -0.496051 0.851431 0.170286 1.000000
-18.127501 25.103001 -793.875183 -0.332705 0.940253 0.072327 1.000000
-11.104600 35.160301 -785.159485 -0.158678 0.984280 -0.077549 1.000000
-12.825100 32.340500 -787.195374 -0.800924 0.579360 -0.151203 1.000000
-13.370900 31.438400 -787.840393 -0.949916 0.090157 -0.299217 1.000000
-16.026199 27.122101 -790.986816 -0.579101 0.810163 -0.090981 1.000000
-10.130700 37.775902 -783.662170 -0.896050 0.393210 -0.206106 1.000000
-11.772200 34.446400 -785.530029 -0.918997 0.393482 -0.024838 1.000000
-12.368900 33.178699 -786.201904 -0.958496 0.176321 -0.224047 1.000000
-14.808700 28.818199 -789.048828 -0.816844 0.534857 -0.216088 1.000000
-16.750900 26.537399 -791.459290 -0.856277 0.492029 -0.157155 1.000000
-17.389999 25.889700 -791.969910 -0.754389 0.655314 -0.038215 1.000000
-18.025999 25.296801 -792.778687 -0.536335 0.835753 -0.117732 1.000000
-10.722500 36.682201 -783.965820 -0.533930 0.181987 -0.825711 1.000000
-14.548500 29.680500 -788.244080 -0.416818 0.868498 -0.268279 1.000000
-18.863300 24.389400 -793.605225 -0.522968 0.486210 -0.700075 1.000000
-11.220900 35.353298 -784.051514 -0.934959 0.353034 -0.034915 1.000000
-13.497400 31.664200 -786.776611 -0.678229 0.706165 -0.203313 1.000000
-14.028300 30.712299 -787.401306 -0.474792 0.862318 -0.176013 1.000000
-15.440500 27.989401 -789.041321 -0.966842 0.164376 -0.195439 1.000000
-15.925400 27.184299 -789.619507 -0.649159 0.754666 0.095249 1.000000
-12.443800 33.651501 -785.246521 -0.881852 0.383087 -0.274921 1.000000
-13.095200 32.429699 -786.007080 -0.777202 0.608179 -0.161477 1.000000
-16.603600 26.534599 -790.183289 -0.451315 0.884121 0.121015 1.000000
-11.930700 34.527100 -784.333374 -0.903235 0.413107 -0.116230 1.000000
-11.047600 37.383701 -783.176819 -0.995733 0.077946 0.049402 1.000000
-15.344100 28.998199 -788.154785 -0.772736 0.510298 -0.377458 1.000000
-18.028400 25.253700 -791.438416 -0.743806 0.667300 0.038253 1.000000
-18.808399 24.663099 -792.450073 -0.509813 0.859711 0.031436 1.000000
-14.675100 29.960400 -787.075928 -0.962488 0.223926 -0.153212 1.000000
-17.302700 25.765699 -790.229187 -0.486730 0.865776 0.116298 1.000000
-19.705601 23.761600 -793.325073 -0.658170 0.621512 -0.424894 1.000000
-11.677400 36.577599 -783.436584 -0.375262 0.828109 -0.416430 1.000000
-12.984100 32.829498 -784.814880 -0.561309 0.825786 -0.054865 1.000000
-14.151100 31.020000 -786.223389 -0.841806 0.497225 -0.210074 1.000000
-12.560000 33.673500 -784.099670 -0.947296 0.295279 -0.124258 1.000000
-15.929200 28.129000 -788.133911 -0.920906 0.300264 -0.248544 1.000000
-16.289900 27.194700 -788.526672 -0.923319 0.341501 -0.175669 1.000000
-12.055700 34.829800 -783.318787 0.977080 0.168033 0.130692 1.000000
-13.608800 32.039200 -785.153076 -0.791436 0.584842 -0.177731 1.000000
-16.890699 26.467199 -789.066528 -0.786088 0.616123 0.049573 1.000000
-18.096201 25.054899 -790.369507 -0.490724 0.861300 -0.131728 1.000000
-15.479100 29.256001 -787.044128 -0.531794 0.841410 -0.096038 1.000000
-19.037399 24.412600 -791.431824 -0.696887 0.699924 0.156382 1.000000
-19.809700 24.148300 -792.347595 -0.017684 0.977320 0.211026 1.000000
-14.836500 30.223000 -786.048584 -0.884956 0.440313 -0.151583 1.000000
-20.458700 23.043301 -793.047119 -0.402409 0.849876 -0.340261 1.000000
-17.628599 25.640400 -789.211182 -0.769844 0.591827 -0.238917 1.000000
-13.243600 32.806599 -783.762817 -0.894532 0.349776 -0.278332 1.000000
-14.315900 31.278400 -785.080383 -0.823702 0.515776 -0.235563 1.000000
-12.803700 34.005001 -783.135071 -0.823257 0.305781 -0.478273 1.000000
-16.351101 28.834700 -787.478882 -0.740918 0.120269 0.660739 1.000000
-12.423000 36.850601 -782.687195 -0.267793 0.072342 -0.960757 1.000000
-13.845600 32.002701 -784.111877 -0.898706 0.438103 -0.019854 1.000000
-16.565201 27.723400 -787.401184 -0.874832 0.354497 -0.330154 1.000000
-16.924101 26.788900 -787.793274 -0.911917 0.184096 -0.366765 1.000000
-18.942699 24.398100 -790.323914 -0.489965 0.863546 0.119258 1.000000
-15.475300 29.418600 -785.799988 -0.774523 0.565449 -0.283517 1.000000
-17.489300 25.947701 -788.198975 -0.767767 0.628173 -0.126229 1.000000
-18.385099 24.932600 -789.326294 -0.468297 0.871352 -0.146434 1.000000
-19.745300 23.722900 -791.075500 -0.515119 0.841707 0.161810 1.000000
-20.356600 23.277100 -791.872803 -0.570445 0.815954 0.093871 1.000000
-16.144300 28.720699 -786.411072 -0.815229 0.565520 -0.124855 1.000000
-21.320000 22.432501 -792.867188 -0.476650 0.837609 -0.266863 1.000000
-15.067400 30.512899 -784.910522 -0.930319 0.343903 -0.127422 1.000000
-13.382300 33.207901 -782.664185 -0.725139 0.459642 -0.512741 1.000000
-13.862800 32.308498 -782.993530 -0.665064 0.720615 -0.195970 1.000000
-14.561300 31.296400 -783.845276 -0.800161 0.556567 -0.223552 1.000000
-18.272900 25.181200 -788.288330 -0.419950 0.904192 -0.077971 1.000000
-16.826599 27.912100 -786.259094 -0.972459 0.143270 0.183842 1.000000
-17.319599 26.930799 -786.829773 0.924629 0.351776 0.145994 1.000000
-19.238600 24.304199 -789.186279 -0.330913 0.832772 -0.443832 1.000000
-19.776199 23.725401 -789.864319 0.197499 0.794590 -0.574126 1.000000
-20.544100 23.044001 -790.848877 -0.442187 0.896397 0.030726 1.000000
-21.163000 22.637600 -791.658691 -0.436949 0.899132 -0.025234 1.000000
-15.730500 29.681999 -784.586121 -0.763032 0.582188 -0.280783 1.000000
-16.194500 28.861300 -785.134521 -0.522688 0.851940 0.031553 1.000000
-17.728100 25.958000 -786.925476 -0.831198 0.351721 -0.430583 1.000000
-13.540300 33.674999 -781.721924 -0.751727 0.657582 -0.049925 1.000000
-15.315300 30.576300 -783.824829 -0.539322 0.842099 -0.001352 1.000000
-21.981800 22.076000 -792.077515 -0.566540 0.820556 -0.075634 1.000000
-14.602300 31.607100 -782.753723 -0.918904 0.372828 -0.128896 1.000000
-18.378799 25.188400 -787.244324 -0.604296 0.794828 -0.055453 1.000000
-19.039900 24.497400 -788.079224 -0.604199 0.794699 0.058287 1.000000
-14.019800 32.737301 -781.873230 -0.823305 0.398168 -0.404514 1.000000
-17.357700 27.201099 -785.716797 -0.900294 0.434944 0.017186 1.000000
-20.633699 23.129299 -789.783081 -0.568709 0.819568 -0.069841 1.000000
-16.979900 28.126400 -785.079285 -0.856836 0.506118 -0.098372 1.000000
-19.780100 23.782900 -788.460999 -0.590272 0.802016 0.091369 1.000000
-21.373600 22.483801 -790.514526 -0.474196 0.868635 -0.143564 1.000000
-16.246500 29.012501 -783.966980 -0.959035 0.202949 -0.197644 1.000000
-17.837099 26.243200 -785.856323 -0.796673 0.554410 -0.240710 1.000000
-15.320400 30.833300 -782.729614 -0.948714 0.314554 0.031582 1.000000
-22.032900 21.837200 -791.007080 -0.570987 0.785691 -0.238041 1.000000
-22.799200 21.357500 -792.011719 -0.325932 0.944563 0.039623 1.000000
-15.912100 29.867300 -783.309326 -0.947804 0.290090 -0.132345 1.000000
-18.397499 25.440201 -786.220520 -0.781106 0.586216 -0.214998 1.000000
-14.708500 31.911699 -781.711487 -0.871016 0.455404 -0.184225 1.000000
-19.133900 24.447901 -787.033386 -0.624758 0.779890 -0.038078 1.000000
-20.584499 23.155701 -788.723999 -0.662058 0.741682 0.107640 1.000000
-17.368601 27.243700 -784.668030 -0.871655 0.488510 -0.039683 1.000000
-16.874100 28.151600 -783.991394 -0.956573 0.277548 -0.089074 1.000000
-14.604700 32.686901 -780.893616 -0.832979 0.524911 -0.174970 1.000000
-15.657800 31.870001 -782.271912 -0.742612 0.206195 0.637189 1.000000
-19.918400 23.750401 -787.351624 -0.650495 0.756757 -0.064619 1.000000
-21.363501 22.586300 -789.238708 -0.369560 0.921840 -0.116776 1.000000
-18.003201 26.411800 -784.709778 -0.818447 0.539051 -0.198918 1.000000
-22.039200 21.987900 -789.856018 -0.419547 0.907021 -0.035961 1.000000
-15.418100 31.216000 -781.371277 -0.800965 0.580215 -0.147664 1.000000
-15.950300 30.390200 -782.024597 -0.918138 0.373645 -0.131956 1.000000
-16.554199 29.207399 -782.740417 -0.915607 0.352816 -0.192835 1.000000
-18.569201 25.629400 -785.166992 -0.799672 0.544026 -0.254087 1.000000
-19.180300 24.773701 -785.927002 -0.828949 0.505982 -0.238381 1.000000
-22.878901 21.277399 -790.701782 -0.416102 0.894116 -0.165577 1.000000
-17.489401 27.474800 -783.475586 -0.776727 0.590685 -0.218600 1.000000
-19.747601 23.954000 -786.247620 -0.572944 0.774973 -0.266742 1.000000
-20.795401 23.048201 -787.609924 -0.918887 0.365037 -0.149651 1.000000
-23.612200 20.826401 -791.294312 -0.592194 0.531456 -0.605691 1.000000
-17.122499 28.327801 -782.836975 -0.964312 0.231694 -0.128143 1.000000
-15.242300 32.048500 -780.295776 -0.911637 0.387901 -0.135835 1.000000
-21.528099 22.334999 -788.023193 -0.570146 0.817162 0.084732 1.000000
-16.693899 29.698799 -781.751282 -0.802576 0.526150 -0.281137 1.000000
-18.164301 26.664600 -783.478699 -0.881342 0.300835 -0.364328 1.000000
-18.680401 25.868200 -784.112976 -0.783705 0.603887 -0.145352 1.000000
-19.321199 24.941099 -784.907410 -0.609643 0.773836 -0.171795 1.000000
-20.551800 23.232300 -786.440002 -0.457132 0.881510 0.118199 1.000000
-22.262800 21.944500 -788.685303 -0.532914 0.815497 0.225759 1.000000
-22.858000 21.459600 -789.462524 -0.444234 0.895178 -0.036237 1.000000
-15.821100 31.167999 -780.397522 -0.504097 0.344066 -0.792152 1.000000
-16.322001 30.429100 -781.016479 -0.353305 0.897306 -0.264609 1.000000
-17.175301 28.714199 -781.642822 -0.816122 0.526082 -0.239128 1.000000
-17.770300 27.666201 -782.359985 -0.665820 0.558484 -0.494753 1.000000
-20.054399 24.074699 -785.158691 -0.874212 0.337174 -0.349380 1.000000
-21.212099 22.437401 -786.596313 -0.884348 0.464657 0.044967 1.000000
-23.662399 20.884001 -789.840698 -0.369203 0.894093 -0.253549 1.000000
-24.251400 20.334999 -790.602173 0.813176 0.122050 -0.569076 1.000000
-21.957300 21.824600 -787.103271 -0.538508 0.831973 0.133527 1.000000
-16.963600 29.645500 -780.606812 -0.982014 0.171883 -0.078128 1.000000
-18.376400 26.790001 -782.270325 -0.729735 0.582808 -0.357521 1.000000
-18.863300 26.089600 -782.873718 -0.539708 0.833565 -0.117834 1.000000
-19.390400 25.327700 -783.526611 -0.653536 0.502332 -0.566174 1.000000
-20.750099 23.283300 -785.202271 -0.946043 0.322947 -0.026596 1.000000
-22.707701 21.429399 -787.730408 -0.349196 0.935948 0.045434 1.000000
-16.503401 30.783600 -779.681030 -0.949714 0.290080 -0.117886 1.000000
-17.766100 28.015800 -781.143188 -0.961753 0.182878 -0.203928 1.000000
-20.014400 24.524900 -783.900513 -0.955312 0.207676 0.210356 1.000000
-23.494200 21.175699 -788.386902 -0.460787 0.870049 0.175187 1.000000
-17.533001 28.793501 -780.383728 0.965824 0.050833 -0.254164 1.000000
-20.671000 23.716900 -784.209106 -0.780431 0.135792 0.610318 1.000000
-21.473301 22.515499 -785.197388 0.819340 0.029114 -0.572568 1.000000
-22.048500 21.911800 -785.933777 -0.842693 0.090135 0.530796 1.000000
-24.261400 20.636801 -788.879028 -0.366974 0.929753 0.029825 1.000000
-24.875999 20.245800 -789.692993 -0.643581 0.764692 -0.032390 1.000000
-17.190201 29.987700 -779.457825 -0.925844 0.313341 -0.211257 1.000000
-18.468599 27.227699 -780.942505 -0.957696 0.287186 0.018488 1.000000
-18.920601 26.372601 -781.480530 -0.674839 0.684411 -0.275998 1.000000
-19.582399 25.566000 -782.316406 -0.998650 0.048841 0.017666 1.000000
-22.768400 21.235800 -786.292175 0.817921 0.052088 -0.572967 1.000000
-23.385500 20.857300 -787.112122 -0.025360 0.993456 0.111364 1.000000
-20.198799 24.712099 -782.687683 -0.762813 0.626866 -0.158605 1.000000
-21.371799 22.945700 -784.133972 -0.480050 0.870357 -0.109685 1.000000
-24.171600 20.605801 -787.789490 -0.675806 0.691633 0.254812 1.000000
-18.176300 28.016100 -780.044617 -0.667557 0.539763 -0.512859 1.000000
-20.749001 23.990299 -783.200012 -0.378356 0.868534 -0.320148 1.000000
-25.630899 19.524799 -789.470276 -0.687163 0.427605 -0.587333 1.000000
-17.882799 29.166300 -779.339722 -0.531594 0.801312 -0.274422 1.000000
-22.253599 22.023001 -784.657898 -0.870319 0.435909 -0.229189 1.000000
-24.999800 20.185200 -788.281982 -0.363222 0.931632 -0.011470 1.000000
-22.863300 21.296700 -785.233826 -0.746747 0.643328 -0.168816 1.000000
-17.413200 30.025801 -778.405579 -0.354481 0.830273 0.430104 1.000000
-19.118401 26.600201 -780.411926 -0.869650 0.466249 -0.162237 1.000000
-19.718901 25.751900 -781.156494 -0.747204 0.611348 -0.260652 1.000000
-20.246201 24.977501 -781.649780 -0.813021 0.532243 -0.236038 1.000000
-23.658800 20.787001 -785.950623 -0.283592 0.958812 -0.015960 1.000000
-24.308399 20.413099 -786.698486 -0.391679 0.919193 -0.040882 1.000000
-21.511200 23.324499 -782.951416 -0.789044 0.589132 -0.174165 1.000000
-18.486900 28.331400 -779.079285 -0.820208 0.510111 -0.258932 1.000000
-18.871300 27.440399 -779.520630 -0.673764 0.624101 -0.395650 1.000000
-20.915899 24.169500 -782.023987 -0.733673 0.573539 -0.364385 1.000000
-22.163000 22.527399 -783.588379 -0.755325 0.655172 0.015301 1.000000
-25.121201 19.963800 -787.249878 -0.389707 0.908370 -0.151631 1.000000
-25.946800 19.679399 -788.372192 -0.163575 0.984979 0.055309 1.000000
-18.247400 29.355900 -778.328430 -0.124266 0.908960 -0.397932 1.000000
-23.027201 21.516500 -784.146912 0.740261 0.079989 -0.667544 1.000000
-19.579399 26.690701 -779.304688 -0.959799 0.223117 0.170308 1.000000
-19.978001 25.833799 -779.767029 -0.982639 0.132395 -0.129966 1.000000
-20.518499 25.164499 -780.448608 -0.877216 0.190186 0.440819 1.000000
-23.777901 20.818701 -784.523926 -0.869593 0.268618 0.414309 1.000000
-24.530100 20.383101 -785.527283 -0.960040 0.217891 0.175633 1.000000
-18.945999 28.609301 -777.942322 -0.704621 0.544707 -0.454756 1.000000
-19.365499 27.683001 -778.424683 -0.597312 0.583775 -0.549933 1.000000
-21.128000 24.316700 -780.510681 -0.872260 0.152900 0.464526 1.000000
-21.690001 23.711800 -781.228882 0.447794 0.567650 -0.690835 1.000000
-22.190901 23.028799 -781.852783 0.519402 0.277747 -0.808133 1.000000
-22.700100 22.370399 -782.491028 -0.859513 0.470864 0.198809 1.000000
-25.386900 19.938101 -785.976379 0.720170 0.296729 -0.627142 1.000000
-26.002100 19.546301 -786.793213 -0.811518 0.067032 0.580470 1.000000
-26.628201 19.222401 -787.632813 0.309778 0.746356 -0.589059 1.000000
-20.302999 26.092400 -778.770386 -0.793939 0.319803 -0.517095 1.000000
-20.760799 25.262699 -779.315796 -0.836359 0.398491 -0.376441 1.000000
-23.476200 21.677299 -782.705688 -0.598995 0.789247 -0.135257 1.000000
-23.996300 21.039301 -783.360596 -0.698943 0.663916 -0.265885 1.000000
-24.598900 20.295799 -784.118896 -0.427740 0.903878 0.006540 1.000000
-20.186100 27.072100 -778.061279 -0.542364 0.692557 -0.475611 1.000000
-21.436800 24.458799 -779.505981 -0.500586 0.814434 -0.293447 1.000000
-21.979900 23.756500 -780.184570 -0.909497 0.370960 -0.187628 1.000000
-22.480900 23.068800 -780.805725 -0.661842 0.720741 -0.206148 1.000000
-22.994699 22.429800 -781.450623 -0.602149 0.761679 -0.239295 1.000000
-25.458300 19.796000 -784.593506 -0.458532 0.881573 0.112149 1.000000
-26.277500 19.448099 -785.700989 -0.435808 0.899604 0.027988 1.000000
-26.899000 19.082199 -786.529175 -0.376443 0.926332 0.014133 1.000000
-19.520901 28.801300 -776.995911 0.067423 0.787556 -0.612544 1.000000
-19.951099 27.920700 -777.494385 -0.633299 0.555614 -0.538726 1.000000
-27.652500 19.325800 -787.398071 0.701151 0.307862 -0.643124 1.000000
-21.099400 27.193501 -778.551819 -0.621697 0.718585 0.311656 1.000000
-23.801100 21.721701 -781.691528 -0.722095 0.663338 -0.196373 1.000000
-24.320900 21.074900 -782.344116 -0.784768 0.612964 0.091726 1.000000
-24.828100 20.338800 -782.968079 -0.559540 0.801752 -0.210019 1.000000
-22.234800 23.821400 -779.157471 -0.648113 0.661307 -0.377654 1.000000
-22.736601 23.132700 -779.780212 -0.578118 0.815925 0.006834 1.000000
-25.601200 19.724899 -783.398071 -0.329715 0.944013 0.011283 1.000000
-26.419300 19.334801 -784.501587 -0.246003 0.967943 0.050684 1.000000
-27.754801 18.516399 -786.281006 -0.732657 0.603838 0.313996 1.000000
-27.232401 18.991800 -785.125977 -0.389812 0.920784 -0.014246 1.000000
-24.033800 21.818600 -780.626404 -0.602984 0.794908 -0.067317 1.000000
-24.581900 21.052099 -781.305603 -0.604313 0.674233 -0.424517 1.000000
-25.213499 20.381001 -781.846375 -0.490131 0.863838 -0.116424 1.000000
-26.552900 19.304399 -783.442505 -0.138008 0.935992 -0.323840 1.000000
-25.905100 19.794100 -782.378479 -0.284337 0.954282 -0.092182 1.000000
-28.149401 18.494499 -785.243774 -0.349730 0.928500 -0.124806 1.000000
-27.384600 18.922701 -784.057373 -0.274848 0.961357 0.015880 1.000000
-24.877001 21.313700 -780.243774 -0.418819 0.886133 -0.198388 1.000000
-25.556200 20.634399 -780.764221 -0.243523 0.879968 -0.407863 1.000000
-26.861799 19.303101 -782.445007 -0.426050 0.874523 -0.231711 1.000000
-26.221500 19.895300 -781.234802 -0.670449 0.647500 0.362272 1.000000
-28.371401 18.498400 -784.101990 -0.234614 0.960739 0.148109 1.000000
-27.731199 18.953400 -782.914978 -0.109213 0.951333 -0.288163 1.000000
-25.445200 21.104200 -779.184814 -0.141329 0.798878 -0.584654 1.000000
-27.189199 19.434200 -781.448486 -0.210150 0.929454 -0.303236 1.000000
-29.358500 18.105600 -784.357483 -0.250878 0.350642 -0.902281 1.000000
-26.093599 20.401501 -779.703491 -0.383694 0.921134 -0.065509 1.000000
-28.655300 18.491400 -783.097595 -0.204314 0.970810 0.125634 1.000000
-26.784401 19.820601 -780.328430 -0.366227 0.889409 -0.273549 1.000000
-27.973301 18.900700 -781.899597 -0.400341 0.913321 -0.074640 1.000000
-29.640200 18.114000 -783.355286 -0.378615 0.925070 0.029925 1.000000
-26.999201 20.048599 -779.287292 -0.392365 0.874111 -0.286321 1.000000
-27.785101 19.397301 -780.319214 -0.116298 0.865776 -0.486730 1.000000
-28.990299 18.548500 -781.920288 -0.027361 0.976682 -0.212943 1.000000
-28.605101 18.969801 -780.861816 -0.001329 0.873026 -0.487672 1.000000
-30.010401 18.198299 -782.050476 -0.300331 0.936977 0.178538 1.000000
-28.207701 19.623800 -778.924377 -0.443822 0.891818 0.087651 1.000000
-28.808201 19.274300 -779.733582 0.106663 0.979582 -0.170415 1.000000
-29.593599 18.607300 -780.765381 -0.509049 0.754572 -0.414114 1.000000
-29.814100 19.033001 -779.460510 -0.623961 0.735099 0.265144 1.000000
-30.620100 18.476101 -780.536682 -0.018378 0.961777 -0.273218 1.000000
-31.208099 18.106001 -781.326416 -0.406839 0.732969 -0.545197 1.000000
-30.926201 18.742001 -779.422974 -0.133583 0.970701 -0.199738 1.000000
-24.506901 22.057100 -779.001099 -0.874967 0.397437 0.276544 1.000000
-23.671400 22.705799 -778.867493 -0.786452 0.200829 0.584090 1.000000
-20.795500 27.278099 -777.192871 -0.770144 0.513969 -0.377776 1.000000
-13.944700 39.027302 -779.670471 -0.843390 0.180620 0.506034 1.000000
-14.020900 38.272598 -780.437622 -0.178632 0.827112 -0.532894 1.000000
-12.969200 39.589699 -779.858582 -0.910843 0.097836 -0.400991 1.000000
-13.748300 37.593102 -781.193420 -0.636157 0.758898 -0.139206 1.000000
-12.798000 38.682999 -780.447083 0.252280 0.069032 -0.965189 1.000000
-11.936400 40.078499 -779.896729 0.013704 0.310212 0.950569 1.000000
-12.664300 37.996498 -781.233887 -0.776929 0.622418 -0.094747 1.000000
-13.205200 37.027500 -781.903198 -0.255071 0.647974 -0.717683 1.000000
-11.726300 39.248402 -780.537781 -0.907025 0.416228 0.063722 1.000000
-10.772300 40.806900 -779.770630 -0.777074 0.616608 -0.126293 1.000000
-10.946400 40.015301 -780.470825 -0.283791 0.835866 -0.469884 1.000000
-11.607600 38.447498 -781.252930 -0.539172 0.439633 -0.718343 1.000000
-12.029900 37.662601 -782.000122 -0.376954 0.894341 -0.240955 1.000000
-10.798900 39.300301 -781.213684 -0.622456 0.565103 -0.541486 1.000000
-10.915400 38.287300 -782.031799 -0.769177 0.586714 -0.253246 1.000000
-9.911600 40.178001 -781.192627 -0.324457 0.023987 -0.945596 1.000000
-10.000400 39.439098 -781.954712 -0.383500 0.899693 -0.208519 1.000000
-9.096800 40.847000 -781.457825 -0.200003 0.361156 -0.910805 1.000000
-10.110800 38.634602 -782.690186 -0.783279 0.449210 -0.429749 1.000000
-9.118600 40.115002 -782.225830 0.009685 0.995356 0.095769 1.000000
-9.274700 39.397499 -783.007629 -0.757813 0.532913 -0.376462 1.000000
-8.328900 40.795799 -782.325012 0.173561 0.199660 0.964372 1.000000
-9.431800 38.558102 -783.683899 -0.941200 0.066761 -0.331187 1.000000
-8.378200 40.141102 -783.144714 -0.988868 0.066079 -0.133318 1.000000
-8.704800 39.325802 -783.878906 -0.871120 0.385978 -0.303595 1.000000
-7.671800 40.947498 -783.120911 -0.805047 0.493826 -0.328688 1.000000
-8.729000 38.629601 -784.671570 -0.368133 0.889778 -0.269765 1.000000
-7.681100 40.300598 -783.961914 -0.872743 0.318330 -0.370116 1.000000
-7.919900 39.542801 -784.709717 0.079719 0.309727 -0.947478 1.000000
-6.969600 41.508202 -783.683228 -0.816859 0.393303 -0.421964 1.000000
-6.926700 40.901001 -784.573914 -0.745022 0.521351 -0.416094 1.000000
-7.153300 40.059299 -785.194885 -0.905815 0.306832 -0.292151 1.000000
-7.573400 39.246601 -785.718323 -0.826818 0.476710 -0.298530 1.000000
-6.245800 41.886600 -784.502075 -0.865518 0.413678 -0.282400 1.000000
-6.177100 41.277599 -785.379272 -0.203070 0.895553 -0.395913 1.000000
-5.518300 42.227001 -785.525879 -0.819917 0.501321 -0.276429 1.000000
-5.505800 41.566700 -786.364807 -0.864150 0.352746 -0.358907 1.000000
-4.740600 42.595200 -786.510620 -0.936317 0.305652 -0.172880 1.000000
-5.421200 41.159302 -787.359619 -0.792213 0.561864 -0.238131 1.000000
-4.572000 42.237499 -787.504578 -0.738037 0.568598 -0.363316 1.000000
-3.627100 43.168098 -787.742920 0.090232 0.964595 -0.247821 1.000000
-2.769100 43.670101 -788.975525 -0.873776 0.455183 -0.171243 1.000000
-0.537300 44.879101 -791.038818 -0.488548 0.849323 -0.199929 1.000000
0.122300 45.676601 -790.611023 0.972087 0.020377 -0.233732 1.000000
-0.093100 45.909500 -789.457825 0.062115 0.210705 -0.975574 1.000000
-0.776700 45.214600 -789.825806 -0.984560 0.171279 0.036120 1.000000
-0.427400 46.115002 -788.455078 -0.134043 0.980111 -0.146340 1.000000
0.116100 46.763000 -787.773376 -0.163354 0.075119 -0.983703 1.000000
0.900100 47.762100 -787.521729 -0.797266 0.554822 -0.237781 1.000000
0.490300 46.666000 -788.746582 0.116431 0.956306 -0.268184 1.000000
1.923100 48.947300 -787.531677 -0.498764 0.748968 -0.436212 1.000000
1.796100 48.164001 -788.268372 -0.666495 0.528831 -0.525473 1.000000
1.385400 47.360199 -788.800781 -0.314636 0.902548 -0.293956 1.000000
1.132400 46.839500 -789.716309 -0.981344 0.189217 0.034083 1.000000
2.613600 49.210098 -788.326416 -0.942627 0.319512 -0.096782 1.000000
2.403400 48.584900 -789.133423 -0.968566 0.058288 -0.241831 1.000000
2.029200 47.645802 -789.604492 -0.201177 0.836471 -0.509748 1.000000
1.179000 46.480701 -790.755920 0.009505 0.541762 -0.840478 1.000000
0.627400 45.815300 -791.510681 -0.995149 0.097901 -0.009683 1.000000
-6.040200 37.043098 -801.268372 -0.581297 0.464032 0.668407 1.000000
3.132200 49.298901 -789.521118 -0.861914 0.480146 -0.162985 1.000000
2.677300 48.321899 -790.109680 -0.905993 0.383360 -0.179476 1.000000
2.280100 47.464100 -790.622986 -0.972510 0.232788 0.005908 1.000000
1.445900 46.422001 -791.764587 -0.871947 0.462994 -0.159200 1.000000
-5.165600 37.745899 -801.485413 -0.470097 0.881603 0.042241 1.000000
3.344300 49.075401 -790.527527 -0.873135 0.474313 -0.112525 1.000000
2.477700 47.288300 -791.659485 -0.999336 0.023623 0.027731 1.000000
3.239300 48.446098 -791.435913 -0.759507 0.483919 -0.434707 1.000000
2.362500 46.859798 -792.603577 -0.233005 0.913206 -0.334311 1.000000
3.212100 47.929298 -792.368286 -0.826129 0.520721 -0.215313 1.000000
3.981100 48.819000 -792.228210 -0.912647 0.374963 0.162720 1.000000
3.140600 47.479301 -793.365112 -0.790999 0.588334 -0.167879 1.000000
3.837900 48.481899 -793.242920 -0.804697 0.580268 -0.125503 1.000000
3.030500 46.990200 -794.318787 -0.553915 0.784319 -0.279325 1.000000
3.764300 47.933498 -794.200928 -0.879693 0.436175 -0.189450 1.000000
3.699200 47.512501 -795.177002 -0.779116 0.594710 -0.198237 1.000000
-1.762100 41.338402 -803.688416 -0.993340 0.113305 -0.020901 1.000000
-1.147000 41.656300 -804.717529 0.946207 0.201292 -0.253326 1.000000
-0.499100 42.138500 -803.864807 -0.819487 0.569522 0.063911 1.000000
-0.053600 42.677700 -802.691895 -0.412952 0.741998 0.528118 1.000000
0.482400 42.764599 -801.712891 0.903463 0.198039 0.380177 1.000000
-1.044900 41.778500 -802.796021 0.697468 0.714654 -0.052990 1.000000
-2.459000 42.127998 -804.096802 -0.400786 0.796744 0.452293 1.000000
4.664400 48.488201 -794.180298 0.438156 0.668063 -0.601424 1.000000
1.631000 48.883400 -786.510681 -0.351177 0.847508 -0.398001 1.000000
-1.509900 44.677700 -789.312988 -0.504706 0.848083 0.161328 1.000000
0.670100 48.346001 -786.457825 -0.509168 0.392043 -0.766192 1.000000
0.186800 47.377998 -786.842224 -0.862175 0.374792 -0.340860 1.000000
-1.350200 45.240501 -788.204285 -0.960634 0.239831 -0.140229 1.000000
-0.749600 46.384998 -787.250427 -0.456452 0.866812 -0.200720 1.000000
-2.045900 44.419399 -788.376770 -0.746444 0.664912 -0.026709 1.000000
0.597000 48.500000 -785.301819 -0.155276 0.956874 0.245522 1.000000
-1.509400 45.601601 -787.221313 0.949453 0.290812 0.118184 1.000000
-0.263900 47.508701 -785.745117 -0.769528 0.175239 0.614099 1.000000
-0.979600 46.786400 -785.968811 -0.888013 0.344086 -0.305020 1.000000
-2.388400 44.876701 -787.265930 -0.296297 0.953026 0.062851 1.000000
-0.249100 48.000401 -784.324707 -0.126848 0.702886 0.699901 1.000000
-1.936400 46.111698 -785.938599 -0.759549 0.517800 -0.393659 1.000000
-1.132500 47.555302 -784.735779 -0.376927 0.905492 -0.194962 1.000000
-2.633300 45.333099 -786.101624 -0.291638 0.931268 0.218376 1.000000
-1.958300 46.770100 -785.067017 -0.584948 0.694315 -0.419240 1.000000
-1.165900 48.441101 -783.495728 0.393062 0.872629 -0.289864 1.000000
-2.669000 46.007099 -784.842712 0.978582 0.054165 -0.198605 1.000000
-1.834300 47.649601 -783.859985 -0.521167 0.561646 -0.642604 1.000000
-3.413800 45.283001 -785.303223 -0.024880 0.977448 -0.209707 1.000000
-2.426500 46.743198 -784.123413 -0.942318 0.242152 0.231082 1.000000
-2.019000 48.287201 -782.814026 -0.310799 0.940539 0.137077 1.000000
-3.405500 46.186298 -784.089783 0.065751 0.997039 -0.039882 1.000000
-2.679000 47.373100 -783.176392 -0.950976 0.229265 -0.207560 1.000000
-2.726400 47.740200 -782.143005 0.848441 0.331593 0.412545 1.000000
-6.115300 42.126999 -783.480286 0.926786 0.374603 -0.027220 1.000000
-7.727300 41.781601 -784.379211 -0.650127 0.165958 0.741480 1.000000
-6.948800 41.986801 -782.536377 0.715571 0.625115 -0.311750 1.000000
-7.773700 41.647301 -781.668213 -0.468722 0.811923 -0.347967 1.000000
-9.480200 41.194698 -780.500977 -0.237768 0.962767 -0.128629 1.000000
-9.353200 41.177200 -782.567078 0.379162 0.710724 0.592543 1.000000
-15.048600 32.211498 -785.183411 -0.696786 0.234359 0.677912 1.000000
-3.715700 46.864700 -783.295715 -0.479266 0.630614 -0.610434 1.000000
-5.228300 42.276600 -784.431580 0.445528 0.895046 -0.019949 1.000000
-10.385200 36.884399 -787.409485 0.605973 0.164716 -0.778245 1.000000
-14.787300 30.061199 -790.226013 0.681557 0.240827 -0.691001 1.000000
