ply
format ascii 1.0
element vertex 691
property float x
property float y
property float z
property float nx
property float ny
property float nz
property float label
element face 0
property list uchar int vertex_indices
end_header
46.180500 45.610001 -753.712524 -0.017497 0.870830 -0.491272 0.000000
47.163799 45.982498 -753.076599 0.097670 0.785735 -0.610803 0.000000
40.519501 45.269299 -755.509705 0.657372 0.337657 -0.673684 0.000000
41.119301 46.080101 -754.783081 0.880290 0.014694 -0.474208 0.000000
39.582199 45.348900 -757.271790 0.326126 0.397225 -0.857820 0.000000
39.983101 46.380100 -756.540283 0.103916 0.783025 -0.613248 0.000000
40.532501 47.027401 -755.628296 0.094659 0.782029 -0.616012 0.000000
44.918098 47.059799 -754.951477 0.282500 0.630438 -0.723009 0.000000
38.791901 46.065800 -758.481628 -0.032352 0.758164 0.651261 0.000000
39.113098 46.869202 -757.402771 -0.291616 0.756927 -0.584826 0.000000
39.840801 47.731300 -756.806519 0.348343 0.472411 -0.809620 0.000000
40.516399 48.316002 -755.961975 -0.023306 0.840370 -0.541511 0.000000
37.910999 46.528500 -759.591980 -0.120531 0.087765 0.988822 0.000000
38.113998 47.284698 -758.591125 -0.982118 0.100761 0.159033 0.000000
38.604401 48.134998 -757.830688 -0.612149 0.271890 0.742529 0.000000
40.529499 49.538200 -756.041687 -0.766323 0.101102 0.634451 0.000000
40.022099 48.900101 -757.115417 -0.896392 0.416029 0.152973 0.000000
45.243301 49.297600 -756.138672 -0.298399 0.806782 -0.509962 0.000000
37.068199 46.867199 -760.582886 -0.064143 0.896642 0.438085 0.000000
37.191200 47.872200 -759.572815 0.801771 0.419363 -0.425790 0.000000
44.233002 50.460499 -755.353821 -0.647304 0.380477 0.660481 0.000000
37.871201 48.659901 -758.807129 -0.569104 0.495238 0.656400 0.000000
39.440498 48.854500 -758.361511 -0.210896 0.955077 0.208209 0.000000
40.279400 50.146099 -757.176270 -0.943004 0.050311 0.328955 0.000000
35.795101 47.384300 -761.631897 -0.203144 0.966551 -0.156563 0.000000
36.488300 47.960201 -760.805176 0.842083 0.365373 -0.396735 0.000000
38.844601 49.105499 -759.407593 0.192581 0.977624 0.084637 0.000000
36.735001 49.016300 -760.178223 -0.698813 0.404750 0.589778 0.000000
40.108700 49.880299 -758.657227 0.893665 0.341651 -0.290926 0.000000
40.378300 51.379101 -757.122314 -0.912337 0.109370 0.394562 0.000000
35.028301 47.682899 -763.003113 0.201584 0.234053 0.951096 0.000000
35.336498 48.580700 -761.803406 0.497198 0.618548 -0.608435 0.000000
37.875999 49.551998 -760.244873 0.098133 0.905309 -0.413263 0.000000
40.143002 51.072498 -758.398315 0.882909 0.252473 -0.395890 0.000000
43.425201 52.522900 -756.131714 -0.792794 0.361823 0.490471 0.000000
35.997299 49.535000 -761.295898 -0.668407 0.581297 0.464032 0.000000
39.022499 50.014000 -760.322083 -0.454993 0.866725 0.204374 0.000000
34.323898 47.882599 -764.108582 0.094875 0.617417 -0.780894 0.000000
34.623901 48.896801 -762.756409 0.070242 0.789866 -0.609243 0.000000
37.191700 49.838100 -761.237976 0.070242 0.789866 -0.609243 0.000000
40.277302 52.582001 -757.318115 0.713646 0.038307 -0.699458 0.000000
39.785999 52.261700 -758.781372 0.255173 0.654574 -0.711632 0.000000
33.252102 48.499699 -764.939514 -0.196657 0.173214 0.965051 0.000000
36.585499 51.511101 -761.022583 0.067317 0.794908 -0.602984 0.000000
38.291000 51.650902 -760.643982 -0.031553 0.851940 -0.522688 0.000000
40.306000 53.811901 -757.583313 -0.852366 0.383487 0.355541 0.000000
44.953400 53.303699 -757.715881 0.342301 0.315159 0.885158 0.000000
32.366501 48.362000 -765.960327 0.696503 0.300799 -0.651463 0.000000
43.405899 54.289700 -756.912903 0.070205 0.792316 -0.606058 0.000000
44.361900 54.704601 -756.258606 0.070205 0.792316 -0.606058 0.000000
39.178101 52.449402 -760.183105 0.254143 0.345223 -0.903456 0.000000
39.684502 53.771000 -758.805725 -0.478147 0.819004 -0.317187 0.000000
31.554701 48.579700 -766.989380 -0.386645 0.307176 0.869568 0.000000
31.995300 49.547199 -766.059875 0.890793 0.117172 -0.439044 0.000000
30.830000 48.386501 -768.108582 -0.528307 0.518244 0.672543 0.000000
39.564201 53.664600 -760.111084 -0.428728 0.753969 0.497718 0.000000
39.896500 54.911301 -758.422180 -0.986447 0.100900 0.129390 0.000000
36.788200 51.559101 -763.424377 -0.343294 0.775231 -0.530251 0.000000
30.772301 49.560299 -767.417419 -0.869825 0.039724 0.491759 0.000000
43.214001 56.079700 -757.368530 -0.085206 0.921035 -0.380045 0.000000
30.066299 48.576500 -769.160278 0.253880 0.808365 -0.531122 0.000000
40.018200 54.807499 -759.772217 -0.992798 0.105040 -0.057603 0.000000
40.138302 56.147900 -758.479797 -0.904386 0.204029 0.374777 0.000000
29.898500 49.803902 -768.651672 -0.791825 0.528412 0.306257 0.000000
28.615700 48.927399 -770.704102 -0.455466 0.237568 0.857970 0.000000
29.069901 49.626400 -769.719727 -0.072339 0.838283 -0.540416 0.000000
39.872200 56.148800 -759.810730 -0.965718 0.043278 -0.255959 0.000000
43.773899 56.698502 -758.646179 -0.112135 0.878628 -0.464154 0.000000
27.749500 48.915298 -771.698425 0.076384 0.791218 -0.606745 0.000000
37.463100 55.564899 -761.725525 -0.102215 0.958749 -0.265241 0.000000
39.873901 57.257702 -759.193420 -0.913344 0.183809 0.363343 0.000000
27.069599 48.805801 -772.829407 0.064482 0.772347 -0.631920 0.000000
27.963699 50.011600 -771.112610 -0.819284 0.112451 0.562254 0.000000
32.991600 51.728802 -768.262878 -0.601080 0.718364 0.350223 0.000000
27.065901 49.891800 -772.183899 0.848579 0.196750 -0.491124 0.000000
39.592800 57.479198 -760.618408 -0.878393 0.414506 0.237929 0.000000
40.016800 58.473400 -759.233276 0.887260 0.028188 -0.460408 0.000000
25.772400 49.131302 -774.141174 0.400103 0.554875 -0.729405 0.000000
26.210699 49.825901 -773.155396 0.374429 0.570637 -0.730873 0.000000
37.743198 56.121399 -763.409485 -0.504203 0.534355 0.678413 0.000000
43.121101 59.282501 -758.560120 0.064097 0.801930 -0.593969 0.000000
43.373402 60.035999 -757.514404 0.176484 0.436105 -0.882420 0.000000
30.955999 52.188702 -770.274475 0.110795 0.740112 -0.663294 0.000000
38.663799 56.890499 -763.067505 0.064059 0.804296 -0.590766 0.000000
39.560799 58.775299 -760.414001 -0.984521 0.104583 -0.140646 0.000000
40.093201 59.729900 -759.061707 -0.901308 0.404232 0.155693 0.000000
24.478800 49.518799 -775.349915 -0.667106 0.463128 0.583508 0.000000
25.351299 50.369801 -774.098083 0.515897 0.263404 -0.815149 0.000000
39.753601 58.372101 -761.661621 0.774529 0.540406 -0.328734 0.000000
36.675598 57.025501 -764.288513 -0.174890 0.914265 -0.365422 0.000000
38.660999 58.123600 -762.578125 -0.091938 0.909772 -0.404800 0.000000
23.594801 49.269402 -776.445618 -0.475325 0.014728 0.879687 0.000000
40.086399 60.951302 -758.776672 0.812017 0.147504 -0.564687 0.000000
37.817902 57.272301 -763.876526 -0.587182 0.744836 -0.316917 0.000000
22.833900 48.914501 -777.347900 -0.418167 0.712371 0.563616 0.000000
39.770000 59.988098 -760.314270 -0.720462 0.159260 0.674959 0.000000
37.380001 58.421600 -763.247681 0.064167 0.805649 -0.588908 0.000000
39.156399 59.491600 -762.276672 0.273619 0.429536 -0.860600 0.000000
21.462601 48.900200 -779.609070 0.497874 0.262121 -0.826689 0.000000
36.918098 58.734699 -764.352417 -0.556968 0.237371 0.795890 0.000000
39.337601 60.607601 -761.503479 0.953765 0.142333 -0.264713 0.000000
40.119099 61.749298 -759.842285 -0.548034 0.551407 -0.628975 0.000000
40.116600 62.505001 -758.798889 -0.895208 0.003944 0.445632 0.000000
20.318001 48.760101 -780.825684 -0.534276 0.827604 0.172106 0.000000
38.250702 59.946201 -763.363525 0.151314 0.789528 -0.594768 0.000000
18.837099 48.628399 -782.134888 -0.275047 0.618459 -0.736110 0.000000
37.734200 59.836300 -764.472778 -0.169199 0.828027 -0.534549 0.000000
39.207699 60.708302 -763.098206 -0.928478 0.367440 0.053997 0.000000
40.260399 63.734901 -758.770203 0.911166 0.014380 -0.411789 0.000000
18.418501 48.423801 -783.269104 0.013049 0.973907 -0.226573 0.000000
25.855101 52.432598 -776.863220 -0.655340 0.621989 0.428555 0.000000
26.367300 53.271702 -775.635681 -0.332496 0.879064 0.341605 0.000000
39.250900 61.768002 -762.371399 0.985764 0.038316 -0.163713 0.000000
38.364201 61.243900 -763.818604 0.205497 0.625761 -0.752459 0.000000
40.487999 63.303101 -760.710022 -0.336473 0.933133 -0.126688 0.000000
40.436199 64.927902 -758.442871 0.735815 0.085966 -0.671704 0.000000
37.957001 58.177299 -765.162476 -0.137073 0.987629 -0.076152 0.000000
30.859200 53.773499 -771.242615 -0.353846 0.916590 -0.186160 0.000000
21.860201 49.277901 -778.474426 0.272427 0.844984 -0.460201 0.000000
17.052601 48.264999 -784.722412 0.505221 0.782850 -0.363178 0.000000
15.805700 47.798302 -786.251221 0.349133 0.895860 -0.274849 0.000000
36.708900 60.882801 -765.069885 -0.641895 0.690646 0.333135 0.000000
40.043999 64.431396 -759.751221 -0.523848 0.827527 0.201947 0.000000
38.871201 62.373402 -763.637573 0.098425 0.700729 -0.706605 0.000000
36.900902 60.810799 -766.618530 0.323105 0.686801 -0.651081 0.000000
40.497898 66.175499 -758.516724 -0.945325 0.164582 0.281557 0.000000
35.683601 62.018299 -765.587524 0.172320 0.754851 -0.632855 0.000000
37.866600 61.492001 -766.063110 0.072729 0.817129 -0.571848 0.000000
39.044899 62.197800 -765.598389 -0.467493 0.614946 0.635053 0.000000
38.990799 63.618401 -763.571106 0.841310 0.443204 -0.309465 0.000000
40.296200 66.146004 -759.788025 -0.467140 0.744453 0.477044 0.000000
38.174999 63.034000 -765.256226 -0.051739 0.978236 -0.200941 0.000000
40.567101 67.426201 -758.647522 -0.923203 0.040710 0.382151 0.000000
38.572399 64.156502 -764.671692 -0.351855 0.692254 0.630066 0.000000
37.025799 63.700901 -765.856873 0.230126 0.898519 -0.373772 0.000000
41.748600 64.874802 -763.551575 -0.246864 0.960028 0.131922 0.000000
40.722401 68.594902 -758.295898 -0.974332 0.134869 0.180245 0.000000
7.102200 46.329800 -795.171814 -0.559934 0.650735 0.512853 0.000000
40.648399 67.699097 -759.856628 0.055279 0.971687 -0.229716 0.000000
6.358200 45.829800 -796.165222 -0.253931 0.838741 -0.481699 0.000000
37.374298 63.234200 -766.955322 0.253884 0.902537 -0.347807 0.000000
4.778700 45.521400 -797.273315 0.219387 0.252502 -0.942397 0.000000
3.177000 44.861500 -799.096375 -0.232727 0.923770 -0.304116 0.000000
38.396500 63.942200 -766.712097 -0.354515 0.790841 -0.498888 0.000000
40.945000 69.787598 -757.869385 -0.833454 0.012277 0.552453 0.000000
4.180500 45.644402 -798.346008 0.075464 0.827260 -0.556728 0.000000
37.002998 65.646301 -764.969910 0.072625 0.821658 -0.565335 0.000000
38.414101 65.256401 -765.356018 -0.223054 0.622366 -0.750271 0.000000
41.763699 65.374298 -764.752197 -0.194461 0.964477 0.178800 0.000000
42.851200 65.703903 -764.131775 -0.632226 0.730467 0.258278 0.000000
40.951302 68.982697 -759.599487 0.853305 0.352824 -0.383909 0.000000
1.622500 44.502300 -800.866272 0.277533 0.433933 -0.857133 0.000000
35.759201 64.842499 -766.869080 0.072625 0.821658 -0.565335 0.000000
37.203201 65.021103 -766.887024 0.432500 0.259500 -0.863483 0.000000
41.050701 71.010201 -758.000305 -0.913927 0.397891 0.080121 0.000000
38.280399 66.546097 -765.323975 0.856128 0.329757 -0.397875 0.000000
36.974800 64.094498 -769.190796 -0.595037 0.700528 -0.393944 0.000000
41.897301 66.067101 -766.034973 0.180891 0.785889 -0.591317 0.000000
42.788101 66.526703 -765.253784 0.209091 0.633468 -0.744983 0.000000
36.809502 66.180000 -766.624817 -0.215590 0.938860 -0.268444 0.000000
37.916801 64.800003 -768.807983 -0.636966 0.731332 0.243777 0.000000
38.757500 65.548401 -767.611877 -0.720927 0.624590 -0.300253 0.000000
41.306900 72.185303 -757.591125 -0.912671 0.057798 0.404586 0.000000
41.309101 67.566002 -764.630920 0.033676 0.890390 -0.453951 0.000000
37.367199 67.533699 -765.582275 0.073929 0.383086 0.920750 0.000000
39.218399 69.713699 -762.336426 -0.506930 0.358874 0.783729 0.000000
41.625702 73.333099 -757.091187 -0.762057 0.035215 0.646551 0.000000
40.246300 68.397202 -764.806885 0.192341 0.755514 -0.626261 0.000000
41.146000 72.376999 -758.834412 -0.978453 0.091845 -0.184914 0.000000
4.537700 47.814800 -799.817383 -0.392526 0.809084 0.437386 0.000000
36.616001 68.518501 -766.063171 0.657559 0.463471 -0.593979 0.000000
-5.266600 41.812500 -811.313782 -0.059086 0.998248 -0.003110 0.000000
-4.263500 43.126301 -809.247681 -0.800206 0.349791 0.487151 0.000000
36.337700 67.849403 -767.849670 -0.471979 0.359984 0.804765 0.000000
41.471100 73.630798 -758.674683 -0.976857 0.066908 0.203157 0.000000
41.618198 74.594597 -757.227478 -0.945352 0.060949 0.320304 0.000000
33.036499 69.108803 -767.178223 0.135476 0.781594 -0.608899 0.000000
36.653000 69.777603 -765.766174 0.103315 0.807605 -0.580603 0.000000
-5.770600 43.115101 -811.224426 -0.419806 0.905756 -0.058044 0.000000
1.455800 48.480598 -802.386230 -0.088506 0.960741 0.262953 0.000000
34.369900 70.074799 -766.376221 -0.362348 0.827545 0.428804 0.000000
39.485802 71.564598 -763.565674 -0.653547 0.626939 0.424057 0.000000
41.798000 75.790100 -756.992676 0.828845 0.152721 -0.538230 0.000000
33.439301 68.277603 -769.908081 0.063573 0.829279 -0.555207 0.000000
35.738602 70.644798 -766.103516 0.227411 0.954051 -0.195116 0.000000
38.289501 70.817802 -766.655029 -0.546413 0.031816 -0.836911 0.000000
40.080299 73.422203 -762.536987 0.060711 0.831600 -0.552047 0.000000
42.041801 75.885300 -758.612427 -0.929193 0.331954 -0.162505 0.000000
41.984100 77.034401 -756.891785 -0.975967 0.187734 0.110651 0.000000
34.572399 70.900497 -767.366821 0.063524 0.831454 -0.551950 0.000000
35.405499 69.862297 -769.128723 -0.046107 0.982424 -0.180880 0.000000
35.186401 71.795502 -766.237427 0.799529 0.271746 0.535637 0.000000
42.460999 72.901802 -763.735107 -0.380216 0.892103 0.244108 0.000000
42.354401 77.937401 -756.150513 0.787461 0.049660 -0.614361 0.000000
33.177502 70.975899 -767.836670 -0.183658 0.965182 -0.186263 0.000000
36.200001 70.393204 -768.366821 -0.044800 0.945924 -0.321281 0.000000
41.315701 76.965401 -757.945374 -0.272193 0.950663 0.148834 0.000000
31.935101 71.004799 -768.473083 0.073350 0.605493 -0.792463 0.000000
43.140800 72.583099 -765.218628 0.544766 0.243670 -0.802405 0.000000
41.715099 72.077797 -766.504822 0.063473 0.833613 -0.548690 0.000000
42.207901 77.085098 -758.856628 -0.643368 0.376806 0.666404 0.000000
35.077301 73.015198 -766.260925 0.543169 0.654157 -0.526352 0.000000
42.279499 78.026604 -757.836121 -0.126435 0.847259 -0.515913 0.000000
36.108898 70.721199 -769.986389 -0.529497 0.479387 0.699872 0.000000
42.365601 79.095596 -756.548279 -0.932824 0.360149 -0.011454 0.000000
33.252602 72.579399 -767.794312 0.474254 0.215296 -0.853657 0.000000
33.942402 73.729103 -766.248291 -0.868012 0.491827 -0.068271 0.000000
42.630600 80.145599 -755.780212 0.879853 0.006655 -0.475200 0.000000
43.188400 73.411301 -766.257019 -0.351400 0.652132 0.671745 0.000000
40.942600 73.636597 -766.353394 0.009043 0.999736 0.021100 0.000000
42.068600 73.482597 -767.045471 -0.026720 0.670821 0.741138 0.000000
42.717701 79.461098 -757.823425 -0.979528 0.179316 0.091488 0.000000
42.668301 80.417702 -757.010193 0.642838 0.534854 -0.548352 0.000000
42.816101 81.337700 -755.583374 -0.851108 0.034374 0.523864 0.000000
33.234200 75.061302 -766.555481 0.329810 0.853171 0.404134 0.000000
37.757301 74.478798 -767.928711 0.004119 0.789493 0.613745 0.000000
29.848000 75.158997 -768.271118 0.459676 0.476152 -0.749651 0.000000
43.063599 82.566902 -755.333008 -0.906047 0.095156 0.412341 0.000000
30.695999 75.883102 -767.551392 -0.577530 0.812555 -0.078819 0.000000
32.439301 76.304497 -766.704529 -0.146520 0.947674 0.283630 0.000000
29.733601 74.768600 -770.723206 -0.140628 0.966334 -0.215458 0.000000
31.651400 76.669098 -767.574219 -0.110905 0.942026 -0.316681 0.000000
37.277401 75.751801 -768.391174 -0.020867 0.791571 -0.610720 0.000000
43.230099 83.945198 -755.063599 0.063571 0.834903 -0.546713 0.000000
35.043999 72.418999 -774.457397 -0.158637 0.980105 0.119285 0.000000
43.743000 84.956299 -754.589722 -0.871548 0.490162 0.012086 0.000000
45.689800 85.565002 -753.440125 0.369298 0.684432 -0.628627 0.000000
31.445999 76.618103 -769.196289 -0.318153 0.935177 0.155633 0.000000
35.033298 77.049500 -768.151428 -0.278113 0.867774 0.411851 0.000000
34.317699 78.761200 -765.563477 0.005555 0.989979 0.141108 0.000000
27.618299 77.438499 -768.481506 0.120688 0.992690 0.001087 0.000000
39.657700 76.489998 -768.600891 -0.757813 0.376462 0.532913 0.000000
37.326900 72.922096 -767.301086 -0.469587 0.333612 0.817429 0.000000
7.428300 50.689602 -803.172729 0.134043 0.146340 -0.980111 0.000000
-4.660100 44.376801 -809.343506 0.066491 0.830427 -0.553146 0.000000
41.586899 69.217903 -766.522583 0.457281 0.255405 -0.851858 0.000000
40.370800 69.589500 -765.597778 -0.495868 0.860942 0.113547 0.000000
-5.837700 43.423100 -809.608704 -0.165921 0.300302 0.939302 0.000000
41.348301 68.960197 -764.564514 0.066542 0.828241 -0.556408 0.000000
38.193100 65.823997 -766.494690 0.525302 0.249480 -0.813521 0.000000
40.685398 70.419800 -759.021973 0.542305 0.718098 0.436166 0.000000
-0.768400 43.722500 -802.341492 0.063670 0.824880 -0.561711 0.000000
19.180799 52.288399 -786.411072 -0.546843 0.325540 0.771354 0.000000
1.279400 43.191502 -801.308594 -0.372729 0.140995 0.917166 0.000000
44.035198 70.012199 -757.010315 -0.344910 0.655492 0.671839 0.000000
44.409801 68.403702 -757.728821 0.417283 0.810584 0.410888 0.000000
37.691601 61.932098 -764.864502 0.058062 0.817117 -0.573540 0.000000
44.051701 63.884800 -758.464600 -0.009495 0.847731 -0.530341 0.000000
39.231800 55.473400 -761.313110 0.067006 0.805498 -0.588798 0.000000
36.292900 54.345798 -761.161987 0.427684 0.361401 -0.828539 0.000000
37.468399 54.489498 -760.835571 0.067047 0.803137 -0.592010 0.000000
43.623501 54.887299 -758.284485 0.064244 0.800910 -0.595329 0.000000
37.414299 52.727798 -761.131592 0.031939 0.826246 -0.562403 0.000000
38.724201 51.315701 -759.496704 0.067317 0.794908 -0.602984 0.000000
44.611198 52.856098 -755.815186 0.070167 0.794751 -0.602865 0.000000
45.564301 53.280899 -755.143677 0.070128 0.797171 -0.599667 0.000000
44.618099 48.117901 -755.669312 -0.047074 0.723233 -0.688997 0.000000
46.303902 40.617298 -752.486511 -0.389239 0.868538 0.306812 0.000000
43.930500 42.344299 -749.853577 0.098451 0.744993 -0.659767 0.000000
49.518600 39.214802 -750.446716 -0.629826 0.701435 0.333629 0.000000
53.063702 29.544201 -753.759216 -0.432146 0.551358 0.713620 0.000000
56.025799 30.050100 -752.542725 -0.345820 0.294920 0.890748 0.000000
49.192001 32.382401 -748.201721 0.129391 0.768907 -0.626131 0.000000
42.891300 30.806299 -747.915771 -0.312485 0.515521 0.797867 0.000000
35.927200 35.074699 -743.548706 0.276465 0.701551 -0.656805 0.000000
47.222301 30.375401 -746.890015 0.132671 0.764719 -0.630558 0.000000
48.491501 30.365400 -746.637878 0.132973 0.763477 -0.631998 0.000000
48.143002 30.866400 -745.574219 0.132973 0.763477 -0.631998 0.000000
24.443800 39.855000 -739.135376 0.117235 0.681148 -0.722699 0.000000
43.222401 24.268200 -747.672180 0.142411 0.760023 -0.634102 0.000000
43.332901 24.115000 -746.017883 -0.604892 0.651809 0.457439 0.000000
43.366600 24.615000 -744.859802 0.251016 0.718317 -0.648854 0.000000
43.691898 18.848000 -745.848877 0.182566 0.676569 -0.713389 0.000000
43.968399 19.600700 -744.895203 0.984425 0.062634 -0.164268 0.000000
42.959099 12.537400 -744.818420 0.169598 0.710479 -0.682976 0.000000
50.088699 9.177500 -741.105896 0.165859 0.747127 -0.643655 0.000000
43.633400 9.826600 -741.249023 -0.942608 0.159602 -0.293286 0.000000
50.558399 9.253300 -739.286682 0.165859 0.747127 -0.643655 0.000000
51.277302 4.744100 -739.465576 0.072805 0.042379 -0.996445 0.000000
44.295898 3.505600 -740.909485 -0.094826 0.954752 -0.281879 0.000000
49.610401 4.717300 -738.099670 -0.289200 0.956001 0.049252 0.000000
44.255699 5.038100 -739.906921 0.069256 0.942141 -0.327985 0.000000
51.900902 4.840600 -738.017090 -0.177537 0.929624 -0.322922 0.000000
50.407799 1.544200 -737.076477 -0.441054 0.033515 0.896855 0.000000
50.896000 0.559700 -737.792114 0.316368 0.820039 -0.476914 0.000000
44.563202 -0.872200 -739.192200 -0.157507 0.909570 -0.384545 0.000000
17.580400 39.424000 -733.093811 0.083106 0.973706 -0.212107 1.000000
17.215401 39.095901 -734.287598 -0.792376 0.525604 -0.309646 1.000000
17.262199 38.524502 -735.414917 -0.614878 0.769736 -0.171558 1.000000
18.523199 39.988499 -733.690308 0.451719 0.039104 -0.891303 1.000000
16.884501 37.764500 -736.342285 -0.823922 0.543818 -0.159421 1.000000
16.168100 36.829700 -736.709717 -0.926407 0.368686 -0.076419 1.000000
15.554200 36.215801 -737.629395 -0.572349 0.816206 0.078895 1.000000
14.887900 35.800701 -738.620911 -0.825238 0.556422 0.096832 1.000000
14.180200 35.092300 -739.501282 -0.792239 0.604641 0.082254 1.000000
13.482300 34.793701 -740.483521 -0.748532 0.646117 0.149104 1.000000
12.834900 34.411598 -741.575073 -0.538011 0.827137 0.162447 1.000000
18.412901 39.867699 -734.938416 -0.557471 0.781723 -0.279525 1.000000
17.025700 37.392899 -737.543823 -0.478273 0.823257 0.305781 1.000000
16.281601 36.942799 -738.572998 -0.965588 0.191554 0.175917 1.000000
15.630700 36.438599 -739.519470 -0.595411 0.801895 0.049500 1.000000
14.988200 35.895802 -740.472717 -0.784014 0.583774 0.211021 1.000000
14.303700 35.488701 -741.416504 -0.782573 0.620072 0.055593 1.000000
13.609200 35.109299 -742.359924 -0.758694 0.554866 0.341331 1.000000
18.427099 39.334999 -736.043579 -0.708880 0.661516 -0.244714 1.000000
17.950899 38.568699 -736.906616 -0.435906 0.789168 -0.432665 1.000000
17.250401 37.826801 -738.716492 -0.589659 0.807122 0.029274 1.000000
16.544300 37.270401 -739.753418 -0.738398 0.674190 0.015354 1.000000
15.893600 36.783600 -740.697693 -0.656815 0.740983 0.139780 1.000000
15.210600 36.397900 -741.635376 -0.584090 0.786452 0.200829 1.000000
14.521300 36.026901 -742.573975 -0.603585 0.760361 0.239866 1.000000
19.786100 40.012501 -735.209290 0.644937 0.737734 0.199513 1.000000
12.232500 33.757198 -742.492493 -0.762216 0.645826 -0.044001 1.000000
16.505800 37.786499 -734.737122 -0.788260 0.548149 -0.279603 1.000000
15.871100 36.925499 -735.473816 -0.751819 0.643773 -0.142561 1.000000
12.723900 33.753201 -740.472717 -0.716376 0.689788 0.104871 1.000000
12.025000 33.289101 -741.384216 -0.777867 0.593027 0.207945 1.000000
11.406500 32.726501 -742.339478 -0.706049 0.499075 -0.502413 1.000000
15.274800 35.950298 -736.452087 -0.973997 0.180183 -0.137342 1.000000
14.670300 35.395802 -737.387573 -0.779667 0.613338 0.126232 1.000000
13.326600 34.156898 -739.395508 -0.775086 0.621545 0.113679 1.000000
13.917500 34.711102 -738.259583 -0.635901 0.771670 -0.012469 1.000000
16.476500 38.839699 -733.082275 -0.505487 0.768795 -0.391712 1.000000
15.913000 37.739201 -733.598572 -0.806782 0.509962 -0.298399 1.000000
15.315800 36.758400 -734.079712 0.724990 0.272469 -0.632574 1.000000
14.805200 35.939499 -735.024780 -0.286082 0.823853 -0.489309 1.000000
14.385500 35.064499 -735.890381 -0.251847 0.926284 -0.280304 1.000000
13.812300 34.410000 -736.835083 -0.837707 0.524490 0.152176 1.000000
13.043500 33.867100 -737.954895 -0.464203 0.882679 0.073441 1.000000
12.446400 33.264500 -738.904114 -0.901457 0.431364 0.036058 1.000000
11.817600 32.754601 -739.848877 -0.785575 0.603715 0.135650 1.000000
11.206800 32.174801 -740.804016 -0.739905 0.608863 0.286054 1.000000
10.470900 31.739500 -741.838684 -0.910759 0.394709 -0.121342 1.000000
16.068701 38.293201 -731.965271 0.124256 0.834707 0.536493 1.000000
15.099200 37.565899 -732.171387 -0.614586 0.757730 -0.219384 1.000000
14.834100 36.500301 -732.944092 -0.828490 0.451189 -0.331711 1.000000
14.416500 35.644501 -733.799988 -0.577897 0.811361 -0.087909 1.000000
13.871200 34.926201 -734.742371 -0.836765 0.534074 -0.120785 1.000000
13.450000 34.050201 -735.611023 -0.818987 0.454641 -0.350089 1.000000
12.865400 33.426399 -736.556885 0.459821 0.660470 -0.593587 1.000000
12.240200 32.920799 -737.497620 -0.950914 0.231963 0.204833 1.000000
11.658100 32.266499 -738.453979 -0.631608 0.746445 -0.209501 1.000000
11.026200 31.762501 -739.401672 -0.829419 0.546629 0.115157 1.000000
10.428600 31.134800 -740.364319 -0.793430 0.602660 0.085268 1.000000
9.688600 30.708401 -741.402100 -0.743236 0.660818 0.104495 1.000000
9.607000 30.192801 -740.299377 -0.661646 0.749114 -0.032447 1.000000
8.982200 29.635000 -741.262878 -0.865944 0.496215 0.062548 1.000000
14.674100 37.003799 -730.754883 -0.275677 0.911630 0.304849 1.000000
14.087400 36.443199 -731.675293 -0.580650 0.563721 -0.587421 1.000000
13.784400 35.483299 -732.443787 -0.715147 0.645066 -0.269175 1.000000
13.361100 34.636600 -733.301208 -0.738508 0.600139 -0.307310 1.000000
12.798900 33.963100 -734.242920 -0.947427 0.269725 0.172136 1.000000
12.386300 33.052601 -735.115906 -0.126062 0.853452 -0.505696 1.000000
11.867400 32.212601 -736.080383 -0.549248 0.798199 -0.247395 1.000000
11.228900 31.740601 -737.021912 -0.766682 0.641906 0.012478 1.000000
10.622200 31.156500 -737.975586 -0.853887 0.494045 0.163698 1.000000
10.038500 30.484900 -738.941223 -0.846611 0.521766 0.104928 1.000000
9.236100 29.520599 -739.048523 -0.745039 0.665568 0.043993 1.000000
8.619800 28.930901 -740.014221 -0.824795 0.554227 0.112009 1.000000
9.870100 30.195000 -737.767578 -0.857073 0.506258 0.095547 1.000000
8.025900 28.145599 -740.779175 -0.924566 0.374896 0.068042 1.000000
10.434000 30.805599 -736.750793 -0.641751 0.764670 -0.058601 1.000000
13.732600 36.239399 -730.457275 -0.738352 0.613965 0.279075 1.000000
13.301400 35.438801 -731.301270 -0.788779 0.549469 -0.275522 1.000000
12.895700 34.546200 -732.156189 -0.790822 0.537252 -0.293191 1.000000
12.469800 33.699402 -733.014282 -0.871158 0.483977 -0.082767 1.000000
11.917400 32.987000 -733.958984 -0.795373 0.605267 -0.032150 1.000000
11.508300 32.056301 -734.834412 -0.936654 0.302994 -0.175709 1.000000
11.039500 31.297899 -735.703186 -0.697515 0.688236 0.199511 1.000000
9.081200 29.265200 -737.673096 -0.828983 0.522850 0.198532 1.000000
8.605000 28.484301 -738.560791 -0.783043 0.621705 -0.018081 1.000000
8.032200 27.745701 -739.541199 -0.831566 0.551072 0.069415 1.000000
7.513700 27.077400 -740.428589 -0.866598 0.492992 -0.077249 1.000000
13.012100 35.248901 -730.070496 -0.594931 0.671589 0.441616 1.000000
12.173700 33.556801 -731.772522 -0.786423 0.458882 -0.413480 1.000000
11.734100 32.750301 -732.629578 -0.926054 0.373857 -0.051521 1.000000
11.197400 31.988001 -733.579529 -0.871459 0.482892 0.085879 1.000000
10.727900 30.997801 -734.551086 -0.699571 0.600808 -0.386821 1.000000
10.132700 30.389299 -735.501587 -0.594520 0.795152 0.119494 1.000000
9.501900 29.884199 -736.447876 -0.780502 0.615876 -0.107301 1.000000
12.373400 34.426102 -730.730286 -0.828292 0.410187 -0.381680 1.000000
8.779800 28.891300 -736.465881 -0.834376 0.549263 -0.046121 1.000000
8.328100 28.040800 -737.356079 -0.823973 0.563024 0.063819 1.000000
7.750700 27.328699 -738.331421 -0.905248 0.414733 0.092316 1.000000
7.251800 26.604401 -739.221313 -0.829052 0.558679 -0.023451 1.000000
6.731100 25.940300 -740.110229 -0.888314 0.447665 0.102444 1.000000
10.530500 30.976999 -733.278015 -0.876084 0.467340 -0.118621 1.000000
11.353500 32.699100 -731.466614 -0.788007 0.578283 -0.211266 1.000000
10.919300 31.881500 -732.324585 -0.891948 0.441073 -0.099416 1.000000
9.913500 30.140600 -734.246216 -0.820648 0.548593 -0.159944 1.000000
9.335400 29.484200 -735.200989 -0.738238 0.631656 0.236675 1.000000
12.347700 34.202702 -729.487488 -0.838195 0.536272 0.099203 1.000000
11.655200 33.433701 -730.358276 -0.843368 0.309080 -0.439545 1.000000
8.534100 28.567699 -735.089783 -0.848340 0.512508 0.132872 1.000000
7.989600 27.816799 -736.054077 -0.770726 0.631386 -0.085636 1.000000
7.519200 27.063801 -736.933105 -0.750631 0.626816 -0.208939 1.000000
7.066900 26.237000 -737.823303 -0.581118 0.793537 -0.180556 1.000000
6.460800 25.643499 -738.790222 -0.789904 0.611218 0.049635 1.000000
5.968900 24.916700 -739.682617 -0.762204 0.587895 -0.270970 1.000000
10.868500 32.391701 -730.337708 -0.757242 0.595992 -0.267169 1.000000
10.442200 31.591400 -731.186096 -0.854296 0.490073 -0.173228 1.000000
10.086400 30.562000 -732.052979 -0.844701 0.510371 -0.161248 1.000000
9.548000 29.836901 -732.998779 -0.915302 0.402000 -0.024879 1.000000
9.094200 29.076401 -733.861694 -0.795340 0.590187 -0.138255 1.000000
11.400200 33.046200 -729.214783 -0.084671 0.566867 0.819446 1.000000
8.326300 28.099400 -733.913208 -0.647270 0.695694 -0.311529 1.000000
7.748800 27.519400 -734.854126 -0.649312 0.758248 0.058768 1.000000
6.305800 25.280001 -737.558594 -0.552601 0.783774 -0.283426 1.000000
9.807000 30.547001 -730.819885 -0.802270 0.564786 -0.193336 1.000000
7.093100 26.755301 -735.726685 -0.805527 0.588049 -0.072970 1.000000
6.634700 26.024200 -736.596130 -0.882329 0.462838 -0.085297 1.000000
5.626000 24.569201 -738.440430 -0.794767 0.606787 0.012440 1.000000
10.624800 31.918501 -728.911987 -0.365092 0.428311 0.826594 1.000000
9.299000 29.604700 -731.519775 -0.834630 0.518824 -0.184972 1.000000
8.749100 28.978100 -732.451721 -0.791951 0.609733 -0.032239 1.000000
5.051400 23.760599 -739.170105 -0.803443 0.550536 -0.226691 1.000000
9.906800 31.217501 -729.770325 -0.799691 0.597274 -0.061295 1.000000
7.994800 27.984100 -732.661011 -0.546234 0.821596 -0.163122 1.000000
7.562300 27.213699 -733.517822 -0.864637 0.486448 -0.125582 1.000000
6.999000 26.598101 -734.459778 -0.667469 0.730751 0.143137 1.000000
5.577400 24.313299 -737.164978 -0.930532 0.347417 -0.115806 1.000000
9.819700 30.713800 -728.640930 -0.885808 0.314319 0.341390 1.000000
9.209700 30.076799 -729.649902 -0.869426 0.484899 -0.094718 1.000000
8.429000 28.811701 -731.142700 -0.819241 0.571072 -0.052172 1.000000
6.325500 25.712400 -735.026428 -0.848786 0.526497 0.048621 1.000000
5.820700 24.892099 -735.992676 -0.789988 0.590603 -0.164644 1.000000
4.804000 23.474100 -737.833923 -0.639942 0.768209 0.018125 1.000000
4.244600 22.785601 -738.805908 -0.861432 0.153566 -0.484099 1.000000
9.137300 29.366800 -728.275024 -0.226833 0.237831 0.944449 1.000000
8.454500 28.940599 -729.280579 -0.874116 0.484105 -0.039547 1.000000
7.960700 28.169399 -730.214722 -0.826170 0.562351 -0.034713 1.000000
7.445700 27.448299 -731.151794 -0.842409 0.532720 -0.080974 1.000000
6.922000 26.740200 -732.093384 -0.814289 0.578832 0.043447 1.000000
6.416400 25.962999 -733.044312 -0.810214 0.577477 -0.100368 1.000000
5.986200 25.172899 -733.910889 -0.897798 0.440405 -0.001307 1.000000
5.385600 24.666100 -734.854370 -0.834755 0.547588 -0.057715 1.000000
4.954600 23.852100 -735.732727 -0.848094 0.526740 -0.057285 1.000000
4.434700 23.062201 -736.706299 -0.798375 0.597706 -0.073101 1.000000
3.895900 22.318100 -737.682129 -0.760886 0.608398 -0.225621 1.000000
3.059500 21.479300 -738.070618 -0.642481 0.766300 0.001376 1.000000
8.265300 28.031300 -728.041321 -0.870912 0.353569 0.341324 1.000000
7.508000 27.818899 -729.043030 -0.814042 0.580674 0.012355 1.000000
7.019600 27.024300 -729.981873 -0.748008 0.657252 -0.092220 1.000000
6.538100 26.193899 -730.928528 -0.856551 0.498806 -0.132336 1.000000
5.984300 25.569700 -731.869629 -0.826406 0.561622 -0.040414 1.000000
5.466100 24.823601 -732.822571 -0.780579 0.581943 -0.228121 1.000000
5.051800 23.975800 -733.696411 -0.773684 0.632243 -0.041018 1.000000
4.501200 23.302900 -734.655518 -0.913412 0.404035 -0.049338 1.000000
3.988600 22.494400 -735.629517 -0.615975 0.787618 0.015226 1.000000
3.418900 21.855700 -736.596313 -0.761478 0.648154 -0.006910 1.000000
2.134100 20.649799 -737.877930 -0.768494 0.616317 -0.171960 1.000000
7.337600 26.936001 -727.939026 -0.871786 0.271391 0.407844 1.000000
6.318300 26.139000 -729.514282 -0.836911 0.546413 -0.031816 1.000000
5.748200 25.338499 -730.552429 -0.847483 0.527042 -0.063245 1.000000
5.243600 24.554100 -731.504883 -0.778585 0.627537 0.001373 1.000000
4.730000 23.782499 -732.462524 -0.874530 0.483113 -0.042426 1.000000
4.287800 23.011999 -733.333984 -0.812128 0.555030 -0.179969 1.000000
3.656500 22.342699 -734.387512 -0.774485 0.632147 -0.023723 1.000000
3.193700 21.609900 -735.266785 -0.851021 0.498772 -0.164284 1.000000
2.543900 20.973499 -736.328125 -0.852461 0.519315 0.060190 1.000000
6.507700 26.072800 -728.304016 -0.793728 0.327393 0.512649 1.000000
1.695700 20.067600 -736.736084 -0.709072 0.703366 0.049935 1.000000
5.665600 25.148800 -728.695984 -0.793139 0.563424 0.231267 1.000000
5.136700 24.447901 -729.640686 -0.842224 0.534678 -0.069127 1.000000
4.578200 23.825701 -730.586426 -0.809017 0.581165 0.087968 1.000000
4.060100 23.065201 -731.544128 -0.851110 0.505392 -0.142096 1.000000
3.538700 22.300800 -732.507813 -0.835025 0.549828 -0.020567 1.000000
3.088900 21.536900 -733.384827 -0.838268 0.543553 0.043095 1.000000
2.468400 21.065100 -734.339111 -0.804546 0.569949 0.166924 1.000000
1.920400 20.345501 -735.314819 -0.862809 0.505224 0.017608 1.000000
0.748300 19.379700 -737.149719 -0.763691 0.624010 0.165492 1.000000
1.055000 19.536600 -735.778076 -0.661634 0.741563 0.111012 1.000000
4.924100 23.877899 -728.377380 -0.780395 0.499259 0.376464 1.000000
4.256800 23.355101 -729.409973 -0.852408 0.522792 0.009456 1.000000
3.715400 22.667601 -730.362915 -0.812109 0.583230 0.017924 1.000000
3.171800 21.973700 -731.320984 -0.743042 0.664827 -0.076767 1.000000
2.648900 21.200500 -732.289001 -0.542060 0.834049 -0.102630 1.000000
2.072800 20.584400 -733.252380 -0.758233 0.630595 0.165626 1.000000
1.507800 19.920000 -734.223389 -0.029954 0.974115 -0.224058 1.000000
0.151400 18.712200 -735.550293 -0.954186 0.108638 0.278795 1.000000
4.073900 22.810699 -728.228821 -0.670813 0.714192 0.199850 1.000000
2.965300 21.737900 -730.028687 -0.788411 0.614145 -0.035134 1.000000
2.414800 21.053200 -730.988281 -0.489501 0.847966 -0.203331 1.000000
1.219200 19.701500 -733.013672 -0.663055 0.744305 0.079799 1.000000
0.436800 19.235300 -734.158081 -0.351234 0.884868 -0.306011 1.000000
3.118400 22.199100 -728.868225 -0.733212 0.674905 -0.083088 1.000000
1.558100 20.340599 -731.549500 -0.483769 0.875072 -0.014741 1.000000
-0.806000 17.964300 -735.422607 0.575853 0.602873 -0.552211 1.000000
2.108100 20.916599 -729.679871 -0.616226 0.784937 -0.064339 1.000000
0.233200 19.027901 -732.752319 -0.474429 0.879528 0.036704 1.000000
-0.524500 18.474100 -733.904175 -0.323318 0.921526 -0.215070 1.000000
2.360400 21.082300 -728.037415 -0.841368 0.527490 -0.117704 1.000000
1.121000 20.152300 -729.931030 -0.582000 0.809053 -0.081911 1.000000
0.518600 19.618601 -730.886230 -0.584031 0.807886 -0.078923 1.000000
-1.538300 17.759100 -734.163391 0.566873 0.560105 -0.604101 1.000000
-2.234300 17.331200 -735.186584 -0.513637 0.830658 0.214904 1.000000
1.474000 20.049601 -728.227417 -0.567538 0.467089 -0.678032 1.000000
-0.461200 18.858500 -731.068115 -0.354352 0.924093 -0.143130 1.000000
-1.076400 18.346701 -732.027283 -0.091845 0.978453 -0.184914 1.000000
0.398900 19.571199 -728.758423 -0.697895 0.642840 0.315753 1.000000
-0.312300 19.135599 -729.798523 -0.485254 0.872350 -0.059447 1.000000
-2.210000 18.027800 -732.551208 -0.285858 0.958177 -0.013495 1.000000
-2.839500 17.546600 -733.512085 -0.827827 0.484848 0.282178 1.000000
-3.308300 16.776899 -734.400085 -0.830050 0.481211 -0.281874 1.000000
-1.326900 18.487499 -730.060791 -0.562521 0.826590 -0.017880 1.000000
-2.060600 18.108400 -731.100586 -0.369677 0.923510 0.102309 1.000000
-0.999900 18.521299 -728.789978 0.566168 0.801181 -0.193810 1.000000
-3.145300 17.719900 -731.702820 -0.404815 0.914390 -0.003880 1.000000
-3.790900 17.290300 -732.657288 -0.437794 0.898348 0.036148 1.000000
-2.334200 17.923901 -729.648987 -0.395659 0.908185 0.136580 1.000000
-3.355500 17.402100 -730.155823 -0.176393 0.978179 -0.109783 1.000000
-4.138100 17.192301 -731.186218 -0.509551 0.854037 -0.104781 1.000000
-4.741100 16.609800 -732.152771 -0.734023 0.676566 0.058894 1.000000
-4.678800 16.201401 -730.343628 0.369551 0.757009 -0.538860 1.000000
-5.389800 15.730100 -731.398193 -0.916180 0.400748 0.003866 1.000000
18.266800 38.463902 -738.081482 -0.404446 0.911026 0.080345 1.000000
18.985001 39.231201 -737.143494 -0.815712 0.510015 -0.272944 1.000000
19.503401 40.120998 -736.428284 -0.740384 0.567899 -0.359615 1.000000
17.511600 38.025600 -739.900330 -0.575644 0.816547 -0.043418 1.000000
16.846300 37.511002 -740.971985 -0.552920 0.807171 0.206771 1.000000
16.075300 37.306999 -742.027771 -0.489460 0.867486 0.088864 1.000000
19.299200 39.141899 -738.349304 -0.031540 0.514240 0.857066 1.000000
18.586599 38.782200 -739.407104 -0.570092 0.821320 -0.020706 1.000000
20.806601 40.428299 -736.269775 -0.283579 0.945717 -0.158750 1.000000
19.949499 39.934299 -737.572083 -0.481233 0.771605 -0.415981 1.000000
18.150900 38.450401 -740.867371 -0.567906 0.797518 0.203589 1.000000
17.421101 38.132198 -741.927979 -0.368523 0.929597 -0.006376 1.000000
21.116199 40.489201 -737.448303 -0.456781 0.874160 -0.164908 1.000000
20.409500 39.739899 -738.688782 -0.173883 0.984572 0.019576 1.000000
19.691900 39.401901 -739.746094 -0.410262 0.911547 0.027703 1.000000
19.234600 39.154800 -740.888916 -0.500708 0.860991 0.089362 1.000000
21.775400 40.139099 -738.425476 -0.747303 0.565746 -0.348525 1.000000
21.494301 39.859001 -739.678406 0.747799 0.288596 -0.597920 1.000000
20.716400 39.694801 -740.732178 0.734648 0.324537 -0.595792 1.000000
21.865801 40.038898 -741.039185 0.142958 0.711779 -0.687702 1.000000
22.730200 40.502998 -739.436218 0.001287 0.917539 -0.397643 1.000000
-4.247700 16.477100 -733.670471 -0.476070 0.850881 -0.222166 1.000000
39.302502 -1.926600 -733.113525 0.000000 0.000000 0.000000 1.000000
22.170300 41.244400 -737.983887 0.143440 0.823673 0.548623 1.000000
36.242298 -0.464100 -735.301880 0.000000 0.000000 0.000000 1.000000
23.131901 40.058201 -738.219177 -0.070670 0.954686 0.289104 1.000000
62.886299 28.134501 -766.817627 -0.084382 0.990618 -0.107500 1.000000
65.198196 27.952999 -765.824707 0.887167 0.461432 -0.003966 1.000000
64.448097 27.682501 -766.773376 0.689576 0.139718 -0.710608 1.000000
63.704102 27.434799 -767.732422 0.257519 0.912229 -0.318625 1.000000
63.248199 26.966200 -768.846985 0.342451 0.782975 -0.519304 1.000000
62.940498 26.217300 -769.779175 -0.295312 0.803817 -0.516401 1.000000
66.124702 27.264500 -766.533875 0.272547 0.880885 -0.386987 1.000000
65.353897 27.020500 -767.489685 0.430100 0.562950 -0.705763 1.000000
64.517502 26.531700 -768.333679 -0.667673 0.683761 0.294420 1.000000
62.779701 25.718500 -770.894226 0.077410 0.862765 -0.499644 1.000000
64.111702 26.034700 -769.445374 0.179544 0.903464 -0.389251 1.000000
66.545998 26.678200 -767.554382 0.280801 0.904151 -0.321966 1.000000
65.692398 26.137800 -768.361877 0.082664 0.764283 -0.639561 1.000000
62.632000 25.098000 -772.027588 0.260480 0.877802 -0.402012 1.000000
64.114304 25.207399 -770.418823 0.516492 0.715782 -0.469991 1.000000
65.379501 25.273701 -769.258118 0.344325 0.764629 -0.544778 1.000000
62.332100 24.459499 -773.081909 -0.818031 0.494587 0.293612 1.000000
63.944099 24.420300 -771.367004 0.512147 0.676705 -0.528938 1.000000
67.683601 26.010099 -767.665222 0.497353 0.865864 -0.054030 1.000000
66.880997 25.622900 -768.518799 0.149755 0.718521 -0.679191 1.000000
65.205498 24.624001 -770.361328 0.361388 0.606673 -0.708058 1.000000
63.415298 24.023800 -772.485718 0.735123 0.412787 -0.537774 1.000000
62.306999 23.637400 -774.028687 -0.001355 0.830587 -0.556887 1.000000
66.851402 24.683901 -769.298523 0.221675 0.593717 -0.773537 1.000000
68.087601 25.381901 -768.630676 0.133235 0.717076 -0.684142 1.000000
65.355400 23.615499 -771.121826 0.513737 0.587850 -0.624906 1.000000
64.571701 23.313101 -772.009521 0.475368 0.538750 -0.695538 1.000000
63.608299 22.989700 -773.141724 0.635932 0.478207 -0.605729 1.000000
66.342400 23.850599 -770.164429 0.257842 0.548500 -0.795403 1.000000
62.466099 22.624599 -774.785095 0.214854 0.595098 -0.774400 1.000000
63.417000 22.112600 -774.059875 0.716256 0.428431 -0.550839 1.000000
69.404602 24.815399 -768.287292 0.596050 0.589296 -0.545394 1.000000
68.537804 24.385700 -769.183716 -0.261003 0.804889 -0.532946 1.000000
67.677101 23.645300 -769.807983 0.421249 0.506482 -0.752347 1.000000
66.445702 22.823799 -770.902771 0.449728 0.590163 -0.670412 1.000000
65.624298 22.564199 -771.877380 0.505901 0.366900 -0.780672 1.000000
64.817101 22.187201 -772.731995 0.533446 0.424444 -0.731630 1.000000
62.565601 21.574200 -775.487183 -0.656932 0.682885 -0.319545 1.000000
64.461197 21.434700 -773.647888 0.436838 0.515963 -0.736855 1.000000
63.497501 21.114300 -774.773926 0.717009 0.470797 -0.514051 1.000000
69.813202 23.942499 -769.086670 -0.923484 0.241219 0.298312 1.000000
68.956100 23.207600 -769.705872 0.227188 0.492495 -0.840139 1.000000
68.084099 22.613600 -770.465271 0.358274 0.546328 -0.757077 1.000000
66.972000 21.823799 -771.406677 0.282783 0.618287 -0.733318 1.000000
66.137497 21.535400 -772.369812 0.615861 0.394614 -0.681905 1.000000
63.168900 20.515600 -775.800476 0.753717 0.464710 -0.464710 1.000000
65.724297 20.721901 -773.185425 0.540262 0.457144 -0.706496 1.000000
64.890602 20.285601 -774.022888 0.495076 0.545423 -0.676324 1.000000
64.056099 20.017599 -775.003174 0.587850 0.496893 -0.638381 1.000000
62.682400 19.683201 -776.706787 0.740272 0.267893 -0.616629 1.000000
69.468498 22.149099 -770.071472 0.374991 0.514597 -0.771085 1.000000
68.580902 21.509100 -770.816528 0.362748 0.438782 -0.822122 1.000000
67.388298 20.819700 -771.961121 0.557066 0.213312 -0.802605 1.000000
63.652401 19.233200 -776.027222 0.813664 0.212993 -0.540911 1.000000
67.086800 19.930099 -772.749390 0.136318 0.756487 -0.639644 1.000000
66.273499 19.550600 -773.604309 0.542776 0.505807 -0.670488 1.000000
65.429398 19.090000 -774.435730 0.556403 0.462834 -0.690073 1.000000
64.620796 18.740499 -775.308716 0.688514 0.162629 -0.706753 1.000000
63.273201 18.494200 -777.045105 0.756904 0.285233 -0.587995 1.000000
70.123299 21.221001 -770.565430 0.326981 0.382246 -0.864275 1.000000
69.296799 20.600800 -771.235596 -0.578745 0.055186 0.813639 1.000000
68.403198 19.963400 -771.987671 -0.727163 0.332001 0.600841 1.000000
64.277000 17.953100 -776.236877 0.652858 0.488385 -0.579013 1.000000
71.394402 21.266300 -770.051392 -0.565675 0.720699 0.400755 1.000000
68.118301 18.926600 -772.791870 -0.745981 0.370542 0.553364 1.000000
67.280602 18.487499 -773.624084 -0.740248 0.427003 0.519328 1.000000
66.409599 18.129000 -774.570618 0.425767 0.350354 -0.834251 1.000000
65.540703 17.617701 -775.387695 0.619885 0.318844 -0.716995 1.000000
64.014297 17.060600 -777.104980 0.808428 0.122221 -0.575766 1.000000
63.190201 16.862900 -778.117126 0.511731 0.280122 -0.812197 1.000000
71.179100 20.474300 -771.012817 0.122285 0.266923 -0.955928 1.000000
70.380501 19.593599 -771.422485 -0.538618 0.006784 0.842523 1.000000
69.524498 18.906700 -772.072510 -0.123354 0.765391 -0.631633 1.000000
65.309097 16.712799 -776.248108 0.149394 0.749990 -0.644357 1.000000
69.133102 17.981300 -772.911072 0.467946 0.484482 -0.739124 1.000000
68.279999 17.512699 -773.729614 0.507897 0.406644 -0.759395 1.000000
67.399696 16.974001 -774.529175 -0.435661 0.892471 0.117022 1.000000
66.588303 16.648399 -775.405518 -0.680649 0.459898 0.570273 1.000000
64.912903 15.867900 -777.126709 0.650593 0.311575 -0.692567 1.000000
64.146797 15.691300 -778.060486 0.476603 0.747062 -0.463409 1.000000
63.374802 15.501800 -778.992004 -0.767493 0.453296 0.453296 1.000000
70.877899 18.467501 -771.622375 -0.574397 0.040529 0.817573 1.000000
70.403603 17.542999 -772.288818 0.347319 0.624522 -0.699530 1.000000
66.536201 15.613000 -776.127380 0.506574 0.370624 -0.778473 1.000000
70.070999 16.690399 -773.107727 0.652612 0.265173 -0.709775 1.000000
69.234596 16.280800 -773.946411 0.638063 0.123448 -0.760024 1.000000
68.394600 15.695500 -774.647888 0.544928 0.169633 -0.821145 1.000000
67.592598 15.406100 -775.535583 0.718903 0.335921 -0.608552 1.000000
66.195396 14.763500 -776.970215 -0.802379 0.144398 0.579083 1.000000
65.378197 14.449000 -777.858826 0.467082 0.513624 -0.719739 1.000000
64.560799 14.305500 -778.885986 0.743021 0.453061 -0.492601 1.000000
71.657700 16.627899 -772.143799 0.401263 0.256989 -0.879173 1.000000
67.409103 14.410100 -776.302917 -0.064402 0.937111 -0.343038 1.000000
64.355904 13.438300 -779.792725 0.520879 0.356391 -0.775674 1.000000
71.428398 15.644100 -772.882874 0.582589 0.131935 -0.801987 1.000000
70.576599 15.182100 -773.704285 -0.732008 0.296327 0.613477 1.000000
69.715401 14.702000 -774.524414 0.305781 0.478273 -0.823257 1.000000
68.857597 14.243000 -775.356506 0.291700 0.327237 -0.898792 1.000000
66.825401 13.293200 -777.438721 -0.722037 0.035325 0.690952 1.000000
66.042000 13.079300 -778.363525 0.248678 0.869620 -0.426521 1.000000
68.458801 13.326100 -776.155518 0.676396 0.445921 -0.586210 1.000000
65.657898 12.399100 -779.334778 0.676502 0.462694 -0.572939 1.000000
64.918404 12.316700 -780.304321 0.435458 0.669037 -0.602300 1.000000
69.891502 13.613300 -775.046875 0.404476 0.566266 -0.718151 1.000000
67.871300 12.682600 -777.133911 0.565135 0.477933 -0.672460 1.000000
72.451401 14.834500 -772.889526 0.357000 0.388179 -0.849628 1.000000
71.624199 14.256800 -773.588013 0.378844 0.569086 -0.729807 1.000000
67.217903 12.142700 -778.080322 0.572003 0.375326 -0.729345 1.000000
70.957397 13.529700 -774.416626 0.376432 0.309375 -0.873262 1.000000
66.608200 11.614900 -778.999207 0.641648 0.533864 -0.550706 1.000000
65.753998 11.369300 -780.003906 0.661527 0.523499 -0.536965 1.000000
64.970200 11.160700 -780.939087 -0.523806 0.470594 -0.710048 1.000000
69.940201 12.530100 -775.700806 0.344601 0.694101 -0.632040 1.000000
69.119400 12.183100 -776.578979 0.467460 0.530675 -0.707012 1.000000
72.924500 13.755800 -773.236816 -0.383078 0.192262 0.903486 1.000000
72.056503 13.186800 -774.002808 0.416861 0.639409 -0.646052 1.000000
68.574600 11.410200 -777.479980 0.488001 0.501325 -0.714513 1.000000
67.629898 11.065200 -778.533020 0.465921 0.315320 -0.826735 1.000000
71.451599 12.343300 -774.905212 0.300843 0.251902 -0.919803 1.000000
67.096703 10.454900 -779.513489 0.677880 0.550673 -0.487070 1.000000
66.310997 10.244300 -780.448425 0.733473 0.458627 -0.501676 1.000000
65.533699 10.061300 -781.393616 0.308084 0.371826 -0.875688 1.000000
70.543900 11.390700 -776.137085 0.483621 0.859934 0.163167 1.000000
69.705902 11.002800 -777.004272 0.322545 0.556832 -0.765443 1.000000
73.249100 12.302200 -773.836121 0.641550 0.209707 -0.737860 1.000000
69.171997 10.313600 -777.970215 0.494850 0.442241 -0.748029 1.000000
68.321800 9.909100 -778.840210 0.389376 0.731106 -0.560241 1.000000
72.713097 11.520100 -774.683411 0.175742 0.821634 -0.542248 1.000000
71.887398 11.159400 -775.552002 0.238782 0.588371 -0.772530 1.000000
67.757301 9.292900 -779.847412 0.586295 0.420206 -0.692593 1.000000
66.954002 9.043000 -780.772278 0.672256 0.568316 -0.474435 1.000000
66.202103 8.944300 -781.744385 0.472780 0.696640 -0.539604 1.000000
71.064400 10.402400 -776.684326 0.334783 0.523800 -0.783297 1.000000
70.449501 9.560000 -777.437927 0.258356 0.635587 -0.727517 1.000000
69.459900 9.273600 -778.593811 0.271048 0.524862 -0.806878 1.000000
73.856003 11.098500 -774.595703 0.175512 0.645577 -0.743253 1.000000
72.185600 10.125200 -776.164307 0.409582 0.731984 -0.544465 1.000000
68.912498 8.506900 -779.464722 0.490133 0.434399 -0.755690 1.000000
68.097298 8.220800 -780.378418 0.484903 0.558729 -0.672824 1.000000
67.243500 8.003000 -781.399414 0.543815 0.537080 -0.644833 1.000000
66.478699 7.872400 -782.364929 0.586197 0.455931 -0.669701 1.000000
73.368301 10.296300 -775.426880 -0.741084 0.271361 0.614132 1.000000
71.692703 9.325800 -777.006409 0.311672 0.660486 -0.683095 1.000000
71.139000 8.608200 -777.901184 0.447955 0.447955 -0.773740 1.000000
70.292900 8.215100 -778.774475 0.560429 0.644578 -0.520038 1.000000
69.505203 7.558300 -779.961304 0.434815 0.658053 -0.614738 1.000000
68.661400 7.191200 -780.851074 0.503242 0.621058 -0.600861 1.000000
67.875702 7.002600 -781.799011 0.576182 0.586320 -0.569423 1.000000
67.103500 6.856600 -782.761230 0.625737 0.558272 -0.544779 1.000000
74.559402 9.853500 -775.297485 -0.057571 0.841104 0.537801 1.000000
