ply
format ascii 1.0
element vertex 689
property float x
property float y
property float z
property float nx
property float ny
property float nz
property float label
element face 0
property list uchar int vertex_indices
end_header
61.002800 26.335400 -762.554626 0.148863 0.844539 -0.514387 1.000000
60.814301 26.231300 -762.773926 0.105483 0.890280 -0.443030 1.000000
60.622700 26.120600 -762.992004 0.152453 0.921713 -0.356657 1.000000
60.454399 26.062901 -763.222717 0.286682 0.944284 -0.161683 1.000000
60.314201 26.068600 -763.467712 0.252128 0.917746 -0.306876 1.000000
60.151501 26.024099 -763.701599 0.180276 0.901379 -0.393722 1.000000
59.975601 25.950199 -763.929321 0.187338 0.910950 -0.367526 1.000000
59.798698 25.874901 -764.157104 0.079338 0.881070 -0.466285 1.000000
59.042500 25.471201 -765.050293 0.121743 0.875115 -0.468351 1.000000
58.149300 25.014200 -766.125183 0.042325 0.875171 -0.481959 1.000000
59.429600 25.773800 -764.372681 0.087850 0.923105 -0.374378 1.000000
59.259201 25.714199 -764.604797 0.147405 0.894448 -0.422179 1.000000
58.691200 25.413099 -765.277527 0.031184 0.874498 -0.484025 1.000000
58.486698 25.281099 -765.496216 0.083655 0.854987 -0.511858 1.000000
58.307098 25.203800 -765.726624 0.075263 0.901787 -0.425578 1.000000
57.782501 24.927401 -766.349426 0.090298 0.893260 -0.440378 1.000000
62.918598 27.079100 -759.460388 0.826397 0.557138 0.081637 1.000000
62.751400 27.093100 -759.759094 0.316745 0.947691 0.039434 1.000000
62.614799 27.105400 -760.003906 0.211871 0.961973 -0.172392 1.000000
62.433899 27.096901 -760.303894 0.181978 0.907027 -0.379719 1.000000
62.253300 27.006800 -760.522888 0.166253 0.889090 -0.426474 1.000000
62.077000 26.927200 -760.745117 0.043801 0.914515 -0.402174 1.000000
61.902901 26.853201 -760.968872 0.123679 0.915784 -0.382156 1.000000
61.735699 26.795500 -761.197021 0.049338 0.913412 -0.404035 1.000000
61.550999 26.697800 -761.415710 0.094382 0.939831 -0.328343 1.000000
61.389999 26.655100 -761.648010 0.210841 0.916513 -0.339927 1.000000
61.216999 26.585199 -761.874084 0.144812 0.890380 -0.431569 1.000000
61.047699 26.524300 -762.102600 0.186609 0.927432 -0.324110 1.000000
60.874599 26.454901 -762.329407 0.107839 0.897725 -0.427155 1.000000
60.694599 26.370501 -762.552979 -0.009503 0.845741 -0.533509 1.000000
60.497200 26.247200 -762.768127 0.003772 0.939235 -0.343255 1.000000
60.319401 26.168900 -762.994019 0.193915 0.961662 -0.193915 1.000000
60.167702 26.149700 -763.233521 0.229763 0.957569 -0.173983 1.000000
60.019001 26.137100 -763.474609 0.169754 0.937099 -0.305006 1.000000
59.861599 26.105301 -763.711487 0.088619 0.914822 -0.394014 1.000000
59.676399 26.011801 -763.935181 0.053322 0.887339 -0.458025 1.000000
58.975800 25.652901 -764.775818 0.115343 0.824921 -0.553354 1.000000
58.022900 25.145800 -765.900574 0.101784 0.899328 -0.425264 1.000000
59.403702 25.960501 -764.069214 0.138492 0.889489 -0.435464 1.000000
58.699699 25.597099 -764.910828 0.030979 0.884931 -0.464690 1.000000
58.411701 25.440201 -765.246826 0.132552 0.887956 -0.440415 1.000000
57.763901 25.131599 -766.046570 0.032342 0.774804 -0.631374 1.000000
59.175301 25.873400 -764.304504 0.185952 0.855379 -0.483475 1.000000
58.995098 25.793699 -764.532471 0.138113 0.895598 -0.422882 1.000000
58.173199 25.337700 -765.481812 0.138146 0.862324 -0.487148 1.000000
57.513000 24.982700 -766.255310 0.353435 0.935263 -0.019139 1.000000
62.644501 27.071400 -759.325623 0.186124 0.429405 0.883725 1.000000
62.551102 27.168800 -759.578003 0.369313 0.926615 0.070663 1.000000
62.416100 27.188200 -759.824829 0.203510 0.962407 -0.179877 1.000000
62.268200 27.177200 -760.063782 0.187000 0.958873 -0.213525 1.000000
62.107899 27.137400 -760.295715 0.068800 0.915987 -0.395264 1.000000
61.935299 27.069000 -760.520630 0.051982 0.915682 -0.398528 1.000000
61.745399 26.960899 -760.736023 0.146014 0.903021 -0.404020 1.000000
61.569000 26.884701 -760.959717 0.104386 0.903284 -0.416151 1.000000
61.393299 26.810499 -761.184082 0.123729 0.913372 -0.387870 1.000000
61.226898 26.758400 -761.414307 0.207814 0.925974 -0.315255 1.000000
61.061199 26.708099 -761.645081 0.108249 0.922168 -0.371334 1.000000
60.886902 26.638300 -761.871582 0.095077 0.936043 -0.338797 1.000000
60.709099 26.561100 -762.096619 0.142762 0.939508 -0.311357 1.000000
60.533798 26.489901 -762.323303 0.070177 0.890287 -0.449960 1.000000
60.337700 26.372000 -762.539612 0.015148 0.816607 -0.576995 1.000000
60.135601 26.241199 -762.753479 0.185862 0.917958 -0.350441 1.000000
59.981300 26.219101 -762.992615 0.225252 0.960286 -0.164658 1.000000
59.835400 26.216200 -763.236023 0.214009 0.954293 -0.208625 1.000000
59.678001 26.187401 -763.473816 0.189091 0.917020 -0.351169 1.000000
59.505402 26.125000 -763.704285 0.102314 0.892795 -0.438689 1.000000
58.718498 25.745100 -764.663330 0.125934 0.855481 -0.502288 1.000000
58.416100 25.559000 -764.992798 0.104101 0.906368 -0.409462 1.000000
57.901299 25.308901 -765.618530 0.151582 0.882062 -0.446083 1.000000
59.107399 25.996599 -764.053894 0.144060 0.894311 -0.423621 1.000000
58.106899 25.475401 -765.232117 0.057175 0.921449 -0.384269 1.000000
57.654701 25.285999 -765.809387 0.133892 0.903420 -0.407314 1.000000
57.447601 25.153900 -766.029785 0.061197 0.898919 -0.433820 1.000000
59.214001 26.144501 -763.752319 0.109712 0.906858 -0.406906 1.000000
58.838402 25.955799 -764.200317 0.088993 0.910468 -0.403892 1.000000
58.405602 25.723700 -764.702209 -0.048368 0.863719 -0.501648 1.000000
62.314201 27.181400 -759.272522 0.512598 0.827807 0.227991 1.000000
62.209801 27.275600 -759.537903 0.210154 0.973673 -0.088290 1.000000
62.066200 27.276899 -759.779297 0.245820 0.967057 -0.066134 1.000000
61.923000 27.278900 -760.020874 0.166057 0.940073 -0.297804 1.000000
61.751099 27.213600 -760.245789 0.129736 0.844010 -0.520400 1.000000
61.569199 27.125401 -760.465210 0.172499 0.891485 -0.418926 1.000000
61.383598 27.028900 -760.682983 0.102819 0.883113 -0.457754 1.000000
61.201900 26.942101 -760.903625 0.040982 0.918783 -0.392631 1.000000
61.032501 26.884501 -761.131470 0.111385 0.955293 -0.273877 1.000000
60.864799 26.831200 -761.360779 0.124092 0.931369 -0.342275 1.000000
60.679901 26.738400 -761.580872 0.090298 0.893260 -0.440378 1.000000
60.507099 26.674101 -761.808228 0.125544 0.940907 -0.314536 1.000000
60.339802 26.622700 -762.038818 0.107648 0.925227 -0.363823 1.000000
60.164101 26.552601 -762.265320 0.035967 0.904505 -0.424944 1.000000
59.966900 26.433599 -762.480896 0.020020 0.890208 -0.455114 1.000000
59.789501 26.360701 -762.707520 0.256765 0.939623 -0.226231 1.000000
59.639400 26.350000 -762.948425 0.230461 0.928913 -0.289843 1.000000
59.485401 26.330500 -763.187378 0.199029 0.936687 -0.288104 1.000000
59.318001 26.281000 -763.419922 0.079280 0.925832 -0.369527 1.000000
58.578800 25.931499 -764.320374 0.003881 0.912036 -0.410093 1.000000
58.123699 25.651300 -764.812378 0.167556 0.881491 -0.441474 1.000000
57.808800 25.522301 -765.215210 0.239461 0.900549 -0.362864 1.000000
57.618401 25.426399 -765.441406 0.210104 0.868727 -0.448519 1.000000
57.348499 25.317699 -765.788513 0.063037 0.850301 -0.522508 1.000000
57.171700 25.252600 -766.021729 0.023859 0.038382 0.998978 1.000000
59.039700 26.250200 -763.541077 0.053322 0.887339 -0.458025 1.000000
58.850601 26.153200 -763.763611 0.068897 0.914568 -0.398520 1.000000
58.663898 26.061899 -763.987671 0.092928 0.897384 -0.431354 1.000000
58.295300 25.892099 -764.440002 0.082879 0.917104 -0.389939 1.000000
57.859100 25.655899 -764.941406 0.172522 0.888705 -0.424781 1.000000
62.050701 27.250999 -759.151184 0.218793 0.958711 0.181665 1.000000
61.949902 27.354799 -759.418396 0.233875 0.969269 -0.076291 1.000000
61.807098 27.358601 -759.659912 0.276211 0.952861 -0.125550 1.000000
61.659000 27.350000 -759.898315 0.143777 0.947318 -0.286211 1.000000
61.492298 27.297701 -760.125916 0.074351 0.915197 -0.396090 1.000000
61.313202 27.216499 -760.346619 0.140811 0.936461 -0.321268 1.000000
61.135899 27.140400 -760.568787 0.036368 0.893026 -0.448533 1.000000
60.934200 27.007601 -760.777710 0.038209 0.918338 -0.393950 1.000000
60.765598 26.952700 -761.005920 0.132622 0.933825 -0.332239 1.000000
60.599998 26.905001 -761.236023 0.117886 0.949714 -0.290080 1.000000
60.427299 26.841200 -761.462585 0.064303 0.893395 -0.444646 1.000000
60.250702 26.768700 -761.687378 0.128633 0.922564 -0.363770 1.000000
60.076199 26.701599 -761.913818 0.076419 0.926407 -0.368686 1.000000
59.888199 26.604200 -762.133484 -0.025560 0.881132 -0.472179 1.000000
59.702702 26.512899 -762.355103 0.043188 0.927881 -0.370367 1.000000
59.514801 26.416599 -762.575989 0.225903 0.955743 -0.188475 1.000000
59.373901 26.427799 -762.821289 0.246980 0.954543 -0.166878 1.000000
59.218300 26.405600 -763.059082 0.205274 0.924441 -0.321360 1.000000
58.348999 26.011700 -764.130127 -0.038355 0.916542 -0.398094 1.000000
58.016499 25.842400 -764.521790 0.036193 0.896771 -0.441013 1.000000
57.556400 25.636600 -765.091003 0.205920 0.878493 -0.431099 1.000000
57.374500 25.559799 -765.320496 0.163346 0.857937 -0.487096 1.000000
57.189701 25.477301 -765.549316 0.045901 0.841510 -0.538288 1.000000
56.952202 25.280001 -765.755920 -0.096961 0.814759 -0.571634 1.000000
58.928699 26.406099 -763.171875 0.045614 0.934441 -0.353185 1.000000
58.740200 26.310801 -763.394104 -0.011872 0.895679 -0.444542 1.000000
58.559502 26.233801 -763.620728 0.040825 0.920544 -0.388499 1.000000
58.382401 26.165199 -763.849426 0.052804 0.900371 -0.431907 1.000000
58.046600 25.988800 -764.238708 0.138675 0.914696 -0.379606 1.000000
57.711102 25.814899 -764.629883 0.083692 0.906890 -0.412971 1.000000
61.805500 27.296801 -759.019775 0.230461 0.928913 0.289843 1.000000
61.674702 27.416500 -759.350708 0.218323 0.971848 -0.088577 1.000000
61.537102 27.433800 -759.595276 0.220745 0.971528 -0.086053 1.000000
61.381901 27.409700 -759.829529 0.145387 0.926324 -0.347544 1.000000
61.214401 27.356899 -760.056824 0.068339 0.920562 -0.384572 1.000000
61.035801 27.278500 -760.278015 0.016990 0.913518 -0.406444 1.000000
60.849602 27.182800 -760.495422 -0.016670 0.929668 -0.368020 1.000000
60.659599 27.078800 -760.711182 0.072350 0.905060 -0.419085 1.000000
60.489799 27.022301 -760.938782 0.136134 0.944848 -0.297876 1.000000
60.320801 26.968100 -761.167175 0.090918 0.944754 -0.314918 1.000000
60.147900 26.905100 -761.393677 0.105166 0.921908 -0.372861 1.000000
59.966202 26.822399 -761.616028 0.034863 0.936131 -0.349919 1.000000
59.790901 26.754801 -761.842224 -0.032876 0.916595 -0.398462 1.000000
59.599998 26.652100 -762.060608 -0.062231 0.878142 -0.474335 1.000000
59.405300 26.541201 -762.277710 0.173302 0.965542 -0.194151 1.000000
59.258301 26.539600 -762.519714 0.208775 0.958767 -0.192817 1.000000
59.103298 26.519800 -762.757690 0.209142 0.965170 -0.157181 1.000000
57.452301 25.783400 -764.792175 0.167082 0.906814 -0.387003 1.000000
57.274200 25.715900 -765.023071 0.210959 0.886617 -0.411591 1.000000
57.098400 25.653799 -765.255371 0.140882 0.867078 -0.477837 1.000000
56.907299 25.558800 -765.481384 0.070078 0.808045 -0.584938 1.000000
56.734901 25.505100 -765.716003 0.622726 0.767476 -0.152289 1.000000
58.103901 26.105499 -763.940918 0.069012 0.910682 -0.407303 1.000000
57.783501 25.965401 -764.337830 0.072728 0.898814 -0.432254 1.000000
58.812901 26.531799 -762.926819 0.091145 0.944470 -0.315704 1.000000
58.628101 26.446100 -763.150330 0.046157 0.924455 -0.378486 1.000000
58.439201 26.351999 -763.372375 0.088238 0.919034 -0.384175 1.000000
58.249100 26.255899 -763.594482 0.086717 0.848694 -0.521726 1.000000
61.561501 27.473600 -759.083923 0.405895 0.887065 0.219921 1.000000
60.758499 27.297501 -760.239990 -0.009212 0.896224 -0.443506 1.000000
60.571301 27.200899 -760.456970 0.008887 0.933178 -0.359305 1.000000
59.869202 26.928200 -761.355408 0.023987 0.945596 -0.324457 1.000000
59.688099 26.848400 -761.578125 -0.003769 0.938422 -0.345470 1.000000
59.503300 26.760401 -761.799316 -0.035243 0.925449 -0.377228 1.000000
59.311798 26.657700 -762.017578 -0.044961 0.881498 -0.470042 1.000000
59.124901 26.566000 -762.238770 0.186166 0.977679 -0.097398 1.000000
58.980202 26.570999 -762.481873 0.243524 0.965170 -0.095624 1.000000
57.792198 26.134100 -764.025330 0.102314 0.892795 -0.438689 1.000000
57.497799 25.972099 -764.356873 -0.001258 0.937307 -0.348502 1.000000
57.179798 25.841299 -764.757019 0.089519 0.933935 -0.346050 1.000000
56.819698 25.700899 -765.217285 0.009297 0.883232 -0.468844 1.000000
61.299400 27.542000 -759.239685 0.313504 0.920472 -0.233339 1.000000
61.156601 27.548800 -759.481201 0.240718 0.944992 -0.221461 1.000000
60.989101 27.497499 -759.708313 0.093824 0.960092 -0.263479 1.000000
60.815399 27.431801 -759.931885 0.090412 0.891597 -0.443712 1.000000
60.299099 27.163099 -760.527588 0.111371 0.940613 -0.320694 1.000000
60.137798 27.127899 -760.759888 0.055326 0.948255 -0.312654 1.000000
59.957699 27.049700 -760.982178 -0.010962 0.960959 -0.276474 1.000000
58.708199 26.623600 -762.635681 0.175101 0.955702 -0.236586 1.000000
58.542500 26.581400 -762.868530 0.074823 0.941192 -0.329483 1.000000
58.308201 26.467899 -763.146790 0.014093 0.928826 -0.370249 1.000000
58.129398 26.397200 -763.374084 0.018879 0.945191 -0.325971 1.000000
57.939602 26.302200 -763.596680 -0.058873 0.938049 -0.341465 1.000000
57.509201 26.083099 -764.098022 0.044807 0.886637 -0.460291 1.000000
57.229500 25.954901 -764.437012 0.151820 0.923457 -0.352390 1.000000
56.880001 25.837500 -764.901184 0.194061 0.909931 -0.366560 1.000000
56.499199 25.653000 -765.353516 0.014093 0.928826 -0.370249 1.000000
61.458599 27.592199 -758.772522 -0.271712 0.830662 -0.485976 1.000000
60.488701 27.370600 -760.157471 0.113427 0.862905 -0.492473 1.000000
59.674099 27.007999 -761.154419 0.021597 0.941378 -0.336660 1.000000
59.495701 26.934999 -761.378723 0.038195 0.920640 -0.388539 1.000000
59.308998 26.843201 -761.598877 0.026698 0.942066 -0.334363 1.000000
59.115299 26.735901 -761.816223 -0.112866 0.907108 -0.405482 1.000000
58.928200 26.644400 -762.037415 0.178928 0.969303 -0.168630 1.000000
58.777901 26.637600 -762.277893 0.263416 0.958939 -0.105107 1.000000
57.684700 26.251699 -763.710693 0.185260 0.920643 -0.343650 1.000000
56.959702 25.956800 -764.624084 0.190192 0.913780 -0.358934 1.000000
56.592899 25.802799 -765.081726 0.012228 0.843710 -0.536659 1.000000
61.220001 27.553699 -758.938477 0.350223 0.904133 0.244717 1.000000
57.196499 26.084999 -764.161621 0.140688 0.899552 -0.413538 1.000000
61.225300 27.429800 -758.614014 0.384135 0.428764 0.817681 1.000000
61.001202 27.645300 -759.184998 0.290332 0.939796 -0.180254 1.000000
60.849998 27.633400 -759.421997 0.260580 0.902460 -0.343023 1.000000
60.669601 27.552200 -759.641724 0.265627 0.880922 -0.391688 1.000000
60.501499 27.500601 -759.869080 0.207342 0.886716 -0.413213 1.000000
60.173599 27.332001 -760.248474 0.082767 0.871158 -0.483977 1.000000
59.994701 27.256100 -760.470886 0.102617 0.920814 -0.376261 1.000000
59.809502 27.166201 -760.690186 0.001275 0.926619 -0.376001 1.000000
58.498901 26.688499 -762.392029 0.093026 0.982214 -0.163098 1.000000
58.341400 26.665899 -762.629272 0.131409 0.951720 -0.277419 1.000000
58.164700 26.599899 -762.857117 0.052532 0.906509 -0.418907 1.000000
57.974300 26.503099 -763.078613 0.086102 0.939170 -0.332485 1.000000
57.804798 26.454100 -763.310913 0.052109 0.915250 -0.399503 1.000000
57.392700 26.276400 -763.820129 0.052037 0.916653 -0.396282 1.000000
56.958698 26.052500 -764.321716 0.164881 0.917412 -0.362173 1.000000
56.672501 25.994400 -764.736816 0.208740 0.880853 -0.424882 1.000000
56.311600 25.772200 -765.120117 0.165895 0.823498 -0.542522 1.000000
60.239101 27.483500 -760.001709 0.003930 0.897283 -0.441437 1.000000
59.542599 27.140301 -760.821411 0.011178 0.950104 -0.311733 1.000000
59.363098 27.064600 -761.044678 0.008680 0.951098 -0.308766 1.000000
59.183899 26.990200 -761.268677 0.061535 0.938737 -0.339097 1.000000
58.994400 26.892200 -761.487488 0.084785 0.927253 -0.364710 1.000000
58.813400 26.814699 -761.711487 0.038621 0.906931 -0.419505 1.000000
58.621899 26.713301 -761.930420 0.139657 0.975082 -0.172369 1.000000
57.522598 26.398701 -763.437988 0.139741 0.904787 -0.402284 1.000000
56.708302 26.070299 -764.465088 0.205460 0.925279 -0.318817 1.000000
56.402500 25.969299 -764.871826 0.124044 0.912909 -0.388857 1.000000
57.099800 26.222099 -763.893616 0.169477 0.890841 -0.421520 1.000000
56.036701 25.782600 -765.198425 -0.290210 0.873667 -0.390491 1.000000
60.848598 27.684799 -758.756897 0.584842 0.791436 0.177731 1.000000
60.739300 27.775000 -759.018982 0.341970 0.917165 -0.204609 1.000000
60.584301 27.755100 -759.253113 0.255616 0.907070 -0.334491 1.000000
60.416000 27.703800 -759.479309 0.073535 0.883813 -0.462025 1.000000
60.226398 27.601900 -759.693176 0.032911 0.917554 -0.396246 1.000000
59.943001 27.452999 -760.015930 0.006412 0.924606 -0.380871 1.000000
59.771400 27.395300 -760.241699 0.077552 0.910216 -0.406808 1.000000
59.572601 27.274099 -760.452515 -0.033715 0.888735 -0.457179 1.000000
58.316200 26.757601 -762.017517 0.127979 0.990984 -0.039639 1.000000
58.172600 26.768200 -762.261414 0.114229 0.984771 -0.131062 1.000000
58.015598 26.748100 -762.498413 0.069769 0.960274 -0.270196 1.000000
57.832699 26.668900 -762.722473 0.053642 0.935464 -0.349327 1.000000
57.644901 26.579300 -762.944824 0.128832 0.921216 -0.367101 1.000000
57.471901 26.523600 -763.174683 0.016499 0.937912 -0.346482 1.000000
57.233898 26.405399 -763.452271 0.016686 0.930544 -0.365800 1.000000
56.823799 26.236300 -763.962585 0.099406 0.921893 -0.374476 1.000000
56.647800 26.176100 -764.193115 0.170799 0.902794 -0.394703 1.000000
56.391201 26.102800 -764.542725 0.196713 0.896137 -0.397797 1.000000
56.122398 26.003300 -764.887817 0.041162 0.912214 -0.407641 1.000000
59.313099 27.216000 -760.547302 -0.014544 0.897744 -0.440278 1.000000
59.128799 27.130199 -760.767395 0.039686 0.943493 -0.329007 1.000000
58.950901 27.060101 -760.991516 0.090157 0.949916 -0.299217 1.000000
58.778801 27.003901 -761.219116 -0.003840 0.922805 -0.385249 1.000000
58.595402 26.921801 -761.440979 -0.108534 0.886592 -0.449639 1.000000
58.401001 26.814699 -761.657593 0.126190 0.975784 -0.178665 1.000000
56.945000 26.375299 -763.617310 0.109370 0.912337 -0.394562 1.000000
55.855999 26.059900 -765.095398 -0.038302 0.394905 0.917923 1.000000
60.679901 27.807400 -758.500183 0.512499 0.430104 0.743206 1.000000
60.549301 27.884501 -758.784119 0.360497 0.903432 -0.232061 1.000000
60.402100 27.883900 -759.022827 0.290628 0.892751 -0.344283 1.000000
60.234798 27.835400 -759.249512 0.100676 0.911597 -0.398565 1.000000
60.032501 27.703699 -759.455688 -0.017608 0.862809 -0.505224 1.000000
59.847000 27.612700 -759.672607 0.029882 0.926350 -0.375477 1.000000
59.667099 27.535601 -759.893188 0.102970 0.940106 -0.324958 1.000000
59.482201 27.447300 -760.111511 -0.001305 0.899331 -0.437266 1.000000
58.103199 26.820101 -761.768921 0.146333 0.976803 -0.156339 1.000000
57.960098 26.832399 -762.012878 0.126146 0.989497 -0.070596 1.000000
57.807701 26.823601 -762.252319 0.024608 0.980821 -0.193352 1.000000
57.634701 26.767700 -762.481384 0.057937 0.948877 -0.310284 1.000000
57.464199 26.717899 -762.712097 0.088952 0.938638 -0.333236 1.000000
57.274799 26.625200 -762.933777 -0.019544 0.918565 -0.394787 1.000000
57.087299 26.537701 -763.156982 0.049828 0.949278 -0.310464 1.000000
56.637100 26.363100 -763.726074 0.136538 0.928182 -0.346172 1.000000
56.466000 26.314100 -763.958618 0.168128 0.941789 -0.291148 1.000000
56.293301 26.261801 -764.190674 0.195583 0.915099 -0.352620 1.000000
56.131401 26.234200 -764.427979 0.151631 0.908370 -0.389707 1.000000
55.940300 26.141899 -764.652588 0.173881 0.881094 -0.439816 1.000000
59.216000 27.383400 -760.205383 -0.068703 0.917391 -0.392013 1.000000
59.032200 27.299101 -760.425171 -0.019902 0.895573 -0.444469 1.000000
58.849701 27.218300 -760.646179 0.008492 0.961991 -0.272948 1.000000
58.659698 27.120300 -760.863586 0.050030 0.948007 -0.314292 1.000000
58.485001 27.058701 -761.089783 -0.062691 0.921695 -0.382817 1.000000
58.290100 26.950600 -761.305725 -0.079980 0.917736 -0.389055 1.000000
56.789101 26.496500 -763.318787 0.114875 0.936573 -0.331112 1.000000
55.663799 26.153700 -764.825989 0.357922 0.899960 -0.248925 1.000000
60.365101 27.995701 -758.414612 -0.195756 0.648923 0.735241 1.000000
60.257900 28.092199 -758.677429 0.339046 0.824750 -0.452587 1.000000
60.079201 28.016300 -758.896484 0.114459 0.917051 -0.381990 1.000000
59.887600 27.910200 -759.108521 0.025588 0.879403 -0.475390 1.000000
59.686501 27.782200 -759.315491 0.001363 0.811146 -0.584843 1.000000
59.489201 27.664000 -759.525513 0.027554 0.917159 -0.397567 1.000000
59.307301 27.582899 -759.744873 -0.016524 0.936775 -0.349543 1.000000
59.113701 27.474899 -759.958313 -0.053394 0.938946 -0.339896 1.000000
58.921600 27.371000 -760.172974 0.028895 0.951015 -0.307792 1.000000
58.728001 27.264299 -760.387573 0.017165 0.901822 -0.431766 1.000000
58.560101 27.218300 -760.616882 0.025688 0.965120 -0.260546 1.000000
58.199699 27.070200 -761.063293 -0.128229 0.900423 -0.415688 1.000000
57.994701 26.939301 -761.273987 0.109854 0.983861 -0.141241 1.000000
57.831799 26.906500 -761.507385 0.102225 0.970506 -0.218332 1.000000
57.681099 26.902300 -761.747375 0.189363 0.976519 -0.102726 1.000000
57.524101 26.883600 -761.984314 0.152742 0.969075 -0.193815 1.000000
57.362900 26.855499 -762.219177 0.075630 0.957551 -0.278164 1.000000
57.187901 26.795900 -762.447388 0.057337 0.974724 -0.215928 1.000000
57.007900 26.725401 -762.673584 -0.001249 0.942782 -0.333408 1.000000
56.819801 26.636900 -762.896179 0.159556 0.895526 -0.415421 1.000000
56.469799 26.521099 -763.355530 0.167931 0.931252 -0.323371 1.000000
56.296799 26.468100 -763.586670 0.190493 0.912361 -0.362366 1.000000
56.126301 26.421200 -763.819275 0.171527 0.939967 -0.295026 1.000000
55.950802 26.363600 -764.049988 0.205435 0.934939 -0.289286 1.000000
55.782902 26.323200 -764.284424 0.139497 0.908841 -0.393127 1.000000
55.599400 26.248400 -764.512207 -0.016990 0.913518 -0.406444 1.000000
55.407001 26.097500 -764.684082 -0.915263 0.207689 -0.345193 1.000000
60.148701 28.198900 -758.409119 0.441207 0.862705 0.247137 1.000000
59.954102 28.173100 -758.700073 0.189034 0.824190 -0.533833 1.000000
59.608501 27.962601 -759.064270 -0.090447 0.834120 -0.544116 1.000000
59.399799 27.816601 -759.266724 0.006695 0.866322 -0.499441 1.000000
59.205200 27.704901 -759.478210 -0.063807 0.905512 -0.419495 1.000000
59.002499 27.574900 -759.685730 -0.071684 0.912960 -0.401703 1.000000
58.822201 27.498600 -759.906677 -0.100985 0.965108 -0.241597 1.000000
58.630299 27.395300 -760.121582 -0.164881 0.917412 -0.362173 1.000000
58.443901 27.305799 -760.340271 -0.018864 0.946995 -0.320695 1.000000
58.268101 27.241699 -760.565186 0.011186 0.950837 -0.309488 1.000000
58.087799 27.167400 -760.788086 -0.030093 0.919808 -0.391213 1.000000
57.888500 27.049299 -761.001282 -0.039152 0.892387 -0.449569 1.000000
57.699100 26.955000 -761.220398 0.145405 0.987592 -0.059325 1.000000
57.550499 26.955900 -761.461426 0.198682 0.961833 -0.188156 1.000000
57.399101 26.950001 -761.700928 0.164515 0.978431 -0.124932 1.000000
57.243599 26.935101 -761.938477 0.081494 0.979146 -0.186098 1.000000
57.077801 26.896299 -762.171021 0.090068 0.965373 -0.244832 1.000000
56.906101 26.844801 -762.400818 0.111781 0.914948 -0.387783 1.000000
56.724201 26.770201 -762.625977 0.062957 0.952059 -0.299365 1.000000
56.542999 26.697500 -762.851929 0.079786 0.945659 -0.315220 1.000000
56.363400 26.629000 -763.079102 0.044030 0.957346 -0.285568 1.000000
56.187500 26.569599 -763.308472 0.060047 0.954358 -0.292567 1.000000
56.008701 26.503799 -763.536804 0.099939 0.956563 -0.273860 1.000000
55.840801 26.462799 -763.770630 0.174944 0.961533 -0.211774 1.000000
55.676201 26.429701 -764.006226 0.158863 0.954516 -0.252313 1.000000
55.509399 26.392099 -764.241028 -0.006800 0.830983 -0.556256 1.000000
55.330200 26.379200 -764.518921 0.316613 0.938967 0.134526 1.000000
59.674301 28.180099 -758.738770 -0.066218 0.841113 -0.536791 1.000000
59.854301 28.242201 -758.086182 -0.352415 0.874172 -0.334107 1.000000
59.737202 28.315399 -758.342285 0.196924 0.979902 -0.031838 1.000000
59.345901 28.083000 -758.758789 -0.093735 0.820540 -0.563851 1.000000
59.138901 27.940701 -758.961304 -0.120116 0.849492 -0.513747 1.000000
58.938499 27.815001 -759.168518 -0.083484 0.907376 -0.411946 1.000000
58.734001 27.680300 -759.374023 -0.049859 0.901513 -0.429870 1.000000
58.532902 27.554501 -759.582275 -0.077745 0.909747 -0.407818 1.000000
58.358101 27.492001 -759.806274 -0.084836 0.948854 -0.304103 1.000000
58.167198 27.391701 -760.021606 -0.053674 0.933410 -0.354774 1.000000
57.989799 27.323799 -760.244995 -0.006171 0.951586 -0.307321 1.000000
57.810501 27.252001 -760.467773 -0.003673 0.956221 -0.292621 1.000000
57.623299 27.162201 -760.686707 -0.083463 0.909888 -0.406371 1.000000
57.427101 27.051800 -760.901306 0.083870 0.994139 -0.068214 1.000000
57.269699 27.032400 -761.137085 0.112713 0.977262 -0.179598 1.000000
57.133301 27.061899 -761.383972 0.197127 0.975719 -0.095464 1.000000
56.973999 27.038200 -761.619019 0.121694 0.974806 -0.186932 1.000000
56.807598 26.998501 -761.850525 0.122832 0.971260 -0.203876 1.000000
56.645599 26.969200 -762.084473 0.020257 0.973545 -0.227597 1.000000
56.466301 26.900400 -762.310120 -0.076868 0.947171 -0.311381 1.000000
56.274899 26.804501 -762.530212 -0.066439 0.944482 -0.321775 1.000000
56.099899 26.746700 -762.758911 0.072087 0.962429 -0.261791 1.000000
55.926102 26.691799 -762.988525 0.072342 0.960757 -0.267793 1.000000
55.752800 26.638500 -763.218628 0.113349 0.945462 -0.305375 1.000000
55.578098 26.582399 -763.448486 0.167621 0.953427 -0.250761 1.000000
55.416901 26.557100 -763.684875 0.182809 0.949252 -0.255932 1.000000
55.255299 26.530899 -763.921326 0.108194 0.976233 -0.187785 1.000000
55.080502 26.475599 -764.151978 0.059120 0.468837 -0.881304 1.000000
59.568401 28.327200 -758.106079 0.173228 0.854296 0.490073 1.000000
59.373299 28.300699 -758.395813 -0.211835 0.881410 -0.422188 1.000000
59.052898 28.062099 -758.692017 -0.233836 0.864440 -0.445043 1.000000
58.838402 27.902100 -758.890076 -0.142537 0.925798 -0.350115 1.000000
58.649101 27.803200 -759.103882 -0.125657 0.921022 -0.368685 1.000000
58.449799 27.681200 -759.312378 -0.092254 0.934570 -0.343611 1.000000
58.259602 27.581499 -759.526917 -0.144144 0.947041 -0.286941 1.000000
58.063301 27.468000 -759.738525 -0.150712 0.943650 -0.294636 1.000000
57.883801 27.394899 -759.960205 -0.079259 0.967459 -0.240292 1.000000
57.712898 27.342501 -760.187073 -0.036084 0.959333 -0.279961 1.000000
57.331200 27.145700 -760.620422 -0.032510 0.927177 -0.373211 1.000000
57.119202 27.085699 -760.906494 0.171279 0.984560 -0.036120 1.000000
56.969101 27.083300 -761.145874 0.172759 0.982938 -0.063146 1.000000
56.191898 26.926300 -762.252319 0.076759 0.922451 -0.378407 1.000000
55.826199 26.774300 -762.701172 -0.035489 0.968001 -0.248425 1.000000
54.827499 26.634300 -764.179688 -0.880491 0.227944 0.415663 1.000000
59.281799 28.345100 -758.123596 -0.121473 0.992580 0.005472 1.000000
59.081600 28.217600 -758.328308 -0.298301 0.906660 -0.298301 1.000000
58.778000 28.020100 -758.634827 -0.195586 0.883813 -0.424995 1.000000
57.415699 27.338699 -760.198181 -0.042277 0.944187 -0.326686 1.000000
57.037300 27.150400 -760.633301 0.073822 0.987803 -0.137097 1.000000
56.665600 27.153099 -761.232910 0.171647 0.972666 -0.156389 1.000000
56.510300 27.139000 -761.469421 0.102467 0.988154 -0.114244 1.000000
56.344200 27.100100 -761.700623 0.077129 0.964748 -0.251618 1.000000
56.180099 27.066099 -761.932983 -0.068327 0.970239 -0.232311 1.000000
55.897499 26.932199 -762.264221 -0.068921 0.945382 -0.318595 1.000000
55.533401 26.784500 -762.713623 0.038332 0.963251 -0.265852 1.000000
55.364498 26.741199 -762.945313 0.174768 0.967050 -0.185125 1.000000
55.196899 26.701200 -763.177795 0.151726 0.966120 -0.208786 1.000000
55.043999 26.694599 -763.417419 0.136968 0.961382 -0.238715 1.000000
54.879002 26.660999 -763.651611 0.080393 0.982710 -0.166785 1.000000
54.659500 26.553699 -763.905823 -0.370096 0.741823 -0.559220 1.000000
58.515202 27.913401 -758.813782 -0.136407 0.927294 -0.348596 1.000000
58.309200 27.774900 -759.017273 -0.166612 0.925466 -0.340224 1.000000
58.132900 27.708099 -759.238770 -0.155368 0.936335 -0.314861 1.000000
57.916500 27.546600 -759.437927 -0.042109 0.948097 -0.315182 1.000000
57.738201 27.476299 -759.659302 0.021677 0.937205 -0.348105 1.000000
57.568199 27.426001 -759.885803 0.038357 0.963882 -0.263552 1.000000
57.153999 27.240000 -760.379272 -0.142669 0.905451 -0.399755 1.000000
56.818600 27.153099 -760.837402 0.222949 0.973422 -0.052387 1.000000
55.641800 26.852699 -762.448425 0.013865 0.941566 -0.336544 1.000000
58.766602 28.101500 -758.352722 -0.237990 0.891354 -0.385810 1.000000
55.886600 27.015301 -761.965027 -0.006136 0.955999 -0.293304 1.000000
58.902699 28.200800 -757.675293 -0.660985 0.631166 0.405868 1.000000
58.781700 28.266199 -757.927979 -0.269169 0.953360 0.136573 1.000000
58.586700 28.152599 -758.135925 -0.304114 0.934561 -0.184690 1.000000
58.391800 28.040199 -758.344482 -0.283873 0.925796 -0.249637 1.000000
58.199100 27.933500 -758.554993 -0.170930 0.932474 -0.318236 1.000000
58.019402 27.858801 -758.773682 -0.217189 0.934615 -0.281646 1.000000
57.818298 27.733500 -758.980591 -0.167795 0.933273 -0.317563 1.000000
57.620499 27.616800 -759.190125 -0.003735 0.944876 -0.327408 1.000000
57.446899 27.558201 -759.413818 -0.020004 0.977864 -0.208282 1.000000
57.286301 27.530800 -759.645081 -0.025465 0.968894 -0.246164 1.000000
57.099602 27.442101 -759.862427 -0.095380 0.933652 -0.345250 1.000000
56.900501 27.324900 -760.073425 -0.154194 0.926551 -0.343115 1.000000
56.711601 27.232401 -760.290588 0.024290 0.998016 -0.058086 1.000000
56.567299 27.244400 -760.531799 0.076494 0.996580 -0.031244 1.000000
56.412601 27.232100 -760.767578 0.158384 0.987372 0.003370 1.000000
56.270802 27.250099 -761.010193 0.045320 0.986578 -0.156876 1.000000
56.110298 27.224701 -761.243225 -0.010746 0.970715 -0.239992 1.000000
55.938400 27.173300 -761.470703 -0.045303 0.986216 -0.159142 1.000000
55.755699 27.097300 -761.693115 -0.033518 0.959613 -0.279318 1.000000
55.583199 27.045300 -761.921021 0.023797 0.950645 -0.309367 1.000000
55.387001 26.939301 -762.137817 -0.013293 0.965565 -0.259820 1.000000
55.212898 26.884701 -762.365784 0.041951 0.976854 -0.209754 1.000000
55.050499 26.856800 -762.599609 0.168313 0.964214 -0.204847 1.000000
54.896900 26.849100 -762.837708 0.141839 0.969872 -0.198064 1.000000
54.728699 26.808599 -763.069275 0.169407 0.962600 -0.211431 1.000000
54.568298 26.785900 -763.304626 0.051670 0.923443 -0.380241 1.000000
54.405800 26.758699 -763.539185 -0.064542 0.933889 -0.351690 1.000000
58.483200 28.160101 -757.765015 -0.079781 0.918162 0.388089 1.000000
58.299301 28.074200 -757.979980 -0.219769 0.969271 -0.110520 1.000000
58.132900 28.030800 -758.205872 -0.050202 0.970972 -0.233866 1.000000
57.951000 27.950800 -758.423096 -0.104792 0.926797 -0.360648 1.000000
57.758999 27.847099 -758.634827 -0.106549 0.909123 -0.402671 1.000000
57.557098 27.720400 -758.841492 -0.055144 0.950273 -0.306498 1.000000
57.335701 27.636700 -759.118408 -0.043175 0.965885 -0.255349 1.000000
57.165600 27.586901 -759.344299 -0.017802 0.974357 -0.224304 1.000000
56.994499 27.535000 -759.569885 -0.085843 0.959649 -0.267779 1.000000
56.812698 27.458599 -759.790100 -0.158068 0.921828 -0.353904 1.000000
56.604801 27.321301 -759.996704 -0.078855 0.952719 -0.293443 1.000000
56.424599 27.249399 -760.218811 0.113742 0.988498 -0.099671 1.000000
56.280399 27.262199 -760.460205 0.160497 0.986889 0.017074 1.000000
56.131100 27.262899 -760.698975 0.114018 0.992292 -0.048542 1.000000
55.980400 27.260700 -760.937073 0.035833 0.985978 -0.162981 1.000000
55.828800 27.256201 -761.174805 -0.025196 0.973061 -0.229167 1.000000
55.639500 27.165100 -761.393677 -0.054862 0.986351 -0.155248 1.000000
55.473701 27.128500 -761.624817 0.001179 0.972654 -0.232258 1.000000
55.297199 27.067801 -761.851013 -0.049003 0.958692 -0.280194 1.000000
55.110500 26.984301 -762.072571 -0.008463 0.963605 -0.267198 1.000000
54.944599 26.948500 -762.304626 0.099920 0.983550 -0.150482 1.000000
54.787498 26.932899 -762.540894 0.148435 0.973072 -0.176346 1.000000
54.629501 26.915501 -762.776978 0.132386 0.978664 -0.157131 1.000000
54.432400 26.894899 -763.072510 0.017460 0.981229 -0.192055 1.000000
54.261700 26.849300 -763.303223 -0.101998 0.926145 -0.363114 1.000000
53.991001 26.778299 -763.266296 0.081964 0.806698 -0.585252 1.000000
58.145599 28.065500 -757.562378 -0.257221 0.759039 0.598078 1.000000
57.964500 28.077101 -757.860901 0.130007 0.982953 -0.130007 1.000000
57.799702 28.038300 -758.087891 0.066061 0.946870 -0.314760 1.000000
57.610199 27.940599 -758.300598 -0.049703 0.951999 -0.302040 1.000000
57.427898 27.860500 -758.518005 -0.123365 0.916231 -0.381185 1.000000
57.235600 27.757200 -758.730225 -0.021512 0.942749 -0.332809 1.000000
57.054901 27.682301 -758.949585 -0.023949 0.946632 -0.321426 1.000000
56.884300 27.631800 -759.174988 -0.113973 0.955011 -0.273796 1.000000
56.696301 27.540501 -759.391174 -0.145040 0.954069 -0.262136 1.000000
56.508900 27.451099 -759.608276 -0.191679 0.906514 -0.376153 1.000000
56.311199 27.338100 -759.820313 -0.074823 0.941192 -0.329483 1.000000
56.129601 27.263599 -760.041626 0.169357 0.984607 -0.043215 1.000000
55.990799 27.289499 -760.285828 0.261504 0.958847 0.110586 1.000000
55.860699 27.335800 -760.534485 0.088265 0.991543 -0.095142 1.000000
55.696999 27.303900 -760.765930 0.031675 0.981938 -0.186533 1.000000
55.527500 27.258499 -760.994324 -0.039993 0.973160 -0.226626 1.000000
55.347801 27.190001 -761.218018 -0.005545 0.990330 -0.138624 1.000000
55.181499 27.153000 -761.448792 0.046019 0.982922 -0.178177 1.000000
55.007500 27.098301 -761.676025 0.045406 0.937950 -0.343785 1.000000
54.829201 27.034401 -761.901611 0.191892 0.948572 -0.251773 1.000000
54.668400 27.010599 -762.135803 0.162721 0.959126 -0.231513 1.000000
54.509998 26.992701 -762.371399 0.161943 0.975427 -0.149390 1.000000
54.353500 26.979200 -762.607971 0.085451 0.974641 -0.206817 1.000000
54.182999 26.934200 -762.838379 0.012583 0.984889 -0.172727 1.000000
53.875702 26.915501 -762.853882 -0.133487 0.928907 -0.345416 1.000000
53.681801 26.818600 -763.074219 0.475164 0.852278 0.218726 1.000000
57.943298 28.083900 -757.334473 -0.019905 0.998373 -0.053428 1.000000
57.820900 28.148701 -757.586914 0.308302 0.935966 -0.170050 1.000000
57.664398 28.130600 -757.818481 0.213888 0.953754 -0.211198 1.000000
57.495998 28.083700 -758.043213 -0.003925 0.901373 -0.433025 1.000000
57.306599 27.986500 -758.255798 -0.090069 0.896536 -0.433718 1.000000
57.082699 27.807100 -758.448975 -0.074460 0.944470 -0.320049 1.000000
56.913200 27.759199 -758.674377 0.008392 0.967443 -0.252950 1.000000
56.742298 27.708200 -758.899292 -0.057068 0.957478 -0.282805 1.000000
56.555099 27.618799 -759.115417 -0.084004 0.934707 -0.345348 1.000000
56.363499 27.519400 -759.329590 -0.098658 0.948432 -0.301236 1.000000
56.165401 27.405500 -759.540771 -0.209229 0.931001 -0.299100 1.000000
55.977901 27.317301 -759.758423 0.030308 0.991170 -0.129088 1.000000
55.819801 27.298800 -759.992310 0.098948 0.994921 0.018485 1.000000
55.687901 27.341700 -760.240173 0.180357 0.983237 0.026763 1.000000
55.547600 27.364901 -760.483521 0.042968 0.985950 -0.161422 1.000000
55.382801 27.331100 -760.714111 -0.018179 0.965934 -0.258148 1.000000
55.198700 27.252501 -760.935120 -0.008568 0.958429 -0.285203 1.000000
55.023201 27.194300 -761.160828 0.028110 0.990609 -0.133805 1.000000
54.859798 27.164600 -761.393005 0.012624 0.983552 -0.180184 1.000000
54.691399 27.123600 -761.622925 0.087072 0.977418 -0.192540 1.000000
54.521900 27.080500 -761.852722 0.097665 0.967773 -0.232113 1.000000
54.361198 27.057600 -762.086792 0.139422 0.983225 -0.117599 1.000000
54.204800 27.044901 -762.323181 0.100423 0.967368 -0.232626 1.000000
54.042301 27.018499 -762.556885 0.058908 0.979792 -0.191150 1.000000
53.745499 26.994301 -762.547729 -0.149401 0.965262 -0.214358 1.000000
53.514099 26.812000 -762.749695 -0.602389 0.796064 0.058388 1.000000
57.711102 28.187201 -757.187012 0.339786 0.851792 0.398744 1.000000
57.607700 28.299999 -757.450684 0.457307 0.803898 -0.380287 1.000000
57.422600 28.212299 -757.664124 0.169014 0.913246 -0.370696 1.000000
57.243000 28.138399 -757.881287 -0.061650 0.889135 -0.453473 1.000000
57.055000 28.044701 -758.094116 -0.080983 0.904535 -0.418639 1.000000
56.840801 27.888500 -758.291992 -0.036744 0.877770 -0.477670 1.000000
56.648201 27.785101 -758.503296 -0.104140 0.931848 -0.347583 1.000000
56.462700 27.699499 -758.719299 -0.096263 0.961342 -0.257984 1.000000
56.287201 27.638500 -758.941528 -0.157668 0.957930 -0.239814 1.000000
56.091099 27.528700 -759.152527 -0.188352 0.921935 -0.338468 1.000000
55.894798 27.419201 -759.364075 -0.170197 0.934009 -0.314104 1.000000
55.706600 27.329500 -759.580688 0.049902 0.994707 -0.089823 1.000000
55.559200 27.337099 -759.819885 0.185879 0.981487 0.046174 1.000000
55.431099 27.390499 -760.069519 0.084932 0.993137 0.080402 1.000000
55.275600 27.378700 -760.304321 -0.007244 0.998580 -0.052775 1.000000
55.120098 27.367300 -760.539185 -0.120276 0.982860 -0.139714 1.000000
54.925098 27.263700 -760.754028 -0.058050 0.991406 -0.117239 1.000000
54.761600 27.234200 -760.985413 -0.060489 0.983242 -0.171978 1.000000
54.602402 27.214800 -761.219116 0.016882 0.989261 -0.145182 1.000000
54.429901 27.164700 -761.446411 0.005815 0.978074 -0.208175 1.000000
54.259201 27.119200 -761.674927 0.067522 0.995120 -0.071950 1.000000
54.105499 27.113300 -761.911926 0.154796 0.975341 -0.157313 1.000000
53.946899 27.096399 -762.146729 0.087550 0.965591 -0.244887 1.000000
53.645000 27.063601 -762.243591 -0.178223 0.938086 -0.297038 1.000000
53.471401 27.013201 -762.471924 -0.047472 0.987642 -0.149362 1.000000
57.293800 28.330999 -756.885986 0.254972 0.900507 -0.352244 1.000000
57.176498 28.458000 -757.183716 0.054314 0.958710 0.279150 1.000000
57.011700 28.421301 -757.409729 -0.011580 0.925095 -0.379559 1.000000
56.814800 28.306499 -757.616577 0.006800 0.830983 -0.556256 1.000000
56.601700 28.153400 -757.814697 -0.031818 0.831416 -0.554739 1.000000
56.404499 28.039700 -758.023010 -0.138672 0.851006 -0.506516 1.000000
56.177299 27.854401 -758.214478 -0.168604 0.872345 -0.458897 1.000000
55.991299 27.769300 -758.430786 -0.170435 0.944894 -0.279514 1.000000
55.809700 27.695200 -758.650024 -0.179850 0.950636 -0.252872 1.000000
55.599800 27.554001 -758.853821 -0.112723 0.930306 -0.349034 1.000000
55.395100 27.426300 -759.061401 -0.173713 0.952057 -0.251817 1.000000
55.226002 27.383699 -759.289124 0.034026 0.999139 0.023715 1.000000
55.075298 27.385000 -759.526917 0.105634 0.994271 -0.016335 1.000000
54.933899 27.408199 -759.769714 -0.036748 0.998485 -0.040947 1.000000
54.764900 27.366699 -759.997986 -0.110039 0.970110 -0.216283 1.000000
54.597000 27.327900 -760.227173 -0.036309 0.999004 -0.025935 1.000000
54.434200 27.301300 -760.459229 -0.072062 0.991711 -0.106377 1.000000
54.265701 27.261499 -760.688477 -0.076025 0.992861 -0.091911 1.000000
54.094898 27.216999 -760.916870 -0.013428 0.998829 -0.046481 1.000000
53.939602 27.208500 -761.153320 0.069033 0.996048 -0.055884 1.000000
53.783001 27.197201 -761.389221 0.081373 0.987087 -0.137980 1.000000
53.615700 27.161400 -761.619995 -0.053632 0.980873 -0.187117 1.000000
53.439400 27.105101 -761.846680 -0.130482 0.977995 -0.162792 1.000000
56.899899 28.392799 -756.848694 -0.633848 0.495982 0.593497 1.000000
56.799198 28.506300 -757.108215 -0.166034 0.957684 0.235104 1.000000
56.623901 28.444401 -757.328430 -0.405898 0.912266 -0.054924 1.000000
56.408001 28.284800 -757.525024 -0.101530 0.899859 -0.424199 1.000000
56.211498 28.173000 -757.733826 -0.188931 0.861345 -0.471583 1.000000
55.973000 27.960800 -757.918884 -0.187800 0.839840 -0.509313 1.000000
55.763000 27.818501 -758.121704 -0.164122 0.906238 -0.389611 1.000000
55.563900 27.702999 -758.331421 -0.113542 0.944402 -0.308567 1.000000
55.385700 27.638201 -758.553528 -0.163195 0.927560 -0.336153 1.000000
55.181702 27.512501 -758.761719 -0.258422 0.916747 -0.304620 1.000000
54.994301 27.427099 -758.979675 -0.157964 0.984606 -0.074825 1.000000
54.836300 27.411400 -759.213989 0.012555 0.984958 0.172339 1.000000
54.682301 27.405399 -759.450623 -0.052218 0.994369 -0.092215 1.000000
54.513199 27.364100 -759.679382 -0.142356 0.979162 -0.144832 1.000000
54.338600 27.310301 -759.905579 -0.106607 0.993130 -0.048254 1.000000
54.180401 27.295099 -760.140503 -0.066378 0.993415 -0.093379 1.000000
54.023602 27.283199 -760.376282 -0.086146 0.991258 -0.099930 1.000000
53.847698 27.227200 -760.602600 -0.024384 0.997609 -0.064670 1.000000
53.689201 27.211901 -760.837891 0.019669 0.998991 -0.040374 1.000000
53.534100 27.204399 -761.075012 0.000981 0.999995 0.002944 1.000000
53.374298 27.186501 -761.309875 -0.149235 0.984953 -0.087153 1.000000
53.203999 27.144501 -761.539978 -0.373818 0.920061 -0.117249 1.000000
56.666401 28.246300 -756.713013 0.035325 0.690952 0.722037 1.000000
56.450001 28.415100 -756.876526 0.511771 0.742151 0.432784 1.000000
56.305698 28.429600 -757.116089 -0.249927 0.965798 -0.069075 1.000000
56.118900 28.341400 -757.330688 -0.050549 0.939685 -0.338286 1.000000
55.916901 28.217400 -757.536987 -0.137405 0.817044 -0.559963 1.000000
55.694199 28.044201 -757.732117 -0.229819 0.812851 -0.535217 1.000000
55.467999 27.863800 -757.926208 -0.192618 0.899366 -0.392477 1.000000
55.264099 27.738001 -758.133911 -0.203615 0.908327 -0.365353 1.000000
55.065201 27.624800 -758.345215 -0.244190 0.914630 -0.322216 1.000000
54.881802 27.549101 -758.565491 -0.238069 0.904079 -0.354913 1.000000
54.651798 27.363800 -758.761230 -0.090773 0.981559 -0.168233 1.000000
54.504002 27.373301 -759.001709 0.100490 0.987164 0.124134 1.000000
54.361301 27.394800 -759.244995 -0.045145 0.998450 0.032547 1.000000
54.202702 27.378901 -759.479919 -0.116362 0.984878 -0.128358 1.000000
54.025700 27.320400 -759.705505 -0.032939 0.997747 -0.058441 1.000000
53.856499 27.280300 -759.935425 -0.089344 0.985164 -0.146524 1.000000
53.696301 27.261600 -760.170227 -0.037268 0.997711 -0.056434 1.000000
53.530399 27.229700 -760.402222 0.019015 0.999807 0.005004 1.000000
53.375801 27.224300 -760.640076 -0.075388 0.997027 0.015927 1.000000
53.213902 27.202000 -760.874512 -0.143884 0.980134 -0.136506 1.000000
53.039700 27.151699 -761.103088 -0.305084 0.952305 0.006176 1.000000
56.058102 28.363701 -756.708191 -0.369011 0.762406 -0.531571 1.000000
55.912899 28.395599 -756.964478 -0.235002 0.949515 0.207834 1.000000
55.746399 28.356400 -757.190796 -0.271385 0.956989 -0.102581 1.000000
55.551800 28.249599 -757.400818 -0.260122 0.808404 -0.528033 1.000000
55.359798 28.058599 -757.531921 -0.287128 0.772550 -0.566325 1.000000
55.140301 27.893299 -757.728882 -0.154402 0.884565 -0.440118 1.000000
54.913101 27.710600 -757.922485 -0.328990 0.894675 -0.302195 1.000000
54.710899 27.589100 -758.131409 -0.308706 0.928937 -0.204394 1.000000
54.500198 27.447800 -758.336121 -0.284479 0.911793 -0.296150 1.000000
54.294998 27.320900 -758.544922 -0.154828 0.987456 -0.030966 1.000000
54.141201 27.316401 -758.782104 0.036641 0.993746 0.105481 1.000000
54.007401 27.359200 -759.030212 0.033208 0.997310 0.065345 1.000000
53.853298 27.354099 -759.267395 -0.058745 0.989446 -0.132464 1.000000
53.683601 27.312500 -759.496521 -0.066373 0.997701 -0.013696 1.000000
53.520302 27.286100 -759.729126 -0.076340 0.996719 -0.026880 1.000000
53.355701 27.256901 -759.961304 -0.099686 0.993504 -0.054884 1.000000
53.195000 27.236900 -760.195618 -0.140620 0.986701 -0.081536 1.000000
53.029400 27.205900 -760.427673 -0.289528 0.950550 -0.112374 1.000000
52.845100 27.131800 -760.650879 -0.325824 0.933479 -0.149852 1.000000
55.596901 28.293900 -756.750793 -0.621608 0.591285 0.513795 1.000000
55.458801 28.324600 -756.994873 -0.548503 0.822012 0.153105 1.000000
55.255299 28.196800 -757.200073 -0.441589 0.850867 -0.284648 1.000000
55.020500 27.994301 -757.387878 -0.357714 0.830463 -0.427050 1.000000
54.784698 27.790701 -757.576172 -0.385500 0.878334 -0.282700 1.000000
54.576599 27.654800 -757.781494 -0.271420 0.883239 -0.382387 1.000000
54.367199 27.516899 -757.986877 -0.230830 0.895384 -0.380795 1.000000
54.150101 27.361401 -758.188782 -0.271531 0.913331 -0.303476 1.000000
53.963200 27.278500 -758.408325 -0.091148 0.993622 -0.066391 1.000000
53.820900 27.301901 -758.652405 -0.043791 0.981157 0.188183 1.000000
53.679401 27.326900 -758.896912 -0.042635 0.995898 0.079803 1.000000
53.513302 27.294001 -759.128174 -0.115977 0.992981 0.023195 1.000000
53.359402 27.290001 -759.366089 -0.070717 0.997429 -0.011610 1.000000
53.204498 27.283800 -759.603577 0.003026 0.999507 -0.031266 1.000000
53.028000 27.227200 -759.830200 -0.172256 0.967484 -0.185208 1.000000
52.854198 27.177299 -760.058472 -0.333937 0.933659 -0.129486 1.000000
52.681400 27.130301 -760.287720 -0.368535 0.927325 -0.065192 1.000000
55.157600 28.131701 -756.781921 -0.032432 0.686718 0.726200 1.000000
55.004398 28.126200 -757.017700 -0.419556 0.892458 -0.165804 1.000000
54.774700 27.936701 -757.208923 -0.427134 0.852726 -0.300690 1.000000
54.554401 27.771000 -757.406616 -0.255192 0.884965 -0.389504 1.000000
54.296398 27.606701 -757.664917 -0.283458 0.897864 -0.336885 1.000000
54.077702 27.447001 -757.865479 -0.401199 0.886783 -0.229468 1.000000
53.876202 27.329399 -758.076721 -0.262596 0.953077 -0.150626 1.000000
53.680302 27.225800 -758.291626 -0.155752 0.973768 0.165882 1.000000
53.553699 27.286400 -758.544617 -0.101642 0.972499 0.209558 1.000000
53.405800 27.296700 -758.786011 -0.183347 0.979875 0.078924 1.000000
53.251099 27.290899 -759.023682 -0.177379 0.981012 0.078433 1.000000
53.080601 27.248301 -759.253418 -0.198605 0.978582 0.054165 1.000000
52.923199 27.236601 -759.489990 -0.318060 0.946452 0.055371 1.000000
52.732700 27.148001 -759.709778 -0.543933 0.835173 -0.081376 1.000000
54.748600 27.972300 -756.828186 -0.312654 0.948255 0.055326 1.000000
54.537102 27.872499 -757.071228 -0.287971 0.916008 -0.279288 1.000000
54.274200 27.695601 -757.325989 -0.308087 0.943095 -0.125118 1.000000
54.058498 27.542400 -757.527771 -0.432111 0.840822 -0.326033 1.000000
53.792301 27.360100 -757.783081 -0.422938 0.871463 -0.248344 1.000000
53.581699 27.221201 -757.989624 -0.205578 0.977399 0.049291 1.000000
53.384701 27.205400 -758.284912 -0.055844 0.982619 0.177038 1.000000
53.246201 27.237900 -758.531372 -0.176771 0.977803 0.112491 1.000000
53.087399 27.222401 -758.767029 -0.126491 0.987103 0.098119 1.000000
52.932999 27.217400 -759.005127 -0.202855 0.978685 0.032030 1.000000
52.778500 27.212500 -759.243286 -0.345034 0.938340 -0.021644 1.000000
54.492001 27.873199 -756.772522 -0.419441 0.852811 0.311098 1.000000
54.275600 27.771500 -757.021484 -0.401347 0.914105 -0.057719 1.000000
53.798901 27.447901 -757.480896 -0.373457 0.873432 -0.312484 1.000000
53.287601 27.137199 -758.006226 -0.250646 0.962738 0.101544 1.000000
54.014099 27.635900 -757.054626 -0.410506 0.903674 -0.121891 1.000000
53.540798 27.323000 -757.518188 -0.417862 0.849704 -0.321551 1.000000
53.352402 27.147499 -757.656982 -0.320882 0.932086 -0.168081 1.000000
53.002701 27.131701 -758.192200 -0.147826 0.961526 0.231551 1.000000
52.860802 27.156500 -758.437317 -0.141348 0.971607 0.189737 1.000000
52.708401 27.156500 -758.676819 -0.171933 0.971740 0.161744 1.000000
52.549099 27.140699 -758.912781 -0.394289 0.916420 -0.068631 1.000000
54.093800 27.660400 -756.744507 -0.243432 0.926750 0.286139 1.000000
53.758099 27.539700 -757.163818 -0.422781 0.876933 -0.228570 1.000000
53.034302 27.088499 -757.896912 -0.221689 0.967488 0.121737 1.000000
53.774799 27.569799 -756.748230 -0.416270 0.889504 0.188417 1.000000
53.528400 27.435699 -757.015381 -0.479613 0.868488 -0.125304 1.000000
53.317600 27.296900 -757.222412 -0.442748 0.850014 -0.285395 1.000000
