ply
format ascii 1.0
element vertex 695
property float x
property float y
property float z
property float nx
property float ny
property float nz
property float label
element face 0
property list uchar int vertex_indices
end_header
48.568699 7.008600 -740.920471 0.242098 0.902366 0.356545 0.000000
48.289001 7.138200 -740.980530 0.251802 0.873015 0.417660 0.000000
48.263199 7.039800 -740.697510 0.317563 0.167795 0.933273 0.000000
48.080200 7.097700 -740.666382 -0.064542 0.933889 -0.351690 0.000000
47.916801 7.101700 -740.514099 -0.271723 0.953019 -0.133873 0.000000
47.796200 7.073700 -740.320679 -0.960139 0.064515 -0.271976 0.000000
47.711601 6.939300 -739.885071 0.212004 0.910032 0.356225 0.000000
47.658901 6.819900 -739.520630 0.451796 0.809401 0.375166 0.000000
47.451500 6.856600 -739.409912 0.416754 0.766501 0.488665 0.000000
47.161900 6.911200 -739.263977 0.366197 0.860639 0.353836 0.000000
48.727200 7.375700 -741.374573 0.070003 0.896313 -0.437862 0.000000
48.587799 7.363400 -741.203186 -0.460837 0.658578 0.594899 0.000000
48.505699 7.307500 -740.975098 0.344802 0.759211 0.552006 0.000000
48.270901 7.364900 -740.890808 0.376346 0.593279 0.711606 0.000000
48.105900 7.370500 -740.740784 -0.575846 0.214591 -0.788893 0.000000
47.963200 7.359500 -740.569702 -0.636522 0.728131 -0.254293 0.000000
47.745399 7.286800 -740.161987 -0.704179 0.707059 -0.064802 0.000000
47.704102 7.081100 -739.582275 -0.904262 0.426389 -0.022442 0.000000
49.051201 7.369400 -741.359619 0.180371 0.970932 -0.157345 0.000000
48.806301 7.403200 -741.203186 0.122921 0.982148 -0.142393 0.000000
48.697701 7.367400 -741.000488 -0.108021 0.994014 -0.016367 0.000000
48.367401 7.495600 -741.006104 0.224406 0.382810 0.896158 0.000000
47.861401 7.483000 -740.466492 0.946003 0.158344 0.282853 0.000000
47.711498 6.966300 -738.961121 0.032160 0.999030 -0.030085 0.000000
48.558601 7.501100 -741.034973 -0.429186 0.036100 -0.902494 0.000000
48.175201 7.592000 -740.888489 0.459764 0.373258 0.805789 0.000000
47.996498 7.608800 -740.752930 0.576449 0.485696 0.657119 0.000000
48.990700 7.708100 -741.325195 0.232902 0.930194 0.283716 0.000000
48.771099 7.761400 -741.244385 0.357388 0.866627 0.348184 0.000000
48.580799 7.786500 -741.119080 0.317174 0.751878 0.577996 0.000000
48.387001 7.852800 -741.098389 0.351477 0.333218 0.874888 0.000000
48.187801 7.884800 -740.982178 0.561483 0.087597 0.822839 0.000000
48.020699 7.893200 -740.835876 -0.708896 0.261673 -0.654976 0.000000
48.833801 8.201100 -741.655273 0.144362 0.858879 0.491413 0.000000
48.695301 8.188600 -741.482605 -0.720809 0.020994 -0.692816 0.000000
48.588902 8.152500 -741.279785 0.420468 0.810559 0.407678 0.000000
48.361198 8.243800 -741.291077 -0.288104 0.199029 -0.936687 0.000000
48.162300 8.275900 -741.175171 0.402225 0.766996 0.499932 0.000000
48.021400 8.265200 -741.004822 0.599712 0.659850 0.452707 0.000000
47.882999 7.944300 -740.017700 -0.396181 0.867314 -0.301342 0.000000
47.710098 7.956700 -739.876099 -0.108020 0.714707 -0.691032 0.000000
49.135799 8.353900 -741.850281 0.390932 0.488259 0.780241 0.000000
48.916801 8.397300 -741.743774 0.492030 0.555843 0.670034 0.000000
48.800499 8.368500 -741.550415 -0.894123 0.093167 -0.438023 0.000000
48.638199 8.373400 -741.399719 0.507110 0.473857 0.719930 0.000000
48.402500 8.432500 -741.317871 0.278529 0.615946 0.736907 0.000000
48.210098 8.459800 -741.195923 0.454733 0.093745 0.885680 0.000000
48.026901 8.480400 -741.065430 -0.588807 0.235835 -0.773103 0.000000
47.908501 8.066700 -739.853516 -0.434378 0.842288 -0.319166 0.000000
47.744701 8.072300 -739.702820 -0.174097 0.876335 -0.449140 0.000000
47.568600 8.087100 -739.564087 -0.321424 0.872872 -0.367124 0.000000
49.048100 8.670200 -742.029175 0.659173 0.445568 0.605772 0.000000
48.957001 8.638200 -741.852783 0.916789 0.071561 0.392909 0.000000
48.868999 8.588500 -741.633118 -0.852162 0.212663 -0.478116 0.000000
48.766201 8.549700 -741.426819 -0.955902 0.277016 -0.097541 0.000000
48.473499 8.650700 -741.398376 0.313836 0.272964 0.909394 0.000000
48.264599 8.690100 -741.291870 -0.564322 0.359409 -0.743213 0.000000
48.102200 8.695200 -741.141785 -0.815883 0.109465 -0.567761 0.000000
47.958698 8.571000 -740.668884 -0.930700 0.333282 0.150737 0.000000
47.780399 8.470500 -740.223694 -0.382858 0.708205 -0.593183 0.000000
49.115601 8.960300 -742.531921 0.201907 0.956051 -0.212604 0.000000
48.916901 8.992200 -742.416077 0.432039 0.865594 0.253160 0.000000
48.986000 8.865600 -742.151489 -0.274401 0.897366 0.345597 0.000000
48.466499 8.828300 -741.530273 0.376182 0.529261 0.760507 0.000000
47.965599 8.544400 -740.276611 -0.303822 0.781029 -0.545607 0.000000
47.676102 8.572600 -740.059998 -0.508102 0.831579 -0.224297 0.000000
49.320301 8.943800 -742.530090 -0.031053 0.884345 -0.465800 0.000000
48.957901 8.774400 -741.717529 -0.888104 0.354942 -0.292041 0.000000
48.805302 8.772000 -741.557495 0.193886 0.933161 0.302685 0.000000
48.302799 8.913500 -741.424683 0.567695 0.507051 0.648554 0.000000
48.141701 8.917700 -741.273499 0.766192 0.379029 0.518928 0.000000
48.651001 8.727900 -741.452881 0.156080 0.653112 0.741002 0.000000
49.038502 8.825500 -741.917419 -0.833684 0.531603 0.149560 0.000000
49.491699 9.037700 -742.339294 -0.199660 0.964372 -0.173561 0.000000
49.334900 9.055600 -742.229370 0.307176 0.869568 -0.386645 0.000000
49.118500 9.138700 -742.231323 -0.095120 0.498317 -0.861761 0.000000
48.937599 9.156300 -742.096497 -0.670397 0.502378 -0.546063 0.000000
48.672699 9.275900 -742.146118 0.263994 0.477041 -0.838295 0.000000
48.683399 9.189700 -741.929810 0.449089 0.820421 0.353876 0.000000
48.678398 9.115000 -741.728271 -0.082254 0.792239 0.604641 0.000000
48.444099 9.251300 -741.852295 -0.788730 0.358221 0.499582 0.000000
48.422699 9.188900 -741.666504 0.605741 0.332914 0.722666 0.000000
48.265701 9.188800 -741.508972 0.557132 0.644658 0.523469 0.000000
49.096802 9.549800 -742.371216 -0.826719 0.305902 0.472187 0.000000
48.986500 9.514800 -742.168579 -0.658815 0.578349 -0.481119 0.000000
48.853901 9.496300 -741.987122 0.348961 0.843454 0.408426 0.000000
48.588799 9.576800 -741.934326 -0.088457 0.213045 -0.973030 0.000000
48.383400 9.612900 -741.823792 -0.659344 0.230222 -0.715725 0.000000
48.249401 9.595500 -741.643921 -0.696231 0.597006 -0.398555 0.000000
48.129398 9.155300 -740.363525 0.786321 0.064453 0.614447 0.000000
49.139500 10.187300 -743.093323 -0.970351 0.228538 -0.078677 0.000000
49.091900 10.082800 -742.769409 -0.374637 0.920812 -0.108411 0.000000
48.984100 10.046300 -742.564880 -0.597706 0.798375 0.073101 0.000000
48.959999 9.986400 -742.382324 -0.292910 0.937035 0.190183 0.000000
48.827900 9.967800 -742.200623 0.350250 0.848384 0.396950 0.000000
48.567501 10.083900 -742.246582 0.328789 0.261570 0.907457 0.000000
48.369400 10.114600 -742.129517 -0.678839 0.199477 -0.706673 0.000000
48.245201 10.090200 -741.940430 -0.795929 0.602286 -0.061225 0.000000
48.222198 10.029100 -741.755615 -0.678793 0.730897 0.070919 0.000000
48.157600 9.959600 -741.507080 0.840854 0.174742 0.512279 0.000000
48.367401 9.564400 -740.672424 -0.990755 0.044261 -0.128242 0.000000
48.502998 9.422400 -740.432678 -0.415161 0.346229 0.841289 0.000000
49.282299 10.177500 -742.772522 -0.136149 0.197225 -0.970858 0.000000
49.211899 10.128900 -742.573425 -0.479252 0.867287 -0.134654 0.000000
48.765999 10.226600 -742.384705 -0.175930 0.699131 -0.693011 0.000000
48.490398 10.276000 -742.238770 0.620093 0.085680 0.779836 0.000000
48.318501 9.813800 -740.843018 0.718125 0.685415 0.120431 0.000000
49.556499 10.324700 -743.127991 0.149985 0.323363 -0.934313 0.000000
49.399700 10.333000 -742.992310 0.518244 0.672543 0.528307 0.000000
49.067299 10.385200 -742.796692 0.149021 0.047363 0.987699 0.000000
48.903198 10.390400 -742.645508 -0.778804 0.231620 -0.582937 0.000000
48.746498 10.390000 -742.487122 0.531818 0.357239 0.767822 0.000000
48.382599 10.387900 -742.115784 0.800074 0.176954 0.573210 0.000000
48.292000 10.337900 -741.892517 -0.979631 0.168393 -0.109394 0.000000
48.271702 10.274300 -741.703674 -0.955877 0.288159 0.057124 0.000000
48.154900 10.045500 -740.979980 0.037658 0.989384 -0.140362 0.000000
49.762001 10.310100 -743.028076 0.410967 0.906341 -0.098245 0.000000
49.496300 10.335200 -742.827576 0.001264 0.933865 -0.357624 0.000000
48.594398 10.538000 -742.458496 0.564265 0.341146 0.751814 0.000000
48.448799 10.529300 -742.289001 0.686283 0.297336 0.663782 0.000000
49.282398 10.396600 -742.796082 0.359831 0.929674 0.078922 0.000000
49.063499 10.515400 -742.646484 0.297176 0.033855 0.954222 0.000000
48.858299 10.550300 -742.533325 -0.268173 0.035839 -0.962704 0.000000
48.337799 10.544100 -741.994629 -0.986801 0.142656 -0.076633 0.000000
48.426498 10.074600 -740.838989 -0.650286 0.739031 0.175960 0.000000
49.188000 10.907900 -743.435486 -0.939753 0.251249 -0.231815 0.000000
49.124199 10.858700 -743.241394 -0.293199 0.927756 0.230877 0.000000
49.178600 10.738800 -742.978088 0.522824 0.788233 0.324567 0.000000
49.172401 10.664100 -742.773804 -0.709037 0.556270 -0.433393 0.000000
48.979900 10.689000 -742.647217 0.400915 0.445998 0.800220 0.000000
48.779301 10.799800 -742.740112 0.347061 0.880535 0.322812 0.000000
48.617802 10.801700 -742.583618 0.628303 0.424979 0.651635 0.000000
48.428299 10.824800 -742.455017 0.600957 0.670874 0.434487 0.000000
48.354500 10.720500 -742.104675 -0.979253 0.101725 -0.175260 0.000000
49.648102 10.992900 -743.360107 -0.181825 0.891672 0.414562 0.000000
49.429600 11.035300 -743.253784 0.082210 0.882013 -0.463998 0.000000
49.213902 11.077600 -743.149780 0.135944 0.981003 -0.138394 0.000000
49.019001 11.104300 -743.025513 0.485559 0.660293 0.572926 0.000000
48.812099 11.140300 -742.913513 0.262571 0.922584 0.282658 0.000000
48.627899 11.159300 -742.779175 -0.728225 0.469448 -0.499307 0.000000
48.510601 11.127900 -742.578186 -0.842492 0.462211 -0.276708 0.000000
48.262402 10.833600 -741.547424 -0.242857 0.530574 -0.812103 0.000000
49.369301 11.566600 -743.742920 0.122095 0.804653 0.581056 0.000000
49.209400 11.577100 -743.610229 0.838663 0.273376 0.471072 0.000000
49.113300 11.530200 -743.388794 -0.347300 0.878109 -0.329101 0.000000
48.999802 11.496000 -743.184082 0.183537 0.876575 0.444895 0.000000
48.806702 11.561200 -743.164001 0.556430 0.156636 0.815997 0.000000
48.627602 11.576400 -743.024475 -0.587425 0.006846 -0.809250 0.000000
48.484501 11.564400 -742.849121 0.904910 0.231692 0.357010 0.000000
49.485600 11.803800 -743.938477 0.868371 0.317024 0.381348 0.000000
49.280499 11.835100 -743.815979 -0.736778 0.580640 -0.346432 0.000000
49.236599 11.709500 -743.436890 -0.112287 0.949820 0.291947 0.000000
49.009800 11.759800 -743.343628 0.192341 0.626261 0.755514 0.000000
48.807598 11.791900 -743.226379 0.391813 0.218652 0.893686 0.000000
48.639400 11.798600 -743.075623 -0.832772 0.443832 -0.330913 0.000000
48.471401 11.443900 -741.960693 -0.932944 0.349352 -0.087003 0.000000
49.455898 11.998000 -744.143921 0.405593 0.405593 0.819139 0.000000
49.237499 11.876000 -743.598877 0.982281 0.075560 0.171509 0.000000
48.662998 11.947600 -743.213928 0.533016 0.489573 0.690081 0.000000
49.408298 11.973200 -743.881287 -0.044014 0.059043 0.997285 0.000000
49.071301 11.946000 -743.470886 0.114632 0.082211 0.990000 0.000000
48.813900 12.019100 -743.407898 0.419825 0.491702 0.762873 0.000000
48.504501 12.011300 -743.076904 -0.954189 0.081345 -0.287935 0.000000
48.641300 11.543900 -741.966309 -0.939108 0.119915 -0.322019 0.000000
48.457298 11.536900 -741.763123 -0.531426 0.609031 -0.588786 0.000000
49.331001 12.254000 -744.313416 0.397563 0.846576 0.353909 0.000000
49.247101 12.179100 -744.029419 0.143073 0.902354 0.406555 0.000000
49.271000 12.081400 -743.792419 0.780583 0.217945 0.585824 0.000000
49.094501 12.093500 -743.648071 0.111822 0.979365 0.168347 0.000000
48.488701 12.268000 -743.507385 -0.237535 0.832138 -0.501122 0.000000
48.333401 11.941100 -742.479309 0.851881 0.428260 -0.301483 0.000000
49.250401 12.534000 -744.536011 0.453278 0.822849 0.342722 0.000000
49.350800 12.339500 -744.117004 -0.895181 0.441440 0.061501 0.000000
49.180599 12.306700 -743.859314 0.219118 0.944000 0.246680 0.000000
48.950500 12.358900 -743.768677 0.381697 0.840361 0.384838 0.000000
48.790100 12.358800 -743.608215 0.479050 0.596711 0.643776 0.000000
48.520199 11.995600 -742.368774 0.288002 0.902407 0.320495 0.000000
48.510201 11.921600 -742.161072 0.914741 0.358190 0.186944 0.000000
48.666698 11.761800 -741.890808 -0.658053 0.614738 -0.434815 0.000000
48.557499 11.721600 -741.674377 0.969059 0.131853 0.208661 0.000000
49.686298 12.778800 -744.901184 -0.120698 0.689915 -0.713757 0.000000
49.511101 12.821600 -744.840698 -0.109575 0.990787 0.079586 0.000000
49.382801 12.797900 -744.649109 -0.650895 0.755270 0.076832 0.000000
49.371601 12.726800 -744.447571 -0.816855 0.566411 0.109205 0.000000
49.365501 12.651600 -744.240417 0.922649 0.353147 0.154938 0.000000
49.301800 12.579200 -743.983093 0.341079 0.831478 0.438530 0.000000
49.071800 12.671100 -743.999023 0.318428 0.899005 0.300656 0.000000
48.876701 12.697000 -743.873291 0.567133 0.577291 0.587448 0.000000
48.728001 12.688200 -743.700989 0.451968 0.788920 0.416329 0.000000
48.579300 12.355800 -742.663025 -0.192510 0.476052 0.858088 0.000000
48.656898 12.256500 -742.474792 0.617078 0.768695 0.168294 0.000000
48.735500 12.156200 -742.285217 0.545668 0.552426 0.630137 0.000000
48.515499 12.200300 -742.183228 0.198669 0.937772 -0.284805 0.000000
48.237801 12.165400 -741.812317 0.618681 0.257916 0.742101 0.000000
49.616100 12.901800 -744.664978 -0.392264 0.862980 -0.318426 0.000000
49.456100 12.901400 -744.503784 -0.952786 0.265181 -0.147915 0.000000
49.460602 12.818400 -744.285889 0.831841 0.191731 0.520844 0.000000
49.238400 12.864200 -744.186279 0.270655 0.897745 0.347562 0.000000
49.066200 12.952700 -744.251221 0.324008 0.874670 0.360516 0.000000
48.913399 12.947000 -744.083008 0.600180 0.596799 0.532555 0.000000
48.774300 12.930900 -743.900879 0.783201 0.366570 0.502218 0.000000
48.665199 12.609800 -742.931519 -0.888085 0.459354 0.017309 0.000000
48.652699 12.538100 -742.726685 0.847815 0.476420 0.232883 0.000000
49.640999 13.132700 -744.872681 0.623672 0.311030 0.717142 0.000000
49.480999 13.119500 -744.677490 -0.836911 0.489862 -0.244163 0.000000
49.331200 13.071600 -744.398987 0.629332 0.710223 0.315475 0.000000
49.120998 13.148300 -744.394409 0.417424 0.670206 0.613662 0.000000
48.951000 13.155200 -744.242920 0.651295 0.496465 0.573880 0.000000
48.811100 13.139600 -744.061279 0.616875 0.579694 0.532372 0.000000
48.645401 12.820900 -743.040588 -0.240153 0.445567 -0.862436 0.000000
48.430302 12.942300 -743.151123 0.543270 0.830280 -0.124469 0.000000
49.609001 13.591700 -745.317810 0.342700 0.897548 0.277424 0.000000
49.547298 13.425300 -744.808594 0.997957 0.061913 0.015741 0.000000
49.668598 13.256200 -744.475281 -0.947750 0.256994 0.189006 0.000000
49.342999 13.417600 -744.583923 -0.052808 0.437358 -0.897735 0.000000
49.080700 13.532500 -744.630371 0.284989 0.910504 0.299604 0.000000
48.939201 13.518300 -744.450684 0.714808 0.216467 0.664974 0.000000
48.796799 13.504700 -744.271729 0.788879 0.141670 0.597997 0.000000
48.736000 13.309900 -743.687378 -0.828097 0.548669 0.114973 0.000000
48.739300 13.106200 -743.142883 0.980945 0.193867 -0.012770 0.000000
48.749199 13.017800 -742.915283 -0.354699 0.815966 0.456496 0.000000
48.602901 13.006000 -742.737183 -0.232021 0.872697 -0.429612 0.000000
49.588501 13.924500 -745.542114 -0.625226 0.402997 -0.668345 0.000000
49.471100 13.912500 -745.392517 -0.426015 0.895904 -0.125964 0.000000
49.443199 13.854300 -745.208008 -0.302507 0.952710 0.028870 0.000000
49.362099 13.795700 -744.969177 0.810397 0.263886 0.523088 0.000000
49.157299 13.828100 -744.851929 0.509283 0.012158 0.860513 0.000000
49.013901 13.815200 -744.674194 0.827370 0.241894 0.506899 0.000000
48.907501 13.774900 -744.459412 -0.938288 0.227253 -0.260713 0.000000
48.940399 13.310300 -743.241394 -0.962220 0.233701 -0.139698 0.000000
48.837200 13.266300 -743.019775 -0.127171 0.958368 -0.255652 0.000000
48.649101 13.326100 -742.993103 0.814071 0.441287 -0.377563 0.000000
48.417500 13.432100 -743.047424 0.479496 0.728369 -0.489451 0.000000
48.812500 13.612300 -743.734680 -0.920884 0.366969 0.131555 0.000000
49.262001 13.973700 -745.016296 0.458549 0.332487 0.824127 0.000000
48.901699 13.962900 -744.626404 0.811457 0.256987 0.524877 0.000000
49.019901 13.314500 -742.996521 -0.305956 0.944591 0.118909 0.000000
49.501099 14.241700 -745.667786 0.501231 0.747738 -0.435495 0.000000
49.645302 14.096600 -745.420898 -0.628796 0.774894 -0.064455 0.000000
49.624901 14.032700 -745.228577 0.816287 0.484720 0.314200 0.000000
49.394001 14.084200 -745.136475 0.249915 0.943051 0.219539 0.000000
49.122700 14.126200 -744.978271 0.458537 0.511509 0.726707 0.000000
48.951801 14.133700 -744.827698 0.659393 0.491609 0.568790 0.000000
48.801102 13.927100 -744.120483 -0.645738 0.595421 0.478014 0.000000
48.811501 13.718900 -743.569885 -0.457949 0.873469 0.165330 0.000000
48.964298 13.547300 -743.260315 0.926891 0.192692 -0.322091 0.000000
49.759300 15.279300 -746.561523 0.654929 0.018154 0.755472 0.000000
49.641602 15.240500 -746.339417 0.903409 0.336391 0.265881 0.000000
49.610401 15.185700 -746.159912 -0.286211 0.947318 0.143777 0.000000
49.421299 15.206600 -746.028320 0.429433 0.505118 0.748628 0.000000
49.239498 15.261300 -745.994995 0.622323 0.384619 0.681749 0.000000
49.107800 15.240500 -745.807678 0.655195 0.517082 0.550768 0.000000
49.022499 15.185800 -745.574829 0.869310 0.172097 0.463338 0.000000
48.903702 15.155300 -745.374084 -0.920483 0.116952 -0.372871 0.000000
49.053600 14.730100 -744.373596 -0.846816 0.448859 0.285357 0.000000
49.158501 14.590100 -744.099426 -0.480593 0.500548 -0.720057 0.000000
49.644299 15.821200 -746.987000 -0.391934 0.733032 0.555924 0.000000
49.709000 15.696000 -746.712219 -0.736865 0.643787 -0.206322 0.000000
49.640202 15.630200 -746.465271 -0.381903 0.918483 0.102662 0.000000
49.440300 15.659000 -746.344421 0.453758 0.764999 0.457034 0.000000
49.242802 15.686200 -746.221375 -0.344587 0.160435 -0.924944 0.000000
49.072601 15.693600 -746.072083 0.664677 0.457070 0.591010 0.000000
48.932800 15.679000 -745.893188 0.847982 0.278557 0.450923 0.000000
48.989201 15.286600 -744.885986 0.189859 0.980340 -0.053734 0.000000
48.902500 15.232200 -744.652222 -0.817415 0.434999 0.377636 0.000000
49.785000 16.200100 -747.366577 -0.705120 0.680324 -0.199913 0.000000
49.671398 16.173401 -747.181091 0.944762 0.320985 0.066276 0.000000
49.705502 16.072599 -746.941223 0.656805 0.701551 0.276465 0.000000
49.644001 16.001900 -746.687988 0.716043 0.480131 0.506712 0.000000
49.383400 16.074400 -746.625488 0.320250 0.865747 0.384606 0.000000
49.202301 16.128201 -746.591309 0.325861 0.887484 0.325861 0.000000
49.071400 16.107401 -746.404602 0.466194 0.834160 0.294685 0.000000
49.053501 16.043301 -746.212708 0.646223 0.678943 0.348470 0.000000
49.143902 15.589800 -745.070679 0.970668 0.091667 -0.222262 0.000000
49.176201 15.488100 -744.826477 -0.727224 0.684362 0.052863 0.000000
49.062099 15.453700 -744.619385 -0.710974 0.394253 -0.582306 0.000000
49.831402 16.608601 -747.823730 0.801178 0.301824 0.516736 0.000000
49.710701 16.582899 -747.633179 -0.761179 0.260030 -0.594130 0.000000
49.602001 16.547001 -747.426819 -0.502490 0.856681 0.116624 0.000000
49.592098 16.478100 -747.229370 -0.543937 0.838627 0.028918 0.000000
49.338402 16.545799 -747.160706 -0.284258 0.957962 -0.038819 0.000000
49.246601 16.497499 -746.937378 0.745614 0.391652 0.539136 0.000000
49.139099 16.460199 -746.728699 -0.816907 0.020734 -0.576396 0.000000
49.015900 16.434200 -746.534790 -0.940210 0.223595 -0.256926 0.000000
49.131401 16.004000 -745.478027 -0.936480 0.329327 0.120618 0.000000
49.107700 15.943600 -745.289673 -0.301014 0.951717 0.060203 0.000000
48.884399 15.960000 -745.111694 -0.359795 0.900223 0.245248 0.000000
49.115700 16.153900 -745.609314 0.935500 0.207734 0.285808 0.000000
49.796902 16.881701 -747.916382 -0.359858 0.029666 0.932535 0.000000
49.792801 16.805300 -747.703979 -0.877761 0.103183 -0.467856 0.000000
49.798000 16.725901 -747.492676 0.749730 0.079758 0.656920 0.000000
49.620098 16.738899 -747.351318 0.448889 0.254117 0.856693 0.000000
49.425900 16.763800 -747.225525 0.555297 0.388216 0.735482 0.000000
49.256199 16.771000 -747.076416 0.614319 0.358762 0.702781 0.000000
49.089500 16.776300 -746.924622 0.676744 0.466201 0.569802 0.000000
49.044201 16.694201 -746.655701 0.950171 0.252748 0.182465 0.000000
48.985401 16.263700 -745.423584 -0.846843 0.138947 0.513371 0.000000
49.751301 17.207300 -748.282410 -0.369548 0.928440 0.037869 0.000000
49.777100 17.078400 -747.956726 -0.623768 0.643835 0.443159 0.000000
49.754700 17.018801 -747.771973 0.966201 0.191160 0.172954 0.000000
49.683102 16.956200 -747.530273 0.421099 0.667434 0.614172 0.000000
49.451500 17.045500 -747.543579 0.506827 0.614590 0.604488 0.000000
49.300499 17.039400 -747.377197 0.534958 0.602461 0.592335 0.000000
49.183899 17.008900 -747.177917 0.780704 0.181099 0.598083 0.000000
49.060600 16.982901 -746.984619 -0.908265 0.418297 -0.009122 0.000000
49.005001 16.754900 -746.307922 0.986032 0.165672 0.017138 0.000000
49.069099 16.631800 -746.035706 -0.991705 0.003295 0.128493 0.000000
49.104900 16.490101 -745.684875 0.888421 0.418681 -0.188188 0.000000
49.168098 16.360201 -745.393616 0.970852 0.081008 -0.225577 0.000000
49.864300 17.588600 -748.671326 -0.902281 0.250878 0.350642 0.000000
49.762402 17.554899 -748.478516 -0.933508 0.246401 -0.260481 0.000000
49.752998 17.448999 -748.180115 0.893395 0.444646 0.064303 0.000000
49.771099 17.360901 -747.957825 -0.297233 0.943274 0.147938 0.000000
49.614300 17.358999 -747.797180 0.116806 0.619517 0.776244 0.000000
49.445400 17.441200 -747.854187 0.266863 0.837609 0.476650 0.000000
49.235298 17.477301 -747.744812 0.509507 0.725259 0.463037 0.000000
49.148102 17.426001 -747.518311 -0.894931 0.375959 -0.240319 0.000000
49.069698 17.368200 -747.283020 -0.339195 0.928979 0.148138 0.000000
49.264099 16.885000 -746.157227 0.963865 0.184403 -0.192250 0.000000
49.271599 16.802601 -745.939697 0.170049 0.923326 0.344315 0.000000
50.056999 17.739799 -748.552307 -0.897343 0.292193 -0.330756 0.000000
49.914200 17.728201 -748.379272 -0.535522 0.478800 -0.695678 0.000000
49.674702 17.784901 -748.297180 0.063037 0.522508 -0.850301 0.000000
49.469299 17.892700 -748.388428 0.225206 0.908090 -0.353065 0.000000
49.368999 17.851200 -748.175720 0.435844 0.504921 0.745047 0.000000
49.000900 17.924500 -748.011719 0.267562 0.854669 0.444917 0.000000
49.067699 17.839300 -747.845215 0.590407 0.712107 0.379900 0.000000
49.096401 17.743401 -747.611389 0.650343 0.731054 0.206433 0.000000
49.076099 17.644199 -747.320496 0.997249 0.071308 -0.020222 0.000000
49.209499 17.320299 -746.567627 0.743604 0.666532 0.052809 0.000000
49.322102 17.163000 -746.249329 -0.520089 0.719485 0.460271 0.000000
49.473598 17.015900 -745.997314 0.564443 0.800009 0.203444 0.000000
49.480598 20.497101 -754.586670 0.723389 0.159237 0.671827 0.000000
49.320202 20.512100 -754.468994 -0.595257 0.277787 0.753992 0.000000
48.984402 20.716000 -754.694824 0.026352 0.053758 -0.998206 0.000000
48.762699 20.786100 -754.667603 -0.320565 0.217984 -0.921803 0.000000
48.585899 20.826500 -754.603027 -0.792171 0.456588 -0.404959 0.000000
48.696301 20.721901 -754.425720 0.540346 0.787542 0.296319 0.000000
48.769798 18.395399 -748.126587 0.149587 0.898949 0.411721 0.000000
48.811798 18.290400 -747.880615 0.085167 0.923321 0.374466 0.000000
49.217098 17.812500 -746.973022 0.990000 0.114632 0.082211 0.000000
49.303799 17.674400 -746.680603 0.272771 0.900883 0.337647 0.000000
49.480801 17.497801 -746.372070 -0.469701 0.566650 0.676971 0.000000
49.549198 21.015200 -754.725830 0.040352 0.836263 0.546841 0.000000
48.407398 21.200600 -754.104187 -0.992565 0.109532 -0.053072 0.000000
49.051102 20.543301 -752.934814 -0.312809 0.899882 0.303914 0.000000
48.464100 19.159901 -748.549622 0.360822 0.867509 0.342397 0.000000
48.377102 19.123699 -748.364014 0.826658 0.535602 0.172533 0.000000
48.691002 18.788300 -747.752808 -0.250400 0.480829 0.840299 0.000000
50.320599 20.935499 -753.862183 -0.125488 0.977813 -0.167732 0.000000
49.556999 21.358900 -754.273071 0.874488 0.465337 0.136864 0.000000
49.348499 21.396799 -754.170471 -0.020393 0.855148 -0.517983 0.000000
48.938301 21.503099 -754.056396 -0.033097 0.909505 -0.414374 0.000000
48.782799 21.504999 -753.907104 -0.165813 0.667816 -0.725622 0.000000
48.176998 19.952600 -749.014526 -0.325653 0.500394 0.802219 0.000000
48.098801 19.893801 -748.774292 -0.456753 0.746965 -0.483136 0.000000
49.662201 21.688601 -754.415588 0.274244 0.941251 0.197070 0.000000
46.638401 21.733299 -751.542114 -0.044062 0.703572 0.709257 0.000000
48.057098 20.281500 -748.932190 -0.182829 0.434402 -0.881968 0.000000
47.787701 20.361401 -748.885986 0.392832 0.916608 0.074247 0.000000
48.779800 22.301300 -754.456970 0.742996 0.426687 0.515649 0.000000
48.636902 22.293301 -754.293579 0.033474 0.898432 0.437835 0.000000
48.692501 22.185499 -754.050171 -0.510383 0.858055 -0.057018 0.000000
46.869499 21.891800 -751.433716 0.150981 0.987713 0.040338 0.000000
47.703400 21.050800 -749.930176 0.548605 0.093594 0.830827 0.000000
47.551201 21.048300 -749.772888 0.735465 0.055913 0.675252 0.000000
49.038502 22.429399 -754.282593 -0.725734 0.564460 0.393312 0.000000
47.612900 21.423901 -750.080383 0.102361 0.969273 0.223678 0.000000
47.373600 21.483400 -750.008423 -0.199686 0.357710 0.912233 0.000000
47.393002 21.396500 -749.786621 0.320267 0.878837 0.353660 0.000000
47.478199 21.226000 -749.397827 -0.977002 0.094867 0.190965 0.000000
47.504799 21.133400 -749.167419 -0.974198 0.196340 -0.111301 0.000000
46.751400 22.826099 -752.389709 0.233189 0.972219 -0.020329 0.000000
46.554699 22.834400 -752.218018 0.173302 0.965542 -0.194151 0.000000
48.130699 21.424101 -749.861816 0.297171 0.940814 0.162965 0.000000
47.178902 21.877001 -750.176880 0.199740 0.153349 0.967775 0.000000
46.951801 21.964800 -750.195801 0.371001 0.266704 0.889509 0.000000
46.818600 21.913200 -749.920471 -0.919282 0.167526 -0.356169 0.000000
46.932400 21.759100 -749.605103 0.582376 0.783196 0.217812 0.000000
49.579399 21.064600 -749.629822 0.115239 0.459533 0.880653 0.000000
49.629700 20.955799 -749.377380 -0.300684 0.855794 0.420958 0.000000
49.656502 20.863300 -749.146912 -0.963990 0.020770 0.265128 0.000000
49.770599 20.740601 -748.918823 -0.689852 0.272436 0.670733 0.000000
46.804600 22.321199 -750.380920 0.304017 0.891083 0.336964 0.000000
46.587898 22.401800 -750.390930 0.390558 0.782736 0.484551 0.000000
46.490601 22.361300 -750.182617 0.318229 0.891936 0.321217 0.000000
46.363701 22.341801 -750.003174 -0.297999 0.952830 -0.057553 0.000000
45.951199 22.489201 -750.005310 0.525204 0.626529 0.575866 0.000000
45.290100 22.887800 -750.460022 0.144964 0.910597 -0.387039 0.000000
45.681099 23.289700 -750.801392 0.178928 0.168630 0.969303 0.000000
45.499298 23.346300 -750.780029 -0.813664 0.540911 -0.212993 0.000000
44.217999 24.051500 -751.480713 -0.545366 0.770592 -0.329794 0.000000
46.404400 24.088699 -750.560791 0.295790 0.756264 0.583586 0.000000
46.103699 24.192499 -750.556030 0.282193 0.601054 0.747731 0.000000
45.901001 24.263300 -750.554688 0.290670 0.779885 0.554338 0.000000
45.662399 24.329100 -750.504395 -0.278008 0.925269 -0.258049 0.000000
43.950802 25.135799 -751.081787 -0.511478 0.534956 -0.672468 0.000000
43.845100 25.108801 -750.901978 -0.565256 0.662540 -0.491454 0.000000
52.287300 23.285400 -751.085327 0.050875 0.996929 0.059534 0.000000
53.309799 24.153299 -753.206909 -0.998443 0.026192 -0.049241 0.000000
52.708401 23.707701 -751.367676 -0.804816 0.592802 -0.029291 0.000000
52.655602 23.628201 -751.092712 -0.517988 0.675563 0.524693 0.000000
53.458401 24.231300 -752.233582 -0.472398 0.845424 -0.249194 0.000000
53.249298 24.195400 -751.928528 -0.619093 0.700768 -0.354468 0.000000
53.046200 24.050100 -751.319824 -0.011691 0.915826 0.401405 0.000000
53.193699 24.211201 -751.378601 -0.723300 0.603021 0.336456 0.000000
53.530998 24.309700 -752.600891 -0.178573 0.981552 -0.068313 0.000000
53.395699 24.202900 -752.901672 -0.192250 0.963865 0.184403 0.000000
52.801300 23.786800 -751.152527 -0.916513 0.339927 0.210841 0.000000
52.507000 23.483000 -750.980408 -0.713406 0.533807 -0.453985 0.000000
52.369202 23.454000 -750.765198 -0.700802 0.709508 0.073998 0.000000
53.092400 23.845800 -753.489807 -0.418735 0.854467 -0.307485 0.000000
53.107899 23.588100 -753.185791 -0.773799 0.184674 -0.605913 0.000000
53.041801 23.527901 -752.953186 0.930231 0.307271 0.200638 0.000000
52.802898 23.617599 -752.972473 0.100346 0.990771 -0.091119 0.000000
52.202900 23.106501 -750.960083 -0.915891 0.347210 -0.201467 0.000000
53.988499 24.996500 -751.585388 -0.500631 0.863970 -0.054085 0.000000
54.596500 25.637199 -751.564087 -0.997049 0.059412 -0.048610 0.000000
54.497101 25.582001 -751.313293 0.618841 0.781160 0.082609 0.000000
54.468700 25.521200 -751.752014 -0.976545 0.010576 -0.215052 0.000000
54.290001 25.529800 -751.606018 -0.193082 0.848663 -0.492434 0.000000
54.327301 25.404600 -751.924988 -0.399048 0.906671 -0.136776 0.000000
54.245998 25.370701 -751.752197 -0.521964 0.820669 0.232497 0.000000
54.036201 25.131001 -751.892212 -0.496740 0.853449 -0.157719 0.000000
53.645901 24.733200 -751.903381 -0.297615 0.954589 0.013584 0.000000
53.405998 24.750200 -751.724121 0.128834 0.496518 0.858412 0.000000
53.060902 24.262501 -751.615479 -0.408938 0.879291 -0.244164 0.000000
52.070702 23.113300 -750.755127 -0.215358 0.975728 0.039703 0.000000
51.872002 23.144800 -750.656311 -0.278536 0.924170 -0.261396 0.000000
51.827000 22.879299 -750.857727 -0.262472 0.458942 -0.848812 0.000000
51.527401 23.024900 -750.978088 0.638354 0.467456 -0.611546 0.000000
51.349602 23.162100 -751.188599 0.251683 0.919004 0.303458 0.000000
52.054901 22.739700 -751.158630 -0.900900 0.418926 -0.113488 0.000000
51.749901 22.598200 -750.488281 0.189000 0.977116 0.097588 0.000000
51.609600 22.585899 -750.324280 0.265122 0.649312 -0.712814 0.000000
51.496201 22.542999 -750.476501 0.328833 0.843122 -0.425457 0.000000
51.598099 22.520800 -750.723083 -0.175304 0.979494 -0.099298 0.000000
44.027901 25.143200 -750.855286 0.727771 0.536339 0.427421 0.000000
43.891300 25.129400 -750.690430 0.559921 0.770490 0.304686 0.000000
52.229900 22.504601 -751.705872 0.151127 0.988483 0.007836 0.000000
52.044201 22.521500 -751.579407 -0.288951 0.907922 -0.303619 0.000000
51.506901 22.356100 -750.627319 -0.046549 0.397662 -0.916351 0.000000
51.220200 22.356600 -750.361877 0.366302 0.296961 0.881838 0.000000
43.411701 25.249901 -751.004578 0.882053 0.424035 -0.205369 0.000000
52.491600 22.362900 -752.157410 0.283928 0.857924 0.428195 0.000000
52.372101 22.329700 -751.955078 -0.326036 0.894739 0.305194 0.000000
52.306900 22.276100 -751.747986 -0.739793 0.672411 -0.023864 0.000000
52.235699 22.229000 -751.552673 0.123387 0.951271 0.282595 0.000000
51.985901 22.317400 -751.561279 0.438084 0.114099 0.891663 0.000000
51.375801 22.105700 -750.413574 0.342557 0.882801 0.321430 0.000000
51.175598 22.125401 -750.280884 0.402281 0.637359 0.657224 0.000000
52.000599 21.895201 -751.387390 0.717805 0.216431 0.661751 0.000000
51.813801 21.913000 -751.262085 0.306009 0.894142 0.326907 0.000000
51.632702 21.924400 -751.124573 0.300656 0.899005 0.318428 0.000000
51.428200 21.962000 -751.036682 0.548896 0.545519 0.633342 0.000000
51.071400 21.913601 -750.572876 0.315568 0.800814 -0.509032 0.000000
50.890800 21.988899 -750.609924 0.338941 0.937073 0.083738 0.000000
49.404900 22.803301 -751.447815 0.907580 0.080765 -0.412039 0.000000
49.248001 22.893299 -751.547424 0.544779 0.625737 -0.558272 0.000000
49.036499 23.007099 -751.660889 -0.117053 0.656387 0.745288 0.000000
47.097900 23.224899 -750.450623 -0.364682 0.119726 -0.923403 0.000000
46.902500 23.266600 -750.382629 -0.152777 0.651951 -0.742710 0.000000
46.617599 23.388300 -750.449280 0.269497 0.568937 -0.776970 0.000000
46.296902 23.557400 -750.611816 0.545574 0.472163 -0.692395 0.000000
51.866299 21.439199 -751.124023 0.305709 0.893267 0.329569 0.000000
51.878502 21.361900 -750.925171 0.305709 0.893267 0.329569 0.000000
51.674000 21.398899 -750.835815 0.305709 0.893267 0.329569 0.000000
51.460602 21.509899 -750.939270 0.305709 0.893267 0.329569 0.000000
51.253700 21.614000 -751.030273 0.118914 0.805971 0.579888 0.000000
50.551800 22.020599 -751.483582 0.209302 0.874319 -0.437902 0.000000
50.354698 22.051100 -751.383423 -0.008086 0.980726 -0.195221 0.000000
50.167900 22.069901 -751.260986 0.305709 0.893267 0.329569 0.000000
49.793499 22.238199 -751.370605 0.324417 0.003729 -0.945907 0.000000
49.337700 22.500999 -751.661926 0.491919 0.868174 0.065496 0.000000
51.624599 20.976400 -750.817688 0.356790 0.837749 0.413373 0.000000
51.432400 21.001801 -750.707825 0.527319 0.635142 0.564383 0.000000
51.466999 20.898500 -750.460083 0.325861 0.887484 0.325861 0.000000
50.599098 21.702700 -751.833374 -0.075957 0.931471 -0.355798 0.000000
49.988800 21.862200 -751.698975 0.305489 0.895605 0.323371 0.000000
49.771198 21.981400 -751.819702 0.212663 0.852162 0.478116 0.000000
49.567001 22.085600 -751.912476 0.305709 0.893267 0.329569 0.000000
49.377499 22.173300 -751.974304 0.305709 0.893267 0.329569 0.000000
49.192101 22.256599 -752.028015 0.098041 0.990787 -0.093427 0.000000
49.963600 20.797501 -748.790222 -0.373184 0.665813 0.646085 0.000000
50.067501 20.689800 -748.594788 -0.370585 0.831058 0.414740 0.000000
49.903500 20.700100 -748.470520 -0.767384 0.049830 0.639249 0.000000
46.333599 22.678900 -750.517273 0.280619 0.578678 0.765758 0.000000
46.115700 22.791500 -750.620422 0.380955 0.908870 -0.169789 0.000000
45.858398 22.931400 -750.760498 0.162049 0.983096 0.085226 0.000000
45.814899 22.815201 -750.405273 0.239045 0.886398 0.396429 0.000000
45.890999 22.726299 -750.234985 0.426928 0.780808 0.456148 0.000000
45.562199 22.842600 -750.244812 0.463452 0.402089 -0.789644 0.000000
45.221600 22.967600 -750.267029 0.283784 0.951665 0.117473 0.000000
51.331200 20.527800 -750.249023 0.398755 0.866261 -0.300976 0.000000
51.322899 20.427401 -749.970093 -0.233172 0.740203 -0.630659 0.000000
49.085800 22.604099 -753.774719 0.423871 0.526128 0.737239 0.000000
48.904099 22.640699 -753.705017 0.159551 0.913533 -0.374167 0.000000
48.700001 22.700399 -753.676880 0.146809 0.825989 -0.544233 0.000000
47.814701 23.147200 -754.062927 -0.611190 0.463834 -0.641331 0.000000
46.668800 22.047300 -750.029419 -0.130643 0.832296 0.538717 0.000000
51.188900 20.377701 -750.186218 0.310775 0.887284 0.340801 0.000000
48.528301 22.634300 -753.804810 0.027162 0.979020 0.201945 0.000000
48.333302 22.667101 -753.713013 0.376362 0.786644 0.489431 0.000000
48.083698 22.762800 -753.740173 0.419243 0.906797 0.044201 0.000000
47.833801 22.923100 -753.940918 0.825618 0.049060 -0.562093 0.000000
46.540100 22.821699 -752.473022 0.409449 0.854434 0.319834 0.000000
48.144901 21.451000 -750.264771 0.325065 0.891307 0.316077 0.000000
48.100101 21.399401 -750.084412 0.457281 0.851858 0.255405 0.000000
47.248798 21.647900 -749.967224 0.565715 0.606243 0.558960 0.000000
47.115700 21.628099 -749.791016 0.335538 0.879080 0.338575 0.000000
48.325901 21.335100 -750.128418 0.143372 0.938060 -0.315418 0.000000
47.307400 21.479500 -749.580688 0.380344 0.633907 -0.673424 0.000000
46.941399 22.050400 -751.119385 0.039504 0.875906 -0.480863 0.000000
47.324501 21.130301 -748.995911 0.004041 0.850028 -0.526721 0.000000
48.509998 22.348000 -753.814880 0.586586 0.640370 -0.495825 0.000000
48.320801 22.437599 -753.880981 0.344925 0.658790 -0.668598 0.000000
48.141399 22.516300 -753.927002 0.498017 0.669054 -0.551676 0.000000
47.902401 22.663099 -754.101074 0.747384 0.558502 -0.359851 0.000000
47.451900 21.137501 -749.576721 0.534024 0.769576 0.350101 0.000000
47.575100 20.979900 -749.266479 0.304992 0.903188 0.302045 0.000000
47.350498 21.022301 -749.172913 0.005204 0.998099 -0.061405 0.000000
47.506699 20.921700 -749.077271 0.657582 0.751727 0.049925 0.000000
48.880199 22.236099 -754.184326 -0.361587 0.352355 -0.863192 0.000000
48.679699 22.083099 -753.586609 -0.318204 0.775522 0.545264 0.000000
48.556499 22.067699 -753.963806 -0.620171 0.743258 -0.250909 0.000000
48.284698 22.128300 -753.874878 -0.155537 0.638758 0.753523 0.000000
49.849998 21.634199 -754.449585 0.282723 0.784991 -0.551231 0.000000
49.621700 21.605200 -754.158997 -0.297715 0.946547 0.124159 0.000000
49.566898 21.485300 -753.784973 -0.037869 0.928440 0.369548 0.000000
49.389099 21.561600 -753.825317 0.234079 0.971490 -0.037598 0.000000
49.218102 21.570101 -753.689087 0.045702 0.998004 -0.043576 0.000000
49.038399 21.588100 -753.570679 0.001094 0.992057 -0.125785 0.000000
49.800201 21.374100 -754.043274 0.649495 0.355014 0.672399 0.000000
49.225399 21.529699 -753.928101 -0.105746 0.886860 -0.449775 0.000000
49.044601 21.549801 -753.814026 -0.156047 0.953619 -0.257410 0.000000
48.855900 21.578600 -753.716187 0.089918 0.952609 -0.290604 0.000000
50.064301 21.025101 -753.802673 0.300151 0.909238 -0.288438 0.000000
49.807301 21.188200 -754.002991 0.604343 0.268068 -0.750273 0.000000
49.128300 21.459999 -754.103088 -0.086764 0.851992 -0.516316 0.000000
49.908001 21.458599 -754.209229 0.712287 0.655430 0.251117 0.000000
49.459599 21.566200 -754.034119 -0.247271 0.946733 -0.206287 0.000000
50.023399 17.504801 -748.255127 0.277779 0.801951 0.528879 0.000000
50.063801 17.394899 -747.996094 0.501999 0.864630 -0.020296 0.000000
49.655499 17.543900 -748.008789 0.690304 0.638083 0.341072 0.000000
49.398701 17.647400 -748.043396 0.299982 0.792017 0.531715 0.000000
49.237598 17.640600 -747.870728 0.749078 0.383515 0.540184 0.000000
48.969299 17.235500 -746.516602 0.134035 0.874830 0.465519 0.000000
50.087799 16.920700 -747.885986 0.494277 0.183674 0.849679 0.000000
48.972599 16.805901 -746.511719 -0.936297 0.343000 -0.075486 0.000000
48.871498 16.591700 -745.836670 0.291359 0.948579 0.123728 0.000000
48.828800 16.531200 -745.632813 -0.782614 0.532946 0.321688 0.000000
49.797298 16.752701 -747.282471 -0.374603 0.027220 0.926786 0.000000
50.095798 17.106300 -748.025208 0.663018 0.388552 0.639871 0.000000
49.994400 17.031000 -747.723694 -0.243673 0.292123 -0.924818 0.000000
49.533798 17.177401 -747.678284 0.533549 0.386700 0.752189 0.000000
49.914799 17.526899 -748.058228 0.026804 0.940679 0.338236 0.000000
49.549500 17.692499 -748.157288 0.083088 0.733212 0.674905 0.000000
49.015701 17.171700 -746.231506 0.387792 0.812288 0.435667 0.000000
49.382702 21.110800 -754.785278 -0.618106 0.783695 -0.061382 0.000000
50.115200 17.611601 -748.692200 0.208841 0.535059 -0.818595 0.000000
50.216900 16.385201 -747.380005 0.071485 0.915814 0.395189 0.000000
50.035500 16.414600 -747.286682 0.207519 0.937320 0.279942 0.000000
49.871899 16.408501 -747.115417 0.309395 0.860457 0.404831 0.000000
49.673599 16.443899 -747.021973 0.502218 0.783201 0.366570 0.000000
49.446400 16.514200 -746.994873 0.304578 0.546965 0.779783 0.000000
50.061298 15.065100 -745.983521 -0.156120 0.656312 0.738161 0.000000
49.870399 15.159300 -746.054382 0.311505 0.811178 0.494929 0.000000
49.428001 15.353000 -746.153625 -0.570333 0.775716 -0.270158 0.000000
49.050900 15.394300 -745.912170 0.587718 0.346770 0.730984 0.000000
49.086899 14.863400 -744.548279 -0.908737 0.411580 -0.069276 0.000000
49.859501 14.967600 -746.025208 0.164787 0.509208 -0.844720 0.000000
49.292801 15.098500 -745.849487 0.578703 0.514590 0.632693 0.000000
49.122299 14.431600 -743.958618 0.370585 0.831058 0.414740 0.000000
49.099800 14.327500 -743.667175 0.481165 0.356478 -0.800877 0.000000
49.648499 15.010300 -745.980286 -0.369236 0.293882 0.881645 0.000000
49.140202 15.064300 -745.663086 0.511041 0.688649 0.514392 0.000000
48.870602 14.730100 -744.559814 0.428995 0.215240 0.877288 0.000000
48.914700 14.595600 -744.252808 0.643790 0.579915 0.499232 0.000000
48.739799 14.592900 -744.088684 0.308563 0.886555 0.344688 0.000000
48.746101 14.921300 -744.681091 0.587518 0.712592 -0.383450 0.000000
48.605499 15.029200 -744.832825 0.742022 0.625934 0.240020 0.000000
49.956001 15.482800 -746.596619 0.962885 0.074652 -0.259384 0.000000
49.901001 15.399700 -746.339722 0.726997 0.579964 0.367583 0.000000
49.663898 15.399600 -746.135925 -0.096753 0.985448 -0.139754 0.000000
49.283298 15.510900 -746.090027 0.422289 0.507733 0.750919 0.000000
48.952301 15.477100 -745.720581 0.892380 0.450845 -0.019949 0.000000
48.935200 15.018000 -744.547729 0.438999 0.832367 0.338297 0.000000
48.718201 15.097100 -744.561096 -0.805199 0.040752 0.591603 0.000000
50.005001 16.266899 -747.029724 0.680930 0.427871 0.594357 0.000000
49.802700 16.298800 -746.939270 0.224903 0.777079 0.587850 0.000000
49.020699 16.308500 -746.304016 -0.916386 0.386064 0.105790 0.000000
48.930099 16.187000 -745.922424 -0.607528 0.755093 0.246465 0.000000
48.761299 15.671900 -744.486023 0.315137 0.849163 0.423805 0.000000
48.549999 15.721700 -744.432922 0.282444 0.921886 -0.265239 0.000000
49.860401 21.030500 -753.768616 0.614967 0.513877 0.598119 0.000000
48.380402 21.215300 -753.801270 -0.675367 0.688080 0.265379 0.000000
48.443901 21.119801 -753.617676 -0.711215 0.589667 0.382709 0.000000
49.468601 20.193399 -748.689575 -0.729698 0.501357 -0.464955 0.000000
47.220200 21.465401 -750.127686 0.531161 0.803792 -0.267931 0.000000
46.885700 21.412701 -749.754395 0.804421 0.131848 -0.579243 0.000000
46.944901 21.313601 -749.557190 0.347459 0.870944 0.347459 0.000000
50.664700 21.973000 -751.795410 -0.027785 0.999228 -0.027785 0.000000
48.147099 21.882200 -749.765686 0.177948 0.786318 0.591640 0.000000
47.807598 22.074100 -749.987305 0.654112 0.546495 -0.522954 0.000000
47.639900 22.168600 -750.095886 0.372922 0.351259 0.858805 0.000000
45.728401 22.938801 -750.590210 -0.242126 0.886805 -0.393640 0.000000
45.534901 22.960800 -750.504517 0.382387 0.271420 0.883239 0.000000
44.472599 23.498600 -751.045471 0.263523 0.891809 0.367741 0.000000
44.223801 23.570801 -751.041870 0.263523 0.891809 0.367741 0.000000
52.541698 22.614599 -752.351807 -0.696143 0.495814 -0.519186 0.000000
52.406601 22.589500 -752.195679 -0.738007 0.620561 -0.265048 0.000000
46.950001 23.340900 -750.169922 0.244426 0.943180 0.225093 0.000000
46.694401 23.464399 -750.289185 0.501704 0.793429 -0.344621 0.000000
46.451099 23.577700 -750.392517 0.533729 0.325366 -0.780558 0.000000
46.173401 23.721399 -750.545227 0.379308 0.805029 -0.456130 0.000000
46.005100 23.721300 -750.426086 -0.659600 0.410381 -0.629694 0.000000
53.341400 24.139400 -752.411682 -0.271756 0.961693 -0.035986 0.000000
53.481201 24.567801 -751.637085 0.665072 0.092087 0.741080 0.000000
53.337898 24.548800 -751.493225 -0.665813 0.373184 -0.646085 0.000000
53.839600 24.868000 -751.495483 -0.384266 0.919251 -0.085543 0.000000
53.663399 24.871300 -751.385681 -0.075746 0.995675 -0.053791 0.000000
53.520901 24.846001 -751.229126 -0.295146 0.942562 0.156414 0.000000
53.930099 24.935101 -751.758484 -0.916894 0.389850 -0.085577 0.000000
53.315800 24.252501 -752.664124 -0.978994 0.200545 -0.036786 0.000000
51.879200 23.032700 -750.429871 -0.957943 0.285265 0.031142 0.000000
45.564499 24.533800 -750.399475 0.164122 0.906238 0.389611 0.000000
45.549500 24.424000 -750.140320 -0.818077 0.541843 -0.192757 0.000000
53.148602 23.280899 -752.677185 -0.319802 0.943615 -0.085544 0.000000
52.988098 23.264900 -752.552490 -0.461585 0.729602 -0.504600 0.000000
52.823700 23.252501 -752.434021 -0.543624 0.516695 -0.661437 0.000000
45.937801 24.162701 -750.728088 -0.326890 0.433247 -0.839905 0.000000
45.716202 24.183701 -750.654419 0.303226 0.588804 0.749242 0.000000
45.501301 24.228399 -750.638428 0.215289 0.894842 0.391036 0.000000
52.926899 23.095400 -752.746277 -0.342390 0.931681 -0.121405 0.000000
52.800400 23.045700 -752.564270 0.845309 0.006762 0.534235 0.000000
52.663700 23.005600 -752.398376 -0.610436 0.539416 -0.579999 0.000000
52.497700 22.993799 -752.281128 0.239111 0.969932 0.045370 0.000000
52.417599 22.898300 -752.020203 0.677961 0.333290 0.655200 0.000000
52.266899 22.854799 -751.817383 0.380188 0.778172 0.499906 0.000000
53.140598 23.513800 -752.749817 0.052874 0.896139 0.440613 0.000000
53.192001 23.911699 -753.333496 -0.443546 0.896251 0.001308 0.000000
51.711700 23.009300 -750.680725 -0.262630 0.784743 -0.561430 0.000000
52.652699 23.033300 -752.170105 -0.223778 0.866578 0.446055 0.000000
52.442600 22.486500 -752.458374 0.002938 0.999995 -0.000979 0.000000
52.280701 22.482100 -752.357300 0.704874 0.689650 0.165942 0.000000
52.272400 22.376400 -752.110474 -0.454093 0.867987 0.200992 0.000000
52.171501 22.301001 -751.880920 0.090073 0.951640 0.293716 0.000000
51.758701 22.177500 -751.365723 -0.792424 0.079387 -0.604783 0.000000
51.614700 22.142000 -751.203430 -0.488674 0.708827 -0.508687 0.000000
50.971500 22.138100 -750.832825 -0.153521 0.977295 -0.146033 0.000000
48.379601 21.259001 -749.683228 0.283349 0.818737 0.499383 0.000000
46.953098 21.792101 -750.096313 0.518269 0.129932 0.845290 0.000000
46.665699 21.779600 -749.906311 0.258875 0.847089 0.464137 0.000000
46.499401 21.779100 -749.811584 0.291244 0.879767 0.375749 0.000000
49.423599 21.214399 -754.228088 0.106711 0.106711 -0.988547 0.000000
48.384701 21.356800 -753.972778 0.983020 0.072861 -0.168415 0.000000
48.312401 20.939800 -753.546082 -0.659600 0.410381 0.629694 0.000000
48.254902 20.821100 -753.247375 0.006596 0.890415 0.455101 0.000000
50.412701 18.308701 -748.801270 0.158479 0.900904 0.404050 0.000000
50.323502 18.206600 -748.522217 0.187046 0.912385 0.364097 0.000000
50.133099 18.209600 -748.422974 0.219312 0.629938 0.745037 0.000000
49.985901 18.292801 -748.528076 0.199757 0.949866 0.240524 0.000000
49.779400 18.373199 -748.593994 0.273213 0.910225 -0.311200 0.000000
49.529999 18.434999 -748.594116 0.166312 0.979395 -0.114571 0.000000
49.018600 18.633801 -748.756409 0.219548 0.891455 0.396366 0.000000
48.894199 18.572599 -748.549622 0.219548 0.891455 0.396366 0.000000
48.943298 18.461901 -748.328186 0.057256 0.920098 0.387480 0.000000
48.546700 21.097799 -754.244324 -0.729735 0.357521 -0.582808 0.000000
48.112999 20.824400 -753.389893 -0.473265 0.815156 -0.333977 0.000000
50.140499 18.896200 -750.419312 -0.131181 0.820985 -0.555676 0.000000
49.910999 18.910101 -750.323425 -0.430426 0.312331 -0.846867 0.000000
49.090302 20.901501 -754.703979 -0.145117 0.097144 0.984634 0.000000
48.582100 20.872900 -754.356079 0.772675 0.132501 0.620820 0.000000
50.257900 18.044100 -748.943970 0.450389 0.891254 0.053067 0.000000
50.151001 17.965900 -748.708984 -0.049205 0.957599 0.283873 0.000000
49.241901 17.996300 -748.269592 0.178435 0.925895 0.332985 0.000000
48.900799 17.838301 -747.724792 0.824916 0.105833 0.555260 0.000000
48.955299 17.410601 -746.795471 -0.848400 0.437335 -0.298254 0.000000
50.039101 17.737301 -748.816223 -0.134696 0.278728 0.950877 0.000000
48.993900 16.525400 -745.510498 0.392526 0.809084 0.437386 0.000000
50.108002 16.464500 -747.517273 0.423066 0.569065 0.705110 0.000000
49.615101 16.273701 -746.814209 0.489456 0.580283 0.650926 0.000000
48.904400 16.156099 -746.151978 0.865466 0.194470 0.461681 0.000000
49.661701 14.749700 -745.863525 0.219951 0.669213 0.709771 0.000000
49.725899 14.619800 -745.611816 0.191662 0.960952 0.199593 0.000000
49.418701 14.669600 -745.549377 0.222705 0.745984 0.627623 0.000000
49.181000 14.714600 -745.515503 0.308552 0.511089 0.802236 0.000000
49.001202 14.700800 -745.383911 0.698335 0.333703 0.633222 0.000000
48.838200 14.603700 -745.077026 -0.899828 0.388133 -0.199154 0.000000
48.818600 14.090400 -743.927979 -0.883227 0.466790 -0.044910 0.000000
48.761101 14.015200 -743.729004 -0.527133 0.849193 -0.031655 0.000000
49.665001 13.422100 -745.034119 0.967209 0.209927 0.142956 0.000000
49.606400 13.078700 -744.245605 -0.408715 0.597352 -0.690016 0.000000
49.183102 13.312000 -744.522522 0.156349 0.414541 0.896499 0.000000
48.977901 13.321600 -744.429077 0.534133 0.412515 0.737925 0.000000
