ply
format ascii 1.0
element vertex 690
property float x
property float y
property float z
property float nx
property float ny
property float nz
property float label
element face 0
property list uchar int vertex_indices
end_header
21.412201 33.433899 -754.599792 -0.318478 0.905535 -0.280319 1.000000
21.086500 31.371099 -756.080078 -0.996789 0.077991 0.018162 1.000000
20.968800 30.503201 -756.814575 -0.939051 0.278803 -0.201126 1.000000
20.818100 28.470699 -759.255188 -0.269045 0.721167 -0.638384 1.000000
20.789400 27.778799 -760.215881 -0.369155 0.752947 -0.544789 1.000000
20.778400 32.735001 -755.213501 -0.826964 0.234741 -0.510907 1.000000
20.324800 29.751600 -757.445923 0.311614 0.653904 -0.689425 1.000000
20.197201 27.097099 -761.015015 -0.958304 0.243860 -0.148952 1.000000
20.204599 26.496700 -762.030212 -0.155248 0.904427 -0.397378 1.000000
20.089300 31.824499 -755.582703 -0.989039 0.137334 0.054241 1.000000
19.947100 30.908199 -756.247314 -0.261913 0.636528 -0.725420 1.000000
19.742500 29.031900 -758.101807 0.258278 0.730467 -0.632226 1.000000
19.713699 28.179501 -759.310303 0.856827 0.382706 -0.345520 1.000000
19.639200 25.798300 -762.719299 0.836494 0.353116 -0.419031 1.000000
19.382700 30.125700 -756.906128 0.996050 0.024820 -0.085252 1.000000
19.221901 27.517300 -760.165222 0.879534 0.378668 -0.288149 1.000000
19.203501 26.684200 -761.392578 -0.744577 0.562099 -0.360069 1.000000
19.258499 32.697201 -754.632874 0.248298 0.785497 -0.566870 1.000000
18.745100 28.527700 -758.368774 -0.054989 0.986287 -0.155606 1.000000
18.675800 31.838100 -755.305481 0.871853 0.384954 -0.302790 1.000000
18.507900 30.874701 -755.887329 -0.043891 0.641376 -0.765970 1.000000
18.409201 29.661301 -757.254517 0.080721 0.514066 -0.853944 1.000000
18.286800 27.974899 -759.236328 0.006842 0.811489 -0.584327 1.000000
18.274599 27.046801 -760.636780 0.269105 0.819760 -0.505545 1.000000
18.263399 26.225100 -761.874695 -0.829903 0.467309 -0.304767 1.000000
17.814600 28.907101 -757.860901 -0.971985 0.211955 -0.101588 1.000000
17.747499 25.603701 -762.685486 -0.515181 0.491840 -0.701913 1.000000
17.698700 32.210300 -754.728882 0.057412 0.221097 -0.973560 1.000000
17.458300 30.459101 -756.133484 0.803691 0.376981 -0.460398 1.000000
17.258499 28.201401 -758.555786 -0.757250 0.529261 -0.382696 1.000000
17.247801 27.534500 -759.539124 -0.623866 0.686417 -0.373661 1.000000
17.260700 26.662201 -760.974670 -0.465977 0.794902 -0.388583 1.000000
17.079300 31.316099 -755.378479 -0.504884 0.545140 -0.669264 1.000000
16.900299 29.732500 -756.852783 -0.551683 0.555057 -0.622541 1.000000
16.813000 26.137100 -761.959229 -0.247213 0.806941 -0.536406 1.000000
16.296200 28.905001 -757.483521 0.110985 0.744341 -0.658512 1.000000
16.238300 27.786501 -758.892822 0.061197 0.898919 -0.433820 1.000000
16.273300 27.178101 -760.023804 0.705664 0.671241 -0.226876 1.000000
16.010599 31.252399 -754.896301 -0.157563 0.924461 -0.347196 1.000000
15.987100 30.549400 -755.843872 -0.049418 0.954144 -0.295240 1.000000
15.845700 26.681999 -760.992981 0.233238 0.868249 -0.437886 1.000000
15.859600 25.740000 -762.509399 -0.955200 0.246460 -0.163863 1.000000
15.402500 29.724800 -756.434570 -0.466723 0.684192 -0.560402 1.000000
15.266100 28.395700 -757.721619 -0.951146 0.262339 -0.162785 1.000000
15.264000 27.355000 -759.294312 -0.256899 0.841460 -0.475340 1.000000
14.852300 30.553499 -754.657471 -0.977562 0.174697 -0.117704 1.000000
14.854300 26.864401 -760.257324 -0.191180 0.907026 -0.375172 1.000000
14.989600 26.396400 -761.692200 -0.141454 0.893015 -0.427218 1.000000
14.368300 29.950600 -755.577026 -0.367277 0.742716 -0.559893 1.000000
14.336700 29.238400 -756.480530 0.424132 0.640356 -0.640356 1.000000
14.249500 27.970501 -757.924805 0.174370 0.783907 -0.595890 1.000000
14.570400 25.941900 -762.689880 0.972086 0.096333 -0.213934 1.000000
13.727000 28.503799 -757.074219 -0.009702 0.752627 -0.658376 1.000000
13.690400 27.300800 -758.677612 -0.222624 0.874063 -0.431802 1.000000
13.802200 26.923599 -759.832214 0.364125 0.872986 -0.324513 1.000000
13.913800 26.603001 -760.901184 0.588244 0.788886 -0.177841 1.000000
13.085800 29.597500 -754.943420 0.831715 0.537302 -0.139846 1.000000
13.149100 29.076599 -756.049072 -0.178789 0.824831 -0.536366 1.000000
13.089800 27.775101 -757.669983 -0.113516 0.782819 -0.611808 1.000000
13.499200 26.321899 -761.975281 0.732085 0.662362 -0.159149 1.000000
12.489200 28.389200 -756.638184 -0.175605 0.866220 -0.467788 1.000000
12.488500 27.154301 -758.460083 -0.337875 0.834474 -0.435309 1.000000
12.612000 26.854200 -759.548279 -0.973248 0.166226 -0.158613 1.000000
12.740200 26.567699 -760.640381 0.958791 0.267119 0.096782 1.000000
11.784000 28.973499 -755.045227 -0.466380 0.827550 -0.312490 1.000000
11.838100 27.631300 -757.304504 -0.293208 0.719401 -0.629676 1.000000
12.305500 26.298500 -761.695374 -0.342568 0.890077 -0.300682 1.000000
12.433900 26.013201 -762.782410 0.709846 0.704290 -0.009724 1.000000
11.271200 28.403500 -755.958313 -0.014865 0.863536 -0.504067 1.000000
11.296100 27.036501 -758.088318 -0.987550 0.107625 -0.114721 1.000000
11.399700 26.620199 -759.231812 -0.852681 0.493814 -0.170536 1.000000
11.577200 26.451500 -760.393677 -0.641268 0.726350 -0.247369 1.000000
10.762200 27.737700 -756.725098 -0.064455 0.774894 -0.628796 1.000000
11.400300 26.114201 -762.336182 -0.202021 0.956591 -0.210049 1.000000
10.216300 28.375099 -755.294006 -0.560237 0.718888 -0.411502 1.000000
10.351200 26.603201 -758.519592 -0.505497 0.772062 -0.385218 1.000000
10.791300 26.284401 -761.202026 -0.073532 0.953331 -0.292836 1.000000
9.758300 27.830099 -756.168274 0.323418 0.798189 -0.508228 1.000000
9.780900 27.191799 -757.192688 -0.094327 0.917294 -0.386877 1.000000
10.049000 26.419901 -759.639221 -0.252430 0.967446 0.018117 1.000000
9.303000 26.587601 -758.100220 0.224476 0.910937 -0.346127 1.000000
9.707800 26.158400 -760.734802 0.382285 0.921509 -0.068409 1.000000
9.948400 26.133699 -761.972900 -0.505894 0.861536 -0.042732 1.000000
8.657700 27.763800 -755.753601 -0.989039 0.137334 -0.054241 1.000000
8.718600 27.214899 -756.835876 -0.943579 0.270575 -0.190913 1.000000
8.887600 26.180000 -759.146118 -0.943579 0.270575 -0.190913 1.000000
9.492100 25.660200 -762.891174 -0.055922 0.678231 -0.732718 1.000000
8.608200 26.100901 -760.243713 -0.711877 0.678052 -0.182966 1.000000
8.847200 26.061701 -761.481018 -0.465506 0.878660 -0.106118 1.000000
7.867100 26.834999 -757.515808 -0.943879 0.269875 -0.190420 1.000000
7.959500 26.418800 -758.556885 0.069256 0.942141 -0.327985 1.000000
7.452600 27.377701 -756.366577 0.157800 0.581606 -0.798018 1.000000
8.239100 25.777300 -762.475220 0.080767 0.938755 -0.334986 1.000000
7.377000 26.007799 -759.507202 0.037245 0.941408 -0.335208 1.000000
7.599500 25.916000 -760.724304 -0.165678 0.986179 0.001127 1.000000
6.750800 27.194201 -757.288025 0.040497 0.968254 -0.246666 1.000000
6.803200 26.612801 -758.352783 0.053439 0.881054 -0.469987 1.000000
7.308800 25.862801 -761.857422 -0.010901 0.999928 -0.004955 1.000000
7.008200 25.494499 -762.894226 -0.756609 0.494012 -0.428362 1.000000
6.220200 26.254601 -759.284424 0.178108 0.913336 -0.366189 1.000000
6.354200 25.931801 -760.377380 0.038560 0.994858 -0.093647 1.000000
5.470200 27.004200 -757.557312 -0.331259 0.909138 0.252457 1.000000
5.995500 25.950199 -761.508911 0.152639 0.985643 0.072178 1.000000
5.321100 26.705500 -758.729980 0.235507 0.932156 -0.274993 1.000000
5.893600 25.839399 -762.633606 0.225928 0.819179 -0.527164 1.000000
5.179100 26.453100 -759.883789 0.308707 0.848558 -0.429708 1.000000
4.981600 26.050900 -760.977478 0.229866 0.973058 -0.017865 1.000000
4.936300 26.138901 -762.126221 -0.092023 0.977901 -0.187728 1.000000
4.137200 26.837900 -758.960693 -0.091216 0.986793 0.133863 1.000000
3.974800 26.673000 -760.119873 -0.940285 0.272807 -0.203567 1.000000
3.773400 26.458401 -761.234314 -0.424035 0.882053 -0.205369 1.000000
3.632400 26.393400 -762.394409 0.162925 0.928812 0.332813 1.000000
2.675600 26.899900 -761.655823 -0.606254 0.734902 -0.303931 1.000000
39.005402 31.086300 -754.262817 -0.392805 0.418250 -0.819006 1.000000
38.479000 32.042801 -753.314819 0.451705 0.852880 -0.261836 1.000000
37.916000 31.655800 -754.302124 0.266886 0.762757 -0.589044 1.000000
3.023500 27.260099 -760.330322 0.709360 0.684952 -0.166280 1.000000
10.434800 26.257999 -763.044617 -0.441476 0.725872 -0.527456 1.000000
37.956402 30.901199 -755.377930 0.636463 0.733897 0.237299 1.000000
39.224701 30.339001 -755.864685 0.656312 0.738161 -0.156120 1.000000
37.095001 30.804100 -754.646729 0.240148 0.804108 -0.543819 1.000000
6.825500 26.868000 -762.044800 -0.257983 0.856383 -0.447273 1.000000
3.310700 27.783400 -762.212219 0.560861 0.700660 -0.441033 1.000000
4.454400 27.366199 -761.273926 0.100010 0.957241 -0.271456 1.000000
20.099199 33.520500 -754.656189 -0.270661 0.767664 -0.580892 1.000000
36.934898 31.469101 -755.597900 0.727089 0.498528 -0.472028 1.000000
8.953200 26.641800 -762.482178 -0.931960 0.061955 0.357229 1.000000
104.684303 4.208700 -753.070374 0.866406 0.492883 0.080041 1.000000
108.419899 2.952300 -750.994812 0.049132 0.821199 0.568523 1.000000
109.865601 2.950900 -750.455627 0.258332 0.676736 -0.689415 1.000000
110.961899 2.951400 -750.045227 0.258332 0.676736 -0.689415 1.000000
112.082199 2.886600 -749.690125 0.258332 0.676736 -0.689415 1.000000
113.518799 2.513300 -749.519775 0.258332 0.676736 -0.689415 1.000000
108.984200 3.766900 -750.451721 0.258898 0.678216 -0.687746 1.000000
109.859299 4.101400 -749.793884 0.258887 0.675012 -0.690895 1.000000
110.905899 4.220800 -749.283325 0.258898 0.678216 -0.687746 1.000000
112.005096 3.921800 -749.164612 0.258332 0.676736 -0.689415 1.000000
113.121498 3.588900 -749.072571 0.258332 0.676736 -0.689415 1.000000
114.231796 3.284800 -748.954712 0.258898 0.678216 -0.687746 1.000000
106.144203 4.973500 -750.835876 0.462355 0.502127 -0.730819 1.000000
106.722504 4.110900 -751.467285 0.258898 0.678216 -0.687746 1.000000
107.313103 4.720300 -750.643616 0.258898 0.678216 -0.687746 1.000000
107.784897 5.659100 -749.540283 0.258898 0.678216 -0.687746 1.000000
108.924599 5.484300 -749.281921 0.261847 0.674455 -0.690324 1.000000
110.026497 5.423600 -748.925293 0.258898 0.678216 -0.687746 1.000000
111.153099 5.298000 -748.623413 0.258898 0.678216 -0.687746 1.000000
112.365097 4.947800 -748.510498 0.258898 0.678216 -0.687746 1.000000
115.368698 3.565600 -748.737488 0.258898 0.678216 -0.687746 1.000000
116.379898 3.023800 -748.889404 0.285082 0.282187 -0.916023 1.000000
82.680397 16.694099 -748.727783 0.085824 0.326130 -0.941421 1.000000
102.722504 6.789900 -750.887817 -0.028882 0.167514 0.985447 1.000000
104.177200 6.067100 -751.048401 0.261156 0.748647 -0.609364 1.000000
105.269699 6.022700 -750.677124 0.544074 0.156514 -0.824310 1.000000
105.002701 7.462000 -749.357788 0.368545 0.484420 -0.793418 1.000000
105.853600 6.637300 -749.848511 0.275120 0.602719 -0.749025 1.000000
106.834801 6.913300 -749.203186 0.261858 0.677656 -0.687178 1.000000
107.942398 6.806600 -748.887573 0.261858 0.677656 -0.687178 1.000000
109.090500 6.589100 -748.666077 0.261858 0.677656 -0.687178 1.000000
110.218201 6.437900 -748.386780 0.261863 0.680843 -0.684018 1.000000
111.932404 6.030100 -748.137817 0.261858 0.677656 -0.687178 1.000000
113.309898 5.498200 -748.139526 0.261858 0.677656 -0.687178 1.000000
114.390099 4.992800 -748.227783 0.261858 0.677656 -0.687178 1.000000
117.044197 3.794000 -748.402527 0.261858 0.677656 -0.687178 1.000000
83.771103 16.572500 -749.062012 0.369517 0.918913 -0.138046 1.000000
84.816299 15.878400 -749.348999 -0.064539 0.449025 -0.891185 1.000000
86.089104 15.011200 -749.720520 -0.071609 0.987267 -0.142044 1.000000
100.360802 7.717200 -751.481628 -0.011327 0.333523 -0.942674 1.000000
101.774101 6.889900 -751.759827 0.227204 0.561055 -0.795987 1.000000
102.956497 7.803600 -750.404724 0.404476 0.566266 -0.718151 1.000000
103.552902 8.379500 -749.607422 0.237849 0.694645 -0.678893 1.000000
106.005096 7.968900 -749.076782 0.262429 0.679135 -0.685497 1.000000
107.051300 8.024300 -748.622375 0.262429 0.679135 -0.685497 1.000000
108.179100 7.840900 -748.372925 0.261858 0.677656 -0.687178 1.000000
109.232101 7.877200 -747.934692 0.262429 0.679135 -0.685497 1.000000
110.306801 7.583200 -747.814880 0.261863 0.680843 -0.684018 1.000000
111.455597 7.363600 -747.593323 0.261858 0.677656 -0.687178 1.000000
112.567101 6.993300 -747.534973 0.262421 0.675934 -0.688657 1.000000
115.099602 5.753600 -747.793518 0.261858 0.677656 -0.687178 1.000000
115.880699 5.020200 -748.220276 0.262429 0.679135 -0.685497 1.000000
118.060997 3.550200 -748.841125 0.262429 0.679135 -0.685497 1.000000
83.762001 17.691999 -748.601013 0.301323 0.704162 -0.642931 1.000000
87.255302 15.255700 -749.674011 0.290243 0.785083 -0.547179 1.000000
88.222702 14.609000 -749.943481 0.189034 0.533833 -0.824190 1.000000
89.927200 13.694800 -750.195007 -0.503699 0.574453 0.645206 1.000000
91.129501 13.270700 -750.153687 -0.129816 0.933308 0.334789 1.000000
94.128502 12.136000 -750.127075 0.249981 0.440875 -0.862055 1.000000
95.563400 10.204900 -751.489502 -0.004984 0.999844 0.016947 1.000000
96.979500 9.176000 -751.965393 0.257761 0.634123 -0.729004 1.000000
97.905701 10.392200 -750.405212 0.714803 0.401148 -0.572833 1.000000
98.888702 10.632600 -749.789917 0.144467 0.094322 -0.985004 1.000000
100.030098 10.308600 -749.672913 0.163217 0.052840 -0.985174 1.000000
101.096199 9.930900 -749.638123 0.185421 0.225439 -0.956450 1.000000
102.258202 9.570100 -749.549500 -0.140641 0.279942 0.949659 1.000000
103.334099 9.503500 -749.202820 0.339061 0.488693 -0.803876 1.000000
104.396500 9.481300 -748.817078 0.262429 0.679135 -0.685497 1.000000
105.464600 9.442300 -748.445801 0.262429 0.679135 -0.685497 1.000000
106.581001 9.260400 -748.197571 0.262429 0.679135 -0.685497 1.000000
107.701202 9.075400 -747.951172 0.262429 0.679135 -0.685497 1.000000
109.726601 8.791800 -747.454895 0.262429 0.679135 -0.685497 1.000000
110.900497 8.481200 -747.312073 0.262429 0.679135 -0.685497 1.000000
112.196404 8.117400 -747.175415 0.261858 0.677656 -0.687178 1.000000
113.585297 7.527100 -747.227173 0.262429 0.679135 -0.685497 1.000000
114.598602 6.923400 -747.436401 0.262429 0.679135 -0.685497 1.000000
117.110703 5.051100 -748.327209 0.262429 0.679135 -0.685497 1.000000
84.510803 18.430500 -748.212830 0.370771 0.556973 -0.743175 1.000000
85.452400 17.769899 -748.505371 0.263344 0.107673 0.958674 1.000000
86.498596 17.082800 -748.783997 0.776068 0.625206 0.082684 1.000000
89.360497 14.828300 -749.917908 0.179060 0.886566 -0.426542 1.000000
92.119698 13.759000 -749.915527 0.346023 0.865827 -0.361402 1.000000
93.185699 13.217100 -750.042419 0.161033 0.119238 0.979720 1.000000
95.263802 12.428900 -750.023621 0.250909 0.620171 -0.743258 1.000000
96.399803 12.054800 -749.956970 0.298351 0.918112 -0.260877 1.000000
97.460899 11.626500 -749.973022 0.073787 0.756676 0.649613 1.000000
99.602203 11.428900 -749.343689 0.395690 0.364410 -0.842992 1.000000
100.630699 11.478700 -748.897888 0.265960 0.676845 -0.686401 1.000000
101.767097 11.480900 -748.457825 0.265387 0.678566 -0.684922 1.000000
102.898499 11.192700 -748.307678 0.262429 0.679135 -0.685497 1.000000
104.000397 11.010700 -748.063721 0.265387 0.678566 -0.684922 1.000000
105.126999 10.760700 -747.877502 0.172495 0.340783 -0.924182 1.000000
106.198097 10.402800 -747.819702 0.265387 0.678566 -0.684922 1.000000
107.335602 10.145300 -747.636780 0.265387 0.678566 -0.684922 1.000000
108.458000 9.942600 -747.405396 0.265387 0.678566 -0.684922 1.000000
85.892303 18.712200 -748.031128 0.134773 0.987944 0.076176 1.000000
86.836502 18.065500 -748.308472 0.405070 0.246630 0.880393 1.000000
87.856697 17.531200 -748.444824 0.506876 0.836724 0.207290 1.000000
88.889999 16.967501 -748.605530 0.328831 0.733795 -0.594487 1.000000
89.994797 16.530100 -748.612793 0.251179 0.630318 -0.734581 1.000000
91.137604 15.951600 -748.745789 0.202884 0.642724 -0.738745 1.000000
92.184196 15.423400 -748.865784 0.229828 0.636327 -0.736388 1.000000
93.307404 14.990300 -748.861816 0.258898 0.678216 -0.687746 1.000000
94.423103 14.610800 -748.807373 0.289546 0.740662 -0.606287 1.000000
95.552399 14.199200 -748.779724 0.306871 0.747095 -0.589643 1.000000
96.731201 13.972600 -748.548828 0.266260 0.773572 -0.575059 1.000000
97.891899 13.823300 -748.248413 0.302268 0.828495 -0.471412 1.000000
98.997597 13.545200 -748.096985 0.293574 0.779162 -0.553824 1.000000
100.087303 13.335300 -747.884216 0.261794 0.788518 -0.556509 1.000000
101.188599 13.096300 -747.695679 0.276411 0.785007 -0.554401 1.000000
102.292297 12.860700 -747.502991 0.290931 0.767868 -0.570734 1.000000
103.447998 12.471500 -747.442688 0.262421 0.675934 -0.688657 1.000000
104.517403 12.075700 -747.422424 0.265387 0.678566 -0.684922 1.000000
105.675697 11.714300 -747.333679 0.265387 0.678566 -0.684922 1.000000
106.768799 11.281100 -747.341309 0.265966 0.680044 -0.683229 1.000000
109.441101 10.444300 -747.139282 0.265966 0.680044 -0.683229 1.000000
110.552902 10.014800 -747.136108 0.265387 0.678566 -0.684922 1.000000
111.685997 9.545300 -747.164490 0.265966 0.680044 -0.683229 1.000000
87.682800 18.758200 -747.914185 -0.009460 0.070422 0.997472 1.000000
90.844398 17.199499 -748.240417 0.182408 0.479006 -0.858651 1.000000
91.927597 16.873501 -748.145081 0.265960 0.676845 -0.686401 1.000000
93.005898 16.584700 -748.014587 0.279072 0.719209 -0.636284 1.000000
94.098801 16.252800 -747.921387 0.207413 0.029630 -0.977805 1.000000
95.209099 15.871100 -747.870972 -0.037213 0.214873 -0.975933 1.000000
96.289299 15.621700 -747.700623 0.261021 0.096436 -0.960504 1.000000
97.394897 15.292200 -747.599976 -0.115378 0.252794 0.960616 1.000000
98.494797 14.999400 -747.465393 0.101245 0.647085 0.755666 1.000000
99.601196 14.698100 -747.336487 -0.003444 0.191698 0.981448 1.000000
100.727898 14.343100 -747.253113 0.253276 0.839650 0.480458 1.000000
101.827400 14.094100 -747.074890 0.234872 0.968377 0.084152 1.000000
102.973396 13.708900 -747.014221 0.296840 0.916584 -0.267880 1.000000
104.028900 13.332100 -746.980225 0.223121 0.647519 -0.728654 1.000000
105.218803 12.848600 -747.000183 0.265390 0.681751 -0.681751 1.000000
107.935997 11.521000 -747.268494 0.265966 0.680044 -0.683229 1.000000
88.820999 18.787600 -748.012024 0.116059 0.356370 0.927109 1.000000
89.898102 18.426800 -747.953491 0.391320 0.635688 0.665409 1.000000
93.708298 17.336399 -747.561523 0.278015 0.799490 -0.532470 1.000000
96.973801 16.406799 -747.220581 0.206455 0.871866 -0.444102 1.000000
91.309097 18.210800 -748.087280 0.064381 0.894481 0.442446 1.000000
92.474602 17.903200 -747.940979 0.291359 0.123728 -0.948579 1.000000
94.913002 17.275499 -747.618591 0.180437 0.845517 0.502538 1.000000
87.501602 16.482000 -748.990784 0.263949 0.763397 -0.589539 1.000000
88.793999 15.703000 -749.419922 -0.168808 0.462387 -0.870461 1.000000
90.461899 15.026200 -749.550171 0.263457 0.761975 -0.591595 1.000000
97.202698 12.508900 -749.313721 0.263457 0.761975 -0.591595 1.000000
98.324799 12.327200 -749.049072 0.264091 0.760647 -0.593020 1.000000
94.668701 9.844600 -752.812622 0.329721 0.667564 -0.667564 1.000000
98.318901 7.982300 -753.033020 0.101341 0.503848 -0.857827 1.000000
98.677902 8.587900 -752.098328 0.264091 0.760647 -0.593020 1.000000
99.408600 8.988400 -751.262085 0.263457 0.761975 -0.591595 1.000000
100.358200 9.152000 -750.632629 0.264091 0.760647 -0.593020 1.000000
99.284798 7.234300 -752.986023 0.263596 0.759220 -0.595064 1.000000
100.390701 6.849700 -752.989990 0.263596 0.759220 -0.595064 1.000000
101.401802 7.987800 -751.088196 0.263596 0.759220 -0.595064 1.000000
101.563202 5.677600 -753.346985 0.260655 0.759849 -0.595557 1.000000
103.818901 7.071200 -750.574280 0.263596 0.759220 -0.595064 1.000000
103.100197 5.086600 -752.755188 0.260655 0.759849 -0.595557 1.000000
105.550301 4.101900 -752.235474 0.264229 0.757878 -0.596493 1.000000
84.937897 17.017099 -749.627075 -0.241828 0.566345 -0.787891 1.000000
86.600304 16.507500 -749.968994 0.592768 0.548859 -0.589390 1.000000
96.063202 17.365999 -747.402100 0.155400 0.969644 -0.188792 1.000000
91.282600 -5.814500 -834.702087 0.849891 0.238699 0.469796 1.000000
91.228699 -6.849700 -835.271118 -0.975961 0.020160 0.217012 1.000000
91.162697 -7.914300 -835.832825 -0.057972 0.233120 -0.970718 1.000000
91.054398 -8.978900 -836.301392 -0.003712 0.315483 -0.948924 1.000000
90.958397 -10.027300 -836.786377 -0.201815 0.128197 -0.970998 1.000000
90.780197 -3.624400 -833.539185 0.502630 0.476088 -0.721597 1.000000
90.758698 -4.585600 -834.133118 0.126792 0.526114 -0.840909 1.000000
90.318398 -10.889400 -837.368103 -0.637449 0.373904 -0.673687 1.000000
90.299301 -2.629100 -833.076904 0.838310 0.544695 -0.023324 1.000000
90.288597 -5.323100 -834.860413 0.890456 0.450045 0.067438 1.000000
90.164299 -6.396800 -835.305786 0.491395 0.210166 -0.845199 1.000000
90.013100 -7.527900 -835.730225 0.926734 0.171928 0.334072 1.000000
89.805397 -8.686100 -836.047913 -0.862175 0.279253 -0.422695 1.000000
89.754997 -9.730100 -836.637024 0.911233 0.121034 -0.393708 1.000000
89.738602 -4.021100 -833.801575 0.443255 0.440008 -0.780973 1.000000
90.283096 2.263400 -831.684082 0.928523 0.290607 0.231068 1.000000
90.297600 1.323400 -832.349182 0.568721 0.034763 -0.821795 1.000000
89.611603 -1.053000 -832.427673 0.992727 0.113039 -0.041410 1.000000
88.883301 -10.369700 -837.084473 0.165109 0.622565 -0.764952 1.000000
88.938904 -11.309400 -837.840027 -0.623951 0.496133 -0.603769 1.000000
89.052399 -1.938900 -832.963318 -0.700320 0.344446 -0.625227 1.000000
88.867401 -3.013300 -833.277222 -0.671529 0.333325 -0.661773 1.000000
88.900002 -4.538100 -834.377380 0.311283 0.633855 -0.708047 1.000000
88.928398 -5.493600 -835.084717 -0.018148 0.255285 -0.966695 1.000000
88.822304 -6.532500 -835.549622 -0.929330 0.256807 -0.265320 1.000000
88.602600 -7.702900 -835.851196 0.612310 0.286171 -0.737010 1.000000
88.406898 -8.836900 -836.181519 -0.477670 0.371521 -0.796117 1.000000
88.922302 3.279100 -830.501526 -0.884251 0.102951 0.455523 1.000000
88.758102 -0.007300 -832.362427 -0.275443 0.358820 -0.891840 1.000000
87.789200 -9.606800 -836.711487 -0.171226 0.589441 -0.789456 1.000000
87.755699 -10.620900 -837.323975 0.046790 0.622453 -0.781257 1.000000
87.830299 -11.492600 -838.079773 -0.912165 0.217594 -0.347286 1.000000
88.462502 2.444800 -831.258789 -0.983012 0.134543 -0.124846 1.000000
88.033203 -0.887100 -832.570923 -0.321887 0.460063 -0.827485 1.000000
87.768600 -2.009200 -832.745422 -0.655492 0.344910 -0.671839 1.000000
87.725403 -2.992800 -833.318787 0.690683 0.326652 -0.645179 1.000000
87.738403 -3.964500 -834.009094 0.550540 0.444091 -0.706887 1.000000
87.802803 -4.848700 -834.754211 0.472263 0.532339 -0.702554 1.000000
87.704201 -5.949900 -835.284180 -0.419363 0.425790 -0.801771 1.000000
87.544899 -7.085400 -835.702393 -0.978295 0.189308 0.084273 1.000000
87.379997 -8.153700 -836.062500 0.435570 0.302264 -0.847889 1.000000
87.796204 1.521800 -831.305725 0.827945 0.436839 -0.351679 1.000000
87.778297 0.534700 -831.939087 -0.909648 0.127155 -0.395438 1.000000
87.616096 3.881500 -829.990784 0.111385 0.273877 -0.955293 1.000000
86.610100 -8.931700 -836.480408 -0.013225 0.251274 -0.967826 1.000000
86.562798 -9.965100 -837.079102 0.189715 0.491466 -0.849982 1.000000
86.645103 -10.847800 -837.864929 0.181106 0.585930 -0.789865 1.000000
87.345100 2.942300 -830.667603 -0.153758 0.295270 -0.942960 1.000000
87.086197 -0.325200 -832.316223 -0.552571 0.508903 -0.660062 1.000000
86.792000 -1.413300 -832.400330 -0.848400 0.298254 -0.437335 1.000000
86.742203 -2.487400 -833.021179 0.563535 0.349164 -0.748674 1.000000
86.767998 -3.433400 -833.723816 0.065829 0.508428 -0.858585 1.000000
86.747597 -4.384400 -834.326172 0.004117 0.610700 -0.791851 1.000000
86.737900 -5.321200 -834.943115 0.289081 0.826616 -0.482844 1.000000
86.608101 -6.398100 -835.387085 0.510015 0.272944 -0.815712 1.000000
86.475197 -7.487800 -835.832886 0.117811 0.530876 -0.839221 1.000000
86.649399 2.134100 -831.014587 0.100280 0.394253 -0.913514 1.000000
86.623398 1.127900 -831.648682 0.041998 0.453850 -0.890088 1.000000
86.472000 4.431800 -829.622009 -0.109300 0.050706 -0.992715 1.000000
85.513199 -8.043800 -836.078186 0.011327 0.333523 -0.942674 1.000000
85.484802 -9.031700 -836.696594 0.259177 0.467746 -0.845010 1.000000
85.577301 -10.056100 -837.613525 0.444603 0.728884 -0.520631 1.000000
86.189102 3.443900 -830.239075 -0.023078 0.506351 -0.862019 1.000000
86.010597 0.258700 -832.037903 -0.346871 0.048068 -0.936680 1.000000
85.654099 -1.176900 -832.224182 -0.194453 0.517034 -0.833585 1.000000
85.577698 -2.210000 -832.765808 0.020687 0.575097 -0.817824 1.000000
85.611198 -3.135600 -833.481812 0.034516 0.531543 -0.846328 1.000000
85.605797 -4.135900 -834.161316 0.065509 0.383694 -0.921134 1.000000
85.499603 -5.324800 -834.743103 -0.070249 0.597829 -0.798539 1.000000
85.363297 -6.409300 -835.184875 -0.036963 0.502420 -0.863833 1.000000
85.650703 1.631700 -831.233276 0.088948 0.637217 -0.765535 1.000000
85.513802 4.805600 -829.125122 -0.372020 0.824777 0.425845 1.000000
85.481400 2.598200 -830.577820 -0.057478 0.391654 -0.918315 1.000000
84.729698 -7.257900 -835.683289 -0.120328 0.380347 -0.916983 1.000000
84.970703 -0.266500 -831.876587 0.121618 0.257622 -0.958561 1.000000
84.681702 -9.251400 -837.445923 0.397197 0.585083 -0.707044 1.000000
85.061798 4.005400 -829.774719 0.464028 0.405822 -0.787392 1.000000
84.946800 0.864600 -831.691772 0.026039 0.283950 -0.958485 1.000000
84.496902 -1.298900 -832.163879 0.183753 0.566446 -0.803351 1.000000
84.516602 -2.487700 -833.034180 0.219781 0.483518 -0.847294 1.000000
84.501999 -3.498900 -833.702820 -0.980075 0.131578 -0.148794 1.000000
84.455200 -4.491500 -834.284607 -0.885644 0.261362 -0.383829 1.000000
84.327698 -5.553700 -834.730225 -0.070626 0.363791 -0.928799 1.000000
84.315002 -8.011100 -836.406677 0.250757 0.805227 -0.537337 1.000000
83.941902 -6.538600 -835.315002 0.295452 0.576531 -0.761787 1.000000
84.092499 -10.121600 -838.146301 -0.951504 0.054919 -0.302693 1.000000
84.413902 5.337000 -829.027893 -0.082508 0.468476 -0.879615 1.000000
84.273804 3.208000 -830.184204 -0.457757 0.405996 -0.790965 1.000000
84.227402 2.174700 -830.795105 0.042288 0.473350 -0.879859 1.000000
83.695602 -8.726100 -837.141296 0.397638 0.697930 -0.595633 1.000000
83.823502 1.279500 -831.352112 -0.049723 0.417943 -0.907111 1.000000
83.630402 0.138500 -831.700623 -0.825986 0.108873 -0.553077 1.000000
83.418999 -1.530800 -832.373596 -0.535232 0.321139 -0.781279 1.000000
83.405197 -2.617600 -833.096497 -0.023055 0.503147 -0.863893 1.000000
83.375000 -3.740900 -833.806580 0.588332 0.148206 -0.794922 1.000000
83.253502 -4.787800 -834.254211 -0.335198 0.478174 -0.811783 1.000000
83.275803 -7.170800 -835.959473 0.157696 0.578220 -0.800496 1.000000
83.489098 5.883100 -828.423218 -0.713208 0.536984 -0.450535 1.000000
83.574097 4.693100 -829.445618 -0.092011 0.228138 -0.969271 1.000000
82.864899 -5.621100 -834.980774 0.157563 0.347196 -0.924461 1.000000
82.848999 -8.001700 -836.598389 0.061660 0.655321 -0.752830 1.000000
83.045799 -9.245900 -837.915771 -0.052848 0.732735 -0.678459 1.000000
82.918602 3.825800 -829.925781 -0.117172 0.439044 -0.890793 1.000000
82.827797 2.798800 -830.432617 0.012153 0.514458 -0.857430 1.000000
82.814796 1.820300 -831.084717 0.019070 0.341987 -0.939511 1.000000
82.636398 0.708900 -831.448181 0.122535 0.418310 -0.900001 1.000000
82.547897 -0.333000 -831.970581 0.095942 0.131476 -0.986666 1.000000
82.394798 -1.903300 -832.712524 0.148588 0.309444 -0.939237 1.000000
82.350304 -2.965100 -833.350098 0.073237 0.358194 -0.930771 1.000000
82.228401 -4.090200 -833.853394 -0.102964 0.555428 -0.825166 1.000000
82.244598 -6.474500 -835.552795 -0.706049 0.499075 -0.502413 1.000000
82.379501 6.478600 -828.374878 -0.587563 0.641437 -0.493283 1.000000
82.315498 5.354900 -829.012817 -0.368086 0.396280 -0.841115 1.000000
81.572403 -4.894500 -834.465210 0.303914 0.361371 -0.881503 1.000000
81.577499 -7.225900 -836.106873 -0.006367 0.365448 -0.930810 1.000000
81.617897 -8.163800 -836.855713 0.142304 0.777431 -0.612658 1.000000
81.714996 -9.048700 -837.698181 0.993440 0.097660 -0.059494 1.000000
81.576401 4.511200 -829.445679 -0.011352 0.341822 -0.939696 1.000000
81.477402 3.394100 -829.999573 0.068459 0.048899 -0.996455 1.000000
81.455299 2.401800 -830.643494 0.131149 0.360315 -0.923565 1.000000
81.399498 1.426200 -831.198120 -0.092564 0.421372 -0.902151 1.000000
81.364899 0.401500 -831.835876 -0.781571 0.332208 -0.528001 1.000000
81.182404 -0.726600 -832.205078 0.430931 0.120095 -0.894358 1.000000
81.069397 -1.821200 -832.710876 0.021597 0.336660 -0.941378 1.000000
80.986397 -2.869600 -833.253723 -0.078726 0.358938 -0.930035 1.000000
80.911301 -3.910300 -833.809387 -0.856335 0.218222 -0.468049 1.000000
80.866699 -5.652400 -834.926270 0.382998 0.596689 -0.705177 1.000000
80.800598 6.990400 -827.446228 0.806451 0.223586 0.547400 1.000000
80.913498 6.161100 -828.287720 0.306378 0.579071 -0.755519 1.000000
80.176201 -4.713800 -834.207886 0.791716 0.258679 -0.553417 1.000000
80.185303 -6.452100 -835.446777 0.463834 0.641331 -0.611190 1.000000
80.289101 -7.271900 -836.260376 0.716641 0.557755 -0.418730 1.000000
80.401497 -8.089100 -837.091980 0.980411 0.196547 -0.012793 1.000000
80.249603 5.380600 -828.874023 -0.180892 0.503808 -0.844663 1.000000
80.185204 4.324700 -829.465271 -0.024082 0.328278 -0.944274 1.000000
80.070099 3.256100 -829.948730 -0.099554 0.377761 -0.920536 1.000000
80.063202 2.286200 -830.612427 0.612195 0.432039 -0.662238 1.000000
80.030899 1.267400 -831.251587 0.118706 0.302766 -0.945644 1.000000
79.984497 0.299300 -831.822815 -0.020614 0.551089 -0.834192 1.000000
79.732498 -1.197200 -832.291016 0.580450 0.553374 0.597373 1.000000
79.689301 -2.173800 -832.875488 -0.901636 0.290708 -0.320221 1.000000
79.573196 -3.202900 -833.328979 0.230195 0.343121 -0.910647 1.000000
79.508904 -5.479000 -834.775208 -0.055149 0.575528 -0.815920 1.000000
79.496201 6.787700 -827.702820 -0.497466 0.138590 -0.856341 1.000000
78.875999 -4.030000 -833.858521 -0.145395 0.515493 -0.844469 1.000000
78.929001 -6.189800 -835.494080 -0.081568 0.562392 -0.822838 1.000000
79.019302 -7.106300 -836.344177 -0.247812 0.680299 -0.689770 1.000000
78.899498 5.958700 -828.239685 0.631201 0.651187 -0.421356 1.000000
78.955200 5.026500 -829.022278 0.065474 0.497323 -0.865091 1.000000
78.870796 4.013300 -829.539429 -0.214890 0.381539 -0.899028 1.000000
78.833397 2.994400 -830.168884 -0.144252 0.427044 -0.892650 1.000000
78.817802 2.007100 -830.826111 0.205274 0.321360 -0.924441 1.000000
78.685303 0.893800 -831.302917 0.723702 0.206108 -0.658616 1.000000
78.530899 -0.509000 -831.932373 0.087415 0.296167 -0.951128 1.000000
78.417702 -1.605000 -832.441528 0.404555 0.200087 -0.892357 1.000000
78.393402 -2.551400 -833.049927 0.303486 0.420566 -0.854997 1.000000
78.359596 -4.848900 -834.585388 0.228195 0.350287 -0.908420 1.000000
77.956703 -3.389300 -833.692078 0.044702 0.453797 -0.889983 1.000000
77.726097 0.318300 -831.504517 -0.154438 0.307509 -0.938929 1.000000
77.602501 -5.399700 -835.260681 0.102511 0.378606 -0.919863 1.000000
77.672600 5.828100 -828.459900 0.270655 0.347562 -0.897745 1.000000
77.619003 4.794600 -829.067383 0.030258 0.403876 -0.914313 1.000000
77.534103 3.782100 -829.587830 0.187626 0.405796 -0.894497 1.000000
77.538101 2.835200 -830.267273 -0.088377 0.472747 -0.876755 1.000000
77.456802 1.737600 -830.856201 -0.510580 0.074547 0.856593 1.000000
77.305298 -0.539800 -832.117920 0.195685 0.290058 -0.936789 1.000000
77.223701 -1.577400 -832.663574 0.087738 0.559512 -0.824165 1.000000
77.178902 -2.556300 -833.252808 -0.374859 0.387407 -0.842257 1.000000
77.156998 -3.995400 -834.220886 -0.427329 0.430554 -0.794993 1.000000
76.495102 1.099900 -831.070190 -0.051892 0.389853 -0.919414 1.000000
76.450897 0.139300 -831.650574 0.391833 0.336078 -0.856457 1.000000
76.371803 -3.171600 -833.820313 0.370641 0.383152 -0.846062 1.000000
76.424500 -4.560200 -834.929321 0.437649 0.476988 -0.762198 1.000000
76.444702 4.826300 -829.116028 -0.585165 0.055258 0.809029 1.000000
76.297096 3.713000 -829.566589 -0.902327 0.272317 -0.334141 1.000000
76.326897 2.813600 -830.276672 -0.630097 0.439564 -0.640126 1.000000
76.086601 -0.802000 -832.294678 -0.029288 0.329812 -0.943592 1.000000
76.040100 -1.775100 -832.880005 -0.009267 0.454065 -0.890920 1.000000
75.692398 1.873400 -830.694214 -0.119169 0.354768 -0.927329 1.000000
75.635002 -3.698600 -834.551025 0.370285 0.673095 -0.640181 1.000000
75.412598 0.874700 -831.343018 0.087543 0.446052 -0.890715 1.000000
75.295998 -2.458000 -833.461487 0.248320 0.416876 -0.874386 1.000000
75.340500 4.294800 -829.324219 0.211257 0.313341 -0.925844 1.000000
75.247398 3.271000 -829.842773 -0.105664 0.829391 -0.548585 1.000000
75.119301 -0.109300 -831.974609 0.057655 0.224485 -0.972770 1.000000
75.063301 -1.166000 -832.603821 0.111275 0.323098 -0.939801 1.000000
74.655296 2.334300 -830.317810 -0.009385 0.497416 -0.867461 1.000000
74.529099 -3.003500 -834.088806 -0.647900 0.009712 -0.761664 1.000000
74.621498 5.054800 -828.820923 -0.152010 0.241894 -0.958322 1.000000
74.441902 1.448800 -831.030273 0.218661 0.606358 -0.764538 1.000000
74.307899 -1.832300 -833.110413 0.162322 0.897800 -0.409397 1.000000
74.246399 3.996800 -829.425171 0.636853 0.120245 -0.761551 1.000000
74.183296 0.578800 -831.780090 0.682709 0.276601 -0.676314 1.000000
74.070801 -0.472100 -832.283386 -0.087049 0.292330 -0.952347 1.000000
73.736504 3.078800 -829.863403 -0.200057 0.497887 -0.843851 1.000000
73.564796 5.915800 -828.340881 -0.212406 0.429268 -0.877846 1.000000
73.494797 4.894300 -828.928711 -0.403563 0.514665 -0.756476 1.000000
73.403397 2.304400 -830.623779 -0.969220 0.003568 -0.246170 1.000000
73.292297 -1.054900 -832.840027 0.515498 0.452511 -0.727664 1.000000
73.020302 4.004700 -829.440613 -0.041539 0.430135 -0.901809 1.000000
73.038399 1.440000 -831.382874 0.857353 0.251267 -0.449234 1.000000
73.072403 0.574800 -832.104370 0.183331 0.396977 -0.899333 1.000000
72.543900 3.140300 -830.105713 0.020774 0.810175 -0.585819 1.000000
72.120499 6.794000 -827.802185 0.279588 0.268118 -0.921924 1.000000
72.107101 5.875700 -828.456909 0.252129 0.466056 -0.848070 1.000000
72.063499 4.903900 -829.080200 -0.168810 0.416974 -0.893104 1.000000
72.080704 2.437100 -830.965393 0.020534 0.543477 -0.839173 1.000000
72.111198 1.191900 -831.968384 0.525709 0.456057 -0.718082 1.000000
72.036598 0.144300 -832.574829 -0.927194 0.207454 -0.311887 1.000000
71.355797 4.097600 -829.585510 0.941583 0.250259 -0.225371 1.000000
71.398003 3.185400 -830.370178 0.606486 0.599728 -0.522017 1.000000
70.872597 7.766700 -827.238586 -0.391665 0.282785 -0.875575 1.000000
70.834801 6.815400 -827.866028 0.084931 0.571487 -0.816204 1.000000
70.800003 5.864800 -828.500122 0.108929 0.459765 -0.881334 1.000000
70.867699 2.515200 -831.183472 0.132023 0.895769 -0.424461 1.000000
71.021797 1.787000 -832.096191 0.153800 0.889740 -0.429777 1.000000
70.224197 5.073700 -829.133728 0.355368 0.623941 -0.695997 1.000000
70.205002 4.141200 -829.792175 0.373184 0.665813 -0.646085 1.000000
70.201698 3.230800 -830.471619 0.248298 0.785497 -0.566870 1.000000
71.024597 -7.255800 -840.328979 0.071275 0.187247 -0.979724 1.000000
71.092499 -8.086800 -841.116516 0.321532 0.722236 -0.612366 1.000000
71.185699 -8.874400 -841.931030 0.698750 0.481954 -0.528648 1.000000
71.241898 -9.733600 -842.712219 -0.088873 0.756149 -0.648336 1.000000
71.308502 -10.577100 -843.505981 -0.385548 0.769470 -0.509184 1.000000
69.813202 8.287700 -826.953979 -0.434376 0.574175 -0.694003 1.000000
69.800598 7.305900 -827.667114 0.141620 0.336863 -0.930842 1.000000
69.783501 6.386900 -828.321899 -0.794646 0.407800 -0.449708 1.000000
69.761398 2.293900 -831.365479 0.576971 0.640892 -0.506322 1.000000
69.930099 1.513100 -832.353882 -0.302317 0.514414 -0.802485 1.000000
70.359398 -3.983600 -837.523315 0.812893 0.539368 -0.219742 1.000000
70.477699 -4.790000 -838.411926 0.069687 0.826289 -0.558918 1.000000
70.544296 -5.612600 -839.191101 0.247553 0.625978 -0.739506 1.000000
70.980400 -11.196100 -844.442078 -0.098659 0.899046 -0.426595 1.000000
69.670601 -0.575400 -834.523682 0.740662 0.668753 -0.064718 1.000000
69.657700 -1.519900 -835.209473 0.589632 0.562600 -0.579495 1.000000
69.745598 -2.371600 -836.062012 0.940406 0.248645 -0.231976 1.000000
69.995697 -6.462500 -839.752197 -0.881974 0.284945 -0.375404 1.000000
69.903198 -7.501100 -840.321777 -0.706855 0.464030 -0.533884 1.000000
69.943100 -8.384300 -841.085388 -0.882641 0.284189 -0.374408 1.000000
70.001503 -9.398300 -841.991516 0.085982 0.733031 -0.674739 1.000000
70.097298 -10.186800 -842.814819 -0.391098 0.678234 -0.622127 1.000000
70.644997 -11.831800 -845.351318 -0.036805 0.948041 -0.316014 1.000000
68.784103 8.658700 -826.684387 0.608435 0.497198 -0.618548 1.000000
68.765900 7.743700 -827.336975 0.460571 0.523754 -0.716628 1.000000
68.917900 6.056600 -828.976379 -0.491206 0.507857 -0.707670 1.000000
68.877296 5.095600 -829.611023 -0.649805 0.449351 -0.613055 1.000000
68.865097 4.176700 -830.280701 -0.823392 0.447255 -0.349270 1.000000
68.910896 3.273900 -831.074402 0.960686 0.217439 -0.172634 1.000000
68.987801 1.129700 -832.884277 0.472028 0.498528 -0.727089 1.000000
69.005798 0.245000 -833.598877 0.384381 0.827288 -0.409690 1.000000
69.288902 -3.118900 -836.820679 -0.769934 0.294902 -0.565893 1.000000
69.322800 -4.305300 -837.801697 0.315040 0.699550 -0.641389 1.000000
69.405098 -5.098800 -838.598083 0.871161 0.370739 -0.321918 1.000000
69.611702 -10.934800 -843.518372 -0.511616 0.682714 -0.521681 1.000000
69.851097 -11.460100 -844.480225 -0.379842 0.780696 -0.496219 1.000000
70.260803 -12.541600 -846.265076 0.588628 0.780203 -0.211659 1.000000
68.409599 7.139800 -828.237122 0.187031 0.495259 -0.848374 1.000000
68.469200 2.519600 -831.891113 -0.602344 0.507859 -0.615842 1.000000
68.595100 -0.851300 -834.750183 0.581376 0.625190 -0.520711 1.000000
68.648300 -1.838400 -835.625793 0.652182 0.524105 -0.547698 1.000000
68.873802 -5.887900 -839.234680 -0.236824 0.546398 -0.803345 1.000000
68.851997 -6.874800 -839.934082 0.333413 0.303511 -0.892590 1.000000
68.672798 -7.991600 -840.363525 -0.257186 0.478952 -0.839321 1.000000
68.653999 -8.905100 -841.014282 -0.109510 0.807456 -0.579674 1.000000
68.755798 -9.683500 -841.844910 0.086386 0.856776 -0.508401 1.000000
68.876900 -10.428700 -842.695618 -0.031711 0.845162 -0.533569 1.000000
69.458000 -12.104000 -845.332520 -0.881213 0.287712 -0.375080 1.000000
70.026199 -12.944600 -847.304199 -0.767844 0.415712 0.487442 1.000000
67.776703 9.385600 -826.305725 0.016337 0.322963 -0.946270 1.000000
67.802696 8.319800 -827.177612 0.338161 0.790110 -0.511248 1.000000
67.906097 5.735800 -829.386230 0.043198 0.553217 -0.831916 1.000000
67.887497 4.733300 -830.105774 0.236119 0.611407 -0.755268 1.000000
67.917801 3.806100 -830.882629 0.107538 0.767496 -0.631969 1.000000
67.996101 1.742200 -832.636597 0.019925 0.442336 -0.896628 1.000000
68.018600 0.790000 -833.413818 0.426572 0.525391 -0.736207 1.000000
68.067703 -0.044700 -834.164124 -0.959941 0.272638 -0.064672 1.000000
68.159698 -2.584700 -836.312378 0.985877 0.167156 0.010234 1.000000
68.209503 -3.430700 -837.072876 0.523914 0.544130 -0.655314 1.000000
68.224098 -4.498300 -837.919495 -0.996391 0.076979 -0.035779 1.000000
68.425499 -11.147400 -843.451599 0.015334 0.726270 -0.687238 1.000000
68.574097 -11.847400 -844.331726 -0.130413 0.836698 -0.531911 1.000000
67.445000 7.680800 -828.036194 -0.499322 0.556483 -0.664081 1.000000
67.457298 6.736000 -828.785828 -0.547774 0.494169 -0.675085 1.000000
67.487198 3.039300 -831.676575 0.178496 0.461729 -0.868876 1.000000
67.557800 -1.189200 -835.068115 0.001305 0.437266 -0.899331 1.000000
67.697601 -5.305200 -838.534973 -0.301485 0.470191 -0.829474 1.000000
67.693398 -6.258400 -839.252625 -0.993202 0.016462 -0.115233 1.000000
67.549698 -7.306000 -839.716614 0.933765 0.240111 -0.265386 1.000000
67.584198 -8.280900 -840.540894 0.311205 0.630472 -0.711095 1.000000
67.656998 -9.271600 -841.467102 0.405930 0.637890 -0.654459 1.000000
67.750397 -10.068200 -842.293030 -0.751138 0.465147 -0.468434 1.000000
68.200600 -12.484700 -845.187500 -0.526615 0.697138 -0.486492 1.000000
68.438202 -13.020700 -846.151306 0.272666 0.949628 -0.154466 1.000000
69.119202 -13.227000 -847.898071 -0.131066 0.817320 -0.561079 1.000000
69.264702 -13.979800 -848.812378 -0.406648 0.814891 -0.413027 1.000000
66.785004 10.440900 -825.525696 -0.645045 0.500205 -0.577678 1.000000
66.835602 8.974200 -826.766113 -0.489002 0.606632 -0.626797 1.000000
67.016296 2.238000 -832.341614 0.114484 0.531844 -0.839068 1.000000
67.061897 1.325800 -833.145630 0.299303 0.825825 -0.477944 1.000000
67.038300 0.371300 -833.820984 0.012058 0.489017 -0.872191 1.000000
67.108597 -1.970100 -835.776611 0.001371 0.615457 -0.788169 1.000000
67.161400 -2.964700 -836.660583 -0.006886 0.783664 -0.621147 1.000000
67.195900 -3.839600 -837.410278 0.164706 0.453307 -0.876005 1.000000
67.313004 -10.862900 -843.057312 0.687340 0.597903 -0.412404 1.000000
67.436798 -11.609700 -843.917297 -0.177924 0.777085 -0.603724 1.000000
68.186699 -13.560500 -847.158020 -0.828109 0.375262 -0.416430 1.000000
65.623497 15.514200 -819.995300 -0.719117 0.693485 -0.044144 1.000000
65.565697 14.485100 -820.649170 -0.980826 0.150614 0.123675 1.000000
65.958099 14.255400 -821.737976 0.663338 0.722095 0.196373 1.000000
66.069801 13.473500 -822.596985 0.196406 0.666545 -0.719126 1.000000
66.167297 12.670300 -823.439270 -0.218222 0.468049 -0.856335 1.000000
66.232697 11.818300 -824.244080 -0.100968 0.785791 -0.610195 1.000000
66.511299 8.272700 -827.608887 -0.426901 0.593011 -0.682710 1.000000
66.538696 6.236600 -829.232483 -0.795851 0.292709 -0.530040 1.000000
66.572998 5.320200 -830.014526 0.873648 0.436080 -0.215807 1.000000
66.577103 4.427100 -830.708313 -0.977107 0.029754 -0.210655 1.000000
66.621201 -0.435600 -834.536926 -0.019949 0.450845 -0.892380 1.000000
66.689301 -4.743100 -837.995300 0.031793 0.551546 -0.833539 1.000000
66.667297 -5.725000 -838.696716 0.216370 0.437217 -0.872941 1.000000
66.607002 -6.700400 -839.303772 -0.464853 0.531499 -0.708110 1.000000
66.633102 -7.767500 -840.181885 0.336346 0.706815 -0.622322 1.000000
66.666702 -8.747000 -841.010620 -0.934512 0.188017 -0.302219 1.000000
66.697701 -9.736100 -841.840515 -0.904220 0.225691 -0.362561 1.000000
67.070602 -12.381900 -844.735413 0.879301 0.458952 -0.127248 1.000000
67.298401 -12.941300 -845.693604 -0.966296 0.066253 -0.248762 1.000000
68.436501 -14.409100 -849.465820 0.340626 0.766813 -0.544033 1.000000
68.438698 -15.341300 -850.185120 -0.971072 0.015566 0.238278 1.000000
65.833199 11.007100 -824.975830 -0.170174 0.558713 -0.811715 1.000000
65.930397 9.903800 -826.047180 -0.131626 0.866415 -0.481663 1.000000
66.150497 7.506600 -828.395813 -0.204587 0.464428 -0.861656 1.000000
66.175697 3.580300 -831.464172 -0.816754 0.350490 -0.458334 1.000000
66.187698 -1.283200 -835.220520 -0.097402 0.594585 -0.798111 1.000000
66.248901 -10.581200 -842.490784 0.785713 0.435787 -0.439027 1.000000
66.332199 -11.404600 -843.315186 -0.934747 0.236840 -0.264868 1.000000
66.994499 -13.620600 -846.551208 -0.492541 0.772135 -0.401510 1.000000
67.247597 -14.134800 -847.532715 -0.260347 0.805986 -0.531608 1.000000
67.524300 -14.603200 -848.533997 -0.460052 0.712500 -0.529808 1.000000
68.003403 -16.174900 -850.850891 0.214479 0.782308 -0.584802 1.000000
64.717796 17.167601 -818.710022 0.334001 0.679406 -0.653338 1.000000
65.568604 9.124300 -826.853027 -0.079758 0.656920 -0.749730 1.000000
65.725502 2.710200 -832.138794 -0.678874 0.438683 -0.588802 1.000000
65.768501 1.868400 -832.884399 0.841068 0.438479 -0.316766 1.000000
65.771202 0.957800 -833.589478 0.301824 0.516736 -0.801178 1.000000
65.758003 -2.143400 -835.938904 0.834631 0.307332 -0.457097 1.000000
65.786400 -3.028300 -836.683594 -0.032092 0.584628 -0.810666 1.000000
65.774002 -3.986200 -837.390320 0.009489 0.535447 -0.844515 1.000000
65.706001 -5.281200 -838.226379 -0.066331 0.318651 -0.945548 1.000000
65.700798 -7.271100 -839.741516 -0.006717 0.503776 -0.863808 1.000000
65.665604 -8.291400 -840.442871 0.097661 0.333118 -0.937814 1.000000
65.675400 -9.237500 -841.191895 -0.474576 0.527862 -0.704371 1.000000
65.948898 -12.152300 -844.062073 -0.494317 0.717343 -0.490989 1.000000
66.152298 -12.926400 -845.127380 -0.401052 0.701428 -0.589200 1.000000
67.273102 -15.203400 -849.470398 -0.349655 0.864126 0.361978 1.000000
67.701599 -16.878599 -851.748474 0.336584 0.606502 -0.720323 1.000000
64.405296 16.478399 -819.568115 -0.355052 0.656110 -0.665927 1.000000
64.521500 15.699500 -820.437317 0.126643 0.740487 -0.660031 1.000000
64.642799 14.927800 -821.312622 0.214056 0.866701 -0.450565 1.000000
64.717598 14.089200 -822.132080 0.246815 0.602104 -0.759311 1.000000
64.751900 13.190300 -822.903992 -0.496589 0.577390 -0.648090 1.000000
64.823303 12.344100 -823.721375 0.261576 0.737168 -0.623026 1.000000
64.905296 11.512100 -824.552185 0.244792 0.826750 -0.506519 1.000000
64.990799 10.463600 -825.558228 0.634263 0.630916 -0.446829 1.000000
65.221703 8.377300 -827.700500 0.344077 0.541155 -0.767309 1.000000
65.252296 6.939300 -828.879272 0.109510 0.807456 -0.579674 1.000000
65.304398 6.051100 -829.684509 0.133206 0.648068 -0.749843 1.000000
65.371201 5.183400 -830.507629 0.138920 0.619912 -0.772276 1.000000
65.267303 0.089500 -834.192322 -0.334165 0.440847 -0.833059 1.000000
65.226097 -6.131500 -838.890625 0.250612 0.448064 -0.858156 1.000000
65.226501 -10.047100 -841.908691 0.064399 0.622525 -0.779945 1.000000
65.257202 -11.045100 -842.748718 -0.433862 0.583470 -0.686533 1.000000
65.768898 -13.629100 -845.924316 -0.170383 0.883954 -0.435424 1.000000
66.026901 -14.140400 -846.915710 -0.284104 0.893962 -0.346578 1.000000
66.202103 -14.805000 -847.833313 -0.762091 0.480199 -0.434310 1.000000
66.847298 -15.993600 -850.242920 0.799866 0.555420 0.227428 1.000000
67.365501 -17.585501 -852.669189 -0.426628 0.585992 -0.688914 1.000000
64.600700 9.690700 -826.349976 0.363104 0.658846 -0.658846 1.000000
64.896896 4.342100 -831.175171 -0.972590 0.227628 -0.047473 1.000000
64.825600 3.324700 -831.797485 0.295459 0.405681 -0.864943 1.000000
64.823601 -0.717400 -834.921387 0.153081 0.467990 -0.870374 1.000000
64.795097 -3.475000 -836.989807 -0.092972 0.530657 -0.842472 1.000000
64.793503 -4.493800 -837.774475 0.299214 0.520855 -0.799488 1.000000
64.674599 -7.700900 -839.981506 0.043265 0.551279 -0.833199 1.000000
64.644096 -8.713100 -840.694275 -0.012045 0.485835 -0.873968 1.000000
64.821198 -11.791300 -843.486572 0.330684 0.852325 -0.405204 1.000000
65.048698 -12.604300 -844.642517 0.180697 0.877044 -0.445133 1.000000
65.900299 -15.395200 -848.773376 -0.953852 0.114462 -0.277604 1.000000
66.484802 -16.700199 -851.135986 -0.271302 0.829408 -0.488343 1.000000
66.984001 -18.248800 -853.489929 0.441822 0.601878 -0.665234 1.000000
63.441700 18.249800 -818.141174 0.351111 0.548510 -0.758853 1.000000
63.521900 17.422199 -818.970886 0.502724 0.643958 -0.576704 1.000000
64.060303 11.060800 -825.168213 0.332378 0.718260 -0.611251 1.000000
64.194199 8.905200 -827.155579 0.103809 0.606770 -0.788070 1.000000
64.260300 7.895900 -828.094421 -0.201177 0.836471 -0.509748 1.000000
64.342400 5.566500 -830.097229 0.259917 0.578118 -0.773449 1.000000
64.384201 2.549200 -832.542175 0.101027 0.493754 -0.863713 1.000000
64.385101 1.640800 -833.251526 -0.235832 0.528695 -0.815393 1.000000
64.343399 -1.488400 -835.590271 -0.931335 0.144446 -0.334290 1.000000
64.285301 -2.512100 -836.252686 0.934833 0.336865 0.112288 1.000000
64.338898 -5.308700 -838.553223 0.050532 0.460247 -0.886352 1.000000
64.272903 -6.524700 -839.346985 0.023777 0.304099 -0.952344 1.000000
64.157898 -9.513800 -841.407227 0.106258 0.463285 -0.879816 1.000000
64.171303 -10.456600 -842.171997 -0.445135 0.477986 -0.757222 1.000000
