ply
format ascii 1.0
element vertex 688
property float x
property float y
property float z
property float nx
property float ny
property float nz
property float label
element face 0
property list uchar int vertex_indices
end_header
70.092903 43.151199 -796.311829 0.022853 0.970662 -0.239358 1.000000
69.424599 43.174500 -796.371887 0.026083 0.957603 -0.286908 1.000000
66.628799 43.001301 -796.523071 -0.006394 0.927129 -0.374688 1.000000
66.017799 42.849800 -796.514282 -0.066856 0.899144 -0.432517 1.000000
65.341400 42.845402 -796.564697 0.077679 0.851645 -0.518331 1.000000
63.353001 42.578400 -796.619324 -0.108929 0.881334 -0.459765 1.000000
62.575600 42.501202 -796.650574 -0.138482 0.892279 -0.429722 1.000000
58.817101 42.031898 -796.766785 0.240297 0.962488 -0.125994 1.000000
58.159901 42.190701 -796.875977 0.040641 0.966752 -0.252464 1.000000
57.470901 42.186001 -796.927185 -0.011413 0.937151 -0.348737 1.000000
56.793800 42.244900 -797.000977 0.077956 0.906751 -0.414398 1.000000
56.016102 42.237202 -797.057983 0.044540 0.897552 -0.438653 1.000000
55.261101 42.341599 -797.154602 0.031117 0.878039 -0.477577 1.000000
54.571899 42.352798 -797.211670 0.020565 0.840421 -0.541544 1.000000
52.614399 42.509998 -797.420288 0.003920 0.902878 -0.429880 1.000000
50.014599 42.211700 -797.510376 -0.145634 0.967884 -0.204918 1.000000
49.365398 42.070499 -797.508301 -0.154295 0.951265 -0.266998 1.000000
47.867802 42.057598 -797.618774 0.335134 0.919835 -0.203932 1.000000
47.172401 42.093601 -797.685486 -0.061274 0.897328 -0.437090 1.000000
41.443699 43.783001 -798.749023 0.077956 0.906751 -0.414398 1.000000
40.434200 43.665298 -798.783325 0.158855 0.932410 -0.324617 1.000000
39.763199 43.498699 -798.773499 -0.266581 0.960457 0.080357 1.000000
39.091000 43.320999 -798.759705 -0.167344 0.983890 0.062902 1.000000
38.417900 43.117401 -798.736511 -0.281332 0.959478 0.015971 1.000000
37.742500 42.951099 -798.727112 -0.495132 0.868817 -0.001335 1.000000
37.065498 42.805500 -798.725586 -0.083163 0.092276 -0.992255 1.000000
36.387001 42.706100 -798.741089 0.058360 0.328112 0.942835 1.000000
35.707699 42.635399 -798.767273 -0.100642 0.036496 0.994253 1.000000
35.112400 42.457100 -798.747375 -0.278304 0.959713 0.038688 1.000000
34.431499 42.394600 -798.776794 -0.054085 0.500631 0.863970 1.000000
33.238098 42.247898 -798.814514 -0.093754 0.986197 0.136477 1.000000
32.638699 42.083000 -798.799927 0.090011 0.994570 0.052229 1.000000
31.953300 41.948200 -798.802917 0.181780 0.833786 0.521304 1.000000
31.266500 41.808701 -798.804321 -0.046050 0.833095 -0.551210 1.000000
30.580999 41.744202 -798.833313 0.082602 0.877822 -0.471812 1.000000
29.130899 41.809101 -798.968811 0.105178 0.969412 0.221761 1.000000
75.050301 43.382599 -795.702576 -0.151960 0.878472 -0.452985 1.000000
74.369499 43.213902 -795.692688 -0.376476 0.908982 -0.178934 1.000000
73.697502 43.174599 -795.729797 0.117649 0.914896 -0.386166 1.000000
68.848801 43.278301 -796.139526 0.081719 0.893366 -0.441835 1.000000
68.156700 43.112801 -796.131714 -0.417849 0.509612 -0.752129 1.000000
67.488602 43.152901 -796.197571 0.039145 0.953366 -0.299268 1.000000
64.757401 42.925999 -796.323486 0.073897 0.923038 -0.377545 1.000000
63.980499 42.827702 -796.346924 -0.191471 0.905529 -0.378623 1.000000
53.978298 42.465302 -796.980103 0.127351 0.829974 -0.543070 1.000000
53.305698 42.557098 -797.065430 0.265437 0.904833 -0.332896 1.000000
51.999401 42.541401 -797.159729 -0.142594 0.952846 -0.267863 1.000000
51.295101 42.509102 -797.201782 0.063981 0.899825 -0.431535 1.000000
50.665699 42.432301 -797.221802 -0.197583 0.940935 -0.274958 1.000000
48.735500 42.076099 -797.238770 0.324809 0.779222 -0.536015 1.000000
29.988800 41.722801 -798.545288 0.074870 0.851828 0.518443 1.000000
28.544701 41.931499 -798.732788 0.497225 0.841806 -0.210074 1.000000
27.703199 42.166599 -798.883728 -0.183782 0.503533 -0.844203 1.000000
73.076500 43.339001 -795.531799 0.091814 0.871529 -0.481672 1.000000
72.407898 43.348000 -795.586121 0.087319 0.896756 -0.433825 1.000000
71.738403 43.351700 -795.638489 0.061119 0.430553 -0.900494 1.000000
71.072800 43.396301 -795.705627 0.060952 0.906152 -0.418537 1.000000
70.402496 43.397701 -795.757202 -0.097024 0.942330 -0.320313 1.000000
69.737000 43.445202 -795.825378 -0.008193 0.977270 -0.211839 1.000000
66.858704 43.273499 -795.981812 0.108153 0.968288 -0.225213 1.000000
66.170700 43.173401 -795.997620 -0.393127 0.915482 -0.085699 1.000000
63.074100 42.843399 -796.112610 -0.222867 0.615612 -0.755878 1.000000
62.294300 42.754299 -796.139282 -0.069687 0.826289 -0.558918 1.000000
58.537701 42.311699 -796.263428 0.188804 0.980098 -0.061331 1.000000
57.877800 42.456699 -796.366882 0.117977 0.950441 -0.287651 1.000000
57.195202 42.486500 -796.429871 0.063481 0.908992 -0.411950 1.000000
56.515202 42.531898 -796.498413 0.043419 0.924946 -0.377610 1.000000
55.832298 42.565899 -796.562927 0.085196 0.884082 -0.459499 1.000000
54.974602 42.594299 -796.638672 0.043908 0.914079 -0.403153 1.000000
49.791302 42.384602 -796.956970 -0.072913 0.895595 -0.438855 1.000000
48.187000 42.292500 -797.045471 0.145007 0.885833 -0.440763 1.000000
47.505199 42.377998 -797.128784 0.310222 0.837132 -0.450524 1.000000
42.423901 44.021999 -798.119385 -0.082705 0.963199 -0.255750 1.000000
41.748100 44.020199 -798.170288 0.004984 0.014953 0.999876 1.000000
41.077301 43.894100 -798.175171 -0.083889 0.970362 -0.226627 1.000000
40.493301 43.675499 -798.139526 -0.205948 0.978546 0.005818 1.000000
39.819500 43.574699 -798.153870 -0.276815 0.952296 -0.128474 1.000000
39.147400 43.373001 -798.131104 -0.294887 0.954931 0.033881 1.000000
38.473499 43.176201 -798.110291 -0.296667 0.934570 -0.196385 1.000000
37.797100 43.038399 -798.111328 -0.400221 0.206708 -0.892802 1.000000
37.120201 42.838600 -798.089600 -0.007343 0.068188 -0.997645 1.000000
36.440601 42.780701 -798.120178 0.945536 0.325224 -0.013813 1.000000
35.846001 42.579102 -798.091614 -0.458234 0.888082 0.036497 1.000000
35.164902 42.475201 -798.105286 0.988599 0.080535 0.127222 1.000000
34.483101 42.403500 -798.130981 -0.113845 0.652022 0.749604 1.000000
33.801102 42.358601 -798.166626 -0.149447 0.717046 0.680816 1.000000
33.117401 42.240501 -798.175415 -0.426595 0.899046 -0.098659 1.000000
32.516800 42.067200 -798.157593 -0.155384 0.878571 0.451629 1.000000
31.831499 41.977200 -798.176819 -0.353967 0.857869 -0.372516 1.000000
31.229000 41.826500 -798.167480 -0.139043 0.778940 0.611490 1.000000
30.624901 41.666302 -798.154724 -0.076623 0.979076 0.188518 1.000000
29.348200 41.846100 -798.318115 0.161329 0.141319 -0.976730 1.000000
74.709602 43.543201 -795.171326 -0.051294 0.929862 -0.364316 1.000000
74.032097 43.431999 -795.181885 0.049186 0.918582 -0.392159 1.000000
69.095703 43.512501 -795.585571 0.085479 0.875805 -0.475036 1.000000
68.432800 43.588600 -795.663696 -0.023580 0.811440 -0.583960 1.000000
67.745003 43.464401 -795.670288 -0.178873 0.741480 -0.646693 1.000000
65.603699 43.216202 -795.741821 0.145994 0.924629 -0.351776 1.000000
64.924004 43.194500 -795.785278 -0.131586 0.863262 -0.487302 1.000000
64.246803 43.194801 -795.836670 0.028653 0.159311 -0.986813 1.000000
63.633400 43.063999 -795.835327 -0.070088 0.799575 -0.596463 1.000000
61.722401 42.819199 -795.890503 0.035277 0.926359 -0.374986 1.000000
54.397701 42.703300 -796.403320 -0.044209 0.904268 -0.424671 1.000000
53.714699 42.749500 -796.471924 0.016944 0.916295 -0.400146 1.000000
53.040501 42.836498 -796.554871 0.140687 0.935636 -0.323716 1.000000
52.344700 42.832600 -796.606201 0.099906 0.941784 -0.321032 1.000000
51.724499 42.785400 -796.635925 -0.127422 0.930319 -0.343903 1.000000
51.007000 42.702702 -796.659973 -0.301421 0.918685 -0.255270 1.000000
50.368198 42.592400 -796.668030 -0.015264 0.978048 -0.207821 1.000000
49.205799 42.500198 -796.722412 0.006661 0.875267 -0.483595 1.000000
46.926102 42.532902 -796.907104 -0.194260 0.870461 -0.452284 1.000000
30.060600 41.715099 -797.885925 0.087861 0.948115 0.305547 1.000000
28.787001 41.966999 -798.074707 0.126751 0.975101 -0.181969 1.000000
28.200701 42.216202 -798.210388 0.243178 0.881706 0.404302 1.000000
27.517000 42.211300 -798.260376 -0.098656 0.358133 0.928444 1.000000
73.437798 43.569099 -794.998230 0.080369 0.858674 -0.506181 1.000000
72.772598 43.620899 -795.067627 0.077866 0.850866 -0.519580 1.000000
72.106697 43.664799 -795.133972 -0.102800 0.829641 -0.548751 1.000000
71.435204 43.650799 -795.179688 0.073367 0.781145 -0.620025 1.000000
70.765701 43.661598 -795.234375 0.020761 0.812434 -0.582683 1.000000
70.094002 43.654999 -795.282776 -0.011969 0.887066 -0.461487 1.000000
67.129402 43.476799 -795.442078 -0.087651 0.889028 -0.449384 1.000000
66.452400 43.459900 -795.487183 0.085407 0.974139 -0.209186 1.000000
62.757198 43.103901 -795.636902 -0.035429 0.922459 -0.384467 1.000000
58.215302 42.576599 -795.788025 0.136107 0.984064 -0.114426 1.000000
57.551701 42.706100 -795.885620 0.097503 0.938965 -0.329907 1.000000
56.871201 42.750401 -795.953430 0.134448 0.898677 -0.417496 1.000000
56.191101 42.799000 -796.022583 0.106211 0.914516 -0.390359 1.000000
55.508499 42.838600 -796.088684 0.093517 0.891899 -0.442460 1.000000
48.551300 42.541698 -796.507019 0.257749 0.834985 -0.486174 1.000000
47.875599 42.650002 -796.597778 0.131848 0.936526 -0.324862 1.000000
43.049400 44.253700 -797.549622 -0.022915 0.874816 -0.483912 1.000000
42.124401 44.143101 -797.579224 -0.087003 0.932944 -0.349352 1.000000
41.453999 43.993401 -797.575195 -0.123849 0.991909 -0.027894 1.000000
40.783199 43.823002 -797.563721 -0.310749 0.932248 -0.185335 1.000000
40.109901 43.686798 -797.564880 -0.147593 0.915074 -0.375307 1.000000
39.437199 43.488098 -797.543213 -0.350846 0.931557 -0.095441 1.000000
38.761398 43.355301 -797.545776 -0.182844 0.970481 -0.157272 1.000000
38.086201 43.132999 -797.515625 -0.263640 0.962474 -0.064333 1.000000
37.493801 42.936401 -797.488586 -0.126602 0.914036 -0.385370 1.000000
36.813702 42.845200 -797.506775 -0.062693 0.972350 -0.224956 1.000000
36.133099 42.718601 -797.512024 0.126551 0.990748 0.049024 1.000000
35.451401 42.575001 -797.511230 -0.113256 0.307790 -0.944689 1.000000
34.768600 42.454700 -797.518921 -0.003570 0.969785 -0.243934 1.000000
34.085701 42.432999 -797.562683 -0.011034 0.957531 -0.288118 1.000000
33.400501 42.268101 -797.554321 -0.247020 0.942541 -0.224940 1.000000
32.715698 42.198799 -797.580688 -0.147908 0.981569 -0.121015 1.000000
32.028702 42.063499 -797.583313 -0.302507 0.952710 -0.028870 1.000000
31.425699 41.916500 -797.575317 -0.136217 0.971343 -0.194778 1.000000
29.451401 41.810799 -797.686096 0.132860 0.973038 -0.188534 1.000000
61.184898 42.986500 -795.565430 0.055448 0.992410 -0.109765 1.000000
54.873299 42.944401 -796.032593 0.053322 0.887339 -0.458025 1.000000
49.850800 42.695801 -796.325928 0.058558 0.769822 -0.635567 1.000000
30.794901 41.785500 -797.450684 -0.126783 0.884631 0.448726 1.000000
69.490799 43.783100 -795.124084 0.068342 0.866127 -0.495129 1.000000
62.155102 43.089901 -795.452087 -0.015329 0.653579 -0.756703 1.000000
74.306801 43.769600 -794.737976 0.106697 0.962840 -0.248102 1.000000
68.876099 43.878502 -794.984985 0.150161 0.864521 -0.479641 1.000000
68.196404 43.853298 -795.030029 -0.245522 0.956874 -0.155276 1.000000
67.587502 43.713402 -795.029297 -0.223657 0.970847 -0.086214 1.000000
65.948097 43.502399 -795.085205 0.134316 0.868001 -0.478051 1.000000
65.273598 43.551498 -795.155518 0.129915 0.886561 -0.443995 1.000000
64.585503 43.501301 -795.192322 0.014438 0.904337 -0.426574 1.000000
63.895302 43.444599 -795.227112 -0.076638 0.773610 -0.629010 1.000000
63.203098 43.382599 -795.260071 -0.090076 0.928996 -0.358961 1.000000
54.264301 43.053699 -795.850891 0.070003 0.896313 -0.437862 1.000000
53.567799 43.056099 -795.906677 0.135345 0.890430 -0.434530 1.000000
52.882301 43.113098 -795.980591 -0.009096 0.913506 -0.406724 1.000000
52.178501 43.090698 -796.028320 0.037271 0.939478 -0.340577 1.000000
51.551399 43.026402 -796.055420 -0.148238 0.926836 -0.344966 1.000000
50.907001 42.893002 -796.059875 0.099584 0.958338 -0.267714 1.000000
49.203201 42.759399 -796.147827 -0.083926 0.933844 -0.347694 1.000000
47.295502 42.905102 -796.348999 0.267119 0.931383 -0.247332 1.000000
43.633999 44.401001 -797.158386 -0.372858 0.927629 -0.021933 1.000000
28.503000 42.257702 -797.606384 0.223729 0.950508 -0.215593 1.000000
27.771601 42.377701 -797.705872 0.174639 0.295648 -0.939198 1.000000
73.780800 43.894402 -794.359009 0.053317 0.884518 -0.463449 1.000000
73.104301 43.863098 -794.401184 -0.146434 0.871352 -0.468297 1.000000
72.430901 43.875198 -794.458313 0.240571 0.944413 -0.224075 1.000000
71.759003 43.908100 -794.522522 0.055737 0.983109 -0.174327 1.000000
71.088402 43.955299 -794.591492 -0.037613 0.999279 0.005083 1.000000
70.415901 43.982498 -794.653687 -0.038407 0.995301 -0.088886 1.000000
66.924599 43.770302 -794.854126 -0.079642 0.964557 -0.251569 1.000000
62.534000 43.419498 -795.076904 -0.171909 0.835626 -0.521706 1.000000
61.652302 43.254700 -795.088928 -0.012186 0.991490 -0.129614 1.000000
60.739899 43.196602 -795.140320 0.037792 0.988305 -0.147730 1.000000
58.269901 42.613602 -795.131714 0.407166 0.812735 -0.416746 1.000000
57.714100 42.889801 -795.271179 0.516516 0.780406 -0.352389 1.000000
57.040600 42.992001 -795.359619 0.045911 0.927407 -0.371225 1.000000
56.366699 43.091900 -795.447205 -0.101586 0.927817 -0.358937 1.000000
55.682701 43.140701 -795.517883 0.258467 0.869113 -0.421709 1.000000
50.310200 42.923901 -795.864319 0.051514 0.847888 -0.527667 1.000000
48.358601 42.869099 -795.998474 0.305846 0.843018 -0.442468 1.000000
42.954399 44.378899 -796.947083 0.023375 0.991782 0.125782 1.000000
42.283001 44.187901 -796.933472 0.108521 0.981571 -0.157295 1.000000
41.610298 43.993999 -796.918884 -0.206975 0.977450 0.041874 1.000000
40.931000 43.912300 -796.943909 -0.168033 0.977080 -0.130692 1.000000
40.252899 43.785500 -796.953125 0.191280 0.956400 -0.220708 1.000000
39.662399 43.581600 -796.928589 -0.262427 0.956079 -0.130554 1.000000
38.982899 43.431599 -796.929871 -0.286681 0.930654 -0.227368 1.000000
38.301601 43.305599 -796.939575 -0.321775 0.944482 -0.066439 1.000000
37.708302 43.043598 -796.895081 -0.078779 0.954386 -0.287995 1.000000
37.022999 42.991600 -796.930786 0.038560 0.994858 -0.093647 1.000000
36.337799 42.919800 -796.959717 0.878722 0.419220 0.228259 1.000000
35.138401 42.617802 -796.948975 0.951506 0.297264 -0.079184 1.000000
34.537102 42.463600 -796.942627 -0.183185 0.982106 -0.043728 1.000000
33.848400 42.316502 -796.945618 -0.054976 0.973694 0.221128 1.000000
33.158699 42.202202 -796.960022 0.197282 0.979237 -0.046630 1.000000
32.467499 42.043999 -796.959412 0.087180 0.992944 -0.080387 1.000000
31.775900 41.947201 -796.979980 0.015162 0.999660 0.021226 1.000000
30.306801 41.871700 -797.069092 -0.133264 0.708247 0.693273 1.000000
29.107599 42.154099 -797.261292 0.304578 0.779783 -0.546965 1.000000
74.395302 43.970501 -794.067688 0.453790 0.873804 -0.174761 1.000000
69.765099 44.020401 -794.446777 -0.161517 0.946031 -0.280959 1.000000
66.269699 43.790600 -794.640076 -0.187527 0.794323 -0.577828 1.000000
55.046398 43.311901 -795.351013 0.121869 0.927022 -0.354651 1.000000
49.691601 43.176800 -795.722473 -0.081898 0.990851 -0.107275 1.000000
47.738098 43.112701 -795.852783 0.132411 0.787026 -0.602543 1.000000
44.551399 44.571701 -796.607788 -0.618737 0.773794 -0.135675 1.000000
35.752499 42.822201 -796.688477 0.162355 0.014760 0.986622 1.000000
31.186501 41.884499 -796.719971 -0.234667 0.855398 0.461764 1.000000
29.727100 42.143799 -796.924011 0.057937 0.948877 0.310284 1.000000
28.105801 42.525101 -797.182922 -0.166977 0.966914 0.192865 1.000000
73.409203 44.132999 -793.897095 0.215168 0.951339 -0.220581 1.000000
72.728401 44.034100 -793.915771 -0.105184 0.845794 -0.523038 1.000000
72.058197 44.074699 -793.981995 0.064555 0.764616 -0.641245 1.000000
71.387199 44.106899 -794.045288 0.350354 0.834251 -0.425767 1.000000
70.716599 44.142399 -794.109680 0.016272 0.947552 -0.319188 1.000000
69.204803 44.198101 -794.246582 0.041872 0.950358 -0.308327 1.000000
68.534500 44.240299 -794.313416 -0.033082 0.966735 -0.253630 1.000000
67.847603 44.138302 -794.331482 -0.161668 0.878249 -0.450048 1.000000
67.167603 44.106499 -794.373291 -0.020551 0.837106 -0.546654 1.000000
65.700897 43.892200 -794.413086 -0.195336 0.901439 -0.386331 1.000000
65.010201 43.805401 -794.436829 0.115894 0.975752 -0.185679 1.000000
64.337097 43.856300 -794.506775 -0.072861 0.983020 -0.168415 1.000000
63.650799 43.816799 -794.546509 0.003780 0.936167 -0.351535 1.000000
62.956902 43.732498 -794.571289 0.004041 0.850028 -0.526721 1.000000
62.178101 43.661999 -794.607422 0.049199 0.202797 -0.977984 1.000000
61.309101 43.572800 -794.644104 -0.051514 0.847888 -0.527667 1.000000
60.337898 43.398602 -794.659424 -0.184636 0.891196 -0.414341 1.000000
58.029999 43.004101 -794.702209 0.383719 0.844182 -0.374322 1.000000
57.383900 43.248299 -794.836975 0.168650 0.929663 -0.327542 1.000000
56.707401 43.326401 -794.916687 0.194664 0.906989 -0.373466 1.000000
56.025101 43.375900 -794.986877 0.119169 0.927329 -0.354768 1.000000
54.480202 43.449699 -795.132629 -0.089116 0.908984 -0.407192 1.000000
53.853500 43.360100 -795.150330 0.119006 0.945360 -0.303532 1.000000
53.160400 43.373798 -795.208923 0.222626 0.871082 -0.437782 1.000000
52.460701 43.361801 -795.259216 0.015421 0.973874 -0.226565 1.000000
51.754398 43.325699 -795.301575 -0.029666 0.932535 -0.359858 1.000000
51.133400 43.286800 -795.336426 -0.027364 0.923845 -0.381787 1.000000
50.513599 43.257702 -795.374573 -0.016718 0.927190 -0.374219 1.000000
49.068401 43.091999 -795.429626 -0.236391 0.868776 -0.435141 1.000000
43.977501 44.644501 -796.363098 -0.245378 0.959206 -0.140404 1.000000
43.306400 44.489899 -796.361816 0.155311 0.985215 -0.072320 1.000000
42.722500 44.280899 -796.334778 -0.159438 0.987156 0.010177 1.000000
42.048100 44.141800 -796.339111 -0.120914 0.985271 -0.120914 1.000000
41.284500 44.059399 -796.369873 -0.160655 0.977631 -0.135748 1.000000
40.607899 43.930000 -796.377686 0.041661 0.979638 -0.196404 1.000000
39.929901 43.808601 -796.388428 0.066735 0.986979 -0.146349 1.000000
39.252300 43.651100 -796.386597 -0.139883 0.968915 -0.204050 1.000000
38.574100 43.472698 -796.377625 -0.186630 0.959624 -0.210455 1.000000
37.981701 43.228802 -796.339172 -0.453107 0.130072 -0.881916 1.000000
37.298100 43.157600 -796.367676 -0.834376 0.549263 0.046121 1.000000
36.615299 43.008202 -796.369019 -0.210736 0.975719 -0.059688 1.000000
34.903099 42.591999 -796.358093 -0.069461 0.995603 -0.062845 1.000000
34.215801 42.572800 -796.404907 -0.312248 0.034132 -0.949387 1.000000
33.528301 42.536598 -796.445801 -0.251758 0.663437 -0.704605 1.000000
32.838902 42.327301 -796.426880 -0.133052 0.882724 0.450661 1.000000
32.147999 42.147499 -796.418396 -0.190766 0.922741 0.334900 1.000000
30.593201 41.975700 -796.479919 -0.099997 0.031867 0.994477 1.000000
28.801300 42.493401 -796.798523 0.277509 0.940218 -0.197432 1.000000
74.094803 44.174999 -793.541321 -0.137024 0.969415 -0.203616 1.000000
70.150299 44.284698 -793.884216 0.073354 0.971006 -0.227521 1.000000
66.593300 44.175499 -794.121521 0.037368 0.840096 -0.541149 1.000000
59.767799 43.530201 -794.426086 -0.035343 0.922848 -0.383538 1.000000
55.456402 43.522301 -794.756714 0.091895 0.938927 -0.331621 1.000000
49.929199 43.350700 -795.124817 0.017122 0.904835 -0.425417 1.000000
48.514702 43.315899 -795.222107 0.517923 0.776078 -0.359803 1.000000
47.839199 43.431599 -795.314270 0.016573 0.934460 -0.355681 1.000000
45.283298 44.892799 -796.017273 0.664577 0.536709 -0.519885 1.000000
44.649799 44.863701 -796.056213 -0.180097 0.931198 -0.316915 1.000000
36.023102 42.956402 -796.063721 -0.943716 0.314572 -0.102203 1.000000
35.424702 42.747501 -796.037720 -0.131271 0.969879 0.205191 1.000000
31.552799 42.169498 -796.137207 -0.178631 0.944971 -0.274082 1.000000
30.004000 42.220200 -796.274475 0.326759 0.822423 -0.465671 1.000000
29.409599 42.469799 -796.406799 0.307769 0.835820 -0.454624 1.000000
28.212799 42.628502 -796.554199 -0.402193 0.376957 0.834353 1.000000
73.491302 44.327400 -793.267090 -0.072263 0.962242 -0.262430 1.000000
72.815300 44.278900 -793.302307 -0.121342 0.910759 -0.394709 1.000000
72.145599 44.315701 -793.366516 -0.019524 0.917618 -0.396984 1.000000
71.477203 44.366402 -793.435486 0.171576 0.985139 0.007954 1.000000
70.803802 44.362801 -793.486084 -0.074028 0.979355 -0.188104 1.000000
69.544197 44.396301 -793.594482 0.050794 0.992181 -0.114005 1.000000
68.874702 44.439201 -793.660828 0.176984 0.918903 -0.352553 1.000000
68.200996 44.445000 -793.714722 0.189487 0.927783 -0.321425 1.000000
67.523804 44.424702 -793.759827 -0.120590 0.950141 -0.287560 1.000000
65.982300 44.260601 -793.821594 -0.078487 0.970496 -0.227986 1.000000
65.298798 44.215401 -793.858582 -0.172375 0.926338 -0.334939 1.000000
64.679703 44.028099 -793.841370 -0.017124 0.902314 -0.430740 1.000000
63.994598 43.990799 -793.881226 -0.147281 0.969491 -0.195947 1.000000
63.320599 44.036201 -793.948792 0.121618 0.958561 -0.257622 1.000000
62.636700 44.017899 -793.995117 -0.173269 0.952308 -0.251173 1.000000
61.945400 43.957901 -794.027527 -0.113826 0.974400 -0.193879 1.000000
61.257000 43.924301 -794.068787 -0.186732 0.947289 -0.260334 1.000000
60.639198 43.806702 -794.075684 -0.080433 0.912027 -0.402165 1.000000
59.234901 43.617199 -794.118225 -0.011798 0.905852 -0.423430 1.000000
58.420502 43.392200 -794.103088 0.056092 0.998017 0.028575 1.000000
57.757999 43.539902 -794.205078 0.219290 0.851449 -0.476388 1.000000
57.082802 43.618000 -794.284119 0.006507 0.909722 -0.415166 1.000000
56.384800 43.579899 -794.324585 0.020151 0.877255 -0.479602 1.000000
54.847301 43.678799 -794.477112 0.099984 0.939854 -0.326616 1.000000
54.157398 43.696098 -794.536072 0.171405 0.958009 -0.229869 1.000000
53.462399 43.693401 -794.588623 -0.238344 0.889720 -0.389345 1.000000
52.831799 43.592999 -794.602417 -0.091079 0.884171 -0.458199 1.000000
52.139999 43.615799 -794.663513 0.094733 0.913011 -0.396782 1.000000
51.440701 43.609901 -794.715271 -0.169493 0.925909 -0.337586 1.000000
50.815899 43.553600 -794.743774 -0.144028 0.918700 -0.367760 1.000000
49.395302 43.476101 -794.826416 -0.067942 0.925871 -0.371681 1.000000
44.121101 44.760201 -795.675903 -0.139754 0.989638 -0.032950 1.000000
43.452599 44.571602 -795.662170 -0.053146 0.983793 -0.171249 1.000000
42.783298 44.374001 -795.645325 -0.396630 0.915611 0.065881 1.000000
42.106602 44.283798 -795.666199 -0.074339 0.945535 -0.316917 1.000000
41.430199 44.173698 -795.680176 -0.025607 0.992004 -0.123583 1.000000
40.753799 44.050301 -795.689575 -0.215827 0.937109 -0.274310 1.000000
40.075600 43.947399 -795.706177 -0.996490 0.037869 -0.074656 1.000000
39.399502 43.767300 -795.695923 -0.093215 0.987609 -0.126253 1.000000
38.721199 43.609100 -795.693420 -0.171509 0.982281 -0.075560 1.000000
38.128601 43.395901 -795.665283 -0.104677 0.506176 -0.856054 1.000000
37.446800 43.274700 -795.675781 0.082792 0.974967 -0.206362 1.000000
36.763599 43.181301 -795.696106 0.949647 0.309751 -0.047164 1.000000
34.881699 42.787201 -795.704712 0.014346 0.410810 -0.911608 1.000000
34.195202 42.718601 -795.733826 -0.384543 0.884300 -0.264841 1.000000
33.593601 42.560101 -795.725281 0.962384 0.248648 0.109508 1.000000
32.905602 42.496700 -795.756287 0.935820 0.202226 0.288696 1.000000
32.216702 42.408401 -795.778687 0.040075 0.520975 -0.852630 1.000000
31.011900 42.368599 -795.857727 -0.070919 0.678793 0.730897 1.000000
28.877100 42.793400 -796.168701 0.101628 0.667208 -0.737906 1.000000
74.352997 44.485500 -792.837891 -0.066771 0.963764 -0.258264 1.000000
70.235298 44.486099 -793.154114 0.150659 0.977419 -0.148169 1.000000
66.949898 44.509998 -793.414429 0.011240 0.947871 -0.318455 1.000000
60.055500 43.885601 -793.727417 -0.067519 0.888775 -0.453344 1.000000
55.815498 43.761700 -794.009888 0.034113 0.866475 -0.498053 1.000000
50.238701 43.718102 -794.422729 0.061576 0.890806 -0.450192 1.000000
48.816502 43.640598 -794.505005 0.067331 0.933388 -0.352496 1.000000
48.157001 43.814800 -794.615784 0.182905 0.817782 -0.545692 1.000000
45.941399 45.167000 -795.253174 -0.350160 0.921105 -0.170158 1.000000
45.297699 45.159801 -795.300110 -0.199600 0.978879 0.044223 1.000000
44.629200 45.009399 -795.299377 -0.115830 0.981507 -0.152408 1.000000
36.264198 43.048302 -795.263184 -0.187982 0.942655 0.275799 1.000000
35.578899 43.001900 -795.299683 0.979228 0.122249 -0.161764 1.000000
31.713699 42.501598 -795.423279 -0.236840 0.934747 -0.264868 1.000000
30.510599 42.517502 -795.521118 0.347484 0.931582 -0.106814 1.000000
29.914499 42.701000 -795.630188 0.257437 0.939296 -0.226823 1.000000
29.319201 42.865101 -795.732727 0.062687 0.997680 0.026562 1.000000
73.803802 44.639801 -792.487671 -0.071801 0.943859 -0.322452 1.000000
73.118401 44.460098 -792.478516 -0.254943 0.873444 -0.414848 1.000000
72.444099 44.439400 -792.523315 0.185059 0.957246 -0.222337 1.000000
71.782402 44.569099 -792.619202 0.248768 0.944220 -0.215783 1.000000
71.110802 44.580898 -792.675110 -0.105576 0.967994 -0.227688 1.000000
69.685402 44.633202 -792.803223 -0.036736 0.980010 -0.195528 1.000000
69.014000 44.655300 -792.862610 0.069499 0.985941 -0.151955 1.000000
68.343803 44.689301 -792.926086 -0.005255 0.997353 -0.072516 1.000000
67.671997 44.711800 -792.985718 0.107153 0.987930 -0.111863 1.000000
66.394798 44.620499 -793.052612 -0.022907 0.970523 -0.239918 1.000000
65.710999 44.562401 -793.085327 -0.053350 0.982827 -0.176648 1.000000
65.029900 44.533798 -793.127930 -0.021794 0.934570 -0.355111 1.000000
64.344902 44.483002 -793.163208 -0.095269 0.982836 -0.157977 1.000000
63.645302 44.339298 -793.167480 -0.127707 0.991672 0.016657 1.000000
62.959599 44.302700 -793.207703 0.132622 0.985701 -0.103947 1.000000
62.280602 44.316299 -793.264771 -0.044327 0.953654 -0.297621 1.000000
61.591999 44.273399 -793.303101 -0.067361 0.959579 -0.273258 1.000000
60.894600 44.183998 -793.325928 -0.133898 0.963288 -0.232697 1.000000
59.509800 44.091499 -793.400818 -0.074252 0.965279 -0.250444 1.000000
58.890400 43.984001 -793.411377 -0.162825 0.980620 -0.108958 1.000000
58.261902 43.834900 -793.408325 -0.135920 0.956718 -0.257324 1.000000
57.602600 43.993301 -793.513916 0.106172 0.965777 -0.236647 1.000000
56.917000 44.010899 -793.572876 0.047812 0.942031 -0.332101 1.000000
55.273800 43.994999 -793.694214 0.060790 0.909145 -0.412020 1.000000
54.578701 43.981201 -793.742981 -0.019252 0.930501 -0.365783 1.000000
53.886101 43.984901 -793.797729 -0.114498 0.938883 -0.324635 1.000000
53.267799 43.935101 -793.828186 0.104159 0.985316 -0.135286 1.000000
52.577000 43.956299 -793.888916 0.062851 0.953026 -0.296297 1.000000
51.877899 43.944801 -793.938782 -0.008721 0.948148 -0.317710 1.000000
51.175999 43.926399 -793.986572 0.026321 0.951320 -0.307080 1.000000
49.687000 43.915501 -794.097717 -0.152694 0.920364 -0.360021 1.000000
44.160400 44.952702 -794.882874 -0.048512 0.997187 -0.057136 1.000000
43.489399 44.810799 -794.885620 -0.336153 0.927560 0.163195 1.000000
42.907501 44.584900 -794.852417 -0.103202 0.954947 -0.278254 1.000000
42.231800 44.485199 -794.869995 -0.110475 0.989624 -0.091869 1.000000
41.557400 44.346199 -794.873901 -0.158221 0.968623 -0.191666 1.000000
40.880600 44.238300 -794.888794 -0.118169 0.969497 -0.214738 1.000000
40.203098 44.129601 -794.903503 -0.080125 0.962769 -0.258180 1.000000
39.528500 43.918499 -794.882385 -0.212287 0.957295 -0.196266 1.000000
38.850300 43.770802 -794.883728 -0.143037 0.984430 -0.102169 1.000000
38.257198 43.588600 -794.866394 -0.247266 0.615801 -0.748096 1.000000
37.663200 43.393002 -794.844604 -0.313151 0.942140 0.119616 1.000000
36.980202 43.297501 -794.864197 -0.011204 0.949861 -0.312471 1.000000
35.012699 42.994400 -794.911194 0.044197 0.061445 0.997131 1.000000
34.326801 42.890202 -794.927979 -0.071305 0.022349 -0.997204 1.000000
33.639702 42.731098 -794.926025 -0.140666 0.958372 -0.248467 1.000000
32.952599 42.728600 -794.978088 0.141532 0.295196 0.944896 1.000000
32.264599 42.647999 -795.003418 0.110220 0.114960 0.987236 1.000000
31.145700 42.551998 -795.056519 -0.026040 0.533141 -0.845625 1.000000
74.848099 44.797699 -792.014282 0.254596 0.919133 -0.300624 1.000000
70.554497 44.660900 -792.302185 0.007736 0.991285 -0.131508 1.000000
67.114098 44.790401 -792.615784 0.140785 0.947954 -0.285593 1.000000
60.350201 44.384300 -793.003296 -0.072087 0.962429 -0.261791 1.000000
56.360500 44.154400 -793.235229 0.129807 0.914231 -0.383838 1.000000
50.622200 44.097599 -793.663574 -0.029925 0.925070 -0.378615 1.000000
49.114601 44.014301 -793.752380 0.140528 0.867796 -0.476636 1.000000
48.455299 44.184700 -793.862976 0.006663 0.878131 -0.478375 1.000000
46.375599 45.289001 -794.407776 -0.334206 0.187550 0.923651 1.000000
45.778400 45.443100 -794.507813 -0.117058 0.953562 -0.277519 1.000000
45.115700 45.228100 -794.485107 -0.167944 0.970485 -0.173072 1.000000
36.417702 43.342300 -794.511230 0.854340 0.475968 -0.208705 1.000000
35.734001 43.218498 -794.521729 0.994707 0.049902 -0.089823 1.000000
31.701799 42.785301 -794.686523 -0.175536 0.945717 -0.273509 1.000000
30.673901 42.881001 -794.799927 0.179538 0.859112 -0.479263 1.000000
30.078300 43.053200 -794.906128 0.284831 0.928180 -0.239485 1.000000
29.396299 43.160599 -794.996521 -0.255315 0.956440 -0.141548 1.000000
74.291000 45.079399 -791.810913 0.073679 0.925676 -0.371074 1.000000
73.610001 44.927200 -791.812012 -0.136776 0.906671 -0.399048 1.000000
73.006302 44.711800 -791.785095 -0.391224 0.863762 -0.317582 1.000000
72.404099 44.538300 -791.772583 0.029439 0.995462 -0.090497 1.000000
71.736504 44.603901 -791.848083 0.154068 0.979871 0.126952 1.000000
71.072701 44.706699 -791.936218 0.112345 0.990261 -0.082232 1.000000
69.979897 44.719799 -792.026978 0.102613 0.969119 -0.224228 1.000000
69.314003 44.794899 -792.105713 0.010424 0.981058 -0.193432 1.000000
68.644699 44.835999 -792.172913 0.129595 0.959527 -0.250027 1.000000
67.975197 44.876701 -792.239929 0.128197 0.970998 -0.201815 1.000000
66.541901 44.879299 -792.354004 0.075761 0.956649 -0.281216 1.000000
65.866898 44.883701 -792.408875 -0.032073 0.977628 -0.207880 1.000000
65.189796 44.875999 -792.459717 -0.123076 0.951522 -0.281883 1.000000
64.501801 44.794102 -792.485779 -0.145527 0.973132 -0.178429 1.000000
63.815498 44.734299 -792.519287 -0.035504 0.988388 -0.147743 1.000000
63.127399 44.670502 -792.551575 -0.144144 0.947041 -0.286941 1.000000
62.504799 44.486801 -792.537109 -0.189692 0.880819 -0.433792 1.000000
61.826500 44.505100 -792.597107 0.092658 0.983140 -0.157639 1.000000
61.145000 44.507900 -792.651917 0.068695 0.947474 -0.312368 1.000000
59.758400 44.387798 -792.719910 -0.119094 0.956679 -0.265672 1.000000
59.141399 44.286400 -792.733582 -0.081624 0.952281 -0.294106 1.000000
58.514801 44.139599 -792.732178 -0.178890 0.964963 -0.191948 1.000000
57.849300 44.259201 -792.826172 0.204394 0.928937 -0.308706 1.000000
57.169201 44.300301 -792.894226 0.021870 0.930106 -0.366639 1.000000
55.795502 44.322300 -793.010376 0.166338 0.926742 -0.336870 1.000000
55.104900 44.321602 -793.064819 0.117596 0.843498 -0.524101 1.000000
54.414799 44.327400 -793.121277 0.014270 0.917162 -0.398259 1.000000
53.788700 44.231899 -793.137817 -0.060800 0.945627 -0.319521 1.000000
53.099800 44.254398 -793.200012 0.233165 0.910937 -0.340334 1.000000
52.415298 44.299900 -793.269775 0.049117 0.919947 -0.388953 1.000000
51.797401 44.258701 -793.304382 0.041095 0.916021 -0.399019 1.000000
50.036598 44.187199 -793.418823 0.047393 0.946588 -0.318945 1.000000
44.549500 45.111599 -794.172607 -0.186946 0.945646 -0.266091 1.000000
43.881699 44.929600 -794.162415 -0.001100 0.990809 -0.135260 1.000000
43.207401 44.831501 -794.181702 -0.055638 0.943260 -0.327359 1.000000
42.532200 44.736500 -794.202087 0.028660 0.955736 -0.292827 1.000000
41.860401 44.567402 -794.196716 -0.085287 0.963617 -0.253315 1.000000
41.187099 44.402599 -794.192810 -0.022001 0.983090 -0.181796 1.000000
40.509201 44.314301 -794.215820 -0.172392 0.961973 -0.211871 1.000000
39.834301 44.135201 -794.207092 -0.116406 0.975053 -0.189003 1.000000
39.157299 43.975800 -794.205383 -0.364171 0.918161 -0.156073 1.000000
38.479401 43.806301 -794.200317 -0.313529 0.948266 -0.049909 1.000000
37.888302 43.530300 -794.151428 -0.310749 0.932248 -0.185335 1.000000
37.204102 43.513599 -794.199707 0.102747 0.229594 -0.967848 1.000000
35.153599 43.146400 -794.234619 0.060280 0.984568 -0.164292 1.000000
34.468102 43.039101 -794.251587 0.018733 0.117908 0.992848 1.000000
33.781898 42.961201 -794.278809 -0.057833 0.970860 -0.232563 1.000000
33.095200 42.917599 -794.317993 0.001205 0.268825 -0.963188 1.000000
32.408199 42.867699 -794.354980 0.200232 0.970554 -0.133913 1.000000
51.120098 44.267399 -793.242920 -0.054919 0.951504 -0.302693 1.000000
31.140200 42.983501 -794.388489 0.126123 0.969488 0.210204 1.000000
75.253098 44.716499 -791.522217 0.128052 0.813937 0.566665 1.000000
47.824501 43.895199 -794.060730 -0.391884 0.176563 0.902913 1.000000
70.565598 44.743099 -791.554626 0.173953 0.978333 -0.112268 1.000000
67.460098 44.985401 -791.876709 0.014308 0.404527 -0.914414 1.000000
60.592400 44.595200 -792.289185 0.128021 0.873134 -0.470370 1.000000
56.609600 44.459702 -792.557922 -0.030093 0.919808 -0.391213 1.000000
50.497200 44.349899 -793.002014 0.003833 0.926251 -0.376888 1.000000
49.516499 44.281700 -793.056824 0.108895 0.916647 -0.384578 1.000000
48.849800 44.430901 -793.157410 0.018130 0.748900 -0.662435 1.000000
46.844700 45.712898 -793.729980 0.122655 0.972391 -0.198525 1.000000
46.171600 45.633499 -793.757080 0.083997 0.969099 -0.231932 1.000000
45.506100 45.453800 -793.751099 -0.354774 0.933410 -0.053674 1.000000
36.639702 43.585300 -793.841614 -0.945149 0.322765 -0.050151 1.000000
35.957100 43.416599 -793.840515 0.007704 0.991644 -0.128771 1.000000
31.840900 43.042500 -794.042419 0.197264 0.968270 -0.153428 1.000000
30.558701 43.263000 -794.214417 0.135872 0.845910 0.515728 1.000000
29.872299 43.232201 -794.258179 -0.041983 0.130486 0.990561 1.000000
74.228699 45.164101 -790.972473 0.494027 0.866983 0.065406 1.000000
73.558098 45.200199 -791.036499 -0.079949 0.996703 -0.013858 1.000000
72.875900 45.082401 -791.051575 -0.207847 0.975280 -0.075022 1.000000
72.268799 44.867001 -791.029297 -0.150583 0.988410 -0.019247 1.000000
71.591103 44.840099 -791.073486 0.048254 0.993130 -0.106607 1.000000
70.070999 44.853600 -791.196594 -0.031355 0.868403 -0.494867 1.000000
69.399597 44.907398 -791.266418 0.219362 0.926982 -0.304277 1.000000
68.735298 45.028000 -791.357300 0.061247 0.994433 -0.085746 1.000000
68.069603 45.129501 -791.442078 0.168495 0.928812 -0.330028 1.000000
66.888901 45.163799 -791.545471 0.026463 0.986017 -0.164528 1.000000
66.213097 45.178600 -791.603027 -0.097948 0.987741 -0.121550 1.000000
65.534698 45.175999 -791.655212 -0.086603 0.985847 -0.143547 1.000000
64.849899 45.129601 -791.693604 0.066922 0.997459 -0.024432 1.000000
64.165901 45.096802 -791.736389 0.162654 0.930047 -0.329479 1.000000
63.476601 45.033001 -791.769470 -0.088769 0.869374 -0.486117 1.000000
62.784199 44.957100 -791.799011 -0.040982 0.918783 -0.392631 1.000000
62.086601 44.856300 -791.820923 -0.157200 0.889841 -0.428335 1.000000
61.467201 44.719299 -791.824890 -0.126602 0.914036 -0.385370 1.000000
60.103001 44.757599 -791.943787 -0.295333 0.933589 -0.202954 1.000000
59.406502 44.697498 -791.978821 -0.136511 0.988244 0.068839 1.000000
58.785599 44.585201 -791.990906 -0.147103 0.863684 -0.482090 1.000000
58.093102 44.563702 -792.038025 0.154854 0.845060 -0.511755 1.000000
57.412399 44.612499 -792.106873 0.088392 0.879713 -0.467216 1.000000
56.123100 44.642300 -792.217285 0.343018 0.841099 -0.418200 1.000000
55.440399 44.689201 -792.285828 0.112708 0.908619 -0.402130 1.000000
54.756901 44.734100 -792.353577 0.041067 0.961971 -0.270049 1.000000
54.139599 44.682400 -792.385071 -0.105486 0.957185 -0.269574 1.000000
53.500401 44.532501 -792.386475 -0.285166 0.867698 -0.407162 1.000000
52.813301 44.574501 -792.453674 0.025420 0.999527 -0.017286 1.000000
52.121300 44.597000 -792.515015 -0.118502 0.946682 -0.299583 1.000000
51.499100 44.544701 -792.546692 -0.035781 0.910418 -0.412140 1.000000
50.009300 44.531601 -792.658813 -0.174528 0.872638 -0.456118 1.000000
45.014900 45.387901 -793.325928 -0.206598 0.972891 -0.103925 1.000000
44.349098 45.180698 -793.310913 -0.060102 0.952686 -0.297954 1.000000
43.667599 45.185799 -793.365723 0.042041 0.949111 -0.312124 1.000000
42.999500 44.981998 -793.351929 -0.109736 0.987620 -0.112095 1.000000
42.328300 44.807598 -793.347778 0.064248 0.996387 -0.055536 1.000000
41.655998 44.627399 -793.341980 -0.185692 0.979436 -0.078889 1.000000
40.977501 44.547798 -793.369324 0.014682 0.988200 -0.152465 1.000000
40.299301 44.452099 -793.391174 -0.152128 0.982136 0.110749 1.000000
39.623600 44.278900 -793.387878 -0.083351 0.992219 -0.092485 1.000000
39.034801 44.025700 -793.351929 -0.232790 0.969750 0.073447 1.000000
38.356800 43.832298 -793.342285 -0.219583 0.966935 -0.129695 1.000000
37.675201 43.712002 -793.356628 -0.025119 0.994948 -0.097201 1.000000
35.453602 43.363899 -793.417419 -0.953230 0.302123 0.008632 1.000000
34.768200 43.284401 -793.445129 0.983919 0.003412 0.178584 1.000000
34.082100 43.214100 -793.476013 0.990764 0.135555 -0.003306 1.000000
33.395699 43.209000 -793.527893 -0.037213 0.975933 -0.214873 1.000000
32.709099 43.168999 -793.568481 0.256459 0.966279 -0.023093 1.000000
31.337999 43.264400 -793.706482 0.175986 0.984387 -0.003406 1.000000
71.109802 45.025101 -790.669373 -0.032438 0.720698 -0.692490 1.000000
70.435501 45.039700 -790.726624 -0.110749 0.982136 -0.152128 1.000000
67.581802 45.238098 -791.012695 0.102419 0.969818 -0.221275 1.000000
60.979801 44.852699 -791.401306 -0.121961 0.565725 0.815525 1.000000
56.936501 44.817200 -791.704224 -0.008947 0.929231 -0.369392 1.000000
51.026299 44.763901 -792.146423 0.103551 0.909864 -0.401776 1.000000
49.535999 44.748600 -792.257324 -0.102970 0.940106 -0.324958 1.000000
48.888401 44.859299 -792.343628 -0.583522 0.733060 -0.349463 1.000000
47.568401 45.943600 -792.797180 0.040569 0.967509 -0.249561 1.000000
46.947899 45.925201 -792.839417 -0.224659 0.968446 -0.107887 1.000000
46.279400 45.795300 -792.849426 -0.398782 0.910113 -0.112548 1.000000
45.612999 45.629700 -792.847595 -0.016685 0.991061 -0.132364 1.000000
37.178299 43.771500 -792.901917 0.031142 0.957943 -0.285265 1.000000
36.495701 43.647099 -792.914673 -0.083264 0.939691 -0.331734 1.000000
35.811401 43.577000 -792.945313 -0.027195 0.092464 -0.995345 1.000000
32.298302 43.399200 -793.160828 0.023952 0.044781 -0.998710 1.000000
30.929501 43.528801 -793.309326 0.181419 0.968854 -0.168552 1.000000
30.326300 43.362301 -793.302185 -0.470918 0.867017 0.162841 1.000000
72.786400 45.184502 -790.094421 -0.280345 0.935878 0.213397 1.000000
72.118500 45.264999 -790.171997 -0.013037 0.999830 -0.013037 1.000000
69.923401 45.241299 -790.333923 0.115777 0.905292 -0.408707 1.000000
69.246300 45.225899 -790.381226 0.092686 0.900579 -0.424697 1.000000
68.577003 45.291698 -790.454102 0.395438 0.909648 -0.127155 1.000000
67.066704 45.395901 -790.604370 0.176534 0.963746 -0.200072 1.000000
66.385498 45.360500 -790.645630 -0.135307 0.933483 -0.332118 1.000000
65.705902 45.345001 -790.693115 0.014133 0.926332 -0.376443 1.000000
65.030403 45.366901 -790.752319 0.071576 0.857515 -0.509456 1.000000
64.345398 45.320801 -790.790222 -0.093608 0.945306 -0.312465 1.000000
63.654900 45.243401 -790.818481 0.218811 0.937960 -0.268984 1.000000
62.974300 45.243999 -790.871277 0.296587 0.791427 -0.534491 1.000000
62.288200 45.212399 -790.914001 0.063372 0.989761 -0.127897 1.000000
61.600101 45.174400 -790.954895 -0.143909 0.983179 -0.112467 1.000000
60.561901 45.092400 -791.008484 0.061424 0.896796 -0.438160 1.000000
59.863602 45.010799 -791.036011 -0.028101 0.966439 -0.255355 1.000000
59.178902 45.017700 -791.091125 0.044962 0.973365 -0.224810 1.000000
58.563499 44.934502 -791.111694 -0.040153 0.936476 -0.348426 1.000000
57.890999 45.020100 -791.191284 0.088793 0.872427 -0.480610 1.000000
56.517200 45.040100 -791.303772 0.112581 0.907600 -0.404459 1.000000
55.836498 45.088501 -791.372070 0.087980 0.921764 -0.377639 1.000000
55.146400 45.091702 -791.426392 -0.032009 0.941056 -0.336732 1.000000
54.451599 45.076500 -791.475220 -0.166897 0.905810 -0.389427 1.000000
53.813099 44.920601 -791.473999 0.009708 0.644917 -0.764191 1.000000
53.118801 44.920799 -791.527588 0.169772 0.924626 -0.340947 1.000000
52.424500 44.925900 -791.582886 -0.011454 0.932824 -0.360149 1.000000
51.731300 44.940201 -791.641113 0.147516 0.930594 -0.335014 1.000000
50.602798 44.962898 -791.735474 0.110504 0.856766 -0.503727 1.000000
49.909302 44.986500 -791.796692 0.021870 0.930106 -0.366639 1.000000
45.169498 45.666500 -792.382813 -0.141493 0.985696 -0.091554 1.000000
44.500000 45.523399 -792.388123 -0.033687 0.956973 -0.288215 1.000000
43.826698 45.421501 -792.407227 -0.913880 0.404850 0.030331 1.000000
43.159698 45.213501 -792.391418 -0.063391 0.990050 -0.125629 1.000000
42.488899 45.041599 -792.387512 0.057412 0.973560 -0.221097 1.000000
41.817699 44.855801 -792.379211 -0.183605 0.969381 -0.163061 1.000000
41.140598 44.758900 -792.400085 0.035137 0.997665 -0.058561 1.000000
40.465900 44.595901 -792.399475 -0.745009 0.644455 0.172160 1.000000
39.879101 44.346298 -792.364014 -0.063349 0.994688 0.081131 1.000000
39.199100 44.251598 -792.385925 -0.064815 0.974678 -0.214013 1.000000
38.519402 44.130501 -792.399170 0.059229 0.988304 -0.140523 1.000000
37.839199 43.996498 -792.408325 0.232041 0.971136 -0.055248 1.000000
35.362701 43.694500 -792.501770 0.482683 0.845076 0.229922 1.000000
34.678398 43.595200 -792.522522 0.981044 0.153097 0.118803 1.000000
33.993000 43.595901 -792.575684 -0.157967 0.242925 0.957097 1.000000
33.307701 43.579800 -792.623413 -0.079719 0.309727 0.947478 1.000000
31.852200 43.615898 -792.747375 0.912229 0.257519 -0.318625 1.000000
71.615601 45.283901 -789.758972 0.306199 0.951359 -0.034022 1.000000
70.945702 45.337799 -789.828125 0.091787 0.969423 -0.227582 1.000000
68.086700 45.443401 -790.082703 -0.061768 0.977382 -0.202259 1.000000
61.105202 45.290100 -790.571716 0.003134 0.997543 -0.069985 1.000000
57.415501 45.250099 -790.843323 -0.031525 0.853906 -0.519471 1.000000
51.242699 45.101898 -791.271423 0.054390 0.921985 -0.383387 1.000000
49.438702 45.223999 -791.450073 0.159251 0.967160 -0.198093 1.000000
47.688900 46.086700 -791.864014 -0.442424 0.836384 -0.323610 1.000000
47.012299 46.051601 -791.904785 -0.230081 0.953961 -0.192407 1.000000
46.340302 45.965000 -791.928589 -0.259921 0.961580 -0.088348 1.000000
45.673199 45.813999 -791.931213 -0.198014 0.977920 -0.066814 1.000000
37.329399 44.040100 -792.001221 0.185718 0.097164 0.977787 1.000000
36.647999 43.903099 -792.009521 -0.079534 0.977662 -0.194554 1.000000
35.964500 43.838402 -792.041321 -0.081508 0.986370 -0.142935 1.000000
32.798599 43.721500 -792.247681 -0.319512 0.942627 -0.096782 1.000000
31.346001 43.853600 -792.402405 -0.135033 0.058861 0.989091 1.000000
70.422997 45.418499 -789.454712 -0.184383 0.981396 -0.053531 1.000000
69.750603 45.442001 -789.513977 -0.094683 0.977569 -0.188136 1.000000
69.082298 45.509499 -789.587219 0.131742 0.951469 -0.278122 1.000000
67.564598 45.528000 -789.709778 -0.043313 0.925325 -0.376693 1.000000
66.891800 45.557098 -789.770996 0.112177 0.951526 -0.286382 1.000000
66.221100 45.605801 -789.838318 0.034797 0.975511 -0.217180 1.000000
65.547302 45.630600 -789.898071 0.163086 0.950212 -0.265520 1.000000
64.869797 45.629601 -789.949890 0.166785 0.982710 -0.080393 1.000000
64.191299 45.625401 -790.000671 0.053429 0.981909 -0.181659 1.000000
63.510899 45.613098 -790.049011 0.051696 0.995430 -0.080294 1.000000
62.824699 45.566200 -790.086609 0.001189 0.969226 -0.246171 1.000000
62.139500 45.532902 -790.128479 -0.076868 0.947171 -0.311381 1.000000
60.592300 45.448299 -790.220215 0.402764 0.807132 -0.431647 1.000000
59.910500 45.457500 -790.275574 0.152872 0.869185 -0.470263 1.000000
59.294399 45.353802 -790.289490 -0.054049 0.929375 -0.365159 1.000000
58.597000 45.283798 -790.320496 -0.021175 0.952859 -0.302673 1.000000
57.936100 45.426300 -790.417297 0.115250 0.934202 -0.337614 1.000000
56.912899 45.464401 -790.508301 -0.038266 0.964057 -0.262925 1.000000
56.217400 45.424198 -790.548828 0.024913 0.913906 -0.405161 1.000000
55.528301 45.423302 -790.601501 -0.041320 0.957865 -0.284229 1.000000
54.835201 45.406898 -790.649475 -0.069292 0.841401 -0.535951 1.000000
54.127102 45.323299 -790.676880 -0.121152 0.460376 -0.879418 1.000000
53.490398 45.175400 -790.678101 -0.209181 0.819930 -0.532878 1.000000
52.804699 45.213501 -790.743225 0.003783 0.936995 -0.349324 1.000000
52.113201 45.228100 -790.801025 0.041940 0.949363 -0.311371 1.000000
50.739899 45.311298 -790.933472 0.088375 0.943108 -0.320525 1.000000
50.049198 45.340099 -790.995911 0.094728 0.956363 -0.276398 1.000000
45.147099 45.719101 -791.495178 0.031561 0.995797 -0.085976 1.000000
44.468700 45.696999 -791.540222 -0.098280 0.981586 -0.163800 1.000000
43.799702 45.543800 -791.542175 -0.024581 0.997130 0.071605 1.000000
43.126999 45.430199 -791.557312 -0.216308 0.976308 -0.005846 1.000000
42.459099 45.226398 -791.542786 -0.159437 0.975451 -0.151904 1.000000
41.787201 45.066799 -791.542908 -0.090412 0.974713 -0.204355 1.000000
41.202599 44.843800 -791.515808 -0.086330 0.995532 0.038248 1.000000
40.616001 44.632099 -791.492615 -0.017620 0.978485 -0.205564 1.000000
39.938202 44.519100 -791.508179 -0.098675 0.973012 -0.208592 1.000000
39.258099 44.445202 -791.536621 -0.255375 0.965984 -0.040712 1.000000
38.580799 44.277599 -791.534485 -0.159785 0.987042 -0.014732 1.000000
37.900200 44.177601 -791.554626 0.146924 0.956990 -0.250167 1.000000
35.426201 43.908001 -791.657776 0.016339 0.103480 0.994497 1.000000
34.743000 43.772099 -791.666382 0.130046 0.910324 -0.392936 1.000000
34.057999 43.859699 -791.747375 0.194903 0.929645 -0.312686 1.000000
33.373798 43.826698 -791.789307 -0.029354 0.940612 -0.338212 1.000000
32.262699 43.890202 -791.895325 0.218438 0.951088 0.218438 1.000000
68.578300 45.561600 -789.165405 0.421276 0.895390 -0.144233 1.000000
61.639599 45.633301 -789.718872 -0.019417 0.922941 -0.384451 1.000000
60.992199 45.848301 -789.837708 0.408637 0.878645 -0.246979 1.000000
57.451000 45.618698 -790.034180 -0.014801 0.867900 -0.496519 1.000000
51.621601 45.392601 -790.406921 0.006258 0.942486 -0.334188 1.000000
49.509499 45.542900 -790.616699 -0.439957 0.875469 0.199980 1.000000
47.901901 46.244202 -790.965881 0.257112 0.890231 -0.376008 1.000000
47.230301 46.161900 -790.990723 0.067762 0.997070 -0.035494 1.000000
46.554199 46.126099 -791.030823 0.112277 0.983930 -0.138837 1.000000
45.886501 45.991901 -791.038513 0.045981 0.997677 -0.050258 1.000000
37.382599 44.224800 -791.118225 -0.135471 0.978127 -0.157843 1.000000
36.701698 44.108799 -791.132874 -0.103578 0.965449 -0.239124 1.000000
36.018398 44.085701 -791.177612 -0.186117 0.982092 -0.029264 1.000000
32.857498 43.929401 -791.368774 -0.227593 0.928749 -0.292620 1.000000
31.747801 44.028099 -791.485413 0.419505 0.038621 -0.906931 1.000000
68.035698 45.723099 -788.795593 -0.105864 0.016371 0.994246 1.000000
67.365097 45.763401 -788.859619 0.039057 0.892935 -0.448488 1.000000
66.688698 45.754601 -788.908325 0.175387 0.961334 -0.212311 1.000000
66.006599 45.704800 -788.944214 0.056443 0.994949 -0.083005 1.000000
65.332901 45.729198 -789.003418 -0.063848 0.979405 0.191544 1.000000
64.653397 45.712502 -789.049683 0.016557 0.992328 0.122523 1.000000
63.980801 45.751598 -789.113525 0.022882 0.994809 -0.099154 1.000000
63.301300 45.744499 -789.163025 0.025272 0.971163 -0.237074 1.000000
62.621899 45.742699 -789.214111 -0.100399 0.938398 -0.330648 1.000000
60.580002 45.742401 -789.369507 0.172433 0.936657 -0.304862 1.000000
59.889599 45.692501 -789.405884 -0.025151 0.973718 -0.226363 1.000000
