ply
format ascii 1.0
element vertex 690
property float x
property float y
property float z
property float nx
property float ny
property float nz
property float label
element face 0
property list uchar int vertex_indices
end_header
95.179100 10.708900 -736.076294 0.478889 0.777586 -0.407462 1.000000
94.814598 10.827800 -736.106873 0.417274 0.724045 -0.549219 1.000000
94.436996 11.075000 -736.163879 0.585990 0.646437 -0.488605 1.000000
94.130203 11.328500 -736.221130 0.650488 0.744062 -0.152435 1.000000
93.825996 11.569000 -736.275391 0.624817 0.761638 -0.171787 1.000000
93.312897 11.820100 -736.335571 0.535530 0.721224 -0.439367 1.000000
93.012703 12.047800 -736.387329 0.549973 0.725040 -0.414544 1.000000
92.641296 12.306900 -736.446716 0.629859 0.606344 -0.485411 1.000000
92.200798 12.582100 -736.510498 0.366505 0.823445 -0.433142 1.000000
91.844299 12.706400 -736.542114 0.397181 0.802401 -0.445421 1.000000
91.485497 12.867800 -736.581177 0.354580 0.812514 -0.462703 1.000000
91.123703 13.078300 -736.630493 0.426475 0.783221 -0.452420 1.000000
90.769798 13.202400 -736.661987 0.464894 0.632726 -0.619299 1.000000
90.406898 13.457400 -736.720276 0.428289 0.608270 -0.668264 1.000000
90.120102 13.628000 -736.760071 0.412975 0.668389 -0.618633 1.000000
89.767403 13.774600 -736.796204 0.433940 0.838114 -0.330546 1.000000
89.408798 14.022100 -736.853027 0.567978 0.710387 -0.415634 1.000000
89.056602 14.191900 -736.893677 0.434118 0.782062 -0.447125 1.000000
88.707397 14.329000 -736.927795 0.311088 0.733395 -0.604447 1.000000
88.357597 14.491400 -736.966980 0.442206 0.645787 -0.622425 1.000000
88.074699 14.689100 -737.012329 0.513900 0.611625 -0.601516 1.000000
87.723503 14.913000 -737.064087 0.554804 0.645867 -0.524450 1.000000
87.376801 15.073000 -737.102783 0.332075 0.870740 -0.362681 1.000000
87.098000 15.246600 -737.143127 0.629489 0.750128 -0.202612 1.000000
86.754402 15.377400 -737.175781 0.362311 0.654127 -0.663964 1.000000
86.340500 15.597100 -737.227783 0.437240 0.576891 -0.689941 1.000000
86.062798 15.812900 -737.276672 0.485190 0.452296 -0.748344 1.000000
85.719398 16.015900 -737.324097 0.142373 0.615952 0.774811 1.000000
95.291000 10.721500 -735.763916 0.163389 0.910714 0.379346 1.000000
94.931000 10.798500 -735.785828 0.341879 0.781667 0.521646 1.000000
94.626900 11.010900 -735.834473 0.615069 0.788444 -0.006880 1.000000
94.325699 11.205900 -735.879578 0.650798 0.725710 -0.223175 1.000000
94.014198 11.509100 -735.947021 0.536735 0.843046 0.034495 1.000000
93.644997 11.708700 -735.994080 0.546413 0.836911 -0.031816 1.000000
93.198799 11.996900 -736.060913 0.594965 0.745711 -0.299888 1.000000
92.898300 12.233100 -736.114319 0.640902 0.680241 -0.355692 1.000000
92.596497 12.496800 -736.173523 0.636844 0.685958 -0.351983 1.000000
92.086998 12.778400 -736.239929 0.395423 0.733419 -0.552935 1.000000
91.793503 12.980600 -736.286316 0.492036 0.708866 -0.505380 1.000000
91.441101 13.072300 -736.311218 0.334335 0.812863 -0.476943 1.000000
91.011200 13.282500 -736.361572 0.457693 0.756259 -0.467536 1.000000
90.655899 13.433800 -736.398621 0.387792 0.812288 -0.435667 1.000000
90.296997 13.645600 -736.448181 0.465418 0.754866 -0.462129 1.000000
89.940598 13.840800 -736.494324 0.444692 0.773732 -0.451208 1.000000
89.588402 13.990300 -736.530884 0.502238 0.757448 -0.417169 1.000000
89.302803 14.179000 -736.574524 0.446988 0.778572 -0.440486 1.000000
88.947098 14.413500 -736.628479 0.560553 0.800132 -0.213471 1.000000
88.597099 14.576300 -736.667908 0.509507 0.725259 -0.463037 1.000000
88.315598 14.744800 -736.707214 0.424301 0.680546 -0.597349 1.000000
87.968597 14.884700 -736.741821 0.465780 0.783873 -0.410600 1.000000
87.686401 15.097200 -736.790222 0.532542 0.715033 -0.452909 1.000000
87.339203 15.278100 -736.833191 0.390249 0.594430 -0.703107 1.000000
86.992203 15.476900 -736.879822 0.477491 0.759720 -0.441392 1.000000
86.648903 15.616400 -736.914307 0.428803 0.834045 -0.347126 1.000000
86.372101 15.794000 -736.955383 0.525142 0.754176 -0.394265 1.000000
85.962402 15.956800 -736.995789 0.421787 0.845131 -0.328403 1.000000
85.619499 16.158800 -737.043030 0.447970 0.804420 -0.390168 1.000000
93.400299 12.155600 -735.779175 -0.487026 0.533888 -0.691209 1.000000
93.018204 12.179500 -735.790588 0.520781 0.848945 -0.089888 1.000000
92.786797 12.425900 -735.844971 0.738199 0.672263 0.055902 1.000000
92.487900 12.665000 -735.898987 0.621249 0.781203 -0.061411 1.000000
91.979797 12.939900 -735.964111 0.381800 0.894799 -0.231439 1.000000
91.622398 13.088800 -736.000610 0.376432 0.873262 -0.309375 1.000000
91.261803 13.287000 -736.047424 0.490832 0.797802 -0.350137 1.000000
90.905701 13.443300 -736.085388 0.492818 0.809742 -0.318509 1.000000
90.545601 13.664800 -736.137024 0.515556 0.777374 -0.360404 1.000000
90.257896 13.850000 -736.179810 0.466893 0.779239 -0.418088 1.000000
89.834801 14.029200 -736.223816 0.481708 0.754621 -0.445539 1.000000
89.476402 14.281300 -736.281494 0.519636 0.722178 -0.456549 1.000000
89.125504 14.438500 -736.319702 0.463164 0.781690 -0.417660 1.000000
88.773697 14.625200 -736.364014 0.529243 0.736983 -0.420426 1.000000
88.488503 14.854600 -736.415771 0.523300 0.793698 -0.310163 1.000000
88.140503 15.013300 -736.454285 0.510373 0.719842 -0.470474 1.000000
87.859802 15.194800 -736.496216 0.473192 0.677183 -0.563483 1.000000
87.511803 15.389900 -736.542114 0.500712 0.750247 -0.431761 1.000000
87.167000 15.541600 -736.578979 0.342161 0.779100 -0.525290 1.000000
86.821198 15.734900 -736.624573 0.398906 0.733790 -0.549932 1.000000
86.272797 15.979000 -736.684021 0.388069 0.828408 -0.403908 1.000000
85.863297 16.152399 -736.726379 0.417520 0.731072 -0.539640 1.000000
85.519897 16.389200 -736.780823 0.431315 0.651136 -0.624491 1.000000
92.411797 12.821000 -735.591370 0.744474 0.663206 0.076914 1.000000
92.052597 12.994300 -735.632874 0.508455 0.855063 -0.101691 1.000000
91.756500 13.232000 -735.686707 0.536030 0.774266 -0.336427 1.000000
91.399597 13.386700 -735.724426 0.480019 0.758528 -0.440700 1.000000
91.041298 13.569500 -735.768005 0.415139 0.753157 -0.510309 1.000000
90.752800 13.751900 -735.810181 0.501247 0.672241 -0.544834 1.000000
90.460999 13.989600 -735.864014 0.541375 0.561614 -0.625702 1.000000
90.108498 14.137100 -735.900085 0.445305 0.688805 -0.572058 1.000000
89.818001 14.387900 -735.956482 0.580454 0.637658 -0.506425 1.000000
89.468498 14.519100 -735.989319 0.388711 0.807816 -0.443099 1.000000
89.116699 14.700500 -736.032471 0.565786 0.629964 -0.532007 1.000000
88.833199 14.892300 -736.076477 0.368098 0.763762 -0.530255 1.000000
88.487900 14.994300 -736.103271 0.401873 0.739775 -0.539658 1.000000
88.137398 15.203800 -736.152222 0.499100 0.757650 -0.420553 1.000000
87.789902 15.378400 -736.193787 0.448607 0.774867 -0.445345 1.000000
87.510300 15.565700 -736.237000 0.494348 0.798316 -0.343964 1.000000
87.164101 15.756500 -736.281982 0.446615 0.784419 -0.430375 1.000000
86.820396 15.912700 -736.319824 0.447698 0.731846 -0.513779 1.000000
86.476898 16.087900 -736.361511 0.326855 0.836686 -0.439456 1.000000
86.134102 16.269699 -736.404602 0.504237 0.717247 -0.480938 1.000000
85.859398 16.448000 -736.445801 0.419341 0.817955 -0.393830 1.000000
85.522003 16.524900 -736.467285 0.342461 0.915617 -0.210635 1.000000
91.225700 13.558200 -735.486511 0.380390 0.670211 -0.637276 1.000000
90.341103 14.193500 -735.616699 0.617967 0.754947 -0.219480 1.000000
89.984299 14.329000 -735.646423 0.376238 0.916118 0.138467 1.000000
89.622704 14.547600 -735.691772 0.482412 0.586626 -0.650499 1.000000
89.334396 14.720600 -735.727783 0.442260 0.799284 -0.406879 1.000000
89.045898 14.910900 -735.767090 0.444618 0.684412 -0.577837 1.000000
88.688103 15.123000 -735.811279 0.446699 0.818683 -0.360857 1.000000
88.335503 15.263900 -735.841919 0.331232 0.941737 -0.058453 1.000000
87.983704 15.406000 -735.872681 0.449644 0.892577 -0.033556 1.000000
87.699699 15.580800 -735.908997 0.429938 0.858345 -0.279995 1.000000
87.347397 15.767500 -735.948303 0.456976 0.881210 -0.121006 1.000000
86.998398 15.906900 -735.978577 0.366788 0.930297 -0.003807 1.000000
86.712799 16.177900 -736.033081 0.230433 0.970309 -0.073489 1.000000
86.369102 16.232901 -736.047424 0.403021 0.907842 -0.115746 1.000000
86.021500 16.400499 -736.083008 0.403274 0.914870 0.019576 1.000000
85.677200 16.497999 -736.105286 0.185327 0.950984 -0.247554 1.000000
83.893097 17.166599 -736.251892 0.336712 0.926307 0.169055 1.000000
81.177696 18.143600 -736.732727 0.087542 0.927945 0.362289 1.000000
79.750099 18.727200 -736.956726 0.249321 0.898442 0.361442 1.000000
78.834297 19.070400 -737.043091 0.372131 0.922831 0.099508 1.000000
82.042198 17.753099 -736.474304 0.304103 0.948854 0.084836 1.000000
81.705902 17.911800 -736.507874 0.320565 0.921803 0.217984 1.000000
90.622597 13.940200 -735.570374 0.409833 0.836939 -0.362726 1.000000
92.577400 12.503600 -735.552307 0.549930 0.805639 0.220280 1.000000
80.712799 18.345200 -736.779419 0.494925 0.662697 -0.562034 1.000000
78.264397 19.241199 -737.218384 0.040583 0.580759 -0.813063 1.000000
84.687798 15.723100 -738.531921 0.416738 0.815912 -0.400771 1.000000
68.374199 21.469999 -740.483582 0.361681 0.909245 0.206057 1.000000
92.251801 10.719000 -739.478088 -0.181102 0.410014 0.893918 1.000000
65.336998 20.281099 -744.923889 0.152286 0.986951 -0.052312 1.000000
66.421898 20.241899 -745.501770 -0.051602 0.134166 0.989614 1.000000
67.218597 20.268400 -745.715576 0.308752 0.683780 -0.661149 1.000000
66.584900 20.007700 -745.678223 0.351975 0.757475 -0.549859 1.000000
67.537498 20.297600 -745.972107 0.159226 0.364951 0.917310 1.000000
70.730698 19.329800 -747.179382 -0.648885 0.557873 -0.517423 1.000000
70.189903 19.304701 -747.184570 -0.003091 0.054614 0.998503 1.000000
68.445999 20.431499 -743.471619 0.595846 0.595846 -0.538456 1.000000
77.727997 19.459900 -737.308228 0.239952 0.806549 -0.540279 1.000000
82.684196 17.552799 -736.155518 0.250506 0.913696 -0.320011 1.000000
84.092903 17.099300 -735.957886 0.412428 0.787656 -0.457714 1.000000
84.821701 16.843599 -735.931824 0.183794 0.953852 -0.237457 1.000000
85.341400 16.683800 -736.006470 0.571092 0.674926 -0.467257 1.000000
85.013000 16.924900 -736.575073 -0.046620 0.288538 -0.956333 1.000000
85.204300 17.028601 -736.246887 0.710554 0.695782 0.104884 1.000000
86.760201 15.979600 -735.693481 0.356919 0.923544 0.140268 1.000000
87.467697 15.799100 -735.526611 0.371347 0.346693 -0.861339 1.000000
88.320503 15.357600 -735.523926 -0.081204 0.933182 0.350110 1.000000
89.856300 14.512500 -735.388977 0.165263 0.977910 0.127986 1.000000
90.117897 14.433300 -735.188110 0.584958 0.728346 0.356841 1.000000
90.374603 14.209000 -735.154480 0.565893 0.769934 0.294902 1.000000
91.412498 13.722000 -735.241882 0.602955 0.562421 -0.565798 1.000000
87.871696 15.625100 -735.499023 0.463818 0.744420 -0.480324 1.000000
90.873199 13.968700 -735.326721 0.227525 0.963405 -0.141715 1.000000
88.847900 15.150500 -735.517212 -0.736611 0.563483 0.374022 1.000000
87.141296 15.869200 -735.587891 0.233309 0.840217 -0.489491 1.000000
83.427803 17.664200 -737.098816 -0.319448 0.768922 -0.553816 1.000000
84.380600 17.011700 -736.101990 0.405753 0.901198 0.152335 1.000000
69.384201 20.289600 -743.375183 0.056209 0.989969 0.129625 1.000000
75.164101 20.583599 -738.023987 -0.254624 0.828685 0.498446 1.000000
71.521004 19.913099 -743.107117 -0.538358 0.582236 -0.609239 1.000000
70.275101 20.138700 -743.410889 -0.065287 0.873730 -0.482010 1.000000
69.518097 21.605801 -739.957275 -0.038864 0.901906 0.430181 1.000000
69.727203 21.485201 -739.699280 -0.330259 0.765235 0.552580 1.000000
70.539597 21.525200 -739.953674 0.648661 0.742846 -0.165583 1.000000
70.720802 21.489000 -739.646912 -0.308752 0.683780 0.661149 1.000000
76.348801 19.996000 -737.864075 0.317226 0.739121 0.594195 1.000000
76.699997 19.731400 -737.508911 0.128632 0.938336 0.320903 1.000000
53.908401 18.986601 -771.320801 -0.020978 0.759386 -0.650303 1.000000
54.262699 20.684401 -768.995789 0.837087 0.511302 -0.194566 1.000000
54.065102 20.229300 -769.549194 0.187968 0.981869 -0.024518 1.000000
54.027199 20.102600 -769.913513 -0.466666 0.824914 -0.318967 1.000000
53.948898 19.911600 -770.202698 0.779478 0.397032 -0.484541 1.000000
53.892300 19.761101 -770.493896 0.573879 0.567107 -0.590807 1.000000
53.796600 19.537300 -770.783875 0.474670 0.793262 -0.381345 1.000000
53.730999 19.369600 -771.076294 0.401148 0.572833 -0.714803 1.000000
53.591202 19.051800 -771.440674 0.357708 0.605980 -0.710516 1.000000
53.516602 18.867001 -771.734680 0.535995 0.733901 -0.417251 1.000000
53.437302 18.673401 -772.029480 0.591349 0.431435 -0.681301 1.000000
53.357498 18.478600 -772.325195 0.275031 0.852750 -0.444045 1.000000
53.254200 18.250799 -772.546692 0.718260 0.332378 -0.611251 1.000000
53.182400 18.070801 -772.844299 0.730688 0.563205 -0.385869 1.000000
56.718700 27.126699 -761.029419 -0.070062 0.959209 0.273878 1.000000
56.777901 27.183599 -761.387085 -0.137640 0.990340 0.016785 1.000000
56.776402 27.128700 -761.732422 -0.252213 0.908257 -0.333854 1.000000
56.684799 26.907200 -762.060303 -0.270039 0.901605 -0.337917 1.000000
56.661201 26.811199 -762.402100 -0.125464 0.922371 -0.365364 1.000000
56.596199 26.638700 -762.736816 -0.234667 0.855398 -0.461764 1.000000
56.505600 26.429199 -762.998230 -0.618603 0.730495 -0.289321 1.000000
56.465599 26.302601 -763.338928 -0.351890 0.854147 -0.382893 1.000000
56.341702 26.020599 -763.666199 -0.243334 0.436792 -0.866026 1.000000
56.203201 25.742901 -763.783020 -0.631969 0.767496 -0.107538 1.000000
56.123600 25.542700 -764.119873 -0.838029 0.542254 -0.060563 1.000000
56.083099 25.414700 -764.463928 -0.183769 0.874740 -0.448396 1.000000
55.986099 25.192400 -764.729919 -0.004045 0.848067 -0.529873 1.000000
55.942600 25.058599 -765.074829 -0.191730 0.888397 -0.417122 1.000000
55.890701 24.909100 -765.419312 0.169477 0.890841 -0.421520 1.000000
55.745998 24.619301 -765.540588 -0.323064 0.647752 -0.689961 1.000000
55.646999 24.392700 -765.810120 -0.235109 0.828260 -0.508635 1.000000
55.562698 24.182800 -766.153198 0.072128 0.976785 -0.201714 1.000000
54.015499 20.936501 -768.417786 -0.998439 0.009351 -0.055065 1.000000
54.039902 20.924801 -768.799377 -0.881099 0.467607 -0.070765 1.000000
53.976002 20.750401 -769.159119 -0.797457 0.585796 -0.144586 1.000000
53.915699 20.593700 -769.447021 -0.099241 0.946096 -0.308308 1.000000
53.836399 20.401600 -769.734192 0.789298 0.469705 -0.395456 1.000000
53.781399 20.243601 -770.097229 -0.800434 0.599292 0.012399 1.000000
53.701698 20.050301 -770.386230 0.558272 0.625737 -0.544779 1.000000
53.627102 19.866400 -770.676270 0.449728 0.590163 -0.670412 1.000000
53.529099 19.638599 -770.966309 0.347611 0.608728 -0.713174 1.000000
53.411301 19.373699 -771.256470 0.444741 0.697927 -0.561340 1.000000
53.323399 19.153400 -771.622986 0.576689 0.610513 -0.542866 1.000000
53.244598 18.961100 -771.916870 0.474508 0.714259 -0.514467 1.000000
53.130100 18.701700 -772.210815 0.597476 0.563625 -0.570395 1.000000
53.062901 18.530800 -772.506897 0.438546 0.585284 -0.681997 1.000000
52.840698 18.046801 -772.950928 0.348688 0.515801 -0.782539 1.000000
52.713699 17.763300 -773.248901 -0.644560 0.647874 -0.405957 1.000000
52.612801 17.540001 -773.473328 0.376802 0.502942 -0.777862 1.000000
52.511501 17.304399 -773.773804 -0.853175 0.521609 0.004043 1.000000
52.847500 17.889799 -774.073792 -0.935992 0.272823 -0.222456 1.000000
52.886501 17.899900 -774.491882 -0.960797 0.269631 -0.064559 1.000000
52.073399 16.375900 -774.478027 0.966874 0.250671 0.048158 1.000000
51.992001 16.180401 -774.760803 0.698537 0.223469 -0.679785 1.000000
51.835800 15.852100 -774.991821 -0.244261 0.669748 -0.701266 1.000000
51.702702 15.579100 -775.146973 -0.189688 0.714028 -0.673931 1.000000
51.589298 15.331100 -775.379028 -0.196876 0.442601 -0.874840 1.000000
51.460999 15.066700 -775.535522 -0.782268 0.610731 -0.122738 1.000000
51.432400 14.954900 -775.920410 0.491682 0.822591 -0.285644 1.000000
56.454498 27.051800 -761.802490 -0.242461 0.777441 -0.580343 1.000000
56.354698 26.825899 -762.059875 -0.285929 0.931031 -0.226772 1.000000
56.321800 26.713100 -762.400330 0.086990 0.898901 -0.429429 1.000000
56.246399 26.521500 -762.733276 0.356115 0.739875 -0.570760 1.000000
56.153999 26.298500 -763.064392 -0.327697 0.784875 -0.525914 1.000000
56.082901 26.114500 -763.400085 0.529747 0.281379 -0.800122 1.000000
55.933102 25.805700 -763.584229 -0.281153 0.918433 -0.278269 1.000000
55.862999 25.623400 -763.922302 0.203658 0.892288 -0.402921 1.000000
55.825298 25.500999 -764.266418 -0.791006 0.593629 -0.148033 1.000000
55.641602 25.076200 -764.799805 -0.760893 0.635815 -0.129545 1.000000
55.543598 24.841400 -765.137512 0.525012 0.682683 -0.508238 1.000000
55.424999 24.547300 -765.614929 0.309931 0.592563 -0.743513 1.000000
55.297600 24.268101 -765.880981 -0.677853 0.714576 -0.172906 1.000000
53.919701 21.338499 -768.167175 0.958071 0.285567 -0.023488 1.000000
53.902401 21.251900 -768.528870 -0.907335 0.396518 -0.139699 1.000000
52.766899 18.499701 -772.663879 0.465453 0.555541 -0.689004 1.000000
52.416302 17.684900 -773.707214 0.525683 0.321162 -0.787726 1.000000
52.278198 17.380800 -774.007690 0.325525 0.490670 -0.808255 1.000000
52.147400 17.112499 -774.158875 0.655540 0.290105 -0.697213 1.000000
52.037201 16.871500 -774.385986 0.312750 0.562949 -0.765033 1.000000
51.868900 16.498400 -774.766479 0.615769 0.300650 -0.728312 1.000000
51.729698 16.202600 -774.996582 0.630276 0.243623 -0.737156 1.000000
51.530800 15.771500 -775.381470 0.479792 0.503034 -0.718858 1.000000
51.418800 15.526500 -775.613586 0.470298 0.399188 -0.787063 1.000000
51.038101 14.729400 -776.162781 -0.889242 0.449492 -0.084889 1.000000
56.112999 27.024099 -761.556580 -0.358563 0.855274 -0.374085 1.000000
56.009102 26.780600 -761.882385 -0.288225 0.849263 -0.442356 1.000000
55.982700 26.680099 -762.224182 -0.277780 0.932045 -0.232659 1.000000
55.954102 26.575500 -762.565918 -0.480661 0.836133 -0.264286 1.000000
55.620499 25.833700 -763.342712 -0.193144 0.914214 -0.356243 1.000000
55.542400 25.647400 -763.609192 -0.072849 0.957263 -0.279894 1.000000
55.514999 25.544600 -763.954773 0.065481 0.923412 -0.378184 1.000000
55.447201 25.366800 -764.294617 -0.241336 0.854543 -0.459905 1.000000
55.277699 24.979099 -764.760803 -0.269317 0.779603 -0.565409 1.000000
55.167801 24.733400 -765.026611 0.169079 0.729631 -0.662609 1.000000
55.111698 24.576700 -765.371704 0.748016 0.538506 -0.387921 1.000000
55.010799 24.347200 -765.640808 0.761965 0.558989 -0.327017 1.000000
53.824001 21.820801 -767.649719 -0.226997 0.643418 -0.731085 1.000000
53.769199 21.664801 -768.006287 -0.658367 0.750166 -0.061677 1.000000
53.722198 21.523300 -768.364502 0.958751 0.236712 -0.157367 1.000000
53.647202 21.318501 -768.793823 0.673687 0.637449 -0.373904 1.000000
53.563202 21.118500 -769.078125 0.602557 0.612684 -0.511414 1.000000
53.542999 21.026600 -769.440674 -0.929733 0.145055 0.338461 1.000000
53.399502 20.715300 -769.722778 0.041177 0.739762 -0.671607 1.000000
53.338600 20.558100 -770.011414 0.216602 0.690320 -0.690320 1.000000
53.236698 20.324100 -770.298401 0.130789 0.904272 -0.406430 1.000000
53.157799 20.132900 -770.587585 0.180317 0.798548 -0.574288 1.000000
53.062099 19.910200 -770.877014 0.242364 0.822802 -0.514058 1.000000
52.950500 19.657600 -771.166687 0.293434 0.710335 -0.639782 1.000000
52.887100 19.495100 -771.459412 0.175157 0.866954 -0.466595 1.000000
52.829601 19.332399 -771.827026 0.496082 0.761315 -0.417495 1.000000
52.772099 19.180500 -772.121399 0.672332 0.504668 -0.541554 1.000000
52.645699 18.899700 -772.414978 0.417029 0.545600 -0.726917 1.000000
52.479500 18.521799 -772.858215 0.296815 0.630531 -0.717169 1.000000
52.372398 18.287600 -773.080505 0.372963 0.629272 -0.681848 1.000000
52.243000 18.000401 -773.378296 0.510737 0.510737 -0.691589 1.000000
51.755501 16.906200 -774.583008 0.402029 0.530022 -0.746625 1.000000
51.578899 16.518000 -774.964294 0.381772 0.391199 -0.837385 1.000000
51.445900 16.233900 -775.194702 0.558398 0.329890 -0.761160 1.000000
51.095001 15.483200 -775.814026 0.609786 0.267672 -0.745998 1.000000
50.933201 15.144600 -776.049194 0.313189 0.473719 -0.823106 1.000000
50.538799 14.367900 -776.294373 -0.677930 0.730415 -0.083101 1.000000
55.716099 26.948601 -761.537781 -0.341667 0.908688 -0.239894 1.000000
55.583900 26.653099 -761.858582 -0.409292 0.820177 -0.399737 1.000000
55.527699 26.497900 -762.195374 -0.478388 0.864609 -0.153611 1.000000
55.525200 26.441601 -762.542786 -0.412043 0.750214 -0.517106 1.000000
55.224098 25.802500 -763.047119 -0.165138 0.916021 -0.365561 1.000000
55.187099 25.682100 -763.390686 0.003717 0.947931 -0.318455 1.000000
55.154800 25.570499 -763.735596 -0.261603 0.924902 -0.275898 1.000000
55.100899 25.418699 -764.077576 0.044062 0.709257 -0.703572 1.000000
55.002399 25.194700 -764.343201 0.614948 0.706293 -0.350700 1.000000
54.936501 25.020399 -764.685120 0.623311 0.318941 -0.713975 1.000000
55.317699 25.705799 -764.881287 -0.879955 0.469771 -0.070674 1.000000
55.462799 25.933201 -765.181824 -0.879955 0.469771 -0.070674 1.000000
53.639301 22.200899 -767.301514 -0.482183 0.656911 -0.579627 1.000000
53.551300 21.962200 -767.798218 0.516025 0.703063 -0.489305 1.000000
53.489399 21.793400 -768.154175 0.436385 0.769802 -0.465804 1.000000
53.396198 21.566099 -768.508484 0.085382 0.877615 -0.471701 1.000000
53.311901 21.355301 -768.864807 0.199896 0.708158 -0.677166 1.000000
53.221901 21.144400 -769.148987 0.029541 0.758230 -0.651318 1.000000
53.134998 20.939100 -769.434326 -0.037788 0.813152 -0.580823 1.000000
53.061501 20.758801 -769.721497 0.116911 0.771018 -0.625990 1.000000
52.963100 20.531900 -770.007996 0.101791 0.853039 -0.511823 1.000000
52.885201 20.343000 -770.296570 0.038613 0.909414 -0.414096 1.000000
52.823799 20.184900 -770.586975 0.160591 0.853048 -0.496507 1.000000
52.728199 19.962799 -770.876526 0.091730 0.773153 -0.627550 1.000000
52.610100 19.687500 -771.239929 0.349763 0.740196 -0.574262 1.000000
52.552700 19.536400 -771.533081 0.427827 0.792692 -0.434285 1.000000
52.483002 19.351200 -771.900574 0.410006 0.766108 -0.494948 1.000000
52.430500 19.209101 -772.195374 0.457515 0.734997 -0.500459 1.000000
52.332401 18.981501 -772.489929 0.305637 0.766492 -0.564868 1.000000
52.223099 18.732700 -772.785400 0.428555 0.621989 -0.655340 1.000000
52.041599 18.326599 -773.230713 0.408585 0.693106 -0.593854 1.000000
51.948299 18.107401 -773.529114 0.428198 0.604809 -0.671455 1.000000
51.833199 17.847200 -773.828674 0.417424 0.613662 -0.670206 1.000000
51.696499 17.546400 -774.129578 0.589268 0.442368 -0.676072 1.000000
51.595798 17.312700 -774.431580 0.432537 0.391039 -0.812404 1.000000
51.442699 16.980700 -774.735474 0.414454 0.563063 -0.714974 1.000000
51.329498 16.723400 -775.040222 0.613932 0.328834 -0.717604 1.000000
51.225800 16.494900 -775.270020 0.764860 0.319093 -0.559615 1.000000
51.017101 16.057800 -775.579529 0.333733 0.463430 -0.820887 1.000000
51.492401 16.939400 -775.642212 -0.550542 0.830819 -0.081509 1.000000
50.742901 15.496700 -775.897827 -0.402268 0.880802 -0.249735 1.000000
50.514599 15.011100 -776.285217 -0.187141 0.567510 0.801817 1.000000
54.769100 26.231600 -759.149719 0.041797 0.893915 -0.446283 1.000000
54.878300 26.390900 -759.454590 -0.003743 0.944608 0.328180 1.000000
54.966900 26.512400 -759.753906 -0.015864 0.962817 0.269687 1.000000
55.037800 26.591200 -760.118103 -0.069798 0.985450 0.154975 1.000000
55.140202 26.738400 -760.418823 -0.186543 0.900903 0.391886 1.000000
55.207901 26.811399 -760.780823 -0.297888 0.953997 0.033937 1.000000
55.217499 26.777700 -761.130188 -0.383807 0.915872 -0.117775 1.000000
55.262100 26.808300 -761.486572 -0.174963 0.928005 -0.328931 1.000000
54.816700 25.782301 -762.783630 -0.168650 0.929663 -0.327542 1.000000
54.821098 25.736401 -763.148621 0.064098 0.940543 -0.333572 1.000000
54.781502 25.611401 -763.492371 -0.065295 0.953822 -0.293188 1.000000
54.750401 25.501801 -763.838074 0.014914 0.852818 -0.521995 1.000000
54.658199 25.289900 -764.104614 -0.398408 0.739433 -0.542688 1.000000
54.523800 25.009899 -764.294983 -0.246594 0.808022 -0.535062 1.000000
53.410801 22.514700 -767.072083 0.517808 0.835998 -0.181608 1.000000
53.410198 22.460300 -767.432312 0.331424 0.927148 -0.174802 1.000000
53.334400 22.276800 -767.713196 0.052990 0.714654 -0.697468 1.000000
53.222301 22.025499 -767.991699 0.417424 0.613662 -0.670206 1.000000
53.122501 21.797100 -768.272522 0.252995 0.841784 -0.476858 1.000000
53.045799 21.600700 -768.628723 0.179683 0.816879 -0.548109 1.000000
52.936901 21.365700 -768.838074 0.324553 0.532395 -0.781806 1.000000
52.831600 21.126801 -769.121521 0.185670 0.819667 -0.541916 1.000000
52.764801 20.959000 -769.408691 0.426414 0.769506 -0.475427 1.000000
52.701099 20.797199 -769.696777 -0.893923 0.408443 0.184599 1.000000
52.656101 20.659000 -770.059875 0.472660 0.781269 -0.407689 1.000000
52.579399 20.472601 -770.348694 0.456441 0.603572 -0.653730 1.000000
52.523899 20.325701 -770.639526 0.499932 0.766996 -0.402225 1.000000
52.461399 20.154600 -771.004089 0.138856 0.774904 -0.616638 1.000000
52.383099 19.964899 -771.295410 0.206770 0.691826 -0.691826 1.000000
52.292198 19.751499 -771.587219 0.531499 0.701446 -0.474850 1.000000
52.220501 19.573799 -771.880493 0.427137 0.696383 -0.576718 1.000000
52.106201 19.316299 -772.173584 0.480622 0.684929 -0.547608 1.000000
52.059502 19.174200 -772.543518 0.326564 0.794906 -0.511352 1.000000
52.027302 19.058901 -772.914185 -0.330267 0.851251 -0.407794 1.000000
51.892399 18.773399 -773.135986 -0.190526 0.957959 -0.214508 1.000000
51.737900 18.440100 -773.433411 0.374289 0.477098 -0.795164 1.000000
51.619701 18.174601 -773.732422 0.555504 0.488374 -0.672983 1.000000
51.544300 17.989000 -774.032410 0.868566 0.194499 -0.455811 1.000000
51.437599 17.744699 -774.333618 0.405573 0.399211 -0.822278 1.000000
51.300201 17.453600 -774.560974 0.403342 0.384361 -0.830410 1.000000
51.156200 17.150101 -774.789612 0.567457 0.520309 -0.638178 1.000000
51.070599 16.944799 -775.093811 0.312753 0.755418 -0.575786 1.000000
51.008099 16.782801 -775.398376 -0.397057 0.798937 -0.451713 1.000000
50.727100 16.221701 -775.634277 0.406857 0.465211 -0.786159 1.000000
50.573601 15.899700 -775.867981 0.113139 0.592143 -0.797851 1.000000
50.466400 15.664300 -776.101318 0.305189 0.513920 -0.801715 1.000000
50.288502 15.307600 -776.261414 -0.047691 0.459197 -0.887054 1.000000
54.485401 26.290300 -758.955872 -0.566266 0.718151 -0.404476 1.000000
54.690701 26.522200 -759.980286 -0.124277 0.990799 -0.053588 1.000000
54.797401 26.666401 -760.351807 -0.410187 0.828292 0.381680 1.000000
54.866402 26.741699 -760.714294 -0.431335 0.894985 0.113805 1.000000
54.865898 26.689100 -761.062012 -0.416074 0.852256 -0.317083 1.000000
54.870201 26.645100 -761.410706 -0.391391 0.897725 -0.202243 1.000000
54.669998 26.203800 -761.859802 0.619280 0.561908 -0.548409 1.000000
54.633999 26.048201 -762.452209 -0.682268 0.718256 -0.136454 1.000000
54.498001 25.730400 -762.877808 -0.180684 0.965816 -0.185884 1.000000
54.480000 25.645000 -763.225281 -0.095740 0.963780 -0.248923 1.000000
54.447601 25.532900 -763.570801 -0.224885 0.858789 -0.460335 1.000000
54.370399 25.348499 -763.839478 -0.274422 0.801312 -0.531594 1.000000
54.171001 24.917200 -764.231323 -0.937121 0.348726 -0.013949 1.000000
54.186100 24.892500 -764.586426 0.469328 0.696477 0.542818 1.000000
53.225300 22.752300 -766.886902 0.672411 0.706734 -0.219977 1.000000
52.797600 21.721500 -768.435425 0.208771 0.756213 -0.620126 1.000000
51.754398 19.132299 -772.716614 0.401739 0.749367 -0.526360 1.000000
50.705299 16.743099 -775.578979 0.918471 0.129225 -0.373780 1.000000
51.454601 18.126499 -775.706177 0.966344 0.143593 0.213449 1.000000
50.167198 15.636400 -776.248596 0.438872 0.498046 -0.747891 1.000000
49.978100 15.241800 -776.523315 0.438077 0.301855 -0.846742 1.000000
49.950600 15.121300 -776.986206 -0.926728 0.374080 -0.035192 1.000000
49.923000 15.017300 -777.339111 -0.700670 0.629140 0.336517 1.000000
54.190399 26.312799 -758.806274 -0.371184 0.877205 -0.304522 1.000000
54.226799 26.328199 -759.159912 0.033881 0.954931 0.294887 1.000000
54.321201 26.459999 -759.460876 -0.144862 0.982381 0.118080 1.000000
54.345798 26.453199 -759.815491 -0.316874 0.948097 -0.026511 1.000000
54.387199 26.477400 -760.173401 -0.147647 0.969337 0.196435 1.000000
54.508202 26.647800 -760.547729 -0.476193 0.839887 -0.260442 1.000000
54.499001 26.579100 -760.894104 -0.316754 0.930727 -0.182796 1.000000
54.479900 26.492001 -761.238708 -0.618068 0.773707 -0.139177 1.000000
54.496399 26.470501 -761.590515 -0.368350 0.869674 -0.328611 1.000000
54.230000 25.906900 -762.029175 -0.047686 0.884236 -0.464599 1.000000
54.256001 25.902800 -762.384094 -0.218071 0.966482 -0.135488 1.000000
54.192101 25.732700 -762.723206 -0.068310 0.922851 -0.379052 1.000000
54.177200 25.653000 -763.071411 -0.138603 0.957018 -0.254765 1.000000
54.132900 25.519100 -763.415100 -0.271375 0.897169 -0.348487 1.000000
53.035801 23.003401 -766.530823 0.594741 0.764218 -0.249509 1.000000
52.956600 22.771000 -767.097229 0.398168 0.823305 -0.404514 1.000000
52.887402 22.588900 -767.450073 0.366299 0.779394 -0.508301 1.000000
52.813099 22.397301 -767.803711 0.322432 0.774800 -0.543804 1.000000
52.729698 22.199600 -768.085327 0.269285 0.651701 -0.709064 1.000000
52.496101 21.679100 -768.645874 0.392454 0.845888 -0.361183 1.000000
52.434700 21.510900 -769.004822 0.575145 0.688506 -0.441778 1.000000
52.378300 21.351801 -769.364929 0.635428 0.690967 -0.344667 1.000000
52.301498 21.154699 -769.724670 0.432165 0.655755 -0.619047 1.000000
52.237301 20.991501 -770.013123 0.471110 0.714156 -0.517722 1.000000
52.159599 20.803301 -770.301575 0.493240 0.687192 -0.533368 1.000000
52.098499 20.645800 -770.591675 0.505245 0.702007 -0.501910 1.000000
52.022999 20.461500 -770.881897 -0.640524 0.714000 -0.282725 1.000000
51.943199 20.268900 -771.172913 0.512826 0.718620 -0.469675 1.000000
51.883598 20.103001 -771.539001 0.531309 0.685506 -0.497788 1.000000
51.788700 19.882000 -771.831299 0.479229 0.633927 -0.607023 1.000000
51.694000 19.661200 -772.124695 0.568211 0.642399 -0.514256 1.000000
51.618401 19.475901 -772.419373 0.510658 0.645485 -0.567959 1.000000
51.479301 19.138599 -772.937195 0.523879 0.567676 -0.635056 1.000000
51.369999 18.889999 -773.234192 0.534301 0.561269 -0.632060 1.000000
51.299400 18.713600 -773.532288 0.644578 0.560429 -0.520038 1.000000
51.209900 18.501801 -773.831421 0.678337 0.500797 -0.537645 1.000000
51.100498 18.263500 -774.056702 0.402029 0.530022 -0.746625 1.000000
50.950100 17.937300 -774.358582 0.371818 0.284509 -0.883632 1.000000
50.819000 17.646999 -774.661621 0.463810 0.457255 -0.758814 1.000000
50.667099 17.328899 -774.890930 0.495859 0.663946 -0.559732 1.000000
50.610100 17.177000 -775.194702 0.370351 0.466546 -0.803228 1.000000
50.482101 16.914600 -775.349670 0.356577 0.281979 -0.890697 1.000000
50.305401 16.549400 -775.582886 0.509480 0.301271 -0.806019 1.000000
50.196201 16.299299 -775.891418 0.534271 0.406046 -0.741404 1.000000
50.074402 16.036699 -776.125122 0.639782 0.293434 -0.710335 1.000000
49.862000 15.581100 -776.517212 0.784805 0.126103 -0.606777 1.000000
49.682701 15.210000 -776.756287 0.159210 0.668683 -0.726302 1.000000
49.569901 14.963900 -776.993286 0.975570 0.008218 -0.219533 1.000000
53.837700 26.247801 -758.679016 -0.569269 0.738908 0.360483 1.000000
53.911499 26.331100 -759.046082 -0.085246 0.974764 0.206319 1.000000
53.972000 26.390200 -759.409485 -0.283950 0.958485 -0.026039 1.000000
53.982800 26.358299 -759.761414 -0.235981 0.969870 -0.060540 1.000000
54.055401 26.439600 -760.126526 -0.109868 0.949101 0.295188 1.000000
54.124699 26.515100 -760.490112 -0.284861 0.955123 0.081205 1.000000
54.130501 26.474100 -760.840088 -0.156670 0.959767 -0.233030 1.000000
54.110699 26.385799 -761.185120 -0.724836 0.663279 -0.186210 1.000000
54.149200 26.404800 -761.541626 -0.782199 0.605040 -0.148633 1.000000
53.979301 26.050699 -761.789001 0.752965 0.101276 -0.650221 1.000000
53.859100 25.787800 -762.046997 0.108127 0.891697 -0.439529 1.000000
53.860298 25.738001 -762.398071 -0.164450 0.983101 -0.080425 1.000000
53.863201 25.691200 -762.749512 0.039686 0.943493 -0.329007 1.000000
53.827000 25.572300 -763.094421 -0.246867 0.932453 -0.263795 1.000000
53.809898 25.478201 -763.513428 -0.687575 0.690708 -0.223971 1.000000
53.726101 25.281700 -763.781616 0.326269 0.177838 -0.928398 1.000000
53.044498 23.868099 -764.724609 -0.295624 0.580062 -0.759035 1.000000
53.004799 23.738701 -765.095825 -0.914390 0.404815 0.003880 1.000000
52.953300 23.590599 -765.446228 0.676957 0.620681 -0.395581 1.000000
52.886101 23.423800 -765.723816 0.749883 0.597041 -0.284987 1.000000
52.866798 23.334801 -766.079407 0.574202 0.727977 -0.374622 1.000000
52.800999 23.170601 -766.358521 0.376169 0.856055 -0.354496 1.000000
52.751801 23.025999 -766.711975 0.316852 0.877786 -0.359301 1.000000
52.667099 22.783701 -767.278381 0.219459 0.846051 -0.485836 1.000000
52.603600 22.612499 -767.632385 0.291925 0.751347 -0.591825 1.000000
52.407799 22.163500 -768.193176 0.459179 0.576061 -0.676246 1.000000
52.302502 21.924801 -768.474487 0.537257 0.641677 -0.547362 1.000000
52.263599 21.788000 -768.906982 0.646523 0.636551 -0.420489 1.000000
52.120800 21.414499 -769.624878 0.645705 0.561409 -0.517576 1.000000
51.709999 20.377899 -771.436523 0.587010 0.663940 -0.463253 1.000000
51.458599 19.766800 -772.389587 0.695430 0.451946 -0.558679 1.000000
51.370399 19.558100 -772.684570 0.631680 0.628329 -0.454073 1.000000
51.218700 19.208700 -773.128906 0.669717 0.485083 -0.562293 1.000000
51.051201 18.796101 -773.799622 0.786754 0.446098 -0.426632 1.000000
50.970901 18.601500 -774.099121 0.497788 0.531309 -0.685506 1.000000
50.820801 18.287500 -774.325623 0.493836 0.434773 -0.753059 1.000000
50.508202 17.624399 -774.857788 0.518539 0.478523 -0.708614 1.000000
50.223701 16.990400 -775.546509 0.738925 0.250510 -0.625487 1.000000
50.113998 16.751101 -775.778076 0.749175 0.240302 -0.617245 1.000000
49.909901 16.323299 -776.090698 0.685789 0.358443 -0.633413 1.000000
49.846699 16.159500 -776.398804 0.785828 0.400205 -0.471497 1.000000
49.977699 16.359900 -776.697815 0.938529 0.310111 0.151640 1.000000
49.236401 14.888900 -777.276184 -0.144832 0.979162 -0.142356 1.000000
53.753502 26.315800 -760.018372 -0.171304 0.950937 0.257630 1.000000
53.832001 26.262600 -761.362183 -0.147916 0.962105 -0.229073 1.000000
53.674301 25.909901 -761.752197 0.365690 0.752509 -0.547723 1.000000
53.532799 25.429701 -763.201782 -0.130566 0.908347 -0.397314 1.000000
53.677200 25.591700 -763.927185 -0.822253 0.396018 -0.408741 1.000000
53.021000 24.311399 -764.289429 -0.671925 0.591894 -0.445171 1.000000
52.525299 22.984600 -766.978088 0.378081 0.876116 -0.299125 1.000000
52.333000 22.488800 -767.896179 0.364226 0.723552 -0.586355 1.000000
52.063999 21.795099 -769.178711 0.695213 0.545167 -0.468477 1.000000
51.917198 21.413700 -769.897400 0.658578 0.594899 -0.460837 1.000000
51.855301 21.244400 -770.258911 0.624222 0.708532 -0.329135 1.000000
51.828201 21.139400 -770.622681 0.248100 0.922128 -0.296859 1.000000
51.691502 20.852100 -770.836670 0.610776 0.346921 -0.711758 1.000000
51.612801 20.661800 -771.127075 0.589592 0.582834 -0.559183 1.000000
51.482399 20.331200 -771.711121 0.600478 0.673666 -0.430814 1.000000
51.404099 20.141399 -772.004028 0.677880 0.550673 -0.487070 1.000000
51.150600 19.524900 -772.961975 0.655262 0.520504 -0.547455 1.000000
51.039001 19.250099 -773.407227 0.824026 0.343212 -0.450763 1.000000
50.534199 18.139099 -774.533325 0.563114 0.392374 -0.727287 1.000000
50.474499 17.982700 -774.835083 -0.995708 0.033808 0.086157 1.000000
50.352299 17.708900 -775.139526 -0.632013 0.661872 -0.403095 1.000000
50.235600 17.456600 -775.369507 0.683504 0.476280 -0.553154 1.000000
49.891800 16.710699 -776.064514 0.653824 0.233621 -0.719677 1.000000
49.592300 16.057899 -776.688904 -0.281430 0.167227 0.944898 1.000000
49.376301 15.629800 -776.853821 0.240111 0.265386 -0.933765 1.000000
49.204102 15.283600 -777.017212 0.436445 0.257001 -0.862245 1.000000
53.331902 26.153400 -758.380920 0.229045 0.530338 0.816260 1.000000
53.405399 26.234900 -758.753113 0.095823 0.993174 0.066512 1.000000
53.457298 26.277300 -759.114685 -0.098643 0.994184 -0.043225 1.000000
53.491501 26.287500 -759.471985 -0.588729 0.808301 -0.006862 1.000000
53.486500 26.225700 -759.820618 0.088743 0.971175 0.221233 1.000000
53.610001 26.379101 -760.335876 -0.342985 0.937666 -0.056077 1.000000
53.645000 26.380600 -760.761780 -0.474707 0.866157 -0.156288 1.000000
53.396702 25.744499 -761.903625 -0.197560 0.964248 -0.176626 1.000000
53.393101 25.685101 -762.253723 -0.147826 0.961526 -0.231551 1.000000
53.376099 25.601101 -762.601685 -0.216835 0.964721 -0.149318 1.000000
53.304501 25.342199 -763.433289 -0.878625 0.468131 0.094189 1.000000
53.230202 25.162600 -763.703430 -0.996616 0.048801 0.066152 1.000000
53.125000 24.925800 -763.969482 -0.201944 0.387906 -0.899304 1.000000
52.772099 24.188700 -764.485229 0.017428 0.880767 -0.473228 1.000000
52.696499 23.995399 -764.830322 0.398868 0.872050 -0.283606 1.000000
52.644299 23.845301 -765.179626 0.588230 0.737313 -0.332196 1.000000
52.599098 23.708099 -765.530273 0.467737 0.806167 -0.362376 1.000000
52.575901 23.611401 -765.884521 0.444379 0.813898 -0.374297 1.000000
52.515099 23.445000 -766.234802 0.476941 0.687800 -0.547228 1.000000
52.448299 23.267500 -766.585388 0.407343 0.796975 -0.445984 1.000000
52.310200 22.903500 -767.288879 0.222841 0.816059 -0.533282 1.000000
52.248798 22.735500 -767.642883 0.190430 0.875387 -0.444336 1.000000
52.097801 22.368299 -768.206787 0.483192 0.683825 -0.546726 1.000000
52.050098 22.225300 -768.564392 0.702761 0.624495 -0.340782 1.000000
51.991402 22.061800 -768.921997 0.688701 0.595768 -0.413221 1.000000
51.864101 21.737801 -769.494019 0.636415 0.558762 -0.531753 1.000000
51.413799 20.602600 -771.445618 0.642738 0.595749 -0.481634 1.000000
51.204102 20.078300 -772.323975 0.588185 0.697537 -0.409244 1.000000
51.143902 19.921499 -772.618530 0.712231 0.573421 -0.404865 1.000000
50.826000 19.160101 -773.730103 0.725450 0.469800 -0.503001 1.000000
50.723900 18.924299 -774.028992 0.569086 0.378844 -0.729807 1.000000
50.587799 18.635900 -774.254883 0.460052 0.252188 -0.851325 1.000000
49.985298 17.315001 -775.548523 0.589978 0.398276 -0.702355 1.000000
49.875999 17.064600 -775.855530 0.707585 0.333459 -0.623000 1.000000
49.644001 16.572100 -776.245300 0.660827 0.355830 -0.660827 1.000000
48.585499 14.411300 -777.456482 0.026127 0.837434 -0.545914 1.000000
48.576302 14.335600 -777.844788 0.104722 0.970252 -0.218275 1.000000
53.369598 26.209200 -760.988220 -0.405057 0.902496 -0.146389 1.000000
53.293201 25.994499 -761.462830 -0.265285 0.953158 -0.145307 1.000000
52.885700 24.903400 -763.641907 -0.689947 0.644492 -0.329551 1.000000
52.740398 24.613800 -763.761108 -0.212018 0.598911 -0.772240 1.000000
52.646702 24.398001 -764.030396 0.157650 0.850131 -0.502417 1.000000
52.227501 23.180500 -766.900696 0.323896 0.850809 -0.413781 1.000000
52.005100 22.615801 -767.885925 0.485083 0.646218 -0.589149 1.000000
51.808498 22.043200 -769.243530 0.554445 0.713331 -0.428660 1.000000
51.675701 21.708300 -769.815918 0.528901 0.616770 -0.582974 1.000000
51.606201 21.535000 -770.103027 0.515261 0.679742 -0.521975 1.000000
51.523499 21.336901 -770.390381 0.522117 0.698936 -0.488755 1.000000
51.443401 21.143700 -770.678772 0.475393 0.733795 -0.485332 1.000000
51.380901 20.982901 -770.968811 0.463408 0.680892 -0.567132 1.000000
51.221901 20.564600 -771.770081 0.745353 0.498547 -0.442605 1.000000
51.164299 20.412701 -772.062683 0.662540 0.565256 -0.491454 1.000000
50.947701 19.874500 -772.944824 0.644249 0.509680 -0.570236 1.000000
50.855099 19.656700 -773.240479 0.731100 0.479111 -0.485742 1.000000
50.776798 19.465500 -773.536987 0.732750 0.517722 -0.441635 1.000000
50.377701 18.572300 -774.510193 0.783778 0.141827 -0.604629 1.000000
50.258900 18.304501 -774.812317 0.793418 0.368545 -0.484420 1.000000
50.147301 18.061399 -775.040405 0.665314 0.318898 -0.675027 1.000000
49.995300 17.742399 -775.270691 0.708687 0.386407 -0.590298 1.000000
49.705101 17.061300 -776.188599 -0.190655 0.895058 -0.403140 1.000000
49.425499 16.490499 -776.506104 0.507895 0.378082 -0.774013 1.000000
49.291000 16.203501 -776.742004 0.608473 0.158535 -0.777578 1.000000
49.243698 16.069700 -777.041321 0.829200 0.412231 0.377483 1.000000
52.961399 26.190201 -758.286316 -0.007851 0.988094 -0.153654 1.000000
53.045700 26.292601 -758.653503 -0.098435 0.994302 0.040922 1.000000
53.040501 26.230600 -759.001770 -0.142071 0.963217 -0.228096 1.000000
53.022999 26.146000 -759.347473 -0.344795 0.930809 -0.121291 1.000000
53.036201 26.117599 -759.700073 -0.189911 0.981784 0.005755 1.000000
53.126400 26.231001 -760.068909 -0.448696 0.893398 0.022635 1.000000
53.148899 26.219900 -760.422913 -0.227263 0.973816 -0.005888 1.000000
53.108398 26.029900 -761.183472 -0.017057 0.909243 -0.415916 1.000000
52.981098 25.732300 -761.579529 0.159640 0.959157 -0.233522 1.000000
52.976700 25.671400 -761.929199 -0.053023 0.983869 -0.170852 1.000000
52.765099 25.103800 -763.073792 -0.921764 0.377639 0.087980 1.000000
52.676701 24.896299 -763.355774 0.884254 0.160642 -0.438509 1.000000
52.461899 24.350599 -764.314026 0.471412 0.828495 -0.302268 1.000000
52.394600 24.172800 -764.659424 0.370311 0.890830 -0.263233 1.000000
52.369999 24.073900 -765.011230 0.299486 0.895477 -0.329285 1.000000
52.343399 23.971201 -765.363403 0.344095 0.859467 -0.378042 1.000000
52.271999 23.785500 -765.710571 0.338821 0.855563 -0.391424 1.000000
52.230598 23.655399 -766.062317 0.226985 0.885687 -0.405013 1.000000
52.175999 23.500401 -766.413086 0.345172 0.827468 -0.442892 1.000000
52.007599 23.069901 -767.183228 0.275870 0.824493 -0.494072 1.000000
51.978500 22.962000 -767.539185 0.388613 0.835440 -0.388613 1.000000
51.838299 22.604401 -768.174377 0.695711 0.653936 -0.297244 1.000000
51.817200 22.511101 -768.533020 0.626931 0.673248 -0.392039 1.000000
51.749901 22.342600 -768.816711 0.530616 0.713587 -0.457428 1.000000
51.595299 21.946199 -769.530029 0.328688 0.805047 -0.493826 1.000000
51.195900 20.939501 -771.259521 0.671053 0.607777 -0.424612 1.000000
50.939602 20.295799 -772.354187 0.588384 0.632218 -0.504088 1.000000
50.886398 20.141100 -772.721924 0.620521 0.663774 -0.417562 1.000000
50.573502 19.389000 -773.831604 0.651115 0.463647 -0.600900 1.000000
50.452999 19.118799 -774.130310 0.455412 0.369123 -0.810153 1.000000
49.792801 17.667900 -775.570129 0.699074 0.423430 -0.576197 1.000000
49.652302 17.358900 -775.877625 0.694388 0.394201 -0.602023 1.000000
49.411900 16.839500 -776.343018 0.843795 0.136002 -0.519146 1.000000
49.245399 16.423901 -777.036499 0.893371 0.447361 0.041898 1.000000
51.512600 24.210800 -755.067383 0.615801 0.748096 -0.247266 1.000000
53.015499 26.170099 -760.726318 -0.134406 0.961722 -0.238799 1.000000
52.791599 25.525499 -762.223694 -0.169857 0.906378 -0.386817 1.000000
52.712299 25.326401 -762.560974 0.211930 0.858241 -0.467448 1.000000
52.470200 24.720200 -763.578613 -0.139370 0.880759 -0.452592 1.000000
52.014702 23.395100 -766.716370 0.278246 0.853185 -0.441197 1.000000
51.053200 20.864901 -771.569824 0.540252 0.737304 -0.405599 1.000000
50.269600 18.965500 -774.445496 0.795246 0.289324 -0.532799 1.000000
50.195599 18.781799 -774.745178 0.776997 0.311118 -0.547249 1.000000
50.089699 18.549500 -774.971985 0.913533 0.159551 -0.374167 1.000000
49.886700 18.123600 -775.277588 0.694314 0.189358 -0.694314 1.000000
52.729900 26.211901 -758.563171 -0.259223 0.965756 0.010851 1.000000
52.727100 26.122299 -759.121521 -0.227368 0.930654 -0.286681 1.000000
52.711399 26.040600 -759.467407 -0.178445 0.978374 -0.104606 1.000000
52.729000 26.020100 -759.820679 -0.295123 0.955101 0.026150 1.000000
52.805599 26.087099 -760.325989 -0.397565 0.912062 0.100423 1.000000
52.793999 25.981300 -760.882385 -0.292863 0.918983 -0.264009 1.000000
52.738800 25.826700 -761.221313 -0.050652 0.983591 -0.173159 1.000000
52.279301 24.574699 -763.814209 0.283923 0.854839 -0.434326 1.000000
51.699299 22.886299 -767.803589 0.503023 0.804520 -0.315778 1.000000
51.502399 22.324301 -769.083374 0.478214 0.711490 -0.514872 1.000000
51.332901 21.899401 -769.795898 0.514983 0.682729 -0.518337 1.000000
51.264999 21.718000 -770.154724 0.560672 0.674480 -0.480337 1.000000
51.193298 21.540501 -770.441772 0.599484 0.646502 -0.471863 1.000000
51.129398 21.377300 -770.729919 0.566455 0.650499 -0.505944 1.000000
51.058998 21.190901 -771.091370 0.632348 0.612220 -0.474681 1.000000
50.902500 20.777201 -771.890503 0.441869 0.750684 -0.491148 1.000000
50.836498 20.609600 -772.182190 0.630343 0.600086 -0.492508 1.000000
50.653099 20.144501 -772.988281 0.534854 0.642838 -0.548352 1.000000
50.570301 19.945101 -773.283020 0.571656 0.662182 -0.484483 1.000000
50.519699 19.805799 -773.578308 0.548258 0.713894 -0.435625 1.000000
50.126999 18.822901 -775.217896 -0.879955 0.469771 -0.070674 1.000000
50.215599 18.944201 -775.512817 -0.686940 0.721943 0.083133 1.000000
49.384201 17.292400 -776.147278 -0.393495 0.709609 -0.584480 1.000000
49.092899 16.676300 -776.616272 0.582018 0.372164 -0.723014 1.000000
48.891102 16.252100 -776.924622 -0.478480 0.429489 0.765895 1.000000
51.445999 24.552299 -755.333801 0.856137 0.370012 0.360723 1.000000
51.478901 24.558901 -755.698181 0.579129 0.812488 0.066877 1.000000
51.544201 24.625099 -756.071106 -0.173920 0.950495 0.257510 1.000000
52.590698 25.764000 -761.523376 -0.048702 0.996770 -0.063854 1.000000
52.548401 25.633301 -761.865479 0.119074 0.966676 -0.226625 1.000000
52.462101 25.400200 -762.340820 -0.238746 0.922103 -0.304509 1.000000
52.409901 25.250999 -762.682922 -0.076568 0.922851 -0.377469 1.000000
52.362801 25.111099 -763.026489 0.231711 0.874523 -0.426050 1.000000
52.273602 24.903999 -763.293701 0.357308 0.595513 -0.719510 1.000000
52.170898 24.576099 -764.195190 0.482343 0.844481 -0.232803 1.000000
52.114899 24.419300 -764.540771 0.306649 0.842116 -0.443629 1.000000
52.072601 24.287800 -764.888916 0.245849 0.918700 -0.309109 1.000000
52.020802 24.138399 -765.236511 0.297288 0.882809 -0.363687 1.000000
51.969501 23.990101 -765.584900 0.345609 0.853950 -0.389004 1.000000
51.919800 23.844400 -765.934082 0.311772 0.831913 -0.459041 1.000000
51.843498 23.649300 -766.281372 0.250301 0.836895 -0.486781 1.000000
51.738800 23.358400 -766.912109 0.231203 0.856809 -0.460894 1.000000
51.676399 23.188801 -767.263428 0.326388 0.824643 -0.461989 1.000000
51.576000 22.872801 -768.114014 0.576984 0.709244 -0.405046 1.000000
51.541500 22.754801 -768.470093 0.438792 0.774818 -0.455104 1.000000
51.472401 22.582899 -768.752502 0.433513 0.743400 -0.509336 1.000000
51.326099 22.212799 -769.391418 0.486634 0.683963 -0.543491 1.000000
50.902401 21.116899 -771.403687 0.641633 0.584375 -0.496803 1.000000
50.673599 20.524200 -772.496094 0.635308 0.588123 -0.500495 1.000000
50.307999 19.640499 -773.821411 0.641168 0.570488 -0.513271 1.000000
50.254002 19.494801 -774.117981 0.732446 0.464599 -0.497666 1.000000
50.197399 19.344101 -774.415283 0.725578 0.476524 -0.496448 1.000000
49.863701 18.583799 -775.317017 -0.355680 0.932172 -0.067434 1.000000
50.022099 18.813801 -775.758484 -0.820213 0.547309 -0.166442 1.000000
49.560501 17.935600 -775.852722 0.955077 0.008604 -0.296234 1.000000
49.617100 17.985500 -776.225403 0.397654 0.780701 0.482055 1.000000
49.134201 17.043699 -776.475830 0.608282 0.303339 -0.733470 1.000000
51.325699 24.607000 -754.932373 0.969425 0.237081 -0.063304 1.000000
51.492298 24.698500 -756.397705 -0.586934 0.796020 -0.147854 1.000000
51.429298 24.523199 -756.779480 -0.377011 0.843190 -0.383268 1.000000
52.450401 26.129200 -758.816589 0.019168 0.988845 -0.147707 1.000000
52.432999 25.971201 -759.650879 -0.058861 0.989091 -0.135033 1.000000
52.486301 26.006300 -760.081482 -0.311178 0.948900 0.052503 1.000000
