ply
format ascii 1.0
element vertex 689
property float x
property float y
property float z
property float nx
property float ny
property float nz
property float label
element face 0
property list uchar int vertex_indices
end_header
47.423901 13.674400 -741.625122 -0.342376 0.874961 0.342376 1.000000
47.324699 13.688900 -741.732483 -0.213788 0.868606 0.447011 1.000000
47.228001 13.721600 -741.838501 -0.278536 0.924170 0.261396 1.000000
47.127800 13.728500 -741.946411 -0.360467 0.930877 0.059418 1.000000
47.023499 13.706200 -742.056580 -0.177956 0.983925 -0.014925 1.000000
46.930599 13.691000 -742.155090 -0.428135 0.892068 0.144621 1.000000
49.357101 13.975000 -739.383911 -0.437966 0.806949 0.396255 1.000000
49.269402 14.078400 -739.485779 -0.263686 0.806660 0.528932 1.000000
49.172501 14.106400 -739.591797 -0.314601 0.784106 0.534981 1.000000
49.070301 14.090200 -739.700317 -0.399102 0.890983 0.216487 1.000000
48.966702 14.063400 -739.809570 -0.409850 0.912078 0.011710 1.000000
48.859600 14.009700 -739.920471 -0.321456 0.946858 -0.011257 1.000000
48.755199 13.977900 -740.030212 -0.342109 0.939198 -0.029470 1.000000
48.652100 13.956700 -740.139282 -0.344369 0.938373 0.029444 1.000000
48.548000 13.928800 -740.249023 -0.450845 0.892380 -0.019949 1.000000
48.439602 13.866800 -740.360779 -0.466829 0.883592 0.036534 1.000000
48.332401 13.816000 -740.471985 -0.470062 0.881875 0.036575 1.000000
48.222900 13.747400 -740.584473 -0.501117 0.865072 0.023087 1.000000
48.115002 13.692300 -740.696289 -0.527667 0.847888 -0.051514 1.000000
48.000801 13.590800 -740.811279 -0.478498 0.877916 -0.017424 1.000000
47.893600 13.543000 -740.922913 -0.415890 0.898493 0.140523 1.000000
47.796799 13.574700 -741.029114 -0.205188 0.900788 0.382726 1.000000
47.698101 13.591600 -741.136414 -0.344283 0.878149 0.332150 1.000000
47.600498 13.617200 -741.242981 -0.182052 0.921549 0.342935 1.000000
47.500999 13.628700 -741.350586 -0.171184 0.950274 0.260146 1.000000
47.399300 13.623800 -741.459412 -0.253796 0.948682 0.188651 1.000000
47.299301 13.631300 -741.567322 -0.234889 0.932525 0.274272 1.000000
47.203800 13.672000 -741.672913 -0.164788 0.919712 0.356336 1.000000
47.102402 13.669700 -741.781616 -0.269725 0.947427 0.172136 1.000000
46.998501 13.650000 -741.891479 -0.322117 0.945980 0.036922 1.000000
46.885601 13.645200 -742.012329 -0.973985 0.198798 -0.108776 1.000000
49.383701 13.934700 -739.265991 0.365621 0.350194 -0.862372 1.000000
49.167400 14.039400 -739.505920 -0.320884 0.783850 0.531613 1.000000
47.695301 13.539100 -741.049011 -0.329101 0.878109 0.347300 1.000000
47.597500 13.562500 -741.155823 -0.254589 0.875243 0.411259 1.000000
47.498299 13.576600 -741.263184 -0.229189 0.870319 0.435909 1.000000
49.249599 13.889200 -739.345398 -0.272951 0.879174 0.390577 1.000000
49.209099 13.968900 -739.394775 -0.194772 0.605786 0.771419 1.000000
49.064499 14.016100 -739.553589 -0.262166 0.783358 0.563578 1.000000
48.965599 14.027300 -739.660583 -0.334311 0.913206 0.233005 1.000000
48.864799 14.022800 -739.768372 -0.307156 0.949740 0.060403 1.000000
48.763302 14.012800 -739.876709 -0.355919 0.934127 0.026983 1.000000
48.656300 13.959600 -739.987610 -0.305515 0.951748 -0.028917 1.000000
48.550900 13.919700 -740.097778 -0.460345 0.886741 0.042096 1.000000
48.443100 13.861300 -740.209290 -0.447457 0.893569 0.036280 1.000000
48.335499 13.805800 -740.320618 -0.436949 0.899132 0.025234 1.000000
48.228802 13.758100 -740.431580 -0.450779 0.892194 0.028090 1.000000
48.119900 13.693600 -740.543823 -0.498053 0.866475 0.034113 1.000000
48.008801 13.614100 -740.657227 -0.509585 0.860179 -0.020383 1.000000
47.898201 13.538700 -740.770325 -0.467948 0.882997 -0.036622 1.000000
47.792900 13.504500 -740.880920 -0.332329 0.916423 0.222992 1.000000
47.397099 13.565300 -741.310303 -0.239326 0.887439 0.393922 1.000000
47.297600 13.576400 -741.418030 -0.264117 0.930766 0.252818 1.000000
47.199200 13.595600 -741.525085 -0.307135 0.879042 0.364628 1.000000
47.101601 13.620500 -741.631714 -0.235311 0.904705 0.355159 1.000000
46.999901 13.615600 -741.740479 -0.300850 0.947610 0.107352 1.000000
46.898800 13.615800 -741.849121 0.056987 0.987389 0.147701 1.000000
46.827499 13.609200 -741.925171 0.475405 0.877352 0.065143 1.000000
49.098999 13.912900 -739.397400 -0.256295 0.906550 0.335380 1.000000
49.002800 13.945800 -739.503174 -0.399382 0.628073 0.667846 1.000000
48.857899 13.989800 -739.662292 -0.367921 0.884513 0.286829 1.000000
48.757198 13.985600 -739.770325 -0.295500 0.951588 0.084615 1.000000
48.653500 13.957700 -739.879578 -0.411580 0.908737 0.069276 1.000000
48.547501 13.912100 -739.990173 -0.501457 0.865181 0.001337 1.000000
48.439602 13.852300 -740.101685 -0.498539 0.863666 0.074430 1.000000
48.334499 13.815300 -740.211914 -0.449644 0.892577 0.033556 1.000000
48.225300 13.746200 -740.324280 -0.508658 0.860492 0.028638 1.000000
48.120098 13.710100 -740.434570 -0.477631 0.877254 0.047900 1.000000
48.011101 13.645500 -740.546875 -0.528319 0.848345 -0.034486 1.000000
47.896599 13.538400 -740.662109 -0.468942 0.883107 -0.014696 1.000000
47.790199 13.495600 -740.773315 -0.472216 0.880473 0.042186 1.000000
47.686501 13.474000 -740.883118 -0.359478 0.890490 0.278931 1.000000
47.585701 13.474400 -740.991516 -0.502630 0.721597 0.476088 1.000000
47.486401 13.486400 -741.099182 -0.281147 0.831015 0.479969 1.000000
47.388699 13.510800 -741.205994 -0.288129 0.833237 0.471908 1.000000
47.290501 13.531100 -741.312988 -0.304987 0.862853 0.403073 1.000000
47.191101 13.542700 -741.420715 -0.401507 0.882122 0.246278 1.000000
47.092499 13.559800 -741.528015 -0.242372 0.871637 0.426033 1.000000
46.995399 13.588300 -741.634521 -0.316352 0.879428 0.355707 1.000000
46.895302 13.594200 -741.742615 -0.248083 0.965885 0.074299 1.000000
48.886200 13.817700 -739.417114 -0.176525 0.351638 -0.919342 1.000000
48.793900 13.882300 -739.521301 -0.302554 0.760387 0.574693 1.000000
48.693802 13.883300 -739.629028 -0.229136 0.950438 0.210154 1.000000
48.591400 13.864900 -739.737976 -0.444955 0.879698 0.167770 1.000000
48.487301 13.834100 -739.847717 -0.474392 0.868993 0.140722 1.000000
48.380199 13.780600 -739.958923 -0.422295 0.899307 0.113641 1.000000
48.276299 13.752600 -740.068726 -0.464780 0.880414 0.094079 1.000000
48.170300 13.708800 -740.179382 -0.478632 0.877716 0.022920 1.000000
48.064602 13.667600 -740.290222 -0.420158 0.906091 0.049667 1.000000
47.955799 13.603000 -740.402527 -0.420062 0.907281 -0.019752 1.000000
47.846901 13.539500 -740.514893 -0.485207 0.873372 -0.042370 1.000000
47.736198 13.461900 -740.628296 -0.551592 0.833609 0.029031 1.000000
47.629501 13.416900 -740.739685 -0.503087 0.853061 0.138531 1.000000
47.521400 13.361200 -740.851990 0.127627 0.929066 -0.347199 1.000000
47.423100 13.380900 -740.959229 -0.300569 0.816730 0.492556 1.000000
47.324600 13.399400 -741.066528 -0.405599 0.737304 0.540252 1.000000
47.229401 13.442100 -741.172180 -0.379029 0.766192 0.518928 1.000000
47.130299 13.455700 -741.279785 -0.335769 0.824446 0.455574 1.000000
47.031399 13.470500 -741.387390 -0.270974 0.929256 0.251112 1.000000
46.934200 13.498300 -741.494019 -0.397513 0.812586 0.426248 1.000000
46.835602 13.514800 -741.601379 -0.806330 0.520263 0.281351 1.000000
46.714001 13.501000 -741.731201 -0.328241 0.935690 0.129389 1.000000
48.569401 13.686200 -739.446411 0.093433 0.166237 0.981649 1.000000
48.478500 13.762100 -739.549927 -0.260830 0.855705 0.446919 1.000000
48.375599 13.741100 -739.659180 -0.521208 0.818157 0.242818 1.000000
48.271900 13.714200 -739.768799 -0.553029 0.786215 0.275727 1.000000
48.163601 13.651200 -739.880676 -0.445057 0.891500 0.084575 1.000000
48.060101 13.627500 -739.990417 -0.391253 0.919112 0.046420 1.000000
47.957100 13.607400 -740.099792 -0.453790 0.873804 0.174761 1.000000
47.848598 13.545500 -740.211975 -0.544026 0.799672 0.254087 1.000000
47.742401 13.502400 -740.323120 -0.607628 0.793948 0.020857 1.000000
47.628201 13.397600 -740.438171 -0.616784 0.787121 -0.004121 1.000000
47.519100 13.334000 -740.551025 -0.563777 0.825872 0.009556 1.000000
47.405899 13.239800 -740.665771 -0.561198 0.823947 0.078539 1.000000
47.303902 13.231900 -740.775024 -0.461040 0.777088 0.428458 1.000000
47.207699 13.267800 -740.881287 -0.438514 0.729753 0.524562 1.000000
47.109501 13.288500 -740.988586 -0.392318 0.792708 0.466584 1.000000
47.012199 13.316000 -741.095398 -0.327697 0.784875 0.525914 1.000000
46.914799 13.342600 -741.202271 -0.333239 0.771119 0.542520 1.000000
46.814602 13.348000 -741.310608 -0.349585 0.871672 0.343479 1.000000
46.713402 13.346500 -741.419495 -0.163821 0.976675 -0.138810 1.000000
46.620602 13.344200 -741.519226 0.700104 0.711604 0.058941 1.000000
48.255299 13.548200 -739.445984 -0.670576 0.739501 0.058873 1.000000
48.159401 13.585000 -739.552002 -0.336157 0.822242 0.459256 1.000000
48.056198 13.563200 -739.661377 -0.538373 0.764717 0.354065 1.000000
47.949699 13.516200 -739.772522 -0.507478 0.812280 0.287519 1.000000
47.846600 13.496600 -739.882019 -0.486549 0.860593 0.150494 1.000000
47.740002 13.449400 -739.993225 -0.444815 0.891025 0.090636 1.000000
47.633400 13.404000 -740.104370 -0.458263 0.888792 -0.006603 1.000000
47.525902 13.352000 -740.216187 -0.664509 0.740789 -0.098283 1.000000
47.409599 13.233700 -740.332397 -0.502647 0.857794 0.107403 1.000000
47.295399 13.132500 -740.447693 -0.626989 0.760584 0.168513 1.000000
47.237301 13.075200 -740.505920 -0.653539 0.633584 0.414075 1.000000
47.130501 13.032100 -740.617615 -0.546645 0.798942 0.250740 1.000000
47.031502 13.048000 -740.725281 -0.479875 0.747021 0.460086 1.000000
46.938000 13.105100 -740.830322 -0.327657 0.832469 0.446806 1.000000
46.838699 13.118500 -740.938171 -0.556803 0.577112 0.597421 1.000000
46.741100 13.145200 -741.045227 -0.570954 0.634955 0.520427 1.000000
46.651199 13.166100 -741.143616 -0.699550 0.641389 0.315040 1.000000
47.870899 13.365300 -739.572021 -0.391620 0.199449 0.898250 1.000000
47.769199 13.358000 -739.680725 -0.387792 0.812288 0.435667 1.000000
47.668499 13.358200 -739.789124 -0.475096 0.837222 0.270820 1.000000
47.566002 13.345200 -739.898193 -0.458567 0.861504 0.218007 1.000000
47.459900 13.304600 -740.009216 -0.457043 0.888318 0.044755 1.000000
47.349998 13.236000 -740.122070 -0.594517 0.793183 -0.131950 1.000000
47.234901 13.128200 -740.237671 -0.146380 0.731901 -0.665502 1.000000
47.175499 13.060700 -740.296387 -0.438413 0.894805 -0.084363 1.000000
47.057201 12.931400 -740.413818 -0.648993 0.727185 0.223629 1.000000
46.949699 12.884900 -740.525818 -0.414300 0.904808 0.098379 1.000000
46.847198 12.875700 -740.635315 -0.303914 0.899882 0.312809 1.000000
46.790199 12.945000 -740.701782 -0.560284 0.806262 0.189798 1.000000
47.728001 13.216000 -739.518921 -0.158869 0.171578 0.972277 1.000000
47.596901 13.248000 -739.662170 -0.545357 0.545357 0.636531 1.000000
47.496498 13.251700 -739.770325 -0.446058 0.766304 0.462397 1.000000
47.390400 13.212200 -739.881287 -0.587895 0.762204 0.270970 1.000000
47.282200 13.157100 -739.993286 -0.661674 0.736694 0.139537 1.000000
47.169998 13.072000 -740.107422 -0.655434 0.752960 0.058803 1.000000
47.110401 13.003700 -740.166199 -0.652882 0.752202 -0.089096 1.000000
47.048100 12.914400 -740.226501 -0.709808 0.659220 -0.248196 1.000000
46.988899 12.849800 -740.285217 -0.689915 0.713757 -0.120698 1.000000
46.880001 12.793200 -740.397888 -0.531293 0.814650 0.232537 1.000000
46.775700 12.771700 -740.508301 -0.406980 0.802700 0.435935 1.000000
46.678001 12.799500 -740.615417 -0.361693 0.843950 0.396140 1.000000
46.576199 12.797600 -740.724487 -0.533213 0.763353 0.364659 1.000000
46.450699 12.802300 -740.859680 -0.693779 0.638537 0.333079 1.000000
47.536999 13.149500 -739.568115 0.163623 0.163623 -0.972859 1.000000
47.409901 13.130500 -739.703003 -0.576061 0.459179 0.676246 1.000000
47.306499 13.112100 -739.812622 -0.699100 0.498880 0.512228 1.000000
47.198502 13.059700 -739.924500 -0.693379 0.654768 0.300839 1.000000
47.086700 12.978900 -740.038391 -0.675362 0.733458 0.076977 1.000000
46.968102 12.847500 -740.155823 -0.709431 0.691433 -0.136487 1.000000
46.907299 12.771400 -740.215271 -0.536207 0.832957 -0.136623 1.000000
46.797501 12.709000 -740.328430 -0.551950 0.831454 0.063524 1.000000
46.690899 12.671200 -740.439880 -0.490751 0.835354 0.247683 1.000000
46.589901 12.675000 -740.548584 -0.691244 0.588469 0.419388 1.000000
46.979599 12.870500 -739.958923 -0.749852 0.568462 0.338486 1.000000
46.867298 12.788100 -740.073120 -0.553553 0.832401 0.026228 1.000000
46.750801 12.674600 -740.189514 -0.812128 0.555030 0.179969 1.000000
46.691601 12.611400 -740.248291 -0.631566 0.775292 -0.006910 1.000000
46.582500 12.555900 -740.361084 -0.602597 0.762246 0.236343 1.000000
46.963001 13.527500 -742.089111 -0.935218 0.100633 -0.339470 1.000000
47.037800 13.582700 -742.203430 -0.863952 0.104245 -0.492667 1.000000
47.111698 13.613000 -742.318420 -0.987031 0.128846 -0.095748 1.000000
46.667999 13.272300 -741.600708 0.366506 0.874443 0.317841 1.000000
46.724300 13.293500 -741.688477 0.873333 0.012074 0.486974 1.000000
46.800499 13.383100 -741.801880 0.266788 0.809726 0.522655 1.000000
46.875801 13.450500 -741.916016 -0.826013 0.265006 -0.497468 1.000000
46.941200 13.512600 -741.960693 -0.924175 0.166884 -0.343585 1.000000
47.238800 13.685300 -742.418884 -0.409833 0.836939 -0.362726 1.000000
46.387100 12.887900 -741.062988 0.584653 0.638569 0.500409 1.000000
46.665298 13.212300 -741.477112 -0.957517 0.211746 -0.195765 1.000000
46.818901 13.421800 -741.703186 -0.927109 0.356370 -0.116059 1.000000
46.894001 13.478300 -741.817627 -0.811835 0.583807 -0.009616 1.000000
47.007301 13.588700 -741.988220 -0.454999 0.889746 -0.036454 1.000000
47.119701 13.679400 -742.159119 -0.582348 0.794111 -0.173948 1.000000
47.193401 13.700200 -742.274414 -0.497263 0.855992 -0.141450 1.000000
47.340900 13.752300 -742.504517 -0.752082 0.567700 -0.334798 1.000000
47.414902 13.787300 -742.619202 -0.728569 0.643961 -0.233455 1.000000
47.488602 13.814400 -742.734070 -0.676314 0.682709 -0.276601 1.000000
47.568199 13.822100 -742.859985 -0.821182 0.395502 -0.411385 1.000000
46.488300 12.902900 -741.105408 -0.194818 0.829109 0.524045 1.000000
46.565201 12.996200 -741.219421 -0.854862 0.389420 -0.342876 1.000000
46.643600 13.136400 -741.331970 -0.749175 0.617245 0.240302 1.000000
46.799198 13.392000 -741.557129 -0.840190 0.522360 0.145672 1.000000
46.987499 13.552100 -741.842590 -0.509457 0.858400 -0.060018 1.000000
47.100601 13.656600 -742.013184 -0.550845 0.832607 -0.057761 1.000000
47.434601 13.834200 -742.528870 -0.853969 0.462630 -0.238141 1.000000
47.581799 13.878100 -742.759094 -0.603124 0.740707 -0.295963 1.000000
47.654999 13.888600 -742.874573 -0.274588 0.921522 -0.274588 1.000000
47.753899 13.884400 -743.032288 -0.812694 0.547386 -0.199743 1.000000
46.432899 12.694000 -740.895203 -0.890130 0.429966 -0.150991 1.000000
46.512901 12.862300 -741.007507 -0.353293 0.917995 0.180194 1.000000
46.591702 13.004900 -741.120300 -0.861798 0.407088 0.302628 1.000000
46.747601 13.252800 -741.346313 -0.792017 0.531715 0.299982 1.000000
46.825600 13.383200 -741.458801 -0.749242 0.655403 0.095305 1.000000
47.203098 13.723200 -742.028687 -0.501859 0.861735 0.074506 1.000000
47.574799 13.932400 -742.600891 -0.350740 0.906686 -0.234312 1.000000
47.685001 13.959100 -742.773682 -0.450680 0.879622 -0.152159 1.000000
47.758400 13.975300 -742.888916 -0.323762 0.916606 -0.234547 1.000000
47.831699 13.986000 -743.004272 -0.432383 0.860182 -0.270430 1.000000
47.930901 13.997200 -743.160889 -0.472750 0.799668 -0.370187 1.000000
46.453800 12.655600 -740.772827 -0.653979 0.553108 0.516122 1.000000
46.612900 12.961000 -740.998413 -0.618599 0.651947 0.438522 1.000000
46.690800 13.077800 -741.111877 -0.742271 0.525021 0.416396 1.000000
46.769901 13.231100 -741.224121 -0.439576 0.742505 0.505430 1.000000
47.894699 14.034300 -742.938171 -0.435909 0.870319 -0.229189 1.000000
48.005100 14.065300 -743.110474 -0.375959 0.894931 -0.240319 1.000000
48.077499 14.045600 -743.227173 -0.515225 0.800580 -0.305964 1.000000
46.501999 12.573900 -740.647522 -0.221128 0.973694 -0.054976 1.000000
46.542801 12.672200 -740.703613 -0.681358 0.500555 0.534037 1.000000
46.622601 12.828700 -740.816528 -0.470533 0.762362 0.444301 1.000000
46.702000 12.977100 -740.929321 -0.456538 0.677281 0.576943 1.000000
46.741798 13.054500 -740.985596 -0.594016 0.583862 0.553399 1.000000
46.860199 13.268600 -741.154480 -0.534022 0.638468 0.554237 1.000000
46.974899 13.389200 -741.325623 -0.331289 0.888934 0.316298 1.000000
48.171101 14.133800 -743.155212 -0.425662 0.887644 -0.175785 1.000000
48.244099 14.132400 -743.270874 -0.374557 0.887895 -0.267114 1.000000
48.317600 14.147800 -743.385925 -0.415975 0.836658 -0.356325 1.000000
48.408401 14.296500 -743.516785 0.314973 0.805635 0.501741 1.000000
46.669998 12.698300 -740.648926 -0.398955 0.805921 0.437408 1.000000
46.750401 12.866300 -740.761475 -0.319552 0.896232 0.307662 1.000000
46.828899 12.987500 -740.875122 -0.384004 0.634513 0.670771 1.000000
46.947899 13.209600 -741.044006 -0.418561 0.706424 0.570764 1.000000
47.064800 13.382500 -741.213684 -0.224517 0.829338 0.511654 1.000000
48.338600 14.204200 -743.155823 -0.272666 0.949628 -0.154466 1.000000
48.411800 14.204500 -743.271423 -0.291844 0.934180 -0.205268 1.000000
48.485401 14.221600 -743.386230 -0.003735 0.944876 -0.327408 1.000000
48.587898 14.281600 -743.543030 -0.971820 0.227867 0.060354 1.000000
46.660900 12.624500 -740.353882 -0.558873 0.803859 0.203644 1.000000
46.932301 12.934200 -740.755127 -0.580131 0.607193 0.542922 1.000000
47.052399 13.175300 -740.923584 -0.418177 0.749439 0.513292 1.000000
47.168900 13.330700 -741.093872 -0.322619 0.823073 0.467405 1.000000
47.514801 13.732300 -741.604492 -0.273419 0.874639 0.400310 1.000000
48.486000 14.266800 -743.088989 -0.292847 0.955801 0.026169 1.000000
48.633598 14.305700 -743.318176 -0.310710 0.920675 -0.236254 1.000000
48.707001 14.312900 -743.433289 -0.541194 0.823035 -0.172403 1.000000
48.780300 14.315000 -743.548584 -0.491295 0.837191 -0.240291 1.000000
48.853401 14.307000 -743.664490 -0.509887 0.847852 -0.145472 1.000000
47.035702 12.954200 -740.586670 -0.453590 0.813279 0.364464 1.000000
47.152199 13.093700 -740.757874 -0.320750 0.833950 0.449050 1.000000
47.308399 13.314400 -740.984680 -0.377732 0.734206 0.564145 1.000000
47.767200 13.765000 -741.667419 -0.207466 0.943900 0.256928 1.000000
48.591702 14.262900 -742.920776 -0.216815 0.969960 0.110309 1.000000
48.740898 14.348800 -743.147888 -0.140999 0.971749 0.189269 1.000000
49.110199 14.448500 -743.719971 -0.273118 0.942875 -0.190771 1.000000
49.183300 14.441800 -743.835510 -0.333036 0.877452 -0.345202 1.000000
47.096699 12.982200 -740.321472 -0.662575 0.747703 0.043983 1.000000
47.288700 13.153400 -740.608276 -0.557005 0.826201 0.084482 1.000000
47.403702 13.254700 -740.780029 -0.442356 0.849263 0.288225 1.000000
47.711102 13.573400 -741.235413 -0.254143 0.903456 0.345223 1.000000
48.727402 14.247900 -742.772827 -0.122711 0.982901 0.137290 1.000000
48.914600 14.371300 -743.056030 -0.315418 0.938060 0.143372 1.000000
49.323101 14.560600 -743.681030 -0.318790 0.946044 -0.058079 1.000000
49.433399 14.571800 -743.853088 -0.292567 0.954358 -0.060047 1.000000
49.589600 14.562600 -744.098816 -0.423793 0.892121 -0.156588 1.000000
47.070999 12.932600 -739.879028 -0.472606 0.686364 0.552765 1.000000
47.455502 13.269800 -740.452576 -0.496702 0.858729 0.125986 1.000000
47.950901 13.655900 -741.195679 -0.223624 0.901805 0.369784 1.000000
48.064400 13.731900 -741.367126 -0.253470 0.903994 0.344309 1.000000
48.891602 14.239800 -742.619385 -0.191535 0.932508 0.306176 1.000000
49.041000 14.319400 -742.846680 -0.286532 0.957975 0.013527 1.000000
49.600101 14.623800 -743.696472 -0.237019 0.967089 0.092526 1.000000
49.748402 14.685600 -743.923401 -0.312608 0.948116 -0.057890 1.000000
49.858398 14.682400 -744.095886 -0.205191 0.969879 0.131271 1.000000
49.931702 14.680000 -744.210876 -0.293961 0.934824 -0.199225 1.000000
47.234001 12.946600 -739.722595 0.151161 0.102789 -0.983150 1.000000
47.509102 13.315500 -740.121521 -0.531493 0.844467 -0.066260 1.000000
47.623100 13.385800 -740.293823 -0.583826 0.810005 0.055131 1.000000
47.737598 13.469200 -740.465576 -0.572689 0.815036 -0.087995 1.000000
49.057400 14.251200 -742.461975 -0.304747 0.933723 0.187858 1.000000
49.206402 14.307900 -742.690125 -0.058497 0.967074 0.247681 1.000000
49.356499 14.410600 -742.916077 -0.096751 0.971281 0.217376 1.000000
49.767601 14.662400 -743.537170 -0.353394 0.932160 0.078680 1.000000
49.916302 14.734000 -743.763489 -0.080697 0.988249 0.129817 1.000000
50.284401 14.768400 -744.335815 -0.210841 0.916513 -0.339927 1.000000
50.357700 14.758500 -744.450989 -0.369091 0.595467 -0.713576 1.000000
47.646801 13.375100 -739.962280 -0.471290 0.864278 0.175810 1.000000
47.761700 13.462200 -740.133972 -0.454887 0.876347 0.158411 1.000000
49.197300 14.299600 -742.301086 -0.367875 0.921754 0.122625 1.000000
49.345798 14.332400 -742.529907 -0.278741 0.952475 0.122857 1.000000
49.906601 14.624700 -743.379272 -0.138342 0.932780 0.332842 1.000000
50.055500 14.690600 -743.605774 -0.220789 0.962851 0.155467 1.000000
50.537300 14.845100 -744.343689 -0.291087 0.916707 -0.273709 1.000000
50.610001 14.804700 -744.460388 -0.301404 0.864433 -0.402382 1.000000
50.682499 14.747600 -744.578186 -0.390228 0.829431 -0.399707 1.000000
47.767601 13.429600 -739.822388 -0.459695 0.850665 0.255047 1.000000
47.882702 13.515200 -739.994019 -0.480610 0.872427 0.088793 1.000000
48.377800 13.824200 -740.736877 -0.439816 0.881094 -0.173881 1.000000
48.490501 13.861900 -740.908813 -0.512796 0.843823 -0.158124 1.000000
49.207901 14.253500 -741.989929 -0.314733 0.938749 0.140335 1.000000
49.320999 14.324300 -742.159729 -0.072674 0.974325 0.213095 1.000000
49.470001 14.355800 -742.388306 -0.272354 0.961322 0.041040 1.000000
49.544201 14.364800 -742.502808 -0.258100 0.957723 0.127085 1.000000
49.918999 14.551200 -743.069092 -0.317415 0.929872 0.185974 1.000000
50.031399 14.614200 -743.238403 -0.212616 0.975605 0.054673 1.000000
50.181198 14.702500 -743.463684 -0.164435 0.961613 0.219685 1.000000
50.292900 14.744300 -743.633728 -0.187929 0.970329 0.152133 1.000000
50.554298 14.888500 -744.027527 -0.197822 0.979636 -0.034352 1.000000
50.849098 14.876800 -744.486084 -0.247791 0.967739 -0.045613 1.000000
50.922901 14.876900 -744.600586 -0.119238 0.925124 -0.360456 1.000000
50.995899 14.836300 -744.717285 -0.326588 0.855940 -0.400883 1.000000
47.855999 13.424200 -739.669983 -0.383262 0.863495 0.327851 1.000000
48.012100 13.591200 -739.897583 -0.390263 0.902934 0.180011 1.000000
48.125999 13.641500 -740.069519 -0.429051 0.891106 0.147800 1.000000
48.773800 14.040000 -741.038330 -0.506761 0.852345 -0.129231 1.000000
49.451801 14.330300 -742.062927 -0.253843 0.945392 0.204446 1.000000
49.602402 14.404200 -742.289673 -0.304617 0.951769 -0.036655 1.000000
49.752701 14.474700 -742.516296 -0.327605 0.940372 0.091517 1.000000
50.014702 14.568700 -742.913696 -0.362300 0.926783 0.099056 1.000000
50.127499 14.631800 -743.082825 -0.375759 0.911747 0.165901 1.000000
50.314499 14.706800 -743.365784 -0.213449 0.966344 0.143593 1.000000
50.426899 14.765800 -743.534790 -0.158973 0.979716 0.122002 1.000000
50.763599 14.938400 -744.041199 -0.227338 0.948832 0.219171 1.000000
50.875099 14.968300 -744.211121 0.017528 0.999118 0.038150 1.000000
50.986099 14.973600 -744.382324 -0.073705 0.995574 0.058304 1.000000
51.206402 14.891900 -744.729919 -0.253012 0.915181 -0.313735 1.000000
51.280701 14.911000 -744.843201 -0.207697 0.832305 -0.513937 1.000000
47.988998 13.456000 -739.592102 -0.520782 0.621904 0.584826 1.000000
48.107101 13.600600 -739.762329 -0.440620 0.867706 0.230085 1.000000
48.224300 13.730300 -739.932373 -0.479431 0.873098 0.088575 1.000000
48.719398 13.994300 -740.674072 -0.390329 0.920341 0.024804 1.000000
49.435398 14.242900 -741.757996 -0.202021 0.956591 0.210049 1.000000
49.549301 14.316900 -741.927490 -0.235709 0.959953 0.151433 1.000000
49.701599 14.438500 -742.152405 -0.167710 0.974734 0.147534 1.000000
49.851799 14.492400 -742.379578 -0.338267 0.938461 0.069759 1.000000
50.151600 14.591000 -742.833801 -0.399092 0.904703 0.149127 1.000000
50.264900 14.670100 -743.002075 -0.269055 0.960182 0.075233 1.000000
50.414799 14.730900 -743.228271 -0.206995 0.977545 0.039485 1.000000
51.383499 14.962800 -744.703308 -0.142527 0.961078 -0.236674 1.000000
51.457001 14.927000 -744.819580 -0.239244 0.845735 -0.476964 1.000000
51.530499 14.889200 -744.936218 -0.449871 0.808487 -0.379428 1.000000
48.078999 13.391000 -739.460876 0.114249 0.007617 -0.993423 1.000000
48.119801 13.474100 -739.517029 -0.213822 0.257966 0.942196 1.000000
48.238800 13.639900 -739.686584 -0.493225 0.826190 0.272285 1.000000
48.356400 13.775000 -739.856506 -0.461252 0.881599 0.100150 1.000000
49.343300 14.238300 -741.338684 -0.357551 0.922398 -0.146081 1.000000
49.643700 14.316800 -741.795105 -0.337212 0.932452 0.129697 1.000000
49.832699 14.415100 -742.078186 -0.180737 0.954558 0.236966 1.000000
50.248100 14.647600 -742.698975 -0.319873 0.943824 0.082930 1.000000
50.360401 14.680200 -742.869324 -0.285924 0.957659 0.033712 1.000000
50.510399 14.737100 -743.095703 -0.251210 0.967932 0.001191 1.000000
50.659599 14.767000 -743.323181 -0.212009 0.972230 0.099105 1.000000
51.591999 15.008200 -744.739807 -0.097968 0.975959 -0.194696 1.000000
51.703098 14.995700 -744.911987 -0.285747 0.952052 -0.109295 1.000000
48.210400 13.491500 -739.364319 -0.756872 0.521474 0.393966 1.000000
48.330200 13.673600 -739.533508 -0.441875 0.771244 0.458181 1.000000
48.563702 13.899900 -739.873901 -0.464918 0.869704 0.165728 1.000000
48.943100 14.050200 -740.445129 -0.250444 0.965279 0.074252 1.000000
49.775002 14.381000 -741.697327 -0.339067 0.939253 0.053263 1.000000
49.925499 14.426200 -741.924927 -0.092808 0.994050 0.057026 1.000000
50.075500 14.462500 -742.152771 -0.225524 0.926209 0.302117 1.000000
50.492100 14.732000 -742.771179 -0.320985 0.944762 0.066276 1.000000
50.641701 14.765500 -742.998474 -0.184955 0.978671 -0.089415 1.000000
51.836102 15.044100 -744.812805 -0.207320 0.970462 -0.123375 1.000000
51.910000 15.021600 -744.928284 0.092065 0.978349 -0.185358 1.000000
51.983700 14.980400 -745.045227 -0.624944 0.677710 -0.387498 1.000000
48.436901 13.658100 -739.366577 0.430697 0.283555 0.856795 1.000000
48.593300 13.820100 -739.593384 -0.389946 0.844099 0.368021 1.000000
49.053902 14.125000 -740.275574 -0.405967 0.911050 0.071961 1.000000
49.923599 14.450500 -741.584290 -0.368686 0.926407 -0.076419 1.000000
50.037800 14.527000 -741.753174 -0.566778 0.823012 -0.037600 1.000000
50.224701 14.543400 -742.038879 -0.193515 0.975066 0.108618 1.000000
50.488499 14.652700 -742.435120 -0.296500 0.948002 0.115675 1.000000
50.601799 14.712900 -742.604126 -0.279163 0.948074 0.152393 1.000000
50.752998 14.807600 -742.828491 -0.153232 0.987367 -0.040324 1.000000
51.238300 14.876800 -743.568115 -0.215445 0.973811 0.072636 1.000000
52.060699 15.128000 -744.810303 -0.163217 0.985174 0.052840 1.000000
52.170898 15.040100 -744.986877 -0.225923 0.925004 -0.305493 1.000000
48.709202 13.769900 -739.366272 -0.103292 0.096328 -0.989976 1.000000
50.044498 14.548100 -741.352905 -0.304383 0.947409 -0.098826 1.000000
50.194099 14.564000 -741.581299 -0.281910 0.953249 -0.108830 1.000000
50.268600 14.562800 -741.695923 -0.285034 0.950555 -0.123294 1.000000
50.380402 14.561200 -741.867676 -0.349270 0.931836 -0.098443 1.000000
50.644402 14.682400 -742.263306 -0.198887 0.971634 0.127947 1.000000
50.757702 14.744700 -742.432129 -0.100963 0.981648 0.161783 1.000000
51.058300 14.863400 -742.883972 -0.231980 0.972393 0.025241 1.000000
52.104198 15.126800 -744.468811 -0.150013 0.987298 0.052330 1.000000
52.327301 15.139200 -744.810425 -0.203252 0.979093 -0.008130 1.000000
48.980900 13.903000 -739.268616 -0.232545 0.846584 0.478768 1.000000
50.280602 14.634100 -741.206421 -0.316967 0.948416 0.006215 1.000000
50.431301 14.696900 -741.432922 -0.380045 0.921035 -0.085206 1.000000
50.841702 14.737700 -742.060303 -0.209707 0.977448 0.024880 1.000000
50.954399 14.781800 -742.229919 -0.264782 0.962503 0.058980 1.000000
51.103802 14.811100 -742.457275 -0.104179 0.972756 0.207103 1.000000
51.479000 14.966500 -743.021179 -0.346205 0.935939 0.064502 1.000000
51.590900 14.990400 -743.191284 -0.227785 0.973694 0.005901 1.000000
51.702599 15.002500 -743.361877 0.061495 0.993990 -0.090566 1.000000
52.298801 15.121400 -744.268616 -0.117049 0.979514 0.163868 1.000000
52.884300 15.145800 -745.166626 -0.138468 0.933628 -0.330403 1.000000
52.938999 15.044200 -745.258972 0.904944 0.396357 -0.154849 1.000000
49.414101 14.074900 -739.298828 -0.923181 0.356778 0.142989 1.000000
49.492802 14.183600 -739.410828 -0.092014 0.867765 0.488383 1.000000
49.570801 14.277900 -739.523071 -0.085495 0.878773 0.469520 1.000000
49.647800 14.347100 -739.635986 -0.220364 0.900429 0.375057 1.000000
50.477100 14.666000 -740.885498 -0.344056 0.938908 -0.008822 1.000000
50.552399 14.695300 -740.998779 -0.310827 0.950099 0.026427 1.000000
50.665100 14.739000 -741.168701 -0.253538 0.967289 0.008411 1.000000
50.815102 14.787000 -741.395508 -0.291892 0.955853 -0.033824 1.000000
51.188202 14.848000 -741.964294 -0.219326 0.972719 -0.075587 1.000000
51.374100 14.855400 -742.249573 -0.232788 0.972510 0.005908 1.000000
51.486500 14.900700 -742.418884 -0.289365 0.951894 0.100820 1.000000
53.259399 15.218600 -745.119812 0.042075 0.947332 -0.317477 1.000000
53.331100 15.192800 -745.232117 -0.539194 0.620326 -0.569619 1.000000
53.395000 15.132200 -745.335327 0.067827 0.878976 -0.472017 1.000000
50.688202 14.740700 -740.463806 -0.267070 0.962696 -0.043477 1.000000
50.800499 14.771300 -740.634216 -0.293876 0.950157 0.104109 1.000000
50.950802 14.835000 -740.860229 -0.309558 0.950873 -0.003700 1.000000
51.100800 14.892900 -741.086426 -0.247791 0.967739 0.045613 1.000000
51.400002 14.986300 -741.539001 -0.243978 0.967155 -0.071317 1.000000
51.511398 14.994500 -741.709778 -0.311993 0.941381 -0.128309 1.000000
51.659801 14.998800 -741.937683 -0.385753 0.902980 -0.189265 1.000000
52.105900 15.056300 -742.619385 -0.234922 0.970437 -0.055348 1.000000
52.850101 15.241800 -743.749390 -0.104070 0.994569 -0.001073 1.000000
54.052799 15.214900 -745.601929 -0.326749 0.944922 -0.018924 1.000000
50.486000 14.526500 -739.444519 -0.387370 0.278846 -0.878743 1.000000
51.090199 14.859400 -740.347412 -0.162739 0.977674 0.132924 1.000000
51.239799 14.902400 -740.573914 -0.213585 0.963096 0.163792 1.000000
51.389400 14.950200 -740.800171 -0.228633 0.973188 0.025138 1.000000
51.800201 15.078900 -741.421814 -0.197890 0.980191 -0.008101 1.000000
51.912399 15.125800 -741.590576 -0.271320 0.962396 -0.013384 1.000000
52.060902 15.143500 -741.817627 -0.150839 0.983471 -0.100157 1.000000
52.431900 15.179200 -742.385376 -0.071684 0.944931 -0.319322 1.000000
54.006802 15.348400 -744.794495 0.063742 0.997922 -0.009405 1.000000
54.318401 15.362900 -745.272583 -0.083883 0.994288 -0.065988 1.000000
54.422600 15.311700 -745.437012 0.096362 0.986226 -0.134431 1.000000
54.486099 15.250300 -745.539612 -0.010025 0.990209 -0.139231 1.000000
54.574299 15.181100 -745.680786 0.549263 0.046121 0.834376 1.000000
51.065701 14.800700 -739.675171 0.385740 0.720596 0.576148 1.000000
51.139801 14.798500 -739.789429 -0.200916 0.978111 0.054139 1.000000
51.289700 14.853000 -740.015686 0.202009 0.883236 0.423186 1.000000
51.477001 14.922300 -740.298218 -0.128200 0.940585 0.314428 1.000000
51.627399 15.006500 -740.522827 -0.116568 0.987886 0.102439 1.000000
52.036999 15.099500 -741.145508 -0.365239 0.930519 -0.027103 1.000000
52.186199 15.149700 -741.370972 -0.007824 0.989191 0.146423 1.000000
52.855202 15.305100 -742.387573 -0.163441 0.986362 0.019430 1.000000
54.105099 15.349600 -744.306824 -0.182408 0.983169 -0.010325 1.000000
54.221802 15.353900 -744.485779 -0.057019 0.998347 -0.007257 1.000000
54.978001 15.297200 -745.653687 0.154217 0.982373 -0.105645 1.000000
55.037800 15.218800 -745.752014 0.790084 0.570530 0.224192 1.000000
55.116501 15.156200 -745.878113 -0.527196 0.732125 -0.431343 1.000000
51.488899 14.822300 -739.772827 0.258260 0.456922 0.851189 1.000000
51.564602 14.881700 -739.884583 -0.279963 0.951344 0.128703 1.000000
51.640099 14.933600 -739.996582 -0.070192 0.990740 0.116219 1.000000
51.714401 14.944800 -740.110229 -0.047822 0.985610 0.162130 1.000000
51.826900 15.003900 -740.278687 0.073610 0.879151 0.470825 1.000000
52.125702 15.125500 -740.729309 -0.291492 0.956341 -0.021087 1.000000
52.236900 15.140000 -740.899475 -0.083135 0.981951 0.169884 1.000000
52.385799 15.185500 -741.125122 -0.279643 0.947004 0.158059 1.000000
52.868198 15.292500 -741.859619 -0.305291 0.951341 -0.041803 1.000000
53.053299 15.319000 -742.142578 -0.193340 0.980762 -0.026950 1.000000
54.322899 15.377800 -744.093506 -0.065165 0.984584 -0.162320 1.000000
54.439400 15.383100 -744.272583 -0.136153 0.989682 -0.044622 1.000000
55.448002 15.265400 -745.835693 0.202213 0.926218 -0.318167 1.000000
55.504799 15.198700 -745.928528 -0.841585 0.423134 -0.335697 1.000000
51.885601 14.905200 -739.936279 -0.571402 0.341546 -0.746221 1.000000
51.960499 14.937600 -740.049011 -0.055608 0.983188 0.173921 1.000000
52.110901 15.040100 -740.272522 -0.226772 0.958806 0.171073 1.000000
52.297501 15.118700 -740.553711 -0.071831 0.964052 0.255820 1.000000
52.408901 15.140500 -740.723511 -0.076481 0.987191 0.140019 1.000000
52.557999 15.203700 -740.948181 -0.072394 0.994581 0.074621 1.000000
53.040600 15.336800 -741.680908 -0.107333 0.971050 0.213404 1.000000
54.634899 15.431000 -744.129517 -0.154159 0.976338 -0.151652 1.000000
55.793301 15.223900 -745.930603 -0.181796 0.022001 -0.983090 1.000000
52.132801 14.978900 -740.017029 -0.150384 0.419644 0.895144 1.000000
52.208302 15.042600 -740.128113 -0.281985 0.959241 -0.018471 1.000000
52.283100 15.082200 -740.240112 -0.303720 0.941124 0.148455 1.000000
52.394901 15.121200 -740.409119 -0.066341 0.988138 0.138502 1.000000
52.543400 15.150500 -740.635376 -0.033779 0.984245 0.173553 1.000000
52.692501 15.214200 -740.859924 -0.090157 0.949916 0.299217 1.000000
53.858799 15.432600 -742.638184 -0.145176 0.989221 -0.019132 1.000000
54.626999 15.422600 -743.821777 0.084505 0.995407 0.044996 1.000000
54.745098 15.436100 -744.002502 0.036088 0.999114 0.021653 1.000000
55.932400 15.274500 -745.843384 0.262217 0.710370 -0.653159 1.000000
55.948898 15.171200 -745.877075 0.229828 0.636327 -0.736388 1.000000
52.564999 15.158500 -740.523499 -0.125699 0.971311 0.201880 1.000000
52.713299 15.185300 -740.749695 -0.093980 0.971124 0.219286 1.000000
52.863201 15.292800 -740.971619 0.034187 0.948382 0.315283 1.000000
54.318802 15.448500 -743.198730 -0.111426 0.988759 -0.099697 1.000000
56.029499 15.223900 -745.848511 -0.206673 0.669743 -0.713253 1.000000
56.102200 15.194400 -745.962708 -0.147167 0.819082 0.554478 1.000000
52.316200 15.018900 -740.167175 0.887573 0.248282 0.388034 1.000000
54.031101 15.464200 -742.763306 -0.102019 0.988525 -0.111400 1.000000
52.319401 15.036000 -740.064270 0.042883 0.995102 0.089064 1.000000
52.431198 15.082900 -740.232178 -0.022939 0.873035 0.487118 1.000000
52.505699 15.111100 -740.344177 0.047055 0.998603 -0.024050 1.000000
53.450600 15.408400 -741.771301 -0.212449 0.976791 -0.027298 1.000000
53.964401 15.467700 -742.555725 -0.169001 0.984865 0.038462 1.000000
54.157799 15.475000 -742.852295 -0.108958 0.980620 -0.162825 1.000000
54.723202 15.436800 -743.723877 -0.114244 0.988154 -0.102467 1.000000
54.841202 15.453500 -743.903809 -0.094032 0.995437 -0.016212 1.000000
52.442101 14.984500 -740.075928 -0.133338 0.063770 -0.989017 1.000000
52.555401 15.108300 -740.239685 -0.237630 0.971025 0.025331 1.000000
52.629601 15.126000 -740.352173 -0.135726 0.990466 0.023556 1.000000
52.704498 15.185700 -740.462524 -0.249198 0.965168 0.079693 1.000000
52.778599 15.200000 -740.575073 0.075697 0.988716 -0.129267 1.000000
52.852501 15.203700 -740.688416 -0.001168 0.975327 0.220763 1.000000
52.963699 15.236400 -740.856628 0.003797 0.932685 0.360672 1.000000
54.141499 15.498700 -742.644592 -0.017082 0.999793 -0.011053 1.000000
54.780998 15.448900 -743.631104 -0.125660 0.982103 -0.140300 1.000000
54.897099 15.456700 -743.808777 -0.074192 0.996756 -0.031182 1.000000
56.217800 15.243500 -745.855286 0.076848 0.726430 -0.682931 1.000000
52.625500 15.159800 -740.147522 -0.642270 0.709540 0.289902 1.000000
52.699299 15.160200 -740.260803 -0.320254 0.929995 -0.180405 1.000000
52.773300 15.169600 -740.373718 -0.115144 0.340014 0.933345 1.000000
52.847801 15.208400 -740.484985 -0.040354 0.969711 -0.240899 1.000000
52.921902 15.221000 -740.597717 -0.061670 0.962811 -0.263043 1.000000
53.607498 15.358300 -741.639404 -0.094428 0.994276 0.049992 1.000000
54.862099 15.476300 -743.556580 -0.056320 0.989624 -0.132180 1.000000
54.976601 15.476600 -743.732483 -0.067897 0.996895 -0.039876 1.000000
55.397900 15.489300 -744.378479 -0.022619 0.996298 -0.082935 1.000000
56.333900 15.256300 -745.835022 -0.109696 0.577731 -0.808823 1.000000
56.388901 15.155400 -745.927673 -0.110560 0.773920 -0.623558 1.000000
52.823502 15.188700 -740.284912 0.164797 0.045582 0.985274 1.000000
52.897900 15.224400 -740.396301 0.201087 0.969574 0.139608 1.000000
52.971901 15.243000 -740.508606 0.222449 0.973670 0.049838 1.000000
54.151600 15.478800 -742.302917 -0.206068 0.977928 0.034543 1.000000
56.460400 15.244700 -745.871582 -0.042589 0.864139 -0.501448 1.000000
56.521198 15.172600 -745.970886 -0.310938 0.786114 -0.534175 1.000000
52.991600 15.232400 -740.328613 0.269765 0.889778 -0.368133 1.000000
53.027000 15.157400 -740.389221 0.067622 0.033274 0.997156 1.000000
53.212700 15.238700 -740.668091 0.023744 0.989351 0.143597 1.000000
53.435101 15.330700 -741.002686 0.076785 0.991334 0.106583 1.000000
55.134899 15.492200 -743.604126 -0.066530 0.978594 -0.194751 1.000000
56.570202 15.291700 -745.828003 -0.058572 0.981387 -0.182889 1.000000
56.634300 15.236400 -745.931213 -0.134574 0.808921 -0.572308 1.000000
56.721199 15.146400 -746.072083 -0.037174 0.852249 -0.521813 1.000000
53.176498 15.098900 -740.319275 0.052127 0.988087 -0.144796 1.000000
53.288799 15.195300 -740.484070 -0.107707 0.671326 0.733294 1.000000
53.363499 15.254500 -740.594116 -0.287971 0.916008 0.279288 1.000000
53.437801 15.292800 -740.705322 -0.505245 0.702007 -0.501910 1.000000
53.511600 15.300000 -740.817993 0.136958 0.537521 0.832054 1.000000
54.373798 15.486900 -742.127930 -0.085252 0.996050 -0.024820 1.000000
55.563999 15.510700 -743.955078 -0.078618 0.992409 -0.094569 1.000000
56.802898 15.279100 -745.877625 0.187672 0.973627 0.129733 1.000000
56.876499 15.148400 -746.001282 0.028084 0.965834 -0.257637 1.000000
53.605900 15.344500 -740.601685 -0.042092 0.883928 -0.465725 1.000000
53.677700 15.232700 -740.720886 -0.421169 0.617604 -0.664215 1.000000
53.752201 15.284400 -740.831177 -0.096137 0.986291 0.134117 1.000000
53.974800 15.391500 -741.164429 0.044693 0.974783 0.218632 1.000000
54.504200 15.476500 -741.970581 0.007117 0.999412 -0.033551 1.000000
55.256500 15.584300 -743.117188 -0.015374 0.999310 -0.033823 1.000000
55.370300 15.581100 -743.292297 -0.111356 0.974674 -0.193934 1.000000
56.944698 15.309600 -745.731689 0.062756 0.983965 -0.166954 1.000000
57.044498 15.243500 -745.890076 -0.040899 0.962978 -0.266461 1.000000
57.101700 15.153800 -745.985229 0.893788 0.281075 0.349485 1.000000
57.180099 15.053600 -746.113586 -0.018154 0.730331 -0.682852 1.000000
53.801201 15.374300 -740.589783 -0.132198 0.858559 -0.495378 1.000000
53.874298 15.343500 -740.704529 -0.230830 0.895384 -0.380795 1.000000
53.947498 15.320800 -740.818909 -0.318389 0.882737 -0.345550 1.000000
54.021500 15.346900 -740.930481 -0.219694 0.957334 -0.187739 1.000000
54.095600 15.377400 -741.041870 -0.191744 0.969014 -0.155711 1.000000
55.384602 15.613900 -743.004272 -0.062300 0.997856 -0.020063 1.000000
55.499298 15.614800 -743.180481 -0.023291 0.992660 -0.118676 1.000000
57.275501 15.228700 -745.941528 0.283881 0.769176 -0.572521 1.000000
57.328800 15.119000 -746.032104 0.099612 0.544255 -0.832985 1.000000
57.347198 15.023400 -746.068115 0.012323 0.560018 -0.828389 1.000000
57.404999 14.936000 -746.164001 -0.467999 0.524625 -0.711158 1.000000
57.462299 14.868500 -746.257324 -0.590048 0.495909 -0.637117 1.000000
53.962002 15.402000 -740.611572 -0.347918 0.914895 -0.204742 1.000000
54.050499 15.390300 -740.748596 -0.345286 0.885078 -0.312114 1.000000
54.123901 15.377600 -740.862427 -0.346055 0.906753 -0.240925 1.000000
54.197601 15.383700 -740.975098 -0.076010 0.970683 -0.228029 1.000000
54.271400 15.403300 -741.086975 -0.142128 0.985341 -0.094354 1.000000
56.020500 15.607400 -743.758606 -0.096384 0.972604 -0.211545 1.000000
57.030800 15.367100 -745.330322 0.038828 0.982462 -0.182373 1.000000
57.386002 15.260300 -745.884827 0.035393 0.921526 -0.386700 1.000000
57.444698 15.177600 -745.981506 -0.090214 0.927723 -0.362203 1.000000
57.509399 15.125200 -746.085327 -0.372168 0.765463 -0.524935 1.000000
57.577202 15.087800 -746.192383 -0.350461 0.728633 -0.588448 1.000000
54.253399 15.427700 -740.888672 -0.147864 0.981276 -0.123423 1.000000
54.318199 15.400600 -740.990417 -0.276765 0.950627 -0.140388 1.000000
54.391800 15.396000 -741.103821 -0.710113 0.698400 -0.089313 1.000000
55.261299 15.576900 -742.424622 -0.166775 0.985699 -0.024154 1.000000
55.536301 15.609800 -742.844299 -0.010944 0.999900 0.008954 1.000000
55.653599 15.622800 -743.023499 -0.044965 0.998646 0.026143 1.000000
57.228600 15.355600 -745.463928 -0.048149 0.998835 -0.003073 1.000000
57.338001 15.337300 -745.633301 0.171645 0.975995 -0.134058 1.000000
57.442299 15.294100 -745.796875 -0.003586 0.967037 -0.254609 1.000000
57.510399 15.258500 -745.904419 -0.042580 0.940625 -0.336767 1.000000
57.574902 15.204900 -746.007813 -0.209630 0.846060 -0.490141 1.000000
57.648499 15.196600 -746.121521 -0.168294 0.768695 -0.617078 1.000000
57.702999 15.093200 -746.213623 0.206738 0.704154 -0.679283 1.000000
54.444199 15.430900 -741.020081 -0.120422 0.962084 -0.244729 1.000000
57.179100 15.382500 -745.214783 -0.012863 0.978753 -0.204638 1.000000
57.286598 15.353800 -745.381775 -0.061010 0.995025 -0.078759 1.000000
57.395699 15.333000 -745.550476 0.148474 0.976936 -0.153465 1.000000
57.542999 15.315300 -745.777710 -0.008207 0.976676 -0.214564 1.000000
57.610901 15.278400 -745.884827 0.001234 0.949175 -0.314746 1.000000
57.681900 15.256400 -745.995178 -0.032273 0.933324 -0.357581 1.000000
57.746300 15.202400 -746.098389 0.422452 0.714027 -0.558300 1.000000
54.549702 15.463400 -741.024475 -0.011060 0.957327 -0.288796 1.000000
55.664902 15.613600 -742.718384 -0.108947 0.993725 -0.025311 1.000000
55.779099 15.610800 -742.893372 -0.072214 0.997389 -0.001047 1.000000
57.219101 15.401500 -745.113220 -0.067573 0.974273 -0.215003 1.000000
57.580898 15.321800 -745.672974 0.027678 0.993091 -0.114034 1.000000
57.653301 15.306800 -745.784973 0.053023 0.983869 -0.170852 1.000000
57.722900 15.277700 -745.893799 0.109375 0.963790 -0.243199 1.000000
57.781601 15.194700 -745.990295 0.336539 0.820018 -0.462939 1.000000
57.832298 15.071800 -746.077820 0.447035 0.737360 -0.506419 1.000000
57.524399 15.356100 -745.433228 0.035696 0.986833 -0.157755 1.000000
57.900398 15.159100 -746.022888 0.095272 0.681561 -0.725533 1.000000
54.656502 15.448200 -740.968018 -0.230041 0.912930 -0.337104 1.000000
55.742901 15.645600 -742.607788 -0.110916 0.991379 -0.069751 1.000000
57.445499 15.397200 -745.222900 0.071718 0.978520 -0.193273 1.000000
57.664501 15.356300 -745.559875 0.036569 0.994003 -0.103057 1.000000
57.734001 15.325700 -745.668213 0.026154 0.988152 -0.151236 1.000000
57.803699 15.296800 -745.776917 0.107887 0.968446 -0.224659 1.000000
57.865200 15.227000 -745.876282 0.138046 0.918913 -0.369517 1.000000
57.986698 15.079500 -746.073425 -0.004074 0.558138 -0.829738 1.000000
55.875099 15.623500 -742.746887 -0.055762 0.996065 -0.068883 1.000000
57.327000 15.444900 -744.971375 0.001162 0.977614 -0.210402 1.000000
57.961498 15.211200 -745.956177 0.057980 0.821623 -0.567075 1.000000
54.752602 15.506500 -740.995483 -0.559391 0.656822 -0.505635 1.000000
58.105801 15.027500 -746.131592 -0.060477 0.404522 -0.912526 1.000000
54.832001 15.491600 -741.125000 -0.543089 0.786925 -0.292920 1.000000
54.752300 15.447300 -741.076782 -0.552607 0.788763 -0.269219 1.000000
54.843601 15.490000 -741.253784 -0.323816 0.939201 -0.114209 1.000000
56.309700 15.661400 -743.467285 -0.075441 0.996041 -0.047014 1.000000
57.114300 15.491600 -744.703613 -0.041492 0.992440 -0.115504 1.000000
54.909698 15.483700 -741.381897 0.940741 0.151118 0.303596 1.000000
56.188599 15.670000 -743.308105 -0.081897 0.996595 -0.009572 1.000000
54.737000 15.450500 -741.189514 -0.431535 0.899825 -0.063981 1.000000
55.449200 15.580800 -742.258789 -0.074173 0.995247 0.063102 1.000000
54.632099 15.418400 -741.087830 -0.174963 0.928005 -0.328931 1.000000
54.930199 15.512900 -741.532104 0.047670 0.994408 0.094230 1.000000
55.019501 15.538200 -741.670715 -0.005163 0.998488 0.054726 1.000000
54.514000 15.491000 -740.924072 -0.334093 0.881342 -0.334093 1.000000
54.768101 15.456800 -741.312683 -0.350710 0.936483 0.001257 1.000000
56.514999 15.595400 -743.954102 -0.046892 0.977512 -0.205602 1.000000
56.224400 15.659200 -743.519775 -0.136430 0.983987 -0.114698 1.000000
55.005299 15.499700 -741.439087 0.214081 0.967851 0.132038 1.000000
55.080200 15.537100 -741.549316 0.054336 0.994673 0.087602 1.000000
54.988602 15.419200 -741.169922 -0.086750 0.954251 -0.286146 1.000000
55.062500 15.388400 -741.283997 0.334358 0.058545 0.940626 1.000000
55.138100 15.458400 -741.392273 0.132473 0.502233 0.854525 1.000000
55.856701 15.629000 -742.463074 -0.057137 0.998340 0.007272 1.000000
55.977600 15.649300 -742.643982 -0.128170 0.989566 -0.065817 1.000000
57.442402 15.475700 -744.869080 0.024326 0.983449 -0.179546 1.000000
57.797100 15.342700 -745.415283 -0.061303 0.979650 -0.191122 1.000000
57.873299 15.341900 -745.530518 -0.238799 0.961722 -0.134406 1.000000
57.946701 15.327500 -745.642517 -0.106982 0.949634 -0.294532 1.000000
58.015701 15.292000 -745.749512 -0.006370 0.928721 -0.370724 1.000000
58.084099 15.253800 -745.855774 0.286051 0.921400 -0.263052 1.000000
58.146999 15.189100 -745.956116 0.160303 0.860343 -0.483851 1.000000
58.210300 15.126000 -746.056824 -0.223434 0.704678 -0.673428 1.000000
58.258499 14.989100 -746.140625 -0.160188 0.052617 0.985683 1.000000
55.209801 15.397900 -741.131714 -0.795130 0.213778 -0.567510 1.000000
57.704399 15.461100 -744.887329 -0.179983 0.976873 -0.115437 1.000000
57.955299 15.380000 -745.272095 -0.075050 0.960380 -0.268398 1.000000
58.026699 15.355700 -745.381714 0.024626 0.996802 -0.076018 1.000000
58.098999 15.335900 -745.492371 0.115884 0.985611 -0.123052 1.000000
58.170200 15.310800 -745.601685 0.096827 0.979306 -0.177721 1.000000
58.240601 15.282200 -745.710205 -0.833199 0.043265 -0.551279 1.000000
58.311100 15.253900 -745.818787 -0.833095 0.046050 -0.551210 1.000000
58.374901 15.193000 -745.919922 -0.833095 0.046050 -0.551210 1.000000
58.424000 15.061100 -746.004700 0.155908 0.728077 -0.667530 1.000000
58.488098 15.001500 -746.106201 0.275365 0.609623 -0.743326 1.000000
55.868900 15.556200 -741.637085 -0.615596 0.694392 -0.372641 1.000000
55.959400 15.611200 -741.768982 -0.570323 0.600785 -0.560169 1.000000
56.194801 15.620600 -742.122925 0.067184 0.936627 0.343825 1.000000
57.794201 15.523000 -744.540710 0.019865 0.998489 0.051231 1.000000
57.903000 15.494000 -744.706970 0.068019 0.990313 -0.121051 1.000000
58.157799 15.431500 -745.095886 0.149555 0.984673 -0.089733 1.000000
58.229401 15.408200 -745.205688 -0.055927 0.981696 -0.182060 1.000000
58.300999 15.384900 -745.315430 -0.079123 0.950769 -0.299629 1.000000
58.370201 15.350300 -745.422485 -0.684055 0.427743 -0.590851 1.000000
58.437599 15.307000 -745.527527 -0.833199 0.043265 -0.551279 1.000000
58.507401 15.275400 -745.635315 -0.832868 0.040322 -0.552001 1.000000
58.578098 15.248200 -745.744080 -0.831916 0.043198 -0.553217 1.000000
