ply
format ascii 1.0
element vertex 690
property float x
property float y
property float z
property float nx
property float ny
property float nz
property float label
element face 0
property list uchar int vertex_indices
end_header
45.809399 31.512100 -727.518188 0.152551 0.946355 -0.284852 1.000000
45.661800 31.476400 -727.644226 0.123167 0.952229 -0.279444 1.000000
45.516800 31.460400 -727.771118 0.021106 0.954730 -0.296724 1.000000
45.369400 31.427700 -727.897217 -0.082544 0.989367 -0.119747 1.000000
45.221600 31.391701 -728.023071 -0.053146 0.983793 -0.171249 1.000000
45.072601 31.348400 -728.148926 0.039686 0.943493 -0.329007 1.000000
44.925201 31.316900 -728.275391 0.006339 0.934369 -0.356252 1.000000
44.779099 31.294800 -728.402283 0.102398 0.957875 -0.268309 1.000000
44.633801 31.277901 -728.529419 0.097812 0.953341 -0.285611 1.000000
44.486698 31.249901 -728.656128 0.230422 0.840812 -0.489838 1.000000
44.337002 31.204599 -728.782227 0.141655 0.857232 -0.495063 1.000000
44.189201 31.172701 -728.908813 0.315273 0.803234 -0.505388 1.000000
44.037300 31.113600 -729.034729 0.178046 0.896019 -0.406755 1.000000
43.888500 31.076401 -729.161316 -0.001273 0.925729 -0.378186 1.000000
43.731800 30.987700 -729.286194 0.039848 0.974465 -0.220975 1.000000
43.590199 30.948799 -729.406128 0.062727 0.972885 -0.222620 1.000000
43.448002 30.918301 -729.528076 0.091401 0.878854 -0.468253 1.000000
43.309898 30.831200 -729.636597 0.126783 0.884631 -0.448726 1.000000
43.170898 30.755199 -729.747986 -0.004132 0.621156 -0.783676 1.000000
43.030800 30.695101 -729.862976 0.094189 0.878625 -0.468131 1.000000
42.892200 30.609200 -729.972229 0.144206 0.487970 -0.860866 1.000000
42.754200 30.515900 -730.079529 0.023860 0.669472 -0.742454 1.000000
42.616199 30.420300 -730.186584 -0.050594 0.968682 -0.243096 1.000000
42.412800 30.218201 -730.333984 -0.166474 0.887378 -0.429937 1.000000
52.670200 35.254200 -721.920898 -0.857279 0.390796 0.335188 1.000000
52.063900 34.772598 -722.380188 -0.797122 0.598202 0.082163 1.000000
52.507900 35.134201 -721.973877 -0.671514 0.702967 0.234322 1.000000
52.355598 35.004601 -722.087891 -0.685999 0.715890 0.130026 1.000000
52.205601 34.900700 -722.203979 -0.696391 0.657969 0.286561 1.000000
51.813801 34.487701 -722.483521 -0.591738 0.801942 0.082066 1.000000
51.659500 34.348900 -722.597717 -0.667777 0.738223 0.095397 1.000000
51.501499 34.178600 -722.709473 -0.565801 0.820769 -0.078782 1.000000
51.350399 34.075699 -722.827026 -0.102419 0.969818 -0.221275 1.000000
51.189701 33.885700 -722.937927 -0.535844 0.841233 -0.072106 1.000000
51.033298 33.738098 -723.052429 -0.657029 0.753854 -0.004150 1.000000
50.875500 33.580002 -723.166321 -0.689258 0.721048 -0.070804 1.000000
50.721001 33.453602 -723.282715 -0.453150 0.885125 -0.105876 1.000000
50.570999 33.370300 -723.402405 -0.551934 0.698672 -0.455221 1.000000
50.406300 33.157600 -723.513123 -0.496525 0.811779 -0.307373 1.000000
50.248699 33.010799 -723.628784 -0.633892 0.773209 0.018111 1.000000
50.094700 32.896801 -723.746887 -0.541542 0.811545 -0.219378 1.000000
49.934601 32.732498 -723.861816 -0.439041 0.873617 -0.209847 1.000000
49.785999 32.669800 -723.983826 -0.467010 0.871462 -0.149851 1.000000
49.631699 32.559399 -724.102783 -0.551572 0.814513 -0.179827 1.000000
49.470600 32.392502 -724.218079 -0.481341 0.808590 -0.338369 1.000000
49.314701 32.271999 -724.336914 -0.514082 0.852031 -0.098807 1.000000
49.162399 32.184502 -724.457886 -0.619048 0.784689 0.032286 1.000000
48.999199 32.005501 -724.573120 -0.498826 0.866524 0.017574 1.000000
48.850201 31.947701 -724.696289 -0.427984 0.901092 0.069735 1.000000
48.700901 31.888500 -724.819519 -0.383680 0.915570 0.120506 1.000000
48.553398 31.845200 -724.943787 -0.303703 0.947921 0.095975 1.000000
48.407600 31.815800 -725.068909 -0.265089 0.957194 0.116221 1.000000
48.264400 31.807699 -725.195496 -0.202345 0.964726 0.168403 1.000000
47.685799 31.732401 -725.699280 -0.064138 0.997816 0.015772 1.000000
47.109200 31.676800 -726.204773 -0.069524 0.986291 0.149652 1.000000
46.102402 31.606501 -727.091980 0.163148 0.964529 -0.207524 1.000000
45.960098 31.608601 -727.219421 0.164362 0.920144 -0.355415 1.000000
44.786598 31.384800 -728.229187 0.151010 0.952831 -0.263265 1.000000
44.640701 31.363800 -728.356018 0.113673 0.966856 -0.228622 1.000000
44.495998 31.351601 -728.482971 0.171801 0.928841 -0.328237 1.000000
43.898300 31.178801 -728.987427 0.244266 0.860242 -0.447569 1.000000
43.750599 31.148800 -729.114319 0.215512 0.823837 -0.524260 1.000000
43.575901 31.061199 -729.255188 0.185228 0.906038 -0.380507 1.000000
43.435699 31.004200 -729.370789 0.113973 0.955011 -0.273796 1.000000
43.292999 30.980301 -729.494080 0.122200 0.903158 -0.411548 1.000000
43.152500 30.926901 -729.610413 0.093773 0.922783 -0.373734 1.000000
43.014198 30.841000 -729.719421 0.076097 0.292780 -0.953147 1.000000
42.877899 30.725000 -729.821228 0.189657 0.928617 -0.318905 1.000000
42.737801 30.661900 -729.935608 0.154122 0.858681 -0.488788 1.000000
42.466999 30.395100 -730.131775 -0.336565 0.837498 -0.430490 1.000000
42.263500 30.194201 -730.279297 -0.549082 0.747860 -0.373115 1.000000
51.938000 34.657398 -722.298706 -0.751661 0.657881 -0.046890 1.000000
50.454399 33.249802 -723.383179 -0.716419 0.686630 0.123623 1.000000
48.084900 31.767099 -725.245789 -0.201405 0.962266 0.182975 1.000000
47.941898 31.760900 -725.372681 -0.184296 0.972321 0.143624 1.000000
47.799301 31.758600 -725.499512 -0.121267 0.987798 0.097720 1.000000
47.511501 31.733500 -725.752319 -0.110220 0.987236 0.114960 1.000000
47.367802 31.722300 -725.878784 -0.062812 0.997548 -0.030874 1.000000
47.224300 31.713900 -726.005371 -0.089733 0.995707 -0.022703 1.000000
46.936001 31.687201 -726.258423 0.055203 0.985424 -0.160910 1.000000
46.792000 31.675100 -726.384888 -0.029536 0.979419 -0.199664 1.000000
46.648998 31.671200 -726.511780 -0.041673 0.999131 0.001016 1.000000
46.505199 31.661301 -726.638611 0.153635 0.986316 -0.059812 1.000000
46.362598 31.660101 -726.765930 0.092697 0.966338 -0.239997 1.000000
46.219002 31.651600 -726.892578 0.240111 0.933765 -0.265386 1.000000
45.782001 31.584000 -727.271301 0.111293 0.965822 -0.234100 1.000000
45.636002 31.559200 -727.397522 0.133731 0.976113 -0.171226 1.000000
45.489498 31.532200 -727.523682 -0.013406 0.961575 -0.274214 1.000000
45.341499 31.493999 -727.649475 -0.013584 0.954589 -0.297615 1.000000
45.195000 31.467699 -727.775574 0.138246 0.977686 -0.158173 1.000000
45.050701 31.457300 -727.902710 0.086102 0.981078 -0.173417 1.000000
44.905399 31.439199 -728.029419 0.148193 0.884839 -0.441700 1.000000
44.319302 31.339100 -728.535828 0.121092 0.959620 -0.253902 1.000000
44.172401 31.312500 -728.662415 0.149375 0.948731 -0.278563 1.000000
44.025902 31.289101 -728.789307 0.145336 0.910114 -0.388033 1.000000
42.567699 30.581499 -729.970825 -0.064129 0.143415 -0.987583 1.000000
52.451099 35.013599 -721.808289 -0.795993 0.603025 0.052499 1.000000
52.299099 34.888100 -721.922485 -0.642724 0.738745 0.202884 1.000000
52.152199 34.814999 -722.041077 -0.682091 0.632783 0.366521 1.000000
52.001801 34.709202 -722.157227 -0.681487 0.635507 0.362913 1.000000
51.764599 34.441601 -722.323181 -0.647124 0.739350 0.185990 1.000000
51.609501 34.296600 -722.436829 -0.633707 0.757726 0.155780 1.000000
51.454601 34.155998 -722.550781 -0.486950 0.861974 -0.140997 1.000000
51.302502 34.043598 -722.667419 -0.615949 0.787124 -0.032271 1.000000
51.143002 33.863899 -722.778870 -0.746919 0.625291 -0.226103 1.000000
50.982399 33.677502 -722.890320 -0.725713 0.654229 -0.212896 1.000000
50.832001 33.586800 -723.008972 -0.451504 0.887631 -0.090860 1.000000
50.679600 33.479801 -723.126709 -0.570744 0.818399 -0.066895 1.000000
50.526600 33.368500 -723.244080 -0.563777 0.825872 0.009556 1.000000
50.283100 33.081001 -723.412292 -0.677066 0.735699 -0.018148 1.000000
50.123299 32.915501 -723.526489 -0.506258 0.857073 -0.095547 1.000000
49.972801 32.834000 -723.646912 -0.480755 0.873208 -0.079892 1.000000
49.741299 32.664299 -723.824524 -0.571429 0.805400 -0.157480 1.000000
49.580299 32.495201 -723.939270 -0.592798 0.804009 -0.046466 1.000000
49.421101 32.345699 -724.055481 -0.738304 0.672614 0.049982 1.000000
49.270401 32.269402 -724.177124 -0.580200 0.813950 0.029219 1.000000
49.113098 32.139198 -724.295105 -0.477546 0.875733 -0.071005 1.000000
48.959202 32.038300 -724.415283 -0.595304 0.802610 0.037819 1.000000
48.803799 31.927999 -724.534973 -0.487867 0.865570 0.113025 1.000000
48.652500 31.852100 -724.657104 -0.375344 0.918276 0.126038 1.000000
48.507099 31.825701 -724.782227 -0.247681 0.967074 0.058497 1.000000
48.361500 31.798500 -724.907471 -0.151805 0.982483 0.108085 1.000000
48.217499 31.784000 -725.033630 -0.150913 0.988312 0.021559 1.000000
47.641300 31.728901 -725.538208 -0.081125 0.996210 0.031368 1.000000
47.068001 31.700701 -726.044922 0.101273 0.993812 -0.045629 1.000000
45.922401 31.659599 -727.059875 0.056735 0.959450 -0.276110 1.000000
44.681000 31.459200 -728.133179 0.252163 0.868225 -0.427317 1.000000
44.456600 31.390900 -728.321716 0.282444 0.921886 -0.265239 1.000000
43.870602 31.296499 -728.828430 0.340266 0.800345 -0.493626 1.000000
43.719002 31.240000 -728.953979 0.221970 0.856168 -0.466589 1.000000
43.569801 31.200001 -729.080383 0.264974 0.791786 -0.550330 1.000000
43.382500 31.142200 -729.237427 0.189450 0.879693 -0.436175 1.000000
43.241100 31.101700 -729.356812 0.232207 0.888895 -0.394900 1.000000
43.103100 31.014601 -729.465027 0.071435 0.502845 -0.861420 1.000000
42.962898 30.954800 -729.579895 0.072606 0.935957 -0.344548 1.000000
42.826199 30.845900 -729.683105 0.090231 0.834991 -0.542816 1.000000
42.685101 30.797899 -729.800903 0.071881 0.910044 -0.408231 1.000000
42.415600 30.514799 -729.992981 -0.098209 0.863958 -0.493894 1.000000
42.286400 30.287001 -730.069275 -0.654127 0.663964 -0.362311 1.000000
51.893299 34.549000 -722.158081 -0.772557 0.599850 0.208174 1.000000
46.048199 31.707600 -726.882507 0.143248 0.937249 -0.317874 1.000000
45.317200 31.580601 -727.512390 0.101072 0.951648 -0.290088 1.000000
45.171600 31.560200 -727.638672 0.068088 0.994527 -0.079250 1.000000
45.027401 31.550501 -727.765503 0.128765 0.970200 -0.205259 1.000000
44.881302 31.527000 -727.891724 0.213226 0.917300 -0.336296 1.000000
44.295898 31.432199 -728.397400 0.206513 0.921474 -0.328996 1.000000
44.150799 31.417999 -728.524170 0.305686 0.883929 -0.353873 1.000000
44.004299 31.394501 -728.650879 0.225450 0.876417 -0.425518 1.000000
42.519299 30.753599 -729.864990 -0.294354 0.925722 -0.237474 1.000000
42.169899 30.161600 -730.075317 -0.605334 0.662032 -0.441910 1.000000
52.421902 34.899502 -721.623108 -0.655374 0.530701 0.537440 1.000000
52.270500 34.780800 -721.737671 -0.241037 0.830580 -0.502033 1.000000
52.120499 34.676102 -721.853821 -0.391353 0.912229 -0.121166 1.000000
51.972000 34.589802 -721.971313 -0.620625 0.779760 0.082461 1.000000
51.741699 34.388100 -722.142517 -0.602994 0.788757 -0.119419 1.000000
51.590599 34.280998 -722.258728 -0.689044 0.712958 0.130036 1.000000
51.435799 34.138199 -722.372375 -0.630275 0.757849 0.168580 1.000000
51.283501 34.023499 -722.488770 -0.734433 0.678262 0.023873 1.000000
51.127602 33.876400 -722.602600 -0.687577 0.724590 -0.046977 1.000000
50.972301 33.736401 -722.717285 -0.757414 0.641801 0.120060 1.000000
50.811798 33.551399 -722.828796 -0.569131 0.806394 0.160678 1.000000
50.660599 33.455101 -722.947205 -0.539340 0.826192 0.162848 1.000000
50.503700 33.307800 -723.062012 -0.537015 0.821406 -0.192115 1.000000
50.353600 33.223900 -723.181519 -0.425545 0.787986 -0.444961 1.000000
50.190498 33.026402 -723.293091 -0.742413 0.669158 0.032401 1.000000
49.958801 32.848400 -723.469421 -0.559644 0.827603 0.043264 1.000000
49.804798 32.736599 -723.587830 -0.561092 0.820505 0.109304 1.000000
49.647900 32.601101 -723.704529 -0.750308 0.660551 -0.026646 1.000000
49.404099 32.328800 -723.875488 -0.728872 0.683583 -0.038213 1.000000
49.252499 32.244301 -723.996277 -0.601424 0.798658 0.020835 1.000000
49.093601 32.098999 -724.113220 -0.638298 0.763912 0.094941 1.000000
48.933300 31.944201 -724.229675 -0.656738 0.733281 0.176049 1.000000
48.783798 31.882500 -724.352417 -0.493284 0.860716 0.125853 1.000000
48.634499 31.823400 -724.475525 -0.334278 0.939910 0.069477 1.000000
48.491501 31.816200 -724.601929 -0.284356 0.949190 0.134836 1.000000
48.347900 31.805599 -724.728088 -0.220700 0.972806 0.070279 1.000000
48.203300 31.786100 -724.853882 -0.199733 0.976608 0.079648 1.000000
48.057899 31.761000 -724.979370 -0.222449 0.973670 0.049838 1.000000
47.912300 31.735201 -725.104614 -0.121309 0.990110 0.070475 1.000000
47.768002 31.719299 -725.230713 -0.030997 0.997249 0.067338 1.000000
47.625301 31.716299 -725.357483 -0.026038 0.998835 0.040620 1.000000
47.485500 31.737000 -725.485596 -0.001053 0.996878 -0.078950 1.000000
47.343498 31.739799 -725.612915 0.013244 0.999413 -0.031582 1.000000
47.201302 31.740700 -725.739929 0.081634 0.995934 -0.038096 1.000000
47.061600 31.761499 -725.868103 0.120972 0.969048 -0.215202 1.000000
46.918098 31.752501 -725.994629 -0.104516 0.994518 -0.003232 1.000000
46.775501 31.752199 -726.121582 -0.059169 0.997273 -0.044108 1.000000
46.632702 31.748899 -726.248474 0.017390 0.999409 -0.029665 1.000000
46.489899 31.746000 -726.375427 0.175270 0.971021 -0.162477 1.000000
46.348801 31.756599 -726.502930 -0.019944 0.998252 0.055633 1.000000
46.205898 31.752300 -726.629822 0.009314 0.998670 -0.050710 1.000000
45.771702 31.703199 -727.008789 0.023054 0.967037 -0.253589 1.000000
45.626099 31.681601 -727.134888 0.051714 0.977760 -0.203249 1.000000
45.476101 31.628599 -727.259583 0.083115 0.914265 -0.396499 1.000000
44.679798 31.547400 -727.956116 0.295056 0.851182 -0.434087 1.000000
44.535301 31.535299 -728.083008 0.157212 0.887023 -0.434136 1.000000
44.389500 31.514900 -728.209473 0.352181 0.840538 -0.411660 1.000000
43.804001 31.420500 -728.715698 0.213788 0.868606 -0.447011 1.000000
43.657902 31.399799 -728.842529 0.248454 0.828693 -0.501537 1.000000
43.506199 31.342400 -728.968018 0.150841 0.801994 -0.577973 1.000000
43.353802 31.280500 -729.093384 0.173900 0.802966 -0.570091 1.000000
43.219002 31.203400 -729.200378 0.083692 0.849692 -0.520596 1.000000
43.080502 31.123699 -729.310303 0.042516 0.870897 -0.489623 1.000000
42.942699 31.034000 -729.417908 0.187096 0.324956 -0.927038 1.000000
42.803101 30.967199 -729.531006 0.025757 0.871684 -0.489390 1.000000
42.662102 30.918501 -729.648376 -0.091602 0.958593 -0.269645 1.000000
42.373699 30.667500 -729.862915 -0.969720 0.186238 -0.157981 1.000000
52.118698 34.622700 -721.692688 -0.666924 0.559410 0.492213 1.000000
51.969501 34.527599 -721.809570 -0.716771 0.463989 0.520532 1.000000
51.818600 34.418301 -721.925598 -0.666618 0.692196 0.276559 1.000000
51.664799 34.282101 -722.039612 -0.831055 0.554502 0.043299 1.000000
51.514500 34.181499 -722.156616 -0.636632 0.769914 0.043955 1.000000
50.896301 33.638599 -722.615479 -0.694070 0.719411 0.026749 1.000000
50.656601 33.371201 -722.783813 -0.787087 0.568884 -0.238464 1.000000
50.504200 33.264500 -722.901611 0.009075 0.913934 -0.405761 1.000000
50.355598 33.194199 -723.022217 -0.679105 0.697925 0.227414 1.000000
50.038200 32.874599 -723.250977 -0.626339 0.776084 0.073433 1.000000
49.805099 32.686298 -723.426819 -0.664983 0.728894 0.162822 1.000000
49.494099 32.439400 -723.662292 -0.694514 0.719467 0.004159 1.000000
49.256500 32.222900 -723.837097 -0.556862 0.828982 -0.051899 1.000000
49.095299 32.056702 -723.952698 -0.780991 0.623386 0.037994 1.000000
48.787601 31.855000 -724.192871 -0.445331 0.883455 0.145561 1.000000
48.059299 31.711100 -724.818481 -0.166226 0.973248 0.158613 1.000000
45.998100 31.732401 -726.662476 0.028010 0.999021 -0.034234 1.000000
45.856201 31.736300 -726.789795 0.077937 0.995622 -0.051592 1.000000
45.281300 31.699900 -727.296814 0.262905 0.878855 -0.398114 1.000000
45.136501 31.683399 -727.423401 0.221159 0.955676 -0.194352 1.000000
44.988998 31.648800 -727.549072 0.180721 0.939473 -0.291085 1.000000
44.844898 31.637600 -727.675903 0.265881 0.903409 -0.336391 1.000000
44.700901 31.628401 -727.802795 0.267880 0.916584 -0.296840 1.000000
44.192101 31.563601 -728.245972 0.275739 0.878448 -0.390254 1.000000
44.046101 31.541000 -728.372498 0.275662 0.845465 -0.457383 1.000000
43.898300 31.506901 -728.498596 0.245898 0.899664 -0.360749 1.000000
42.460899 30.830700 -729.666199 -0.322666 0.922513 -0.211794 1.000000
51.358501 34.074799 -722.197876 -0.634437 0.772297 0.032355 1.000000
51.204399 33.941299 -722.312622 -0.707148 0.669517 0.227353 1.000000
51.051498 33.822102 -722.428711 -0.708588 0.684102 0.172938 1.000000
50.732201 33.463100 -722.652222 -0.559512 0.824165 -0.087738 1.000000
50.191601 33.027500 -723.059875 -0.662540 0.744083 -0.085912 1.000000
49.879398 32.760300 -723.292725 -0.751149 0.646615 0.132907 1.000000
49.643902 32.552502 -723.467224 -0.554726 0.811683 0.182893 1.000000
48.941700 31.995501 -723.998474 -0.450811 0.892258 0.025417 1.000000
48.630798 31.770000 -724.237183 -0.401470 0.887382 0.226660 1.000000
48.484200 31.733200 -724.361572 -0.312686 0.929645 0.194903 1.000000
48.340698 31.723301 -724.487976 -0.191160 0.966201 0.172954 1.000000
48.197300 31.714199 -724.614380 -0.202765 0.964116 0.171369 1.000000
47.840801 31.708401 -724.931519 -0.152283 0.985710 0.072010 1.000000
47.698299 31.707100 -725.058289 -0.062902 0.983890 0.167344 1.000000
47.559399 31.733801 -725.187012 -0.068088 0.994527 0.079250 1.000000
47.415600 31.722300 -725.313171 0.026195 0.998544 0.047151 1.000000
47.273701 31.726000 -725.440430 0.019436 0.999430 -0.027620 1.000000
47.133999 31.746500 -725.568481 0.151127 0.988483 0.007836 1.000000
46.994900 31.771000 -725.696899 0.026982 0.996175 -0.083105 1.000000
46.852798 31.773399 -725.824097 0.180460 0.982506 -0.046000 1.000000
46.709702 31.767401 -725.950806 0.064381 0.986790 -0.148662 1.000000
46.567001 31.764900 -726.077698 0.073505 0.988228 -0.134175 1.000000
46.424000 31.760000 -726.204407 0.211431 0.962600 -0.169407 1.000000
46.280998 31.756201 -726.331177 0.089379 0.990130 -0.107951 1.000000
46.138802 31.757299 -726.458374 0.127003 0.974527 -0.184846 1.000000
45.636799 31.731899 -726.901917 0.006978 0.999892 -0.012960 1.000000
45.493301 31.725100 -727.028687 0.099069 0.994033 -0.045639 1.000000
44.480598 31.621500 -727.914612 0.189006 0.947750 -0.256994 1.000000
44.334900 31.601299 -728.041077 0.289268 0.914319 -0.283453 1.000000
43.681499 31.525999 -728.611328 0.225154 0.856794 -0.463908 1.000000
43.526901 31.448099 -728.735779 0.065657 0.969985 -0.234134 1.000000
43.379299 31.417000 -728.862183 0.098870 0.961735 -0.255521 1.000000
43.231098 31.382700 -728.988586 0.083000 0.659628 -0.746996 1.000000
43.076099 31.303699 -729.113525 0.089888 0.520781 -0.848945 1.000000
42.931999 31.209299 -729.225830 0.137995 0.864283 -0.483708 1.000000
42.790401 31.172100 -729.345825 -0.124048 0.959740 -0.252013 1.000000
42.652802 31.079100 -729.452698 -0.109763 0.348259 -0.930950 1.000000
42.519798 30.920500 -729.544128 -0.299426 0.754170 -0.584442 1.000000
49.352299 32.323601 -723.649597 -0.591296 0.781739 -0.198123 1.000000
51.854500 34.315201 -721.708130 -0.276610 0.782410 0.557961 1.000000
51.698002 34.290501 -721.843506 -0.578087 0.805773 0.128628 1.000000
51.546799 34.181400 -721.959473 -0.720873 0.672104 0.169169 1.000000
49.758499 32.607899 -723.284119 -0.711560 0.696949 0.089128 1.000000
48.823399 31.876400 -723.992371 -0.637257 0.759635 0.129839 1.000000
45.318901 31.747299 -727.093506 0.134913 0.960106 -0.244938 1.000000
44.164200 31.652700 -728.106384 0.228552 0.955641 -0.185782 1.000000
44.018902 31.635201 -728.232910 0.230378 0.899501 -0.371246 1.000000
43.873199 31.615200 -728.359375 0.376719 0.784159 -0.493131 1.000000
42.354000 30.744600 -729.564270 0.909643 0.330382 -0.251789 1.000000
51.387199 34.049999 -721.997803 -0.725049 0.660119 0.196335 1.000000
51.238701 33.971298 -722.116516 -0.695778 0.698823 0.165951 1.000000
51.082802 33.821999 -722.229919 -0.620330 0.776517 0.110510 1.000000
50.929901 33.703999 -722.345886 -0.655378 0.726648 0.206064 1.000000
50.778599 33.602901 -722.463379 -0.631350 0.772289 0.070470 1.000000
50.535599 33.305302 -722.629028 -0.552803 0.831314 -0.057672 1.000000
50.383099 33.197498 -722.746521 -0.543214 0.791990 0.278692 1.000000
50.228401 33.072701 -722.862915 -0.559878 0.828066 0.029031 1.000000
50.071301 32.928398 -722.978088 -0.605153 0.775876 -0.178345 1.000000
49.910301 32.750000 -723.091125 -0.557921 0.819952 -0.128072 1.000000
49.596001 32.470100 -723.323303 -0.527256 0.830691 0.178756 1.000000
49.446800 32.404202 -723.444885 -0.554265 0.832085 0.020630 1.000000
49.209099 32.185398 -723.619202 -0.740789 0.664509 0.098283 1.000000
49.047798 32.018002 -723.734314 -0.679427 0.731138 0.061766 1.000000
48.896198 31.936199 -723.855408 -0.575215 0.815007 0.069939 1.000000
48.659500 31.737400 -724.032227 -0.464203 0.882679 0.073441 1.000000
48.016602 31.717501 -724.601685 0.024723 0.996438 -0.080618 1.000000
47.873699 31.713800 -724.728394 -0.029375 0.995481 -0.090300 1.000000
45.958199 31.771500 -726.444885 0.165263 0.977910 -0.127986 1.000000
45.815899 31.772699 -726.571899 0.107982 0.976801 -0.184934 1.000000
45.672798 31.767900 -726.698608 0.069661 0.985875 -0.152309 1.000000
45.099701 31.747700 -727.205811 0.179389 0.950896 -0.252223 1.000000
44.954700 31.729799 -727.331970 0.140096 0.939870 -0.311476 1.000000
44.811199 31.723900 -727.458923 0.222471 0.948573 -0.225201 1.000000
44.668201 31.721300 -727.585876 0.214898 0.923633 -0.317365 1.000000
44.523701 31.708900 -727.712280 0.253683 0.914709 -0.314567 1.000000
44.306801 31.688400 -727.902222 0.230328 0.936666 -0.263830 1.000000
43.657501 31.641600 -728.472778 0.225723 0.821508 -0.523616 1.000000
43.507099 31.591000 -728.598022 0.248787 0.777654 -0.577373 1.000000
43.355701 31.534201 -728.723328 0.275588 0.616490 -0.737558 1.000000
43.204201 31.477501 -728.848511 0.333548 0.626419 -0.704518 1.000000
43.054798 31.435101 -728.974426 0.309542 0.824922 -0.472955 1.000000
42.902699 31.376101 -729.099670 0.014561 0.893537 -0.448754 1.000000
42.606800 31.168900 -729.328125 -0.218974 0.822302 -0.525232 1.000000
42.473000 31.022499 -729.422180 -0.549287 0.660152 -0.512332 1.000000
51.925900 34.230701 -721.465271 -0.402153 0.773371 0.490073 1.000000
51.784500 34.216301 -721.589172 -0.510445 0.684499 0.520487 1.000000
51.572800 34.199699 -721.775085 -0.598341 0.753878 0.271396 1.000000
50.652500 33.446701 -722.467224 -0.895957 0.441897 -0.044595 1.000000
48.471699 31.667601 -724.107788 -0.114018 0.992292 0.048542 1.000000
48.329800 31.671000 -724.234985 -0.112936 0.976710 0.182435 1.000000
48.194599 31.729401 -724.365723 -0.068702 0.988609 0.133911 1.000000
47.693199 31.701500 -724.808228 -0.071308 0.997249 -0.020222 1.000000
47.550400 31.697800 -724.934875 -0.006978 0.999892 0.012960 1.000000
47.411301 31.723301 -725.063416 0.062452 0.995952 0.064644 1.000000
47.269402 31.726700 -725.190613 0.103267 0.993805 -0.041085 1.000000
47.129200 31.743700 -725.318481 0.195796 0.976516 -0.089894 1.000000
46.992599 31.788099 -725.448120 0.190973 0.972571 -0.132796 1.000000
46.852600 31.807100 -725.575989 0.204764 0.960408 -0.188911 1.000000
46.710602 31.808800 -725.703125 0.137670 0.985237 -0.101756 1.000000
46.566898 31.797899 -725.829529 0.030778 0.988308 -0.149329 1.000000
46.424099 31.793800 -725.956116 0.144773 0.969854 -0.196021 1.000000
46.280399 31.784100 -726.082520 0.297713 0.913470 -0.277381 1.000000
46.140400 31.801800 -726.210571 0.245876 0.940442 -0.234763 1.000000
45.495602 31.771900 -726.780579 0.185518 0.961800 -0.201307 1.000000
45.353298 31.773100 -726.907715 0.176820 0.978072 -0.110049 1.000000
42.706799 31.276300 -729.183472 0.047994 0.343744 -0.937836 1.000000
51.154301 33.845901 -722.029724 -0.690696 0.719656 0.070952 1.000000
51.000198 33.712898 -722.144470 -0.787475 0.590227 0.177523 1.000000
50.847198 33.593201 -722.260620 -0.732531 0.655745 0.182749 1.000000
49.753201 32.596100 -723.066711 -0.725226 0.663896 0.182456 1.000000
49.293900 32.285400 -723.423523 -0.752074 0.636136 0.172382 1.000000
48.740299 31.788900 -723.832825 -0.560171 0.826919 0.049138 1.000000
45.185200 31.793900 -727.007629 0.153203 0.977758 -0.143238 1.000000
44.110802 31.751301 -727.959473 0.214630 0.911817 -0.350034 1.000000
43.966900 31.741800 -728.086304 0.214153 0.926105 -0.310593 1.000000
43.821999 31.725500 -728.212891 0.190129 0.925294 -0.328149 1.000000
51.627899 34.082199 -721.601379 -0.624566 0.594263 0.506723 1.000000
51.483101 34.035801 -721.722717 -0.624375 0.597448 0.503202 1.000000
51.334900 33.955799 -721.841309 -0.659668 0.721755 0.209542 1.000000
50.725300 33.491798 -722.305908 -0.361929 0.930486 -0.056593 1.000000
50.483299 33.200500 -722.471985 -0.429870 0.901513 0.049859 1.000000
50.334801 33.128799 -722.592285 -0.466065 0.880346 0.088175 1.000000
50.182598 33.025700 -722.710327 -0.526777 0.849685 -0.023260 1.000000
50.025799 32.880402 -722.825500 -0.771162 0.622001 -0.135736 1.000000
49.861900 32.674500 -722.936401 -0.783925 0.620780 0.009678 1.000000
49.625702 32.456402 -723.109985 -0.653947 0.738915 0.162349 1.000000
49.471001 32.339600 -723.228027 -0.671452 0.711770 0.206243 1.000000
49.164600 32.136200 -723.466614 -0.781647 0.614465 0.107055 1.000000
48.929501 31.941900 -723.643127 -0.551876 0.833916 -0.004068 1.000000
45.646301 31.832500 -726.554077 0.073625 0.969601 -0.233353 1.000000
44.931400 31.810499 -727.188477 0.037733 0.970093 -0.239784 1.000000
44.787102 31.796499 -727.314819 0.091554 0.985696 -0.141493 1.000000
44.355099 31.765499 -727.694885 0.182609 0.962965 -0.198373 1.000000
43.487701 31.683701 -728.454895 0.294563 0.804930 -0.515092 1.000000
43.341400 31.659100 -728.581177 0.295091 0.863867 -0.408234 1.000000
43.194801 31.632900 -728.707581 0.260419 0.752847 -0.604487 1.000000
43.043400 31.575001 -728.832825 0.218222 0.856335 -0.468049 1.000000
42.891602 31.516100 -728.958313 0.275686 0.415813 -0.866658 1.000000
42.734100 31.419399 -729.082275 0.004040 0.855100 -0.518447 1.000000
42.373699 30.914200 -729.317383 -0.709155 0.587398 0.389953 1.000000
51.794899 34.120201 -721.442810 -0.629489 0.202612 0.750128 1.000000
49.030399 32.020100 -723.545410 -0.549263 0.834376 -0.046121 1.000000
48.567402 31.706400 -723.903992 -0.344548 0.935957 0.072606 1.000000
47.998901 31.713800 -724.411682 -0.026163 0.988489 0.149013 1.000000
47.856602 31.714100 -724.538574 -0.049692 0.994947 0.087237 1.000000
45.950001 31.837900 -726.257874 0.191710 0.918787 -0.345078 1.000000
45.806999 31.834000 -726.384399 0.251998 0.943269 -0.216195 1.000000
44.515400 31.770399 -727.523926 0.171558 0.968721 -0.179297 1.000000
43.652699 31.724701 -728.284302 0.231691 0.877435 -0.420033 1.000000
42.454300 31.033899 -729.233521 -0.921046 0.385213 -0.057315 1.000000
50.581200 33.359699 -722.350708 -0.860032 0.501804 0.092400 1.000000
47.700600 31.704100 -724.631226 0.013858 0.996703 -0.079949 1.000000
45.009899 31.831699 -727.047913 0.182513 0.962460 -0.200896 1.000000
44.148399 31.790600 -727.807678 0.319239 0.882068 -0.346473 1.000000
51.316101 33.875198 -721.680420 -0.588875 0.754845 0.288852 1.000000
51.169800 33.817402 -721.800903 -0.688240 0.645937 0.330290 1.000000
51.018200 33.707901 -721.917175 -0.594231 0.766700 0.243023 1.000000
50.865299 33.589100 -722.033081 -0.584161 0.803771 0.112733 1.000000
49.690601 32.503502 -722.893616 -0.254873 0.943720 -0.210787 1.000000
49.305199 32.223701 -723.189087 -0.628909 0.775034 0.061602 1.000000
49.071999 32.044701 -723.366028 -0.550553 0.834710 0.012295 1.000000
48.915901 31.921801 -723.484009 -0.554373 0.832241 -0.006810 1.000000
48.758999 31.793501 -723.601990 -0.511212 0.848114 -0.139155 1.000000
48.605900 31.699800 -723.722290 -0.377565 0.924837 -0.046045 1.000000
48.386600 31.651100 -723.909180 -0.140798 0.990023 0.005543 1.000000
48.245098 31.658501 -724.036621 -0.025067 0.999685 -0.001003 1.000000
48.103802 31.666800 -724.164001 0.028804 0.997465 0.065075 1.000000
47.539600 31.710400 -724.674072 0.159259 0.979013 -0.127161 1.000000
47.396999 31.709000 -724.800781 0.158810 0.986475 -0.040572 1.000000
47.260201 31.753700 -724.930298 0.130767 0.990421 -0.044347 1.000000
47.118801 31.761200 -725.057617 0.139840 0.990067 -0.014543 1.000000
46.983898 31.821199 -725.187927 0.099698 0.993624 0.052650 1.000000
46.844299 31.841999 -725.315979 0.153995 0.988040 -0.007868 1.000000
46.702702 31.847799 -725.443115 0.037689 0.999264 -0.007130 1.000000
46.559299 31.839600 -725.569519 0.178994 0.958610 -0.221422 1.000000
46.419399 31.858500 -725.697327 0.185421 0.956450 -0.225439 1.000000
46.278000 31.865400 -725.824402 0.255401 0.949984 -0.179727 1.000000
46.140099 31.899500 -725.953125 0.251863 0.932879 -0.257491 1.000000
45.997101 31.894501 -726.079712 0.157367 0.958751 -0.236712 1.000000
45.637299 31.865101 -726.395081 0.216857 0.925539 -0.310403 1.000000
45.422699 31.857700 -726.585083 0.315709 0.870869 -0.376716 1.000000
45.280701 31.861300 -726.712219 0.302316 0.903997 -0.302316 1.000000
45.138802 31.864901 -726.839172 0.202888 0.949078 -0.241014 1.000000
44.637001 31.842899 -727.282471 0.351640 0.867582 -0.351640 1.000000
44.350800 31.834101 -727.535889 0.232207 0.888895 -0.394900 1.000000
44.207600 31.829901 -727.662781 0.334571 0.896652 -0.289962 1.000000
43.996799 31.851801 -727.854187 0.278766 0.901197 -0.331865 1.000000
43.854099 31.850500 -727.981201 0.332047 0.843368 -0.422463 1.000000
43.709801 31.838400 -728.107788 0.325192 0.844878 -0.424773 1.000000
43.492298 31.814199 -728.297424 0.271054 0.870706 -0.410367 1.000000
43.344398 31.779301 -728.422974 0.341336 0.811267 -0.474695 1.000000
43.195099 31.734600 -728.548523 0.303822 0.781029 -0.545607 1.000000
43.049000 31.712601 -728.674927 0.267995 0.737383 -0.620036 1.000000
42.899601 31.669001 -728.800415 0.237144 0.739701 -0.629766 1.000000
42.740398 31.560301 -728.923706 -0.049859 0.901513 -0.429870 1.000000
42.580299 31.448200 -729.047119 0.168491 0.916079 -0.363883 1.000000
50.662800 33.410599 -722.072021 -0.852849 0.522014 0.012203 1.000000
50.506500 33.262199 -722.185974 -0.658966 0.751699 0.026696 1.000000
50.352200 33.134899 -722.301880 -0.630194 0.773746 0.064598 1.000000
50.198101 33.012100 -722.418091 -0.588771 0.767757 0.252779 1.000000
50.044201 32.893398 -722.535095 -0.728397 0.657559 0.192494 1.000000
49.884800 32.725899 -722.648376 -0.826205 0.540383 0.159286 1.000000
49.496399 32.409302 -722.940613 -0.630000 0.775924 -0.032272 1.000000
49.177898 32.096600 -723.171021 -0.661414 0.741316 0.113935 1.000000
47.922100 31.684000 -724.219971 0.066109 0.993878 0.088519 1.000000
47.781399 31.697001 -724.347778 -0.001098 0.991141 0.132811 1.000000
47.643501 31.732901 -724.476929 0.200378 0.977602 -0.064364 1.000000
45.815701 31.903601 -726.135986 0.184121 0.965003 -0.186733 1.000000
44.960098 31.891001 -726.896790 0.274119 0.896444 -0.348205 1.000000
44.819801 31.906000 -727.024475 0.437408 0.805921 -0.398955 1.000000
44.460999 31.886101 -727.341003 0.207466 0.943900 -0.256928 1.000000
51.164902 33.658199 -721.580872 -0.609211 0.445642 0.655945 1.000000
51.018002 33.594898 -721.700989 -0.657265 0.597058 0.459918 1.000000
50.872002 33.541801 -721.822083 -0.495950 0.757837 0.423930 1.000000
49.709999 32.559399 -722.689819 -0.562616 0.824888 -0.054993 1.000000
49.315701 32.195202 -722.978821 -0.891323 0.322075 0.319079 1.000000
49.004601 31.952700 -723.214478 -0.558346 0.794749 0.237958 1.000000
48.778702 31.840900 -723.396606 -0.406617 0.908342 0.097864 1.000000
48.621700 31.711100 -723.514526 -0.441364 0.895027 0.064223 1.000000
48.401199 31.650400 -723.700623 -0.048254 0.993130 -0.106607 1.000000
46.510899 31.897699 -725.428284 0.162485 0.985430 -0.050265 1.000000
46.371700 31.921700 -725.556274 0.151130 0.967488 -0.202798 1.000000
46.231098 31.934000 -725.683716 0.177907 0.976620 -0.120678 1.000000
45.662201 31.934200 -726.190979 0.185553 0.949433 -0.253272 1.000000
45.521301 31.944500 -726.318420 0.203230 0.954238 -0.219380 1.000000
45.378201 31.938400 -726.444885 0.153509 0.961724 -0.226983 1.000000
45.234200 31.926399 -726.571228 0.182465 0.950171 -0.252748 1.000000
44.667801 31.947901 -727.079773 0.330305 0.817070 -0.472541 1.000000
44.304199 31.893600 -727.394592 0.352402 0.852284 -0.386555 1.000000
44.163898 31.908001 -727.522217 0.385385 0.823106 -0.417104 1.000000
44.021301 31.907000 -727.649170 0.401309 0.826411 -0.394964 1.000000
43.812801 31.943501 -727.841125 0.364920 0.852514 -0.374237 1.000000
43.668598 31.931200 -727.967712 0.299410 0.886193 -0.353575 1.000000
43.524899 31.922600 -728.094299 0.243648 0.864118 -0.440382 1.000000
43.380199 31.907900 -728.220703 0.285565 0.865857 -0.410786 1.000000
43.235699 31.894400 -728.347229 0.281079 0.852452 -0.440818 1.000000
43.089199 31.867800 -728.473328 0.196537 0.850662 -0.487593 1.000000
42.939499 31.820299 -728.598572 0.194924 0.778161 -0.597051 1.000000
42.788399 31.764200 -728.723572 0.015073 0.831745 -0.554953 1.000000
42.531502 31.529900 -728.912476 0.152830 0.832404 -0.532679 1.000000
50.879299 33.437401 -721.690125 -0.763276 0.023809 0.645634 1.000000
50.736801 33.419399 -721.814087 0.263491 0.771540 -0.579049 1.000000
50.580700 33.272202 -721.927917 -0.934818 0.311606 -0.170345 1.000000
50.426800 33.147202 -722.043701 -0.410913 0.835995 0.363681 1.000000
50.273102 33.027901 -722.160217 -0.945596 0.324457 0.023987 1.000000
50.121700 32.930599 -722.278381 -0.457507 0.855735 0.241673 1.000000
49.964600 32.783001 -722.393127 -0.935685 0.342064 0.086514 1.000000
49.810299 32.663601 -722.510071 -0.987890 0.080859 0.132422 1.000000
49.574100 32.443802 -722.682983 -0.749904 0.657430 0.073690 1.000000
49.413502 32.272598 -722.796692 -0.741584 0.653984 0.149525 1.000000
49.104698 32.047401 -723.033325 -0.607981 0.792218 0.052437 1.000000
48.205700 31.646200 -723.765625 -0.015404 0.999235 -0.035944 1.000000
48.062099 31.635300 -723.891724 0.118166 0.992816 0.018774 1.000000
47.920799 31.644800 -724.019226 0.143219 0.988783 0.042393 1.000000
47.431400 31.717800 -724.467896 0.092269 0.995421 0.024967 1.000000
47.296501 31.778000 -724.598389 0.207560 0.950976 0.229265 1.000000
47.155701 31.789900 -724.726013 0.064803 0.997545 0.026559 1.000000
47.014000 31.794399 -724.853088 0.102621 0.994206 -0.032000 1.000000
46.875301 31.823999 -724.981628 0.297429 0.954510 -0.021156 1.000000
46.739700 31.877001 -725.111572 0.209305 0.975530 -0.067320 1.000000
46.601501 31.908100 -725.240173 0.212882 0.971194 -0.107071 1.000000
46.040901 31.972700 -725.750793 0.074825 0.984606 -0.157964 1.000000
45.897499 31.963699 -725.877014 0.280733 0.952912 -0.114666 1.000000
45.042198 31.952200 -726.637329 0.356225 0.821693 -0.444886 1.000000
44.903999 31.982401 -726.765625 0.510439 0.764843 -0.393022 1.000000
44.764000 31.999500 -726.893188 0.426823 0.797273 -0.426823 1.000000
44.479900 32.002998 -727.146973 0.411974 0.770212 -0.486878 1.000000
44.338001 32.006699 -727.273987 0.415620 0.820094 -0.393327 1.000000
50.319698 33.048199 -721.976807 -0.685075 0.544375 0.484075 1.000000
49.700802 32.549400 -722.442200 -0.844940 0.534721 0.012246 1.000000
49.536598 32.342701 -722.552979 -0.847102 0.528916 0.051636 1.000000
49.231602 32.150299 -722.791382 -0.692670 0.718591 0.061923 1.000000
48.922199 31.925301 -723.028381 -0.153635 0.986316 0.059812 1.000000
48.772701 31.859800 -723.150085 -0.364665 0.930479 0.035039 1.000000
48.620300 31.771700 -723.270630 -0.243340 0.958889 0.146004 1.000000
48.473499 31.732500 -723.394592 -0.193664 0.978062 -0.076735 1.000000
48.325699 31.685200 -723.518188 -0.200545 0.978994 0.036786 1.000000
47.755199 31.677200 -724.024719 0.181659 0.981909 -0.053429 1.000000
47.614899 31.694599 -724.152588 0.235025 0.971989 0.001181 1.000000
47.476101 31.724300 -724.281311 0.097858 0.991244 -0.088648 1.000000
46.438900 31.965799 -725.246216 0.241260 0.938544 -0.246838 1.000000
46.301102 32.000000 -725.374878 0.234610 0.958321 -0.163034 1.000000
46.159199 32.002899 -725.501587 0.183835 0.946411 -0.265540 1.000000
45.736198 32.031700 -725.883118 0.355087 0.900241 -0.251950 1.000000
45.596100 32.048000 -726.010620 0.213778 0.927317 -0.307218 1.000000
45.452499 32.038601 -726.136780 0.309234 0.882447 -0.354487 1.000000
45.308102 32.022301 -726.262573 0.108709 0.938118 -0.328811 1.000000
45.166500 32.027500 -726.389587 0.277087 0.941544 -0.191617 1.000000
44.607300 32.100300 -726.900024 0.441748 0.788027 -0.428803 1.000000
44.178299 32.085999 -727.279480 0.422889 0.789069 -0.445573 1.000000
44.035999 32.086300 -727.406311 0.412587 0.791197 -0.451419 1.000000
43.892200 32.076599 -727.532593 0.383609 0.816561 -0.431361 1.000000
43.748501 32.068001 -727.659119 0.427687 0.724921 -0.539975 1.000000
43.603500 32.050201 -727.784973 0.352038 0.807617 -0.473101 1.000000
43.463299 32.065701 -727.912476 0.396006 0.831455 -0.389695 1.000000
43.321301 32.069199 -728.039490 0.322288 0.882132 -0.343472 1.000000
43.176899 32.055901 -728.165771 0.158019 0.879977 -0.447962 1.000000
43.026001 31.999701 -728.290527 0.199980 0.875469 -0.439957 1.000000
42.872002 31.922400 -728.414490 0.141144 0.947681 -0.286321 1.000000
42.718399 31.850000 -728.538696 -0.235811 0.900770 -0.364702 1.000000
42.501301 31.714399 -728.708679 0.888465 0.414227 0.197599 1.000000
50.424900 32.987999 -721.738770 0.034077 0.994833 0.095636 1.000000
50.278500 32.939701 -721.860718 0.112744 0.960268 -0.255294 1.000000
50.132500 32.894299 -721.982788 -0.561318 0.816058 0.137738 1.000000
49.981800 32.807301 -722.101929 -0.333627 0.941626 -0.045085 1.000000
49.820999 32.627701 -722.214172 -0.681932 0.697536 -0.220028 1.000000
49.583801 32.399700 -722.386108 -0.783368 0.614777 0.091563 1.000000
49.424400 32.240299 -722.500488 -0.364633 0.924557 -0.110619 1.000000
49.272202 32.146999 -722.619873 -0.178920 0.865026 -0.468741 1.000000
49.117401 32.033298 -722.737976 -0.071360 0.995752 -0.058186 1.000000
48.965599 31.947100 -722.858276 -0.261856 0.956630 -0.127638 1.000000
48.147202 31.636700 -723.533020 0.321317 0.946029 -0.042245 1.000000
48.004101 31.632099 -723.659485 0.039804 0.999182 0.007144 1.000000
47.865700 31.666000 -723.788513 0.067937 0.994551 0.079074 1.000000
47.305099 31.742599 -724.300171 0.206497 0.976937 -0.054341 1.000000
47.168701 31.791500 -724.429993 0.197575 0.978180 -0.064242 1.000000
47.029701 31.818300 -724.558228 0.208369 0.976803 -0.049382 1.000000
46.892101 31.856800 -724.687317 0.220258 0.971872 -0.083374 1.000000
46.757401 31.917900 -724.817627 0.377341 0.925966 -0.014166 1.000000
46.623501 31.984600 -724.948181 0.342930 0.936107 -0.078119 1.000000
46.484699 32.011600 -725.076294 0.292330 0.952347 -0.087049 1.000000
45.993500 32.062901 -725.522095 0.352205 0.921907 -0.161369 1.000000
45.854599 32.088902 -725.650024 0.292910 0.937035 -0.190183 1.000000
45.006599 32.131302 -726.411682 0.459235 0.835963 -0.300449 1.000000
44.867001 32.150501 -726.539185 0.358563 0.855274 -0.374085 1.000000
44.725101 32.153599 -726.665894 0.372680 0.849835 -0.372680 1.000000
44.445801 32.191799 -726.921021 0.403956 0.812702 -0.419923 1.000000
44.302101 32.181400 -727.047119 0.374280 0.829100 -0.415340 1.000000
50.576599 32.960602 -721.481384 -0.006815 0.824619 0.565648 1.000000
49.669701 32.413502 -722.194214 -0.819871 0.517245 0.245498 1.000000
48.755199 31.851500 -722.911194 -0.182211 0.983012 -0.022051 1.000000
48.604301 31.775600 -723.032288 -0.585820 0.793643 -0.164150 1.000000
48.454102 31.708000 -723.154297 -0.040196 0.996210 -0.077133 1.000000
48.306702 31.664900 -723.278015 0.193515 0.975066 -0.108618 1.000000
47.666302 31.670000 -723.848572 0.182618 0.982880 -0.024427 1.000000
47.529499 31.717199 -723.978394 0.216030 0.976266 0.015346 1.000000
47.389999 31.741301 -724.106506 0.273675 0.953234 -0.128244 1.000000
46.289200 32.044498 -725.137695 0.097521 0.988133 -0.118670 1.000000
46.149101 32.061699 -725.265320 0.080559 0.988890 -0.124925 1.000000
45.664101 32.159599 -725.713501 0.453827 0.864219 -0.217178 1.000000
45.523998 32.175598 -725.840820 0.268680 0.905878 -0.327408 1.000000
45.381802 32.175900 -725.967529 0.307259 0.866747 -0.392864 1.000000
45.238602 32.168598 -726.093506 0.270515 0.839368 -0.471468 1.000000
45.096901 32.172100 -726.220215 0.500270 0.786598 -0.361931 1.000000
44.538601 32.250099 -726.730225 0.419613 0.789003 -0.448776 1.000000
44.111599 32.249199 -727.109924 0.278766 0.901197 -0.331865 1.000000
43.969700 32.251900 -727.236511 0.324752 0.849950 -0.414875 1.000000
43.826599 32.246101 -727.362915 0.331166 0.847350 -0.415124 1.000000
43.681198 32.225101 -727.488525 0.346490 0.824298 -0.447747 1.000000
43.537899 32.218800 -727.614990 0.365409 0.812197 -0.454766 1.000000
43.394501 32.211899 -727.741089 0.330222 0.854237 -0.401538 1.000000
43.250500 32.201302 -727.867371 0.198342 0.863457 -0.463791 1.000000
43.102100 32.160500 -727.992493 0.010851 0.965756 -0.259223 1.000000
42.952999 32.116100 -728.117371 0.007924 0.986024 -0.166413 1.000000
42.804798 32.078499 -728.242798 -0.134261 0.990871 0.012206 1.000000
42.578701 31.924500 -728.417480 -0.091322 0.972020 -0.216421 1.000000
50.428902 32.886299 -721.488525 -0.579901 0.776848 0.245403 1.000000
50.280399 32.818199 -721.608887 -0.433142 0.897911 0.078378 1.000000
50.134899 32.779099 -721.731628 -0.320925 0.929141 0.183586 1.000000
49.987301 32.721401 -721.853027 -0.608722 0.763613 0.215299 1.000000
49.833099 32.602100 -721.969727 -0.583216 0.807862 0.084962 1.000000
49.511700 32.251598 -722.195374 -0.748597 0.638374 0.179112 1.000000
49.362598 32.185101 -722.316589 0.022246 0.979976 0.197869 1.000000
49.208900 32.080101 -722.435181 0.049865 0.974194 -0.220136 1.000000
49.058701 32.005901 -722.556274 -0.163868 0.979514 0.117049 1.000000
48.911098 31.957701 -722.679199 -0.291195 0.956069 -0.033744 1.000000
48.092999 31.649500 -723.353882 0.031937 0.994453 -0.100216 1.000000
47.950500 31.648800 -723.480591 0.098519 0.986375 -0.131754 1.000000
47.811600 31.678499 -723.609375 0.183520 0.973287 -0.137956 1.000000
47.183701 31.787001 -724.186401 0.344034 0.931475 -0.118304 1.000000
47.042801 31.799101 -724.313782 0.195259 0.963189 -0.184775 1.000000
46.906200 31.846001 -724.443298 0.246402 0.948853 -0.197394 1.000000
46.771400 31.906300 -724.573608 0.295159 0.920032 -0.257724 1.000000
46.636600 31.967100 -724.703918 0.280038 0.954736 -0.100293 1.000000
46.500702 32.017799 -724.833374 0.149105 0.979656 -0.134318 1.000000
46.360100 32.029999 -724.960571 0.116506 0.991998 -0.048638 1.000000
45.943600 32.109901 -725.344727 0.216260 0.955035 -0.202827 1.000000
45.804001 32.129601 -725.472290 0.248116 0.956638 -0.152584 1.000000
44.895500 32.248798 -726.300781 0.536192 0.771279 -0.342969 1.000000
44.761600 32.309200 -726.430176 0.451170 0.841875 -0.296129 1.000000
44.621799 32.326099 -726.557495 0.388069 0.828408 -0.403908 1.000000
44.337601 32.327801 -726.810486 0.385155 0.729337 -0.565441 1.000000
44.191700 32.301399 -726.935913 0.425680 0.814692 -0.393794 1.000000
42.647900 31.970800 -728.252319 -0.499201 0.783536 -0.369958 1.000000
50.486198 32.778702 -721.290588 -0.314295 0.448769 0.836556 1.000000
50.343102 32.761299 -721.415100 -0.703747 0.460846 0.540704 1.000000
49.668098 32.404099 -721.954102 -0.611069 0.762676 0.211941 1.000000
48.758801 31.884001 -722.673584 -0.089294 0.956353 -0.278235 1.000000
48.606400 31.795099 -722.793823 0.000997 0.999780 -0.020933 1.000000
48.458099 31.741899 -722.916687 0.079077 0.979337 -0.186135 1.000000
48.311100 31.702000 -723.040588 0.097665 0.967773 -0.232113 1.000000
48.166302 31.681299 -723.165894 0.071684 0.944931 -0.319322 1.000000
47.600201 31.712999 -723.674683 0.165558 0.977164 -0.133193 1.000000
47.460999 31.739401 -723.802979 0.298120 0.954234 -0.023700 1.000000
47.326900 31.808399 -723.934082 0.248274 0.935585 0.251079 1.000000
46.153000 32.094299 -725.027222 0.583136 0.744670 -0.324683 1.000000
46.017700 32.147900 -725.156677 0.543844 0.681060 -0.490296 1.000000
45.672501 32.226200 -725.477173 0.484020 0.829527 -0.278584 1.000000
45.534199 32.255299 -725.605103 0.378843 0.889909 -0.254047 1.000000
45.392502 32.258801 -725.731812 0.335475 0.893108 -0.299691 1.000000
45.250301 32.258999 -725.858215 0.257725 0.899827 -0.351978 1.000000
45.113400 32.298199 -725.986572 0.637730 0.486290 -0.597346 1.000000
44.975399 32.327900 -726.114624 0.688055 0.451484 -0.568104 1.000000
44.417999 32.409000 -726.624207 0.386439 0.806551 -0.447371 1.000000
44.060699 32.395401 -726.939697 0.507414 0.638903 -0.578216 1.000000
43.921200 32.414700 -727.067017 0.439667 0.800420 -0.407457 1.000000
43.778301 32.408901 -727.193176 0.406857 0.786159 -0.465211 1.000000
43.634800 32.399700 -727.319275 0.345169 0.812818 -0.469239 1.000000
43.488800 32.374199 -727.444580 0.270061 0.890752 -0.365552 1.000000
43.344299 32.358799 -727.570496 0.179205 0.907496 -0.379916 1.000000
43.199200 32.339699 -727.696289 0.092399 0.933365 -0.346832 1.000000
43.049500 32.289200 -727.820801 0.053452 0.982330 -0.179361 1.000000
42.893501 32.197399 -727.943726 -0.008884 0.999956 0.002961 1.000000
42.735298 32.091801 -728.066284 -0.130971 0.902717 -0.409814 1.000000
50.196400 32.667198 -721.382385 -0.472807 0.728289 -0.496033 1.000000
50.050201 32.623299 -721.504883 0.600668 0.246227 -0.760638 1.000000
49.902401 32.563599 -721.626221 -0.345193 0.915263 -0.207689 1.000000
49.750999 32.471901 -721.744995 -0.335103 0.939604 0.069649 1.000000
49.590801 32.300499 -721.858215 -0.385753 0.902980 0.189265 1.000000
49.436901 32.189301 -721.975891 -0.371126 0.917310 0.144249 1.000000
49.286400 32.111599 -722.096313 -0.363020 0.927117 0.093117 1.000000
49.135201 32.027901 -722.216614 -0.224074 0.974182 0.027560 1.000000
48.977600 31.888201 -722.332703 0.016055 0.996469 -0.082415 1.000000
48.833099 31.868700 -722.457886 0.170159 0.974319 -0.147471 1.000000
47.959702 31.700600 -723.205505 0.163059 0.964004 -0.210020 1.000000
47.817501 31.701900 -723.332397 0.260547 0.937691 -0.229894 1.000000
47.676701 31.716200 -723.460022 0.237341 0.968200 -0.079114 1.000000
47.123402 31.850901 -723.975220 0.258998 0.922949 -0.284755 1.000000
46.984901 31.882799 -724.103882 0.412971 0.902937 -0.118992 1.000000
46.852600 31.963800 -724.235413 0.361353 0.907010 -0.216231 1.000000
46.718899 32.032799 -724.366089 0.492235 0.861772 -0.122698 1.000000
46.582199 32.076801 -724.495178 0.488329 0.857157 -0.163760 1.000000
46.443901 32.108398 -724.623474 0.339018 0.891602 -0.300188 1.000000
46.305599 32.138500 -724.751770 0.143556 0.971862 -0.186750 1.000000
46.169601 32.186901 -724.880981 0.222122 0.973163 -0.060132 1.000000
46.033199 32.231998 -725.009888 0.183748 0.979586 -0.081531 1.000000
45.821701 32.245098 -725.200317 0.312031 0.938818 -0.145796 1.000000
45.126499 32.361301 -725.838379 0.918685 0.301421 -0.255270 1.000000
44.990101 32.403301 -725.966980 0.572313 0.656230 -0.491753 1.000000
44.854698 32.451801 -726.095703 0.526882 0.755252 -0.389860 1.000000
44.715698 32.475300 -726.223328 0.421335 0.792625 -0.440706 1.000000
44.573399 32.473202 -726.349487 0.379457 0.824010 -0.420737 1.000000
44.432598 32.481400 -726.476196 0.505430 0.742505 -0.439576 1.000000
44.219898 32.485500 -726.665894 0.346921 0.610776 -0.711758 1.000000
44.076801 32.477699 -726.791992 0.463476 0.526602 -0.712657 1.000000
43.656898 32.522800 -727.173096 0.236879 0.920237 -0.311531 1.000000
43.512199 32.505199 -727.298706 0.254559 0.901991 -0.348730 1.000000
49.632000 32.316700 -721.697876 -0.260165 0.942926 -0.207857 1.000000
49.476200 32.188202 -721.814270 -0.417845 0.892078 0.172054 1.000000
49.321999 32.075699 -721.932129 -0.270248 0.958152 0.094393 1.000000
48.655602 31.837500 -722.483521 -0.232497 0.968946 -0.084201 1.000000
48.506901 31.781300 -722.606079 -0.154068 0.979871 -0.126952 1.000000
48.360802 31.748600 -722.730408 -0.007116 0.999341 0.035582 1.000000
48.216301 31.731100 -722.855774 -0.120949 0.992653 -0.003269 1.000000
48.072800 31.722799 -722.981812 -0.021955 0.998446 -0.051229 1.000000
47.507401 31.759399 -723.490601 0.248768 0.944220 -0.215783 1.000000
