ply
format ascii 1.0
element vertex 691
property float x
property float y
property float z
property float nx
property float ny
property float nz
property float label
element face 0
property list uchar int vertex_indices
end_header
39.128201 47.105099 -724.719421 -0.295843 0.533151 0.792607 1.000000
42.203400 46.250099 -725.097412 0.862632 0.071535 -0.500748 1.000000
37.672501 43.173901 -731.183594 -0.754176 0.525142 0.394265 1.000000
37.865601 43.307400 -730.939819 -0.596244 0.663050 0.452611 1.000000
38.485100 47.041599 -725.426819 0.893788 0.281075 -0.349485 1.000000
38.577400 47.193699 -725.183899 -0.914913 0.080208 0.395601 1.000000
38.668201 47.348202 -724.937988 -0.848939 0.101988 0.518557 1.000000
38.851002 47.470200 -724.713623 -0.647854 0.107730 0.754108 1.000000
39.146400 47.512901 -724.571899 0.233550 0.035093 -0.971711 1.000000
41.893299 46.525700 -725.235413 0.766744 0.503023 -0.398837 1.000000
42.335098 46.915001 -724.557617 0.148752 0.452031 -0.879512 1.000000
37.677898 43.503101 -731.394409 -0.716106 0.533341 0.450266 1.000000
37.989101 43.549500 -731.243713 -0.338460 0.843811 0.416446 1.000000
38.560799 47.577999 -725.309998 0.935239 0.061823 -0.348577 1.000000
38.651299 47.733200 -725.062927 0.904866 0.055290 -0.422091 1.000000
38.823101 47.880501 -724.805115 -0.713929 0.021039 0.699902 1.000000
39.091301 47.985199 -724.582275 -0.468921 0.050583 0.881790 1.000000
39.393600 48.033501 -724.431091 -0.576233 0.252789 -0.777208 1.000000
41.568802 46.052601 -726.684021 -0.927712 0.306413 -0.213218 1.000000
41.862801 46.059101 -726.595215 -0.916144 0.324618 -0.235168 1.000000
41.855099 46.249599 -726.324097 -0.838957 0.523426 -0.148918 1.000000
41.870201 46.562302 -725.871399 0.300987 0.505847 -0.808409 1.000000
41.880699 46.882401 -725.409302 -0.943142 0.170612 0.285263 1.000000
42.104198 47.252899 -724.817383 0.605772 0.659173 -0.445568 1.000000
37.703899 43.744598 -731.831787 -0.275584 0.490445 0.826751 1.000000
38.700500 48.282200 -725.034607 0.236459 0.759488 -0.606024 1.000000
38.871300 48.431000 -724.774597 0.160623 0.800114 -0.577943 1.000000
39.160198 48.487202 -724.615784 0.233547 0.625405 -0.744530 1.000000
39.515202 48.432400 -724.598999 -0.270015 0.187777 -0.944368 1.000000
40.386002 46.433800 -727.239929 0.298721 0.798169 -0.523156 1.000000
40.697399 46.096001 -727.641907 0.701729 0.319263 0.636904 1.000000
40.893501 45.837799 -727.960571 0.033768 0.288905 0.956762 1.000000
41.146198 45.635101 -728.184082 -0.114030 0.647156 -0.753781 1.000000
41.474499 45.625999 -728.108582 0.071749 0.856769 -0.510685 1.000000
41.330101 46.496899 -726.894714 -0.431127 0.901202 0.044321 1.000000
41.537498 46.724499 -726.511292 -0.924361 0.349947 0.151969 1.000000
41.632500 47.211399 -725.785217 0.139709 0.877144 -0.459456 1.000000
46.113098 43.979698 -729.227173 0.143857 0.935758 0.321966 1.000000
38.693100 48.701698 -725.115417 -0.931609 0.354199 0.081533 1.000000
38.844200 48.895199 -724.795715 0.770129 0.181476 -0.611529 1.000000
39.125198 48.969200 -724.613525 -0.201943 0.145347 0.968552 1.000000
39.466900 48.905399 -724.613770 0.378831 0.906025 0.188695 1.000000
41.070599 46.744400 -727.300476 0.382149 0.562562 -0.733135 1.000000
41.364498 46.805302 -727.133789 0.509413 0.496052 -0.703158 1.000000
41.494598 47.395599 -726.247375 -0.969818 0.221275 -0.102419 1.000000
37.729000 44.106300 -732.565918 0.023563 0.990766 -0.133523 1.000000
38.580502 49.146900 -725.056030 -0.716814 0.693644 0.070957 1.000000
38.841999 49.266899 -724.812988 -0.711910 0.082983 0.697351 1.000000
39.111599 49.366501 -724.597412 0.385806 0.179278 -0.904994 1.000000
39.443298 49.325100 -724.568787 -0.123363 0.001092 -0.992361 1.000000
41.045601 47.346901 -727.000977 0.250312 0.341068 -0.906100 1.000000
42.339802 49.006199 -724.259216 0.604826 0.794631 0.052409 1.000000
42.338699 49.173100 -724.018188 0.939874 0.335949 -0.061438 1.000000
38.665100 49.479801 -724.998291 -0.883765 0.082114 0.460671 1.000000
38.837601 49.623299 -724.745117 0.668692 0.133140 -0.731522 1.000000
39.128399 49.674599 -724.594177 -0.237768 0.128629 0.962767 1.000000
39.458900 49.635799 -724.562988 -0.228121 0.581943 0.780579 1.000000
40.979301 47.840900 -726.758911 0.271530 0.354622 -0.894715 1.000000
41.380501 48.186501 -726.153076 -0.966588 0.162179 0.198507 1.000000
40.886299 48.110699 -726.689575 0.220266 0.209456 -0.952686 1.000000
46.498798 44.371399 -730.627197 0.014848 0.985692 0.167899 1.000000
38.872700 49.912601 -724.699524 -0.588435 0.040727 0.807518 1.000000
39.251701 49.941200 -724.558411 -0.082211 0.114632 0.990000 1.000000
40.490299 48.226501 -726.717102 0.218728 0.327377 0.919229 1.000000
37.753201 44.154301 -733.060303 -0.416913 0.895431 -0.156163 1.000000
42.630199 49.660801 -723.659119 -0.036864 0.319062 -0.947017 1.000000
38.555099 49.650299 -725.276917 -0.980864 0.083658 0.175804 1.000000
38.644402 49.807301 -725.025879 -0.933889 0.064542 0.351690 1.000000
40.263802 48.579300 -726.613586 -0.111356 0.193934 -0.974674 1.000000
38.594501 50.150799 -725.083496 0.799272 0.305464 -0.517548 1.000000
38.758499 50.315701 -724.801086 0.741523 0.083039 -0.665769 1.000000
39.029701 50.413200 -724.588684 -0.397072 0.074536 0.914756 1.000000
39.307098 50.428699 -724.494019 0.059779 0.055431 0.996671 1.000000
40.175598 48.904900 -726.481323 -0.377719 0.316550 -0.870129 1.000000
38.813202 50.612301 -724.730286 -0.640922 0.026647 0.767143 1.000000
40.711899 49.023602 -726.547180 0.020262 0.073582 -0.997083 1.000000
38.504299 50.594398 -725.154602 0.381288 0.661890 -0.645384 1.000000
39.032200 50.846699 -724.650024 -0.219655 0.127169 0.967254 1.000000
39.356701 50.778400 -724.665283 -0.902381 0.006548 0.430890 1.000000
39.755299 49.612801 -726.259277 -0.631633 0.123354 -0.765391 1.000000
40.019699 49.516800 -726.330505 0.101782 0.214872 0.971324 1.000000
38.589001 50.870899 -724.968018 0.583788 0.218340 -0.781997 1.000000
38.778900 50.975498 -724.766418 -0.578900 0.040649 0.814385 1.000000
40.387600 49.499802 -726.500488 0.040056 0.347583 -0.936793 1.000000
42.742500 50.746700 -724.072998 -0.649495 0.355014 0.672399 1.000000
39.775700 49.910900 -726.242676 0.432641 0.226051 -0.872767 1.000000
40.702301 49.601101 -726.455688 0.159672 0.108480 -0.981192 1.000000
38.898399 51.245399 -724.705200 -0.432839 0.256666 0.864160 1.000000
39.256699 51.223499 -724.645386 0.346916 0.267199 0.899029 1.000000
39.672100 50.159500 -726.091614 0.257905 0.640808 -0.723084 1.000000
40.131199 49.906300 -726.343628 -0.529770 0.105377 -0.841570 1.000000
38.526001 51.050499 -725.289978 0.542776 0.505807 -0.670488 1.000000
38.619598 51.196701 -725.052612 -0.615679 0.780252 -0.110205 1.000000
39.944500 50.177898 -726.202209 -0.541544 0.020565 -0.840421 1.000000
40.448200 49.947399 -726.410278 -0.289468 0.013550 -0.957092 1.000000
38.662201 51.470001 -724.901611 0.675400 0.248332 -0.694381 1.000000
38.948799 51.533699 -724.735474 0.210401 0.003487 -0.977609 1.000000
39.564800 50.519299 -726.061584 -0.877075 0.415299 -0.241383 1.000000
39.387798 50.834301 -725.879700 0.727163 0.332001 -0.600841 1.000000
39.914902 50.606098 -726.079773 0.490804 0.071313 0.868346 1.000000
38.488201 51.718899 -724.952271 -0.355295 0.034884 -0.934103 1.000000
38.790901 51.793900 -724.765686 -0.404212 0.168302 0.899048 1.000000
39.055500 51.864201 -724.595825 0.381723 0.445610 -0.809765 1.000000
39.705502 50.801300 -725.986877 -0.481672 0.091814 -0.871529 1.000000
39.397499 51.106499 -725.753296 -0.597729 0.235658 -0.766280 1.000000
42.951401 51.313000 -724.547729 0.645201 0.470913 0.601629 1.000000
38.452702 52.013100 -724.959717 0.074119 0.247481 0.966054 1.000000
38.984402 51.996399 -724.849976 0.521119 0.284962 0.804507 1.000000
39.673199 51.146500 -725.922485 0.640291 0.104507 0.760990 1.000000
39.911800 50.966499 -726.126221 0.632800 0.085828 0.769543 1.000000
40.139702 50.812199 -726.294983 0.499706 0.014816 0.866068 1.000000
38.718800 52.167702 -724.858582 -0.136188 0.091187 0.986477 1.000000
39.208900 51.584702 -725.590698 0.346780 0.493802 0.797435 1.000000
39.441200 51.415798 -725.780212 0.581864 0.058045 0.811212 1.000000
40.588402 50.804298 -726.388611 0.136076 0.262905 0.955177 1.000000
38.391701 52.438301 -725.013794 0.901426 0.417871 0.113202 1.000000
39.021500 52.190102 -725.219971 -0.478613 0.769375 -0.423074 1.000000
39.211300 51.935799 -725.546082 0.836556 0.314295 0.448769 1.000000
39.458401 51.732800 -725.782288 0.708145 0.032510 0.705318 1.000000
39.706799 51.528599 -726.020020 0.641925 0.009705 0.766706 1.000000
40.029099 51.339199 -726.217285 0.512925 0.104884 0.852002 1.000000
38.702702 52.559502 -725.011719 -0.314719 0.420142 0.851136 1.000000
40.334999 51.366798 -726.355286 0.098405 0.688834 0.718209 1.000000
41.010700 51.284000 -726.306824 -0.167514 0.028882 0.985447 1.000000
39.109299 52.218300 -725.655701 0.743676 0.046924 -0.666891 1.000000
39.416000 52.059299 -725.812317 0.600188 0.125965 0.789878 1.000000
39.636501 51.918201 -725.964478 -0.617713 0.012437 -0.786305 1.000000
39.863602 51.763401 -726.135010 -0.575774 0.026361 -0.817184 1.000000
38.473598 52.882000 -725.101318 0.748688 0.006919 -0.662886 1.000000
38.785801 52.886101 -725.016418 0.217529 0.135151 0.966652 1.000000
38.889702 52.860199 -725.348083 -0.353116 0.419031 -0.836494 1.000000
39.040901 52.694000 -725.555115 -0.558768 0.294507 -0.775270 1.000000
39.264000 52.544998 -725.718811 -0.354580 0.462703 -0.812514 1.000000
39.499901 52.368301 -725.919922 -0.494800 0.226847 -0.838876 1.000000
39.722401 52.223301 -726.077820 0.637258 0.175743 0.750345 1.000000
38.403000 53.342602 -725.147583 -0.709807 0.015340 0.704229 1.000000
38.726299 53.202702 -725.272827 0.228817 0.850106 -0.474302 1.000000
39.977501 52.333500 -726.241516 0.091680 0.787280 -0.609742 1.000000
38.626999 53.563599 -725.169922 -0.428555 0.621989 0.655340 1.000000
38.996101 53.257198 -725.530212 -0.497489 0.387296 -0.776213 1.000000
39.241299 53.057201 -725.764282 0.703651 0.265259 0.659176 1.000000
39.465599 52.906300 -725.931091 -0.352453 0.313124 -0.881890 1.000000
38.426498 53.794300 -725.286682 -0.224250 0.910022 0.348673 1.000000
38.689400 53.911301 -725.047302 0.049498 0.793384 -0.606705 1.000000
39.244400 53.360401 -725.724121 -0.462456 0.251833 -0.850126 1.000000
38.780800 53.938599 -725.324219 -0.474324 0.020155 -0.880120 1.000000
39.574600 53.385101 -725.946228 -0.466688 0.059196 -0.882439 1.000000
42.808998 53.242199 -725.347229 0.006923 0.743483 0.668719 1.000000
39.992802 53.364300 -726.091370 0.001144 0.186429 -0.982468 1.000000
39.023899 53.978802 -725.514771 -0.655928 0.029496 -0.754247 1.000000
39.244400 53.645802 -725.635925 0.660491 0.073709 0.747207 1.000000
38.829498 53.537300 -725.422180 -0.640839 0.067684 -0.764686 1.000000
42.830799 53.553902 -725.531799 0.304249 0.642304 0.703476 1.000000
38.877899 54.599998 -725.213196 0.314973 0.113926 -0.942238 1.000000
39.025002 54.441601 -725.412781 0.470326 0.758748 0.450660 1.000000
39.332401 54.582401 -725.428894 0.788962 0.015252 -0.614253 1.000000
40.293598 53.480801 -726.130981 -0.367214 0.105113 -0.924178 1.000000
39.709599 52.734798 -726.113708 0.026608 0.763222 -0.645588 1.000000
42.823200 51.708401 -724.604370 0.403116 0.464636 0.788423 1.000000
38.283600 44.505901 -733.867188 -0.128875 0.987252 0.093405 1.000000
39.792599 49.263599 -726.290283 -0.790269 0.018055 -0.612494 1.000000
40.236698 48.066399 -726.626892 -0.332875 0.109161 -0.936631 1.000000
41.452301 47.511799 -726.575317 -0.904712 0.408172 0.122031 1.000000
46.713200 44.016899 -729.768311 0.476157 0.728337 -0.492747 1.000000
41.597099 47.014599 -726.161011 -0.751462 0.348951 -0.559945 1.000000
38.498402 48.007401 -725.155212 -0.022408 0.208752 0.977712 1.000000
41.381599 45.367599 -728.254822 -0.602588 0.228890 0.764524 1.000000
41.689301 45.418900 -728.108582 -0.530007 0.057336 0.846053 1.000000
41.683201 46.527901 -726.330383 -0.899651 0.171294 0.401604 1.000000
46.418301 43.803200 -729.108887 0.687808 0.665362 0.290194 1.000000
38.163300 43.429901 -731.005188 -0.210173 0.799272 0.563019 1.000000
38.354801 47.319500 -725.402527 -0.690440 0.412277 0.594407 1.000000
41.556702 45.664200 -726.773987 0.618287 0.282783 -0.733318 1.000000
41.772598 46.507900 -725.518372 -0.422295 0.899307 -0.113641 1.000000
46.119301 43.584400 -728.228577 0.558192 0.789600 -0.254861 1.000000
38.080200 43.073898 -727.902588 0.001289 0.916186 -0.400751 1.000000
38.103298 43.191799 -727.617981 -0.846932 0.471535 -0.245686 1.000000
38.049500 43.354801 -727.324890 -0.524749 0.639485 -0.561870 1.000000
38.159100 42.748100 -728.812622 0.971923 0.234931 -0.013118 1.000000
38.191898 42.992401 -728.239075 -0.765493 0.615156 -0.188689 1.000000
38.096401 43.573399 -727.078308 -0.652891 0.646279 -0.395040 1.000000
38.348000 43.391701 -727.772583 -0.841609 0.491573 -0.223719 1.000000
38.322899 43.570702 -727.409912 -0.742996 0.515649 -0.426687 1.000000
38.244801 43.813000 -726.970398 -0.743740 0.502972 -0.440307 1.000000
38.239399 42.859299 -729.533081 -0.860852 0.505976 0.054063 1.000000
38.399799 43.062302 -728.901001 -0.767121 0.622438 -0.155233 1.000000
38.421600 43.181599 -728.614014 -0.757831 0.622559 -0.195222 1.000000
38.434399 43.306000 -728.326294 -0.684433 0.671610 -0.283711 1.000000
38.255100 44.099701 -726.794922 -0.854344 0.370577 -0.364375 1.000000
38.221600 44.249699 -726.505127 -0.912059 0.321475 -0.254562 1.000000
38.172199 42.870602 -729.957886 -0.914630 0.322216 0.244190 1.000000
38.208698 44.621201 -726.074219 -0.573984 0.637947 -0.513387 1.000000
42.152401 24.305599 -774.123901 0.618519 0.168687 -0.767450 1.000000
42.336201 24.450600 -773.869324 0.514820 0.194756 -0.834884 1.000000
42.611801 24.708900 -773.747803 0.179827 0.551572 -0.814513 1.000000
42.420799 24.931200 -773.677124 0.805600 0.230392 -0.545829 1.000000
42.622299 24.802000 -773.459229 0.809125 0.061147 -0.584447 1.000000
42.680099 25.061300 -773.313477 0.902351 0.014490 -0.430757 1.000000
42.477501 25.163700 -773.512329 0.875205 0.115647 -0.469726 1.000000
42.405102 25.474899 -773.537415 0.863073 0.179128 -0.472248 1.000000
42.598801 25.378799 -773.333801 0.532535 0.212099 -0.819402 1.000000
42.285999 25.773899 -773.516479 0.853950 0.345609 -0.389004 1.000000
42.851101 25.072701 -773.057312 0.432452 0.508090 -0.744869 1.000000
42.508301 25.662800 -773.326294 0.620811 0.279285 -0.732525 1.000000
42.198399 26.061501 -773.510315 0.842530 0.213279 -0.494627 1.000000
42.809399 25.381599 -773.084778 0.829276 0.054910 -0.556136 1.000000
42.063202 26.353300 -773.532776 0.783014 0.300182 -0.544775 1.000000
41.829102 26.578501 -773.638489 0.533864 0.550706 -0.641648 1.000000
41.584202 26.760500 -773.725403 0.454161 0.550650 -0.700373 1.000000
41.327900 26.897900 -773.793091 0.470142 0.506690 -0.722656 1.000000
41.064400 27.007200 -773.848694 0.243847 0.640296 -0.728395 1.000000
40.714401 27.067499 -773.885193 0.352038 0.473101 -0.807617 1.000000
40.464600 27.225700 -773.961914 0.631680 0.454073 -0.628329 1.000000
40.235699 27.457199 -774.070129 0.528784 0.354140 -0.771345 1.000000
39.983299 27.602600 -774.141174 0.437975 0.402681 -0.803757 1.000000
39.726601 27.731199 -774.205017 0.332133 0.604321 -0.724213 1.000000
39.395599 27.855101 -774.268921 0.340266 0.493626 -0.800345 1.000000
39.066799 27.985901 -774.335815 0.271746 0.535637 -0.799529 1.000000
38.720001 28.054399 -774.375916 0.118186 0.462776 -0.878562 1.000000
38.369999 28.112400 -774.411377 0.065541 0.500618 -0.863183 1.000000
38.012299 28.145599 -774.436218 0.044373 0.428936 -0.902244 1.000000
37.653702 28.106001 -774.429077 -0.398221 0.862556 0.312119 1.000000
42.406300 25.969500 -773.297180 0.611415 0.243623 -0.752874 1.000000
43.035099 25.270000 -772.855530 0.570327 0.207531 -0.794769 1.000000
42.809601 25.669100 -773.036316 0.585930 0.132020 -0.799535 1.000000
42.288502 26.253700 -773.306274 0.764462 0.208490 -0.610025 1.000000
42.991001 25.562599 -772.818726 0.973318 0.124655 -0.192649 1.000000
42.705502 25.997299 -773.016113 0.765892 0.388637 -0.512221 1.000000
42.500900 26.190100 -773.105713 0.528804 0.394557 -0.751459 1.000000
39.198002 28.233801 -774.081909 0.123252 0.625169 -0.770696 1.000000
38.855701 28.320000 -774.128113 0.278715 0.798352 -0.533809 1.000000
38.505001 28.378201 -774.162170 0.229548 0.607443 -0.760474 1.000000
38.159801 28.455000 -774.204285 0.298117 0.506325 -0.809173 1.000000
37.862301 28.446400 -774.207825 -0.171042 0.878600 0.445878 1.000000
43.180500 25.409599 -772.528015 -0.527947 0.445196 0.723237 1.000000
43.015598 25.889601 -772.742004 0.817059 0.212283 -0.536052 1.000000
42.487202 26.465799 -773.006226 0.661953 0.369577 -0.652098 1.000000
39.408001 28.356701 -773.903687 0.361806 0.620472 -0.695781 1.000000
39.078999 28.488199 -773.968689 0.262410 0.464972 -0.845543 1.000000
42.922001 26.164801 -772.704102 0.788730 0.358221 -0.499582 1.000000
42.723499 26.366199 -772.796387 0.706773 0.422077 -0.567735 1.000000
38.856400 28.665899 -773.884888 0.260419 0.604487 -0.752847 1.000000
38.516399 28.760401 -773.933472 0.133853 0.539826 -0.831067 1.000000
38.226799 28.777500 -773.947083 0.159993 0.422324 -0.892213 1.000000
37.887501 28.633101 -773.891113 -0.529571 0.766015 -0.364384 1.000000
43.234200 25.702000 -772.434814 -0.805645 0.088230 0.585792 1.000000
39.272400 28.584700 -773.774292 0.297023 0.614918 -0.730516 1.000000
43.169498 26.026501 -772.508728 0.778761 0.259587 -0.571092 1.000000
42.591202 26.654499 -772.794006 0.576994 0.334560 -0.745082 1.000000
39.550598 28.542200 -773.676697 0.314981 0.612193 -0.725263 1.000000
43.371300 25.907801 -772.273621 0.445466 0.073095 -0.892310 1.000000
43.088600 26.347700 -772.471191 0.580457 0.234984 -0.779649 1.000000
42.893501 26.553900 -772.564880 0.580457 0.234984 -0.779649 1.000000
39.117500 28.822201 -773.627075 0.300949 0.626037 -0.719380 1.000000
38.778500 28.920700 -773.676575 0.282012 0.613416 -0.737692 1.000000
38.439999 29.021099 -773.726807 0.253880 0.531122 -0.808365 1.000000
38.052601 28.961599 -773.708130 0.724302 0.442537 -0.528724 1.000000
43.403702 26.191799 -772.148499 0.933935 0.089519 -0.346050 1.000000
43.108700 26.614500 -772.338989 0.568884 0.238464 -0.787087 1.000000
42.912899 26.819500 -772.432373 0.563017 0.234203 -0.792566 1.000000
42.717098 27.023899 -772.525513 0.502637 0.336687 -0.796240 1.000000
39.700699 28.857300 -773.383972 0.448325 0.521116 -0.726253 1.000000
39.367298 28.974701 -773.441589 0.150634 0.571215 -0.806860 1.000000
38.954601 29.073099 -773.492310 0.314848 0.538598 -0.781526 1.000000
38.620602 29.187901 -773.548828 0.180992 0.582520 -0.792409 1.000000
38.257301 29.206699 -773.563721 0.281853 0.078507 -0.956240 1.000000
43.645699 26.093100 -771.838623 -0.319545 0.656932 0.682885 1.000000
43.465801 26.437000 -771.992676 0.837351 0.158578 -0.523159 1.000000
43.328499 26.719500 -772.119019 0.537401 0.278944 -0.795858 1.000000
43.125099 26.914499 -772.208130 0.563357 0.248127 -0.788075 1.000000
42.924900 27.113300 -772.298889 0.481196 0.471274 -0.739156 1.000000
42.689701 27.293100 -772.382019 0.529764 0.523036 -0.667670 1.000000
42.445599 27.482599 -772.469482 0.690803 0.390741 -0.608369 1.000000
42.208599 27.696400 -772.567383 0.487638 0.387194 -0.782489 1.000000
41.966999 27.890699 -772.656982 0.469506 0.411020 -0.781426 1.000000
41.717400 28.053801 -772.732971 0.395037 0.492577 -0.775444 1.000000
41.452801 28.160801 -772.784729 0.377134 0.506622 -0.775309 1.000000
41.192699 28.283300 -772.843079 0.554247 0.362455 -0.749290 1.000000
40.950100 28.467300 -772.928223 0.559526 0.469334 -0.683123 1.000000
40.700699 28.625299 -773.002014 0.431145 0.536866 -0.725182 1.000000
40.440201 28.742901 -773.058228 0.355916 0.554189 -0.752462 1.000000
40.186699 28.884100 -773.124695 0.403720 0.568503 -0.716808 1.000000
39.587101 29.098600 -773.229614 0.400501 0.511660 -0.760134 1.000000
39.258499 29.231701 -773.293884 0.242305 0.589348 -0.770686 1.000000
38.917000 29.321501 -773.339417 0.403576 0.504878 -0.763036 1.000000
38.514000 29.451500 -773.403625 0.042096 0.460345 -0.886741 1.000000
38.135502 29.420700 -773.396973 0.149096 0.936980 -0.315974 1.000000
43.748600 26.363800 -771.737427 -0.872216 0.009379 0.489031 1.000000
43.142700 27.187099 -772.109619 0.509168 0.392043 -0.766192 1.000000
39.999001 29.094299 -773.002380 0.356361 0.561390 -0.746893 1.000000
38.739399 29.565201 -773.231323 0.166838 0.557631 -0.813150 1.000000
43.693199 26.700800 -771.724976 0.853061 0.138531 -0.503087 1.000000
43.551201 26.976999 -771.848999 0.726088 0.304281 -0.616611 1.000000
42.949902 27.457001 -772.070679 0.455235 0.293650 -0.840554 1.000000
42.727200 27.625900 -772.148926 0.475125 0.291306 -0.830300 1.000000
42.530701 27.857401 -772.254211 0.627393 0.240579 -0.740607 1.000000
42.290401 28.058100 -772.346619 0.524051 0.434781 -0.732349 1.000000
42.038502 28.214001 -772.419617 0.460487 0.483594 -0.744371 1.000000
41.781399 28.349300 -772.483582 0.357572 0.525841 -0.771773 1.000000
41.446201 28.467400 -772.541504 0.339227 0.582692 -0.738509 1.000000
41.191299 28.608500 -772.607971 0.748706 0.331500 -0.574062 1.000000
40.955799 28.817200 -772.703979 0.497666 0.464599 -0.732446 1.000000
40.702499 28.961201 -772.771729 0.415224 0.560801 -0.716304 1.000000
40.370499 29.086000 -772.832520 0.402628 0.550532 -0.731304 1.000000
39.778900 29.329000 -772.949829 0.413239 0.531778 -0.739220 1.000000
39.520599 29.451599 -773.008301 0.253054 0.595698 -0.762304 1.000000
39.181900 29.550900 -773.057922 0.370187 0.472750 -0.799668 1.000000
38.501801 29.740200 -773.153198 0.185144 0.421312 -0.887816 1.000000
38.185699 29.912399 -773.234497 0.304691 0.425330 0.852207 1.000000
43.978901 26.456100 -771.504822 0.683041 0.049909 -0.728673 1.000000
43.404701 27.240101 -771.859680 0.562648 0.301248 -0.769855 1.000000
38.905499 29.727699 -773.033081 0.263404 0.515897 -0.815149 1.000000
40.146702 29.319700 -772.750427 0.356065 0.507514 -0.784632 1.000000
43.909302 26.751499 -771.498230 0.573433 0.115860 -0.811019 1.000000
43.733700 26.984200 -771.603577 0.764418 0.239174 -0.598716 1.000000
43.258701 27.515699 -771.845520 0.501483 0.262386 -0.824420 1.000000
43.053398 27.707399 -771.933289 0.515813 0.198157 -0.833469 1.000000
42.837101 27.884300 -772.014893 0.535232 0.321139 -0.781279 1.000000
42.487900 28.143101 -772.134827 0.568562 0.356776 -0.741248 1.000000
42.241501 28.320801 -772.217224 0.481788 0.419727 -0.769227 1.000000
41.989498 28.476200 -772.289795 0.416182 0.397047 -0.818013 1.000000
41.656799 28.604500 -772.351929 0.232332 0.527748 -0.817009 1.000000
41.146599 28.886200 -772.484619 0.502793 0.420905 -0.755009 1.000000
40.570202 29.189400 -772.627808 0.322047 0.606873 -0.726629 1.000000
39.388802 29.683901 -772.865479 0.372089 0.534574 -0.758802 1.000000
38.315102 29.885099 -772.968384 -0.023143 0.856301 -0.515959 1.000000
41.391102 28.728201 -772.361572 0.414344 0.466340 -0.781566 1.000000
40.904499 29.096600 -772.528687 0.463758 0.530246 -0.709766 1.000000
39.921799 29.529800 -772.730530 0.313560 0.530027 -0.787878 1.000000
38.712502 29.939800 -772.924988 0.067604 0.648710 -0.758027 1.000000
39.115299 29.863199 -772.853394 0.357849 0.589880 -0.723869 1.000000
43.671101 27.268400 -771.617371 0.413551 0.265097 -0.871033 1.000000
44.137699 26.693501 -771.234314 0.579674 0.109510 -0.807456 1.000000
43.947701 27.027100 -771.381775 0.544348 0.108870 -0.831764 1.000000
43.554199 27.556299 -771.616577 0.566634 0.255848 -0.783242 1.000000
43.355701 27.759501 -771.707214 0.533877 0.229244 -0.813893 1.000000
43.078098 27.975100 -771.804077 0.375493 0.234131 -0.896765 1.000000
42.798401 28.186501 -771.899170 0.433688 0.398481 -0.808163 1.000000
42.425400 28.447399 -772.016785 0.422019 0.365118 -0.829813 1.000000
42.180500 28.632601 -772.100220 0.442761 0.465635 -0.766255 1.000000
41.915501 28.743799 -772.151428 0.275751 0.709301 -0.648732 1.000000
40.754299 29.344400 -772.425415 0.305189 0.513920 -0.801715 1.000000
40.425201 29.485300 -772.490295 0.513779 0.447698 -0.731846 1.000000
40.169800 29.623800 -772.553284 0.396294 0.567309 -0.721880 1.000000
39.776299 29.795099 -772.632080 0.337461 0.563511 -0.754039 1.000000
39.366901 29.912399 -772.687622 0.397316 0.528120 -0.750486 1.000000
38.549900 30.152100 -772.800598 0.141804 0.855209 -0.498507 1.000000
44.310501 26.911501 -771.065430 0.758181 0.312569 -0.572242 1.000000
44.138901 27.152300 -771.172180 0.456874 0.096998 -0.884227 1.000000
43.966400 27.391100 -771.278076 0.600373 0.270881 -0.752447 1.000000
43.788200 27.621700 -771.380615 0.559373 0.312544 -0.767736 1.000000
43.580700 27.813400 -771.466309 0.556291 0.367054 -0.745528 1.000000
43.317600 28.047701 -771.571228 0.513291 0.443972 -0.734452 1.000000
43.097698 28.222601 -771.649719 0.484431 0.438451 -0.757026 1.000000
42.723900 28.471399 -771.762024 0.609977 0.379797 -0.695473 1.000000
42.418701 28.708099 -771.868286 0.508722 0.465638 -0.724142 1.000000
42.093300 28.868999 -771.941711 0.293497 0.643128 -0.707280 1.000000
41.825802 28.970699 -771.988770 0.288984 0.739225 -0.608304 1.000000
41.492802 29.102301 -772.049377 0.495207 0.511881 -0.701960 1.000000
41.241901 29.261299 -772.121277 0.549725 0.446756 -0.705841 1.000000
41.001801 29.456200 -772.208679 0.503086 0.506429 -0.700310 1.000000
40.675400 29.606701 -772.277710 0.232935 0.538373 -0.809874 1.000000
40.348499 29.754299 -772.345276 0.393517 0.568047 -0.722819 1.000000
40.090900 29.884600 -772.404724 0.393099 0.560865 -0.728631 1.000000
39.615799 30.030199 -772.473022 0.183813 0.578782 -0.794496 1.000000
39.289600 30.176901 -772.540222 0.431112 0.460395 -0.776002 1.000000
39.031101 30.301600 -772.597229 0.357194 0.488539 -0.796079 1.000000
38.679600 30.365000 -772.628418 -0.023040 0.494693 -0.868762 1.000000
38.361000 30.296200 -772.601379 -0.037429 0.547575 -0.835919 1.000000
44.561501 27.148800 -770.823486 -0.134596 0.281186 0.950168 1.000000
44.404499 27.408600 -770.938477 0.434228 0.222337 -0.872933 1.000000
44.214401 27.623699 -771.034424 0.600379 0.157994 -0.783953 1.000000
44.014000 27.825001 -771.124329 0.542116 0.130754 -0.830069 1.000000
43.801201 28.009399 -771.206787 0.501727 0.282905 -0.817456 1.000000
43.593300 28.200001 -771.292114 0.598191 0.249639 -0.761477 1.000000
43.373299 28.374300 -771.370422 0.370574 0.408420 -0.834187 1.000000
43.129799 28.518400 -771.435730 0.418674 0.480579 -0.770556 1.000000
42.841900 28.695900 -771.515991 0.534856 0.409782 -0.738924 1.000000
42.593800 28.871099 -771.594910 0.471274 0.481196 -0.739156 1.000000
42.341499 29.029301 -771.666382 0.391463 0.548703 -0.738702 1.000000
42.074600 29.133499 -771.714478 0.213107 0.707763 -0.673541 1.000000
41.728901 29.219801 -771.755371 0.356493 0.577876 -0.734147 1.000000
41.475399 29.370600 -771.823730 0.566848 0.408196 -0.715583 1.000000
41.244598 29.599400 -771.925903 0.562691 0.465848 -0.682909 1.000000
40.990398 29.744200 -771.991577 0.550506 0.513469 -0.658250 1.000000
40.737099 29.890800 -772.057983 0.275565 0.540108 -0.795203 1.000000
40.404800 30.019501 -772.117371 0.416700 0.622560 -0.662404 1.000000
40.073898 30.151800 -772.178284 0.350461 0.588448 -0.728633 1.000000
39.743198 30.284000 -772.239197 0.235969 0.592266 -0.770415 1.000000
39.407101 30.397699 -772.292114 0.387237 0.540824 -0.746697 1.000000
39.079800 30.540001 -772.357300 0.398575 0.533074 -0.746304 1.000000
38.733299 30.618999 -772.395081 -0.012413 0.605456 -0.795782 1.000000
38.414501 30.549299 -772.367615 -0.078313 0.172289 -0.981928 1.000000
44.850101 27.299101 -770.609070 0.374026 0.550422 -0.746418 1.000000
44.610802 27.541800 -770.717285 0.951320 0.307080 0.026321 1.000000
44.425098 27.762600 -770.815613 0.475096 0.270820 -0.837222 1.000000
44.235401 27.977501 -770.911316 0.523487 0.181495 -0.832479 1.000000
44.022499 28.161600 -770.993713 0.580972 0.284915 -0.762427 1.000000
43.813599 28.350500 -771.078125 0.390043 0.454248 -0.800953 1.000000
43.561100 28.482599 -771.138123 0.487277 0.537512 -0.688216 1.000000
43.272301 28.682400 -771.228027 0.504857 0.381484 -0.774331 1.000000
42.977798 28.874800 -771.314819 0.504237 0.480938 -0.717247 1.000000
42.512600 29.133699 -771.432129 0.527871 0.551482 -0.645925 1.000000
42.254101 29.268499 -771.493286 0.229593 0.626303 -0.745004 1.000000
41.916901 29.385099 -771.547180 0.307692 0.610551 -0.729762 1.000000
41.532700 29.596701 -771.643127 0.537660 0.534289 -0.652271 1.000000
41.164902 29.862801 -771.762817 0.567129 0.499814 -0.654638 1.000000
40.918499 30.034000 -771.839783 0.373799 0.680084 -0.630683 1.000000
40.583599 30.153500 -771.895020 0.272416 0.692989 -0.667500 1.000000
40.250401 30.278400 -771.952515 0.399382 0.628073 -0.667846 1.000000
39.919102 30.409000 -772.012512 0.347400 0.696432 -0.627930 1.000000
39.658901 30.528799 -772.067078 0.336031 0.592518 -0.732125 1.000000
39.329399 30.663700 -772.129028 0.434011 0.567041 -0.700071 1.000000
38.993801 30.777800 -772.181824 0.195935 0.661858 -0.723570 1.000000
38.641701 30.838699 -772.211487 0.199711 0.485012 -0.851398 1.000000
42.783501 29.145800 -771.253479 0.488176 0.551924 -0.676065 1.000000
38.381401 30.906900 -772.055298 0.385553 0.572588 -0.723528 1.000000
44.955898 27.708401 -770.375488 0.365476 0.621145 0.693257 1.000000
44.800301 27.969400 -770.490173 0.448466 0.278943 -0.849158 1.000000
44.592400 28.160400 -770.574707 0.589498 0.015186 -0.807627 1.000000
44.403801 28.376301 -770.669983 0.437081 0.164087 -0.884328 1.000000
44.187401 28.555201 -770.749207 0.364350 0.286382 -0.886135 1.000000
43.884300 28.736200 -770.829773 0.319795 0.467878 -0.823906 1.000000
43.627899 28.862900 -770.886475 0.329259 0.429129 -0.841093 1.000000
43.372101 28.990801 -770.943726 0.502732 0.446690 -0.740087 1.000000
43.069801 29.173000 -771.024902 0.360941 0.423987 -0.830636 1.000000
42.631699 29.383801 -771.119202 0.481238 0.558370 -0.675746 1.000000
42.370399 29.509001 -771.175293 0.330909 0.563353 -0.757056 1.000000
42.108799 29.632200 -771.230530 0.162493 0.666675 -0.727420 1.000000
41.771801 29.749500 -771.283508 0.575866 0.525204 -0.626529 1.000000
41.526100 29.926901 -771.362183 0.667853 0.456952 -0.587510 1.000000
41.289501 30.134501 -771.454102 0.466030 0.566251 -0.679835 1.000000
41.034000 30.274300 -771.516479 0.409974 0.609152 -0.678864 1.000000
40.772400 30.392500 -771.569519 0.362713 0.625311 -0.690960 1.000000
40.442799 30.529800 -771.631226 0.429093 0.561632 -0.707424 1.000000
40.110901 30.658600 -771.689209 0.358539 0.607388 -0.708893 1.000000
39.779099 30.787100 -771.747070 0.240618 0.715562 -0.655801 1.000000
39.446499 30.912201 -771.803528 0.449291 0.653059 -0.609633 1.000000
39.189800 31.042700 -771.861877 0.467548 0.480765 -0.741798 1.000000
38.931301 31.166100 -771.917114 -0.023451 0.558679 -0.829052 1.000000
38.631302 31.155800 -771.914185 0.236038 0.532243 -0.813021 1.000000
45.119099 27.924200 -770.122009 -0.899318 0.158703 0.407481 1.000000
45.050800 28.184200 -770.235474 0.411789 0.014380 -0.911166 1.000000
44.865700 28.405100 -770.332275 0.499307 0.177366 -0.848077 1.000000
44.648300 28.582899 -770.410522 0.541542 0.219378 -0.811545 1.000000
44.443699 28.777100 -770.495728 0.407794 0.330267 -0.851251 1.000000
44.129200 28.942900 -770.568787 0.328870 0.487745 -0.808671 1.000000
43.860500 29.053499 -770.617920 0.434596 0.533743 -0.725428 1.000000
43.610100 29.188101 -770.677185 0.329552 0.541751 -0.773241 1.000000
43.349701 29.309799 -770.731018 0.429093 0.561632 -0.707424 1.000000
43.090302 29.433201 -770.785522 0.422870 0.565486 -0.708101 1.000000
42.785900 29.612801 -770.864685 0.395217 0.606882 -0.689563 1.000000
42.509300 29.737700 -770.919983 0.471225 0.578551 -0.665752 1.000000
42.244202 29.848301 -770.968872 0.155380 0.773881 -0.613976 1.000000
41.899899 29.939800 -771.009827 0.513976 0.561161 -0.648789 1.000000
41.660702 30.140800 -771.098083 0.694494 0.513758 -0.503717 1.000000
41.420898 30.337700 -771.184570 0.523879 0.635056 -0.567676 1.000000
41.158001 30.452200 -771.235291 0.424048 0.686791 -0.590341 1.000000
40.895901 30.569099 -771.286987 0.413891 0.666548 -0.620006 1.000000
40.566898 30.709499 -771.349121 0.388424 0.672718 -0.629744 1.000000
40.305401 30.826700 -771.400879 0.354468 0.700768 -0.619093 1.000000
40.043301 30.941401 -771.451721 0.395416 0.613805 -0.683293 1.000000
39.709599 31.063400 -771.505920 0.319568 0.660225 -0.679691 1.000000
39.448601 31.180401 -771.557617 0.506758 0.506758 -0.697419 1.000000
39.203499 31.348499 -771.631470 0.507882 0.609121 -0.609121 1.000000
38.867199 31.459900 -771.681091 0.261585 0.872455 -0.412791 1.000000
38.556999 31.417200 -771.663330 -0.481440 0.790593 -0.378390 1.000000
45.420101 28.362700 -769.879822 0.359355 0.239081 -0.902055 1.000000
45.272598 28.633600 -769.997620 0.349196 0.045434 -0.935948 1.000000
45.066898 28.826599 -770.081482 0.461197 0.304859 -0.833282 1.000000
44.775501 29.022200 -770.166626 0.412234 0.292701 -0.862780 1.000000
44.483601 29.217100 -770.251282 0.437408 0.398955 -0.805921 1.000000
44.223900 29.338900 -770.304077 0.212177 0.471004 -0.856234 1.000000
43.944099 29.434999 -770.345886 0.268840 0.501938 -0.822060 1.000000
43.663101 29.529900 -770.387085 0.384536 0.498112 -0.777185 1.000000
43.400799 29.649300 -770.439026 0.421006 0.411401 -0.808395 1.000000
43.149799 29.783400 -770.497314 0.329010 0.497488 -0.802657 1.000000
42.887199 29.902800 -770.549072 0.295963 0.603124 -0.740707 1.000000
42.611599 30.006100 -770.593994 0.470026 0.573733 -0.670750 1.000000
42.320099 30.122299 -770.644409 0.219571 0.752148 -0.621339 1.000000
41.982700 30.238501 -770.694885 0.447606 0.564083 -0.693872 1.000000
41.731300 30.396900 -770.763672 0.592765 0.452505 -0.666235 1.000000
41.490002 30.588900 -770.847229 0.521428 0.568677 -0.636176 1.000000
41.236698 30.737301 -770.911682 0.418561 0.706424 -0.570764 1.000000
40.972698 30.847900 -770.959778 0.314175 0.742742 -0.591294 1.000000
40.709801 30.961700 -771.009216 0.459918 0.597058 -0.657265 1.000000
40.453201 31.096201 -771.067627 0.375467 0.591893 -0.713223 1.000000
40.191898 31.213499 -771.118591 0.390864 0.588770 -0.707513 1.000000
39.929501 31.326900 -771.167786 0.299947 0.614329 -0.729816 1.000000
39.590900 31.432699 -771.213684 0.517717 0.642509 -0.564935 1.000000
39.333599 31.561800 -771.269897 0.373120 0.672273 -0.639399 1.000000
39.076302 31.689699 -771.325378 0.359349 0.641578 -0.677677 1.000000
38.726299 31.757700 -771.354919 0.121310 0.458125 -0.880571 1.000000
45.666901 28.689400 -769.622070 -0.596050 0.589296 0.545394 1.000000
45.490200 28.921200 -769.722290 0.396518 0.139699 -0.907335 1.000000
45.280800 29.108999 -769.803284 0.447263 0.324854 -0.833322 1.000000
44.993301 29.309601 -769.889526 0.429746 0.472230 -0.769621 1.000000
44.679001 29.474800 -769.960388 0.387981 0.504863 -0.771093 1.000000
44.425999 29.605200 -770.016296 0.337032 0.556345 -0.759532 1.000000
44.152599 29.709299 -770.060730 0.292626 0.593246 -0.749953 1.000000
43.882198 29.817600 -770.106995 0.376999 0.540202 -0.752366 1.000000
43.618099 29.934401 -770.156921 0.356478 0.481165 -0.800877 1.000000
43.351898 30.048800 -770.205872 0.420710 0.532900 -0.734181 1.000000
43.098301 30.179600 -770.261902 0.331862 0.597351 -0.730096 1.000000
42.814499 30.272200 -770.301270 0.306970 0.609118 -0.731263 1.000000
42.524502 30.357599 -770.337585 0.304306 0.645644 -0.700387 1.000000
42.204700 30.432699 -770.369324 0.296894 0.714151 -0.633910 1.000000
41.941399 30.549400 -770.419312 0.565880 0.498713 -0.656555 1.000000
41.698002 30.735500 -770.499329 0.506218 0.664307 -0.549945 1.000000
41.445301 30.887501 -770.564575 0.392780 0.721467 -0.570271 1.000000
41.185902 31.014900 -770.619202 0.440137 0.712523 -0.546434 1.000000
40.925900 31.139500 -770.672485 0.445480 0.720385 -0.531595 1.000000
40.664700 31.258900 -770.723694 0.474576 0.704371 -0.527862 1.000000
40.403599 31.378300 -770.774780 0.421879 0.709749 -0.564159 1.000000
40.076302 31.523300 -770.836792 0.389566 0.757941 -0.523224 1.000000
39.744400 31.652000 -770.891785 0.279143 0.639636 -0.716201 1.000000
39.417599 31.797001 -770.953796 0.499570 0.593766 -0.630771 1.000000
39.173401 31.967899 -771.027283 0.378852 0.585499 -0.716703 1.000000
38.828899 32.053699 -771.063599 0.259419 0.397375 -0.880224 1.000000
45.741001 28.906700 -769.434814 -0.246683 0.266417 0.931756 1.000000
45.602001 29.188400 -769.556396 0.922215 0.208884 -0.325404 1.000000
45.396801 29.381500 -769.639221 0.355439 0.358516 -0.863209 1.000000
45.094398 29.562099 -769.716187 0.290672 0.365976 -0.884065 1.000000
44.779301 29.726000 -769.785889 0.336903 0.496573 -0.799945 1.000000
44.513302 29.839300 -769.833923 0.316141 0.516311 -0.795913 1.000000
44.228199 29.928200 -769.871216 0.256981 0.606978 -0.752023 1.000000
43.952000 30.029100 -769.913818 0.351797 0.559309 -0.750608 1.000000
43.687698 30.145599 -769.963074 0.398682 0.600504 -0.693144 1.000000
43.415798 30.252701 -770.008423 0.404891 0.593290 -0.695752 1.000000
43.014999 30.423100 -770.080505 0.326325 0.706226 -0.628297 1.000000
42.714699 30.495300 -770.110474 0.278165 0.758199 -0.589710 1.000000
42.401600 30.552200 -770.133911 0.187763 0.780056 -0.596873 1.000000
42.112499 30.657900 -770.178406 0.492036 0.708866 -0.505380 1.000000
41.861900 30.819599 -770.247375 0.538064 0.646014 -0.541437 1.000000
41.616501 30.997801 -770.323608 0.470765 0.675154 -0.567933 1.000000
41.089298 31.224400 -770.419617 0.434140 0.680320 -0.590497 1.000000
40.833698 31.364000 -770.478882 0.431435 0.681301 -0.591349 1.000000
40.574200 31.489201 -770.532227 0.442561 0.714396 -0.542013 1.000000
40.314800 31.614201 -770.585205 0.415826 0.707401 -0.571553 1.000000
40.054100 31.733999 -770.635986 0.422936 0.585476 -0.691624 1.000000
39.728199 31.882401 -770.698975 0.423066 0.569065 -0.705110 1.000000
39.473801 32.021000 -770.757996 0.487518 0.541128 -0.685206 1.000000
39.223400 32.171799 -770.822327 0.314908 0.634661 -0.705718 1.000000
38.878700 32.257198 -770.857788 0.283906 0.814073 -0.506639 1.000000
38.481602 32.080101 -770.779175 -0.333262 0.616128 -0.713668 1.000000
45.882702 29.157600 -769.296509 -0.352195 0.355271 0.865876 1.000000
45.727001 29.416599 -769.407776 0.689947 0.329551 -0.644492 1.000000
45.522400 29.610300 -769.490479 0.410366 0.498652 -0.763509 1.000000
45.073502 29.829201 -769.582703 0.338161 0.511248 -0.790110 1.000000
43.271198 30.476601 -769.852783 0.377408 0.680652 -0.627914 1.000000
41.474602 31.211100 -770.160706 0.351797 0.750608 -0.559309 1.000000
39.915699 31.956100 -770.474487 0.378137 0.728445 -0.571297 1.000000
39.089199 32.405800 -770.664490 0.303667 0.599301 -0.740692 1.000000
38.712898 32.390598 -770.655823 -0.193276 0.438191 -0.877857 1.000000
46.196899 29.462799 -769.119812 0.650499 0.482412 -0.586626 1.000000
45.970699 29.718800 -769.229309 0.392358 0.006432 -0.919790 1.000000
45.758099 29.901199 -769.306885 0.322405 0.425201 -0.845730 1.000000
45.478901 29.995899 -769.346313 0.270072 0.434862 -0.859044 1.000000
45.190300 30.078699 -769.380310 0.240392 0.485378 -0.840607 1.000000
44.917400 30.182600 -769.423584 0.284242 0.519801 -0.805614 1.000000
44.630001 30.268101 -769.458923 0.331077 0.513409 -0.791706 1.000000
44.359798 30.376400 -769.504028 0.240093 0.610433 -0.754803 1.000000
44.066399 30.455200 -769.536377 0.263859 0.601978 -0.753658 1.000000
43.774200 30.536301 -769.569702 0.246227 0.600668 -0.760638 1.000000
43.485001 30.621799 -769.604919 0.314977 0.638031 -0.702642 1.000000
43.206600 30.721399 -769.646301 0.330185 0.694528 -0.639226 1.000000
42.921299 30.812901 -769.684204 0.251531 0.719790 -0.647020 1.000000
42.577400 30.885700 -769.713623 0.171714 0.764354 -0.621512 1.000000
42.231899 30.973801 -769.749573 0.461236 0.732357 -0.500913 1.000000
41.973801 31.108700 -769.806274 0.496448 0.718937 -0.486486 1.000000
41.724701 31.273899 -769.876404 0.489850 0.725642 -0.483208 1.000000
41.466099 31.405001 -769.931580 0.429296 0.704443 -0.565212 1.000000
41.202301 31.517000 -769.978394 0.425690 0.751122 -0.504583 1.000000
40.939098 31.631001 -770.026123 0.409215 0.744475 -0.527542 1.000000
40.675499 31.742599 -770.072815 0.448782 0.730306 -0.515023 1.000000
40.417400 31.872101 -770.127319 0.532429 0.663437 -0.525710 1.000000
40.169899 32.035801 -770.196716 0.441822 0.665234 -0.601878 1.000000
39.838299 32.165901 -770.250916 0.494559 0.707702 -0.504550 1.000000
39.591000 32.327702 -770.319519 0.636524 0.548727 -0.541974 1.000000
39.351101 32.511799 -770.397705 0.464392 0.591806 -0.658867 1.000000
39.021599 32.645199 -770.453430 0.114864 0.536517 -0.836036 1.000000
38.685902 32.532902 -770.402710 0.245235 0.234151 -0.940762 1.000000
46.350601 29.653400 -768.871582 0.477387 0.313531 -0.820853 1.000000
46.171299 29.946400 -768.997620 0.833613 0.063473 -0.548690 1.000000
45.978802 30.154900 -769.086914 0.362798 0.222924 -0.904811 1.000000
45.714401 30.268400 -769.134521 0.202473 0.388922 -0.898746 1.000000
45.424400 30.349001 -769.167603 0.262410 0.464972 -0.845543 1.000000
45.131199 30.425800 -769.198975 0.211134 0.462698 -0.861007 1.000000
44.828800 30.491400 -769.225586 0.235621 0.525143 -0.817745 1.000000
44.556301 30.596399 -769.269470 0.271507 0.541445 -0.795689 1.000000
44.243099 30.649401 -769.290527 0.212538 0.615893 -0.758619 1.000000
43.955200 30.735600 -769.325989 0.295830 0.599655 -0.743572 1.000000
43.674999 30.832300 -769.366272 0.267302 0.599453 -0.754457 1.000000
43.381001 30.911900 -769.398926 0.278913 0.629547 -0.725174 1.000000
43.089298 30.995100 -769.433228 0.251788 0.666684 -0.701523 1.000000
42.798500 31.073900 -769.465576 0.165749 0.731423 -0.661474 1.000000
42.436600 31.102800 -769.475830 0.185106 0.760310 -0.622628 1.000000
42.102001 31.229099 -769.528503 0.487644 0.668625 -0.561377 1.000000
41.857300 31.409700 -769.605286 0.509651 0.664397 -0.546656 1.000000
41.595200 31.528601 -769.655273 0.381231 0.744464 -0.548122 1.000000
41.263599 31.662500 -769.711304 0.394758 0.771646 -0.498727 1.000000
40.934700 31.804501 -769.770813 0.482029 0.733811 -0.478716 1.000000
40.678398 31.940800 -769.828308 0.423264 0.742771 -0.518787 1.000000
40.421299 32.073200 -769.884216 0.574453 0.645206 -0.503699 1.000000
40.174400 32.237999 -769.954102 0.401045 0.748072 -0.528725 1.000000
39.842899 32.367901 -770.008423 0.512891 0.693322 -0.506209 1.000000
39.596600 32.532200 -770.078125 0.673468 0.542470 -0.502162 1.000000
39.369099 32.755699 -770.173706 0.529740 0.539830 -0.654186 1.000000
39.037701 32.882301 -770.226501 0.111643 0.833699 -0.540817 1.000000
38.698002 32.748001 -770.166077 -0.585136 0.784789 0.204260 1.000000
46.270401 30.223499 -768.903503 0.577530 0.078819 -0.812555 1.000000
45.992100 30.433599 -768.992981 0.284261 0.322555 -0.902859 1.000000
45.644299 30.552601 -769.042603 0.156132 0.411101 -0.898120 1.000000
45.334900 30.607800 -769.064575 0.184151 0.510532 -0.839908 1.000000
45.033401 30.733200 -769.040894 0.143080 0.538396 -0.830457 1.000000
44.723301 30.789101 -769.063171 0.235102 0.571408 -0.786270 1.000000
44.421700 30.857000 -769.090820 0.139471 0.634370 -0.760344 1.000000
44.110298 30.912901 -769.112976 0.278452 0.596684 -0.752617 1.000000
43.824799 31.002701 -769.150208 0.261836 0.633168 -0.728382 1.000000
43.517200 31.065100 -769.175415 0.244234 0.666524 -0.704341 1.000000
43.227501 31.225500 -769.243225 0.271009 0.603826 -0.749632 1.000000
42.727001 31.286400 -769.266418 0.188779 0.636938 -0.747443 1.000000
42.374001 31.346701 -769.290283 0.300855 0.722374 -0.622625 1.000000
42.041599 31.480000 -769.346130 0.480149 0.677562 -0.557106 1.000000
41.785702 31.620600 -769.405579 0.382453 0.766533 -0.515904 1.000000
41.446701 31.729700 -769.450806 0.326890 0.839905 -0.433247 1.000000
41.114601 31.861700 -769.505981 0.511522 0.704801 -0.491528 1.000000
40.860199 32.004501 -769.566406 0.448446 0.695175 -0.561808 1.000000
40.603500 32.138901 -769.623230 0.531099 0.649121 -0.544587 1.000000
40.355900 32.301998 -769.692383 0.535019 0.639660 -0.551897 1.000000
40.101200 32.440899 -769.751221 0.356361 0.746893 -0.561390 1.000000
39.780701 32.605900 -769.820801 0.587563 0.641437 -0.493283 1.000000
39.542198 32.794498 -769.901184 0.752089 0.482193 -0.449279 1.000000
39.308998 32.998001 -769.988220 0.346253 0.739648 -0.577088 1.000000
38.855999 32.974602 -769.975098 -0.432692 0.717837 -0.545424 1.000000
46.571800 30.444099 -768.610413 -0.095738 0.357330 0.929058 1.000000
46.414299 30.702900 -768.720581 0.378623 0.191471 -0.905529 1.000000
46.093399 30.858299 -768.784180 0.165577 0.416102 -0.894116 1.000000
45.778900 30.905600 -768.801208 0.168777 0.468173 -0.867368 1.000000
45.470798 30.962400 -768.822327 0.025563 0.466869 -0.883957 1.000000
45.138100 30.987499 -768.829407 0.082945 0.490640 -0.867406 1.000000
44.824001 31.038099 -768.847778 0.158725 0.526609 -0.835158 1.000000
44.515400 31.097099 -768.869873 0.134705 0.566943 -0.812668 1.000000
44.209999 31.160900 -768.893982 0.179386 0.550216 -0.815526 1.000000
43.912102 31.235300 -768.922913 0.284242 0.519801 -0.805614 1.000000
43.610901 31.306299 -768.950195 0.182420 0.728148 -0.660699 1.000000
43.300201 31.365601 -768.972412 0.271527 0.751067 -0.601806 1.000000
42.998699 31.437599 -769.000122 0.168917 0.741102 -0.649796 1.000000
42.637901 31.434700 -768.994812 0.103302 0.875942 -0.471226 1.000000
42.348400 31.523701 -769.030090 0.454142 0.734885 -0.503685 1.000000
42.087101 31.648899 -769.081299 0.318015 0.784650 -0.532156 1.000000
41.815300 31.761101 -769.126770 0.350181 0.822370 -0.448421 1.000000
41.522701 31.847601 -769.160889 0.367846 0.772964 -0.516930 1.000000
41.229500 32.006199 -769.226318 0.463818 0.744420 -0.480324 1.000000
40.966900 32.132500 -769.278015 0.421584 0.749665 -0.510166 1.000000
40.706902 32.266899 -769.333130 0.515942 0.657111 -0.549553 1.000000
40.459702 32.444199 -769.407104 0.493524 0.737810 -0.460512 1.000000
40.203701 32.589802 -769.467224 0.398147 0.742225 -0.539055 1.000000
39.935001 32.691799 -769.508301 0.491836 0.673127 -0.552266 1.000000
39.688900 32.868801 -769.582092 0.707945 0.534707 -0.461414 1.000000
39.455799 33.087502 -769.674072 0.569085 0.714242 -0.407432 1.000000
39.193699 33.208500 -769.723511 0.325653 0.802219 -0.500394 1.000000
38.843399 33.196400 -769.714417 -0.251383 0.276948 0.927419 1.000000
46.701599 30.873699 -768.516724 0.228084 0.094510 -0.969044 1.000000
46.523602 31.103600 -768.614075 0.319074 0.227501 -0.920019 1.000000
46.202499 31.140699 -768.626282 0.036493 0.463597 -0.885294 1.000000
45.904900 31.210199 -768.653015 0.119635 0.426463 -0.896558 1.000000
45.576401 31.239300 -768.661682 0.110079 0.484633 -0.867764 1.000000
45.243099 31.263201 -768.668213 0.023468 0.561853 -0.826904 1.000000
44.947701 31.338200 -768.697083 0.026608 0.645588 -0.763222 1.000000
44.657799 31.305099 -768.679382 0.148841 0.629943 -0.762246 1.000000
44.352798 31.369200 -768.703613 0.168687 0.618519 -0.767450 1.000000
44.035400 31.417999 -768.720886 0.203170 0.548407 -0.811154 1.000000
43.725201 31.476999 -768.742920 0.083088 0.733212 -0.674905 1.000000
43.173599 31.570999 -768.777100 0.189007 0.736053 -0.650001 1.000000
42.850601 31.615999 -768.792786 0.090595 0.829733 -0.550759 1.000000
42.511299 31.641300 -768.799683 0.215734 0.815504 -0.537040 1.000000
42.222900 31.732100 -768.835693 0.390474 0.798624 -0.457963 1.000000
41.952801 31.846600 -768.882019 0.339015 0.776039 -0.531820 1.000000
41.674000 31.950300 -768.923706 0.360184 0.798807 -0.481846 1.000000
41.406300 32.068501 -768.971680 0.421999 0.719880 -0.551081 1.000000
41.117199 32.204700 -769.027283 0.536025 0.718572 -0.443092 1.000000
40.855598 32.334400 -769.080383 0.495640 0.771899 -0.398137 1.000000
40.605301 32.501999 -769.150024 0.504403 0.747568 -0.432111 1.000000
40.345901 32.637199 -769.205505 0.505820 0.728049 -0.462701 1.000000
40.094002 32.796700 -769.271729 0.410708 0.754329 -0.512158 1.000000
39.834999 32.931099 -769.326782 0.583667 0.637492 -0.502929 1.000000
39.599602 33.143200 -769.415894 0.725562 0.557745 -0.403090 1.000000
39.351101 33.309898 -769.485229 0.488898 0.745692 -0.452683 1.000000
39.005600 33.402199 -769.521118 -0.189826 0.551255 0.812456 1.000000
46.431499 31.372499 -768.508484 0.098751 0.355774 -0.929340 1.000000
