ply
format ascii 1.0
element vertex 700
property float x
property float y
property float z
property float nx
property float ny
property float nz
property float label
element face 0
property list uchar int vertex_indices
end_header
39.034901 23.349400 -732.804626 -0.628523 0.311838 -0.712542 0.000000
38.372700 23.647100 -734.085327 0.613435 0.336820 -0.714318 0.000000
38.550201 23.552500 -734.073914 0.144672 0.954307 -0.261472 0.000000
39.195000 23.012699 -733.118530 0.626417 0.734256 -0.261668 0.000000
39.079399 23.021900 -733.275513 -0.855694 0.341968 -0.388389 0.000000
39.022999 23.199400 -733.623230 0.935568 0.312775 -0.163966 0.000000
38.450500 23.172100 -734.286499 0.746104 0.323903 -0.581735 0.000000
38.447201 22.765900 -734.182373 0.467698 0.665505 -0.581689 0.000000
39.017101 20.172400 -733.549683 -0.842610 0.520220 0.139214 0.000000
39.049000 20.297501 -733.704529 -0.480131 0.716043 0.506712 0.000000
39.148602 20.675400 -734.168213 -0.514724 0.726571 0.455141 0.000000
38.722698 20.649599 -734.654297 -0.530194 0.361570 0.766917 0.000000
38.555302 20.726999 -734.981384 -0.952184 0.137168 0.273004 0.000000
38.971802 20.504200 -734.499573 0.745897 0.107823 -0.657276 0.000000
38.379501 19.964800 -734.991577 -0.296688 0.859318 -0.416592 0.000000
39.026600 19.523399 -733.636719 -0.917917 0.330794 0.219097 0.000000
39.077400 19.698601 -733.880127 0.891206 0.163219 0.423215 0.000000
39.050701 20.100100 -734.534912 -0.795087 0.177191 0.580035 0.000000
38.847698 20.049700 -734.707581 0.378531 0.150568 -0.913260 0.000000
39.534401 20.262400 -733.769104 -0.184914 0.980164 0.071307 0.000000
39.262600 19.821800 -733.500977 -0.651088 0.533320 0.540050 0.000000
39.243900 19.977600 -733.765015 -0.701570 0.478268 0.528261 0.000000
39.079498 19.370501 -733.421326 0.931717 0.352578 0.087139 0.000000
39.131001 20.025801 -734.370483 0.930052 0.014072 -0.367159 0.000000
39.170700 19.541100 -733.820007 0.720129 0.490619 0.490619 0.000000
39.239899 19.749100 -734.055725 0.846748 0.262784 0.462561 0.000000
39.200901 19.853500 -734.265320 0.952468 0.261225 -0.156735 0.000000
39.064899 19.912701 -734.525208 0.845845 0.093029 -0.525254 0.000000
38.777100 19.827999 -734.750671 0.442629 0.058563 -0.894791 0.000000
38.583099 19.738400 -734.852478 -0.456874 0.096998 0.884227 0.000000
38.500198 19.801399 -735.052429 0.997679 0.030878 -0.060691 0.000000
39.235500 19.281200 -733.527405 -0.490055 0.611306 0.621410 0.000000
39.224499 19.378000 -733.690430 0.366926 0.774263 0.515637 0.000000
38.972401 19.799101 -734.653076 0.671736 0.182921 -0.717851 0.000000
38.482899 19.617701 -734.979370 -0.678789 0.602446 0.419886 0.000000
39.227200 19.543100 -733.992798 0.997596 0.068328 -0.011563 0.000000
39.225201 19.634501 -734.206177 -0.986375 0.098519 0.131754 0.000000
39.168701 19.721701 -734.410889 -0.889912 0.001314 0.456129 0.000000
38.756302 19.658701 -734.826172 0.315254 0.657991 -0.683858 0.000000
39.148602 19.238300 -733.834106 -0.936462 0.269355 0.224695 0.000000
39.165798 19.348900 -733.983521 -0.941583 0.225371 0.250259 0.000000
38.672901 19.632200 -735.033630 0.346977 0.936182 -0.056302 0.000000
38.583698 19.688299 -735.231079 0.467149 0.857691 0.214798 0.000000
39.336700 18.763800 -733.408386 0.178436 0.773223 0.608512 0.000000
39.159500 18.877300 -733.803528 0.535905 0.843323 0.040158 0.000000
39.081501 19.413700 -734.725891 -0.524300 0.741252 0.419112 0.000000
39.001099 19.477800 -734.924377 0.542689 0.339784 0.768138 0.000000
38.602901 19.240700 -735.054688 -0.849703 0.385095 0.360149 0.000000
38.519299 19.302099 -735.253113 0.783043 0.621705 0.018081 0.000000
39.163200 18.510300 -733.940125 0.440566 0.516469 0.734276 0.000000
39.550999 18.628700 -733.784729 -0.730713 0.353151 0.584245 0.000000
38.574100 18.824100 -735.302673 0.059447 0.872350 0.485254 0.000000
38.442101 18.252300 -735.018616 -0.122895 0.971759 0.201447 0.000000
38.358501 18.313700 -735.216980 -0.025262 0.993988 0.106538 0.000000
38.489601 18.373699 -735.338074 0.427748 0.844608 0.321978 0.000000
39.168301 17.940800 -734.146912 -0.977419 0.148169 -0.150659 0.000000
39.171902 18.085800 -734.364197 -0.956708 0.289874 0.026126 0.000000
39.215302 18.221800 -734.518127 -0.998195 0.009368 0.059330 0.000000
39.159599 18.309299 -734.721375 0.952605 0.052285 -0.299682 0.000000
39.070301 18.364401 -734.917114 0.920277 0.128700 -0.369495 0.000000
38.871799 18.315001 -735.088989 0.131668 0.572533 -0.809240 0.000000
38.688499 18.327299 -735.336426 0.944971 0.307882 0.110624 0.000000
39.542400 17.455299 -733.672791 0.036257 0.176606 0.983614 0.000000
39.424999 17.482401 -733.860229 -0.502241 0.442960 0.742658 0.000000
39.173901 17.570601 -734.307495 -0.974548 0.223803 -0.013026 0.000000
39.228298 17.812300 -734.607727 0.978774 0.180527 -0.097018 0.000000
39.166000 17.893499 -734.809326 0.657839 0.743967 -0.117312 0.000000
38.779400 17.804199 -735.154724 0.551934 0.455221 -0.698672 0.000000
38.592499 17.766100 -735.329407 0.015702 0.967485 -0.252440 0.000000
38.239799 17.569500 -735.469177 0.194981 0.977360 -0.082162 0.000000
38.400299 17.713600 -735.691711 0.125940 0.780828 0.611920 0.000000
38.603802 17.717400 -735.697571 0.113139 0.797851 0.592143 0.000000
39.163700 16.827999 -733.963623 -0.879637 0.212122 -0.425727 0.000000
39.159302 15.618900 -733.688477 -0.269874 0.812743 0.516349 0.000000
39.068600 15.662800 -733.865479 0.208299 0.962891 0.171617 0.000000
39.239300 16.453501 -734.836975 -0.904525 0.185507 0.383956 0.000000
38.956501 15.280800 -733.726624 0.463647 0.651115 0.600900 0.000000
38.507702 16.100500 -735.500488 -0.101684 0.928717 -0.356573 0.000000
38.211899 16.104000 -735.869019 0.004091 0.816848 0.576839 0.000000
39.196301 15.802400 -734.473511 -0.092032 0.994614 0.047679 0.000000
38.422798 16.160200 -735.956482 -0.222989 0.847964 0.480867 0.000000
39.632801 15.831700 -734.386414 -0.419487 0.086648 -0.903616 0.000000
39.391102 15.765100 -734.584229 0.994627 0.096041 -0.038637 0.000000
38.735199 15.850300 -735.517273 0.403882 0.855735 -0.323415 0.000000
38.600300 15.864100 -735.703613 -0.326727 0.031783 -0.944584 0.000000
39.144798 15.409900 -734.587585 -0.733118 0.632216 0.250679 0.000000
38.685299 15.407000 -735.430908 0.068784 0.966731 -0.246373 0.000000
38.421700 15.248000 -735.518494 0.186121 0.977441 -0.099840 0.000000
38.597000 15.210100 -735.549011 -0.129101 0.503348 -0.854385 0.000000
38.659599 15.166400 -735.730286 0.247057 0.957840 -0.146649 0.000000
39.192501 14.261400 -734.031616 -0.152335 0.901198 -0.405753 0.000000
39.083401 14.299900 -734.224182 -0.146103 0.950342 0.274781 0.000000
38.603901 14.905300 -735.721680 0.280783 0.763032 -0.582188 0.000000
39.151501 13.731600 -734.161621 -0.025416 0.889544 0.456142 0.000000
39.218498 13.809000 -734.331726 -0.030339 0.911477 0.410231 0.000000
38.693001 14.304000 -735.740601 0.885261 0.172982 -0.431728 0.000000
39.401402 13.804900 -734.255981 -0.448168 0.753514 0.481001 0.000000
39.328201 13.877000 -734.457886 -0.485350 0.844418 0.226700 0.000000
39.234501 14.265100 -735.163696 -0.865568 0.387591 0.317120 0.000000
38.610802 14.275200 -735.969727 -0.667499 0.280126 0.689909 0.000000
38.392101 13.517800 -735.773315 0.457925 0.801771 -0.384015 0.000000
38.299702 13.553300 -735.945984 -0.046776 0.954486 -0.294563 0.000000
38.881199 13.103000 -734.689819 -0.925156 0.235209 -0.297932 0.000000
38.574699 12.734700 -734.580322 0.065894 0.511727 0.856617 0.000000
38.787498 12.752100 -734.612915 0.245031 0.510097 0.824476 0.000000
38.443600 12.757600 -735.797729 0.408693 0.457154 0.789924 0.000000
38.507599 12.916300 -735.956116 -0.701679 0.525009 0.481675 0.000000
39.214802 12.197400 -734.485413 -0.868867 0.174949 0.463102 0.000000
39.231899 12.340100 -734.679077 0.624563 0.772214 0.116644 0.000000
38.398300 12.718000 -736.317200 0.783909 0.571957 -0.241562 0.000000
39.257599 12.169900 -735.036621 -0.031025 0.987044 0.157421 0.000000
39.279499 12.288100 -735.186584 0.999111 0.041842 0.005103 0.000000
39.070801 12.466100 -735.722229 -0.693950 0.479912 0.536766 0.000000
38.823200 12.074600 -736.018127 0.886561 0.129915 -0.443995 0.000000
39.088402 11.210000 -734.786987 0.992052 0.003281 -0.125784 0.000000
38.569302 11.741600 -736.514587 0.599126 0.649472 0.468224 0.000000
39.166100 10.894600 -734.876221 0.350656 0.323332 -0.878918 0.000000
38.264702 10.895700 -736.034180 0.953077 0.150626 0.262596 0.000000
38.511002 11.321800 -736.358582 -0.978333 0.173953 0.112268 0.000000
39.183300 11.237600 -735.526184 0.977995 0.130482 0.162792 0.000000
38.246601 11.043800 -736.437317 -0.054756 0.917490 0.393973 0.000000
39.033699 10.687200 -735.073425 0.918783 0.040982 -0.392631 0.000000
39.070099 10.868700 -735.299927 -0.873014 0.441712 0.206727 0.000000
38.931400 10.453300 -735.058105 -0.946193 0.268202 -0.181070 0.000000
38.339802 10.398100 -736.249207 -0.376001 0.926619 0.001275 0.000000
38.216099 10.420800 -736.443420 0.124395 0.986865 0.103070 0.000000
39.093399 9.270900 -735.073608 0.374272 0.832242 0.409015 0.000000
38.889702 9.937100 -736.334412 -0.497042 0.741434 0.450805 0.000000
38.556702 9.752300 -736.487122 -0.420485 0.593332 0.686404 0.000000
38.982700 8.551200 -734.522522 -0.178331 0.891657 0.416107 0.000000
38.890400 8.604500 -734.721313 -0.233309 0.937426 0.258456 0.000000
38.792900 8.654600 -734.921997 0.004126 0.790824 0.612029 0.000000
39.087601 9.048700 -735.131897 -0.819844 0.383655 -0.425046 0.000000
39.197399 8.634300 -734.608093 -0.187096 0.927038 0.324956 0.000000
39.105202 8.663200 -734.770508 -0.159430 0.960533 0.227945 0.000000
38.979500 8.684600 -734.964783 -0.045475 0.936794 0.346913 0.000000
38.268398 9.207800 -736.666382 -0.394450 0.335669 -0.855415 0.000000
38.438702 9.125400 -736.490723 -0.615271 0.390936 0.684551 0.000000
38.927601 8.703800 -735.431580 -0.969452 0.193890 0.150233 0.000000
39.299599 8.458700 -734.883789 0.558798 0.498387 -0.662838 0.000000
39.190498 8.471400 -735.310120 -0.847307 0.527991 0.057421 0.000000
38.505001 8.626200 -736.418823 0.133876 0.876671 -0.462088 0.000000
38.407799 8.677400 -736.619629 -0.992012 0.121904 -0.032433 0.000000
38.836601 7.742100 -735.082214 -0.877846 0.212406 0.429268 0.000000
38.052399 8.157800 -736.903870 0.536030 0.774266 -0.336427 0.000000
37.960899 8.066000 -737.058411 -0.167050 0.946617 0.275700 0.000000
39.129902 7.810200 -735.318481 -0.210108 0.964411 -0.160518 0.000000
39.031200 7.659700 -736.257019 -0.645152 0.658352 0.387751 0.000000
38.916500 6.583600 -735.131714 -0.725522 0.499730 0.473167 0.000000
38.840698 6.758400 -735.487488 0.969270 0.237043 0.065776 0.000000
38.993000 7.212000 -735.963928 -0.972197 0.217842 0.085892 0.000000
38.914799 7.283300 -736.169373 -0.849890 0.080874 0.520717 0.000000
38.312599 7.229100 -736.860413 -0.249578 0.967876 -0.030436 0.000000
38.216400 6.842500 -736.732727 0.626876 0.304575 -0.717120 0.000000
38.911999 6.230800 -735.351379 -0.358674 0.380411 0.852432 0.000000
38.647598 6.014100 -735.369873 -0.075285 0.833818 0.546882 0.000000
39.231499 5.384800 -734.562805 0.044316 0.903778 0.425702 0.000000
39.167198 5.454000 -734.747925 -0.144400 0.946024 0.290150 0.000000
39.034500 5.471000 -734.943604 -0.188156 0.961833 0.198682 0.000000
38.807201 4.980800 -735.597107 0.969879 0.131271 0.205191 0.000000
38.838501 5.151100 -735.807983 0.273563 0.267834 -0.923812 0.000000
38.926102 5.341700 -735.976074 0.786676 0.265366 0.557425 0.000000
38.941799 5.458800 -736.128723 -0.892886 0.293654 0.341354 0.000000
38.887798 5.555700 -736.340881 -0.677938 0.412730 0.608321 0.000000
38.755402 5.522700 -736.462280 -0.638434 0.244339 0.729864 0.000000
38.496300 5.361600 -736.557922 -0.590505 0.730404 0.343241 0.000000
38.338200 5.252500 -736.600220 -0.865345 0.153223 0.477180 0.000000
38.214401 5.279400 -736.798828 0.511315 0.814664 -0.273640 0.000000
38.950500 4.384800 -735.464600 -0.219148 0.974663 -0.044798 0.000000
38.795300 4.357100 -735.623596 0.736769 0.058884 -0.673576 0.000000
38.833302 4.549100 -735.857178 -0.133193 0.165558 0.977164 0.000000
38.896999 4.716000 -736.020813 -0.073735 0.022441 0.997025 0.000000
38.875198 4.846400 -736.240601 -0.890837 0.153990 0.427429 0.000000
38.730000 4.851200 -736.434326 0.833609 0.029031 -0.551592 0.000000
38.596199 4.867700 -736.630676 0.763887 0.161853 -0.624724 0.000000
38.342201 4.713100 -736.729675 -0.602936 0.796887 0.037947 0.000000
39.140999 3.576300 -734.855896 0.404959 0.904456 -0.134046 0.000000
39.030399 3.581800 -735.006409 -0.415178 0.776627 0.473791 0.000000
38.876900 3.578400 -735.198975 -0.457307 0.803898 0.380287 0.000000
38.747501 3.600000 -735.397278 -0.333871 0.883776 0.327828 0.000000
38.656700 3.661200 -735.604126 0.089452 0.859026 0.504056 0.000000
38.675800 3.783500 -735.759277 0.561078 0.635214 0.530749 0.000000
38.733799 3.945400 -735.922485 0.080303 0.049502 0.995541 0.000000
38.798698 4.114100 -736.086914 0.992395 0.059974 -0.107500 0.000000
38.801899 4.219600 -736.237671 -0.986444 0.084079 0.140921 0.000000
38.730099 4.299400 -736.447388 0.735447 0.226411 -0.638636 0.000000
38.564602 4.232900 -736.562683 -0.451658 0.328908 0.829352 0.000000
38.396000 4.112300 -736.602600 -0.440154 0.330507 0.834883 0.000000
38.088100 3.850100 -736.613770 -0.194952 0.964294 0.179251 0.000000
38.121300 3.986200 -736.770996 0.004955 0.999928 0.010901 0.000000
38.160198 4.127800 -736.929016 -0.850476 0.525970 -0.006761 0.000000
38.381500 4.555900 -737.272888 -0.764226 0.516545 0.386187 0.000000
38.967701 3.652500 -735.618286 -0.048667 0.962108 0.268292 0.000000
38.866299 3.702500 -735.822388 0.172732 0.961234 0.214926 0.000000
38.857700 3.847700 -736.046509 0.988563 0.120785 0.090296 0.000000
38.800900 3.943200 -736.259888 0.971022 0.035156 -0.236391 0.000000
38.744499 4.039000 -736.473083 0.892875 0.197280 -0.404790 0.000000
38.584999 4.029700 -736.664673 0.247309 0.493082 -0.834092 0.000000
38.395000 3.938400 -736.775085 0.198308 0.938842 -0.281514 0.000000
38.270401 3.964900 -736.974487 0.137617 0.973421 0.183069 0.000000
39.072899 3.622200 -735.212280 -0.327785 0.910515 0.252031 0.000000
38.938900 3.627000 -735.399719 -0.011631 0.997110 0.075074 0.000000
38.795300 3.515400 -735.783875 0.925138 0.051470 -0.376126 0.000000
38.158501 3.687100 -736.857117 -0.028665 0.858582 0.511873 0.000000
38.282600 4.009800 -737.172119 -0.341976 0.750403 0.565639 0.000000
38.789501 3.515700 -735.993225 0.156943 0.334719 -0.929157 0.000000
38.836300 3.666700 -736.154907 -0.990897 0.021226 0.132939 0.000000
38.784199 3.767400 -736.370422 0.942869 0.105356 -0.316068 0.000000
38.716400 3.852000 -736.582275 0.776613 0.582850 -0.239078 0.000000
38.567799 3.854000 -736.776794 0.107448 0.772745 -0.625556 0.000000
38.274101 3.781700 -737.049072 -0.348525 0.565746 -0.747303 0.000000
38.965000 3.378700 -735.834717 0.337174 0.349380 -0.874212 0.000000
38.796101 3.486000 -736.210388 0.983689 0.036174 -0.176201 0.000000
38.749199 3.643800 -736.502930 0.918555 0.140780 -0.369374 0.000000
38.601700 3.595700 -736.622375 0.425767 0.350354 -0.834251 0.000000
38.420399 3.513100 -736.734802 0.531715 0.299982 -0.792017 0.000000
38.280300 3.472900 -736.856323 0.826411 0.401309 -0.394964 0.000000
38.160198 3.528200 -737.092529 -0.550615 0.248011 0.797066 0.000000
38.823700 2.983300 -735.628784 -0.581124 0.811300 -0.063938 0.000000
38.801300 3.104900 -735.836426 -0.940507 0.335988 0.050593 0.000000
38.846100 3.254500 -735.998474 -0.091667 0.222262 0.970668 0.000000
38.707001 3.421400 -736.423096 0.866091 0.059778 -0.496299 0.000000
38.204102 3.370800 -736.997009 -0.710294 0.086052 0.698626 0.000000
37.929600 3.142300 -737.015076 0.012007 0.879205 -0.476292 0.000000
37.739601 3.071700 -737.156311 -0.060057 0.919544 0.388371 0.000000
38.981899 3.414900 -736.092896 0.195969 0.106098 0.974853 0.000000
38.606998 3.391400 -736.617004 -0.843996 0.057386 0.533271 0.000000
38.755798 2.733800 -735.596985 -0.713757 0.120698 0.689915 0.000000
38.682400 2.799800 -735.788330 0.999626 0.003020 0.027180 0.000000
38.727501 2.950300 -735.950928 -0.991585 0.050996 -0.118990 0.000000
38.833199 3.214600 -736.202271 -0.957976 0.006102 0.286783 0.000000
38.508598 3.296200 -736.739197 -0.654145 0.092195 0.750730 0.000000
38.370098 3.309800 -736.937073 -0.673271 0.133455 0.727252 0.000000
37.921501 3.127500 -737.246521 0.666972 0.735303 0.120322 0.000000
38.729099 3.226100 -736.418823 -0.893366 0.081719 0.441835 0.000000
38.252102 3.152200 -736.923889 -0.552852 0.443278 0.705592 0.000000
37.875999 2.793700 -736.930481 -0.080081 0.717818 -0.691610 0.000000
38.739498 2.547200 -735.585571 0.792403 0.411533 -0.450265 0.000000
38.808102 2.974600 -736.123901 -0.973907 0.013049 -0.226573 0.000000
38.738201 3.058600 -736.336792 0.925031 0.169332 -0.340064 0.000000
38.645100 3.118600 -736.544617 0.851389 0.157883 -0.500210 0.000000
38.462502 3.087000 -736.733276 0.625419 0.289516 -0.724590 0.000000
37.682400 2.511300 -736.893188 -0.263015 0.862022 0.433291 0.000000
38.768398 2.638300 -735.792480 0.933947 0.194049 0.300147 0.000000
38.793900 2.768600 -735.950684 0.773732 0.451208 0.444692 0.000000
37.799999 2.634200 -737.033081 -0.194373 0.839271 0.507782 0.000000
38.779499 2.334900 -735.585205 -0.685051 0.612419 0.394523 0.000000
38.734501 2.427200 -735.777771 -0.998136 0.061026 -0.001034 0.000000
38.882198 2.787600 -736.114929 0.930896 0.346538 0.115513 0.000000
38.811001 2.870600 -736.327576 0.940459 0.270088 -0.206375 0.000000
38.726002 2.939400 -736.537170 0.847235 0.288585 -0.445995 0.000000
38.628700 2.995600 -736.744202 0.844090 0.017727 -0.535908 0.000000
38.161400 2.622200 -736.798279 -0.361861 0.896530 0.255519 0.000000
38.025200 2.639300 -736.998108 0.032000 0.994206 0.102621 0.000000
37.990501 2.759900 -737.218811 0.138321 0.801669 0.581545 0.000000
38.635700 2.271000 -735.729309 -0.367235 0.797012 0.479490 0.000000
38.515800 2.793800 -736.757202 0.341986 0.135970 -0.929816 0.000000
38.168098 2.750900 -737.140320 -0.061939 0.882292 0.466610 0.000000
38.132999 2.852800 -737.333984 -0.510380 0.608076 0.608076 0.000000
38.786301 2.417700 -735.993896 -0.910987 0.132940 -0.390423 0.000000
38.853001 2.590600 -736.160522 -0.968098 0.245416 0.050563 0.000000
38.804401 2.697000 -736.378113 -0.908977 0.154569 0.387130 0.000000
38.671200 2.768800 -736.653320 0.761815 0.015320 -0.647613 0.000000
38.338799 2.637200 -736.887390 0.303890 0.853051 -0.424212 0.000000
38.826000 2.144800 -735.571228 -0.292885 0.841462 0.454049 0.000000
38.835201 2.236200 -735.788574 -0.068826 0.967324 0.244021 0.000000
38.504101 2.783600 -737.010071 -0.671131 0.409307 0.618103 0.000000
38.039299 2.462200 -737.136719 0.639955 0.061562 -0.765942 0.000000
39.011501 2.285100 -735.813171 0.425030 0.886576 0.182573 0.000000
38.805000 2.378400 -736.213318 -0.955079 0.049335 -0.292216 0.000000
38.811298 2.489200 -736.366516 0.992959 0.096239 -0.069066 0.000000
38.717098 2.549200 -736.574402 0.828470 0.159150 -0.536944 0.000000
38.598999 2.584900 -736.777283 0.739664 0.015323 -0.672802 0.000000
38.354900 2.440200 -736.879028 0.824619 0.006815 -0.565648 0.000000
38.806000 2.042400 -735.886719 -0.334994 0.749286 0.571270 0.000000
38.762001 2.128800 -736.068481 0.034797 0.217180 0.975511 0.000000
38.562801 2.395100 -736.711121 0.667184 0.006935 -0.744860 0.000000
38.327599 2.506500 -737.174377 0.533225 0.430872 -0.728025 0.000000
38.616600 1.638400 -735.657593 0.707673 0.660178 -0.251723 0.000000
38.578899 1.764800 -735.890076 -0.964748 0.077129 -0.251618 0.000000
38.760101 2.369500 -736.538513 -0.802692 0.035021 0.595365 0.000000
37.751801 2.280400 -737.700317 -0.465241 0.692025 0.551953 0.000000
38.770401 1.560900 -735.558105 0.517740 0.400146 -0.756194 0.000000
38.576900 1.572300 -735.822571 -0.012070 0.993011 0.117406 0.000000
38.725300 1.882600 -736.084106 0.236741 0.050292 0.970270 0.000000
38.826801 2.091600 -736.258423 0.962222 0.161464 -0.219224 0.000000
38.660400 2.234700 -736.679871 0.822366 0.118316 -0.556521 0.000000
38.478298 2.205200 -736.870178 0.765758 0.280619 -0.578678 0.000000
38.394600 2.276300 -737.080872 0.852238 0.492305 -0.176992 0.000000
37.952400 2.319500 -737.710327 0.302340 0.873595 0.381343 0.000000
37.850601 2.359000 -737.898315 0.126936 0.959218 -0.252564 0.000000
38.734299 1.424500 -735.700806 0.101683 0.676415 -0.729467 0.000000
38.725498 1.640900 -736.026978 0.640407 0.304879 0.704931 0.000000
38.823502 2.003900 -736.429688 0.964115 0.207435 -0.165687 0.000000
38.727299 2.062300 -736.637878 -0.616589 0.630030 0.472102 0.000000
38.557201 2.045000 -736.830688 0.925980 0.376383 -0.029954 0.000000
38.422100 2.011400 -736.955078 0.192692 0.926891 -0.322091 0.000000
38.302101 2.045600 -737.158630 0.373686 0.916721 0.141357 0.000000
38.779301 1.252400 -735.635315 -0.133012 0.987585 0.083574 0.000000
38.767399 1.435400 -735.916687 0.912162 0.326290 0.247981 0.000000
38.837101 1.717700 -736.238098 -0.984771 0.114229 0.131062 0.000000
38.762798 1.798800 -736.451416 0.906456 0.038715 -0.420521 0.000000
38.645100 1.835200 -736.655396 -0.708614 0.518539 0.478523 0.000000
38.706799 2.107700 -736.972778 0.890444 0.351688 0.288833 0.000000
38.673401 0.940300 -735.529480 0.595846 0.595846 -0.538456 0.000000
38.586201 0.989600 -735.713074 0.236210 0.959358 0.154395 0.000000
38.784698 1.247600 -735.833923 0.534077 0.655381 0.534077 0.000000
38.797501 1.471700 -736.143616 -0.985164 0.089344 -0.146524 0.000000
38.570499 1.763800 -736.859680 0.850946 0.083816 -0.518523 0.000000
38.424900 1.771900 -737.058228 0.264128 0.963511 0.043401 0.000000
38.301498 1.773800 -737.219421 -0.703222 0.104673 0.703222 0.000000
38.718300 1.085600 -735.981323 -0.971535 0.228379 -0.062958 0.000000
38.767700 1.242300 -736.145813 -0.129953 0.157182 -0.978982 0.000000
38.857899 1.440800 -736.318726 0.912640 0.227075 0.339890 0.000000
38.798199 1.537200 -736.535522 0.883834 0.405524 -0.233213 0.000000
38.705502 1.599500 -736.744873 0.825323 0.391276 -0.407117 0.000000
38.556301 1.603800 -736.942627 0.964390 0.095800 -0.246526 0.000000
39.188499 0.737100 -735.265320 0.052736 0.901929 0.428653 0.000000
39.092098 0.796200 -735.474915 -0.238007 0.939500 0.246358 0.000000
38.913601 0.770200 -735.666016 -0.331698 0.924519 0.187727 0.000000
38.759399 0.769600 -735.862793 0.023292 0.962320 0.270921 0.000000
38.705601 0.873000 -736.081970 0.842362 0.493275 0.217041 0.000000
38.738998 1.013400 -736.243103 0.499058 0.122956 0.857801 0.000000
38.859798 1.191100 -736.346191 -0.900223 0.245248 -0.359795 0.000000
38.924000 1.362700 -736.513428 0.628778 0.763838 0.145564 0.000000
38.837200 1.431300 -736.724121 0.525093 0.850347 -0.034455 0.000000
39.002899 0.822900 -736.036926 0.797545 0.580444 0.164334 0.000000
38.950199 0.928400 -736.257385 -0.035343 0.968888 0.244964 0.000000
39.025002 1.111500 -736.427307 -0.801969 0.183437 -0.568504 0.000000
39.086601 1.333500 -736.670410 -0.475720 0.623647 0.620285 0.000000
38.997501 1.442800 -736.943298 -0.865227 0.298618 0.402752 0.000000
39.208599 1.323700 -736.894104 0.849891 0.232618 -0.472837 0.000000
39.086399 1.335800 -737.068115 0.439219 0.491859 -0.751772 0.000000
37.796398 0.954700 -737.958374 -0.498376 0.711727 0.495042 0.000000
38.711102 0.719000 -735.690002 -0.008882 0.935193 0.354028 0.000000
38.772800 2.200900 -736.420471 0.736285 0.672638 0.073773 0.000000
39.010502 4.565200 -735.398071 0.462256 0.314961 -0.828927 0.000000
38.905499 4.579800 -735.554626 -0.481357 0.652432 0.585344 0.000000
38.910599 4.942900 -736.084473 -0.978826 0.124983 0.162106 0.000000
38.930099 5.064700 -736.239319 -0.783136 0.530098 0.325106 0.000000
38.817799 5.103400 -736.440918 -0.583998 0.671013 0.456824 0.000000
38.674999 5.060300 -736.560913 -0.569787 0.696037 0.436892 0.000000
38.481701 5.017200 -736.745605 0.850998 0.101890 -0.515191 0.000000
38.390701 5.077700 -736.952087 0.707545 0.704686 0.052887 0.000000
39.035099 5.668800 -736.084900 0.993015 0.071334 0.093980 0.000000
38.702000 5.685700 -736.538879 0.637276 0.380390 -0.670211 0.000000
38.310001 5.492200 -736.757019 -0.842201 0.414069 0.345318 0.000000
39.189201 5.512900 -735.038086 -0.289476 0.898117 0.331042 0.000000
39.020500 5.544100 -735.302185 -0.622560 0.662404 0.416700 0.000000
38.227100 5.996900 -736.601624 -0.265672 0.956679 0.119094 0.000000
37.928001 6.558000 -736.781616 -0.751462 0.651463 -0.104411 0.000000
38.400501 7.466500 -736.891174 -0.757954 0.355443 0.546960 0.000000
38.996498 7.992100 -736.092224 -0.702781 0.358762 0.614319 0.000000
39.305099 7.881400 -734.608093 -0.106530 0.950879 0.290656 0.000000
38.919899 8.801200 -735.116577 0.266301 0.814477 0.515472 0.000000
38.737701 9.783000 -736.375610 -0.635457 0.318537 0.703369 0.000000
38.647800 9.886700 -736.649170 -0.179969 0.812128 0.555030 0.000000
38.674000 11.915600 -736.203186 -0.924932 0.373453 0.070943 0.000000
39.497700 12.583500 -735.365723 -0.012746 0.981469 -0.191195 0.000000
38.634102 12.317500 -736.067810 -0.721277 0.117486 0.682610 0.000000
39.292599 12.008600 -734.608582 0.400259 0.913133 -0.077338 0.000000
39.279800 12.580000 -735.352112 0.929344 0.224910 -0.292807 0.000000
39.176800 12.671300 -735.622986 0.978760 0.137348 -0.152197 0.000000
39.047100 12.274200 -734.910828 0.006690 0.871091 0.491076 0.000000
38.868401 12.914000 -736.116028 0.184472 0.453063 0.872183 0.000000
39.292400 12.569000 -734.763489 -0.812938 0.032071 -0.581467 0.000000
38.278702 13.076300 -736.294800 0.850616 0.521618 -0.066081 0.000000
39.009102 14.752200 -736.778076 0.316659 0.513975 0.797218 0.000000
39.204601 14.370000 -735.366394 -0.844495 0.216809 0.489716 0.000000
39.115700 14.606800 -734.406006 0.910937 0.233165 -0.340334 0.000000
39.276699 15.755700 -735.308777 0.681516 0.156339 0.714909 0.000000
39.152100 15.924800 -734.004883 -0.271259 0.756671 0.594867 0.000000
39.301300 16.422501 -734.154480 -0.068507 0.865428 0.496328 0.000000
38.512199 16.788401 -735.739075 0.821049 0.503223 0.269528 0.000000
39.178799 16.744200 -734.243591 -0.943705 0.279970 -0.176176 0.000000
38.448502 17.030100 -735.623291 0.984606 0.074825 -0.157964 0.000000
38.977200 18.465799 -733.825378 0.913716 0.168577 0.369736 0.000000
38.632801 18.972700 -735.056091 -0.557106 0.677562 0.480149 0.000000
39.046001 19.037701 -733.809692 0.907969 0.297767 0.294833 0.000000
39.251999 19.414200 -734.139771 -0.916420 0.394289 -0.068631 0.000000
39.202801 19.505699 -734.345581 0.837222 0.475096 -0.270820 0.000000
39.128601 19.573900 -734.546204 0.926179 0.231901 -0.297345 0.000000
38.990101 19.582100 -734.734192 0.622627 0.212718 -0.753052 0.000000
38.526299 19.425900 -735.075195 0.633714 0.392142 -0.666807 0.000000
38.746799 19.916000 -734.939880 0.671632 0.740873 0.004154 0.000000
39.203899 20.557699 -733.942688 -0.998893 0.044418 -0.015495 0.000000
39.119499 20.751200 -734.356079 -0.750919 0.507733 0.422289 0.000000
38.594101 20.490700 -734.610291 0.572985 0.813783 0.097190 0.000000
38.541500 20.577900 -734.815186 0.197806 0.036718 0.979553 0.000000
38.506302 21.230900 -734.682983 0.003875 0.915765 -0.401697 0.000000
38.346901 21.174500 -734.795227 -0.363523 0.799110 -0.478826 0.000000
39.081100 21.697001 -734.095581 -0.671562 0.561030 0.483993 0.000000
39.042099 23.217800 -733.363403 0.260278 0.107478 -0.959533 0.000000
38.923000 23.333599 -733.697510 0.883725 0.429405 -0.186124 0.000000
38.578701 23.334200 -734.129883 0.676796 0.129981 -0.724605 0.000000
38.381802 23.334900 -734.377625 0.793529 0.073183 0.604115 0.000000
38.903301 23.582199 -732.728088 0.034018 0.874932 0.483050 0.000000
38.489101 24.065001 -734.020325 0.716047 0.386830 -0.581068 0.000000
38.663502 25.535299 -733.232117 0.916769 0.285313 -0.279520 0.000000
38.539902 25.556601 -733.420471 0.623866 0.373661 -0.686417 0.000000
38.377399 25.499100 -733.530701 0.554421 0.311562 -0.771716 0.000000
38.564098 26.662100 -732.354797 -0.601035 0.657957 0.453706 0.000000
38.541599 26.772900 -732.562805 0.998892 0.023907 -0.040538 0.000000
38.363899 26.920000 -733.023071 0.757837 0.423930 -0.495950 0.000000
38.218102 26.921301 -733.206970 0.655843 0.635919 -0.406789 0.000000
38.096100 26.943701 -733.395691 0.740852 0.509852 -0.437251 0.000000
38.556801 26.958401 -732.379883 0.961308 0.234115 0.145177 0.000000
38.103298 29.087200 -732.451416 0.350734 0.037532 -0.935723 0.000000
37.449799 29.030800 -733.173584 0.780379 0.308002 -0.544191 0.000000
41.336399 31.976801 -732.069214 -0.218402 0.938991 0.265700 0.000000
37.355499 29.879499 -732.616882 -0.051348 0.859044 0.509320 0.000000
41.531601 32.475899 -731.218018 -0.544127 0.719439 0.431663 0.000000
41.466599 32.532600 -731.393677 -0.544127 0.719439 0.431663 0.000000
41.442200 32.634899 -731.594177 -0.549047 0.714923 0.432935 0.000000
41.403900 32.724899 -731.791626 0.634695 0.768315 0.082786 0.000000
38.345600 30.654600 -732.189880 -0.544127 0.719439 0.431663 0.000000
40.045898 32.357201 -732.457886 -0.447076 0.540148 -0.712996 0.000000
41.035099 33.504398 -731.815674 -0.438807 0.528225 -0.726930 0.000000
40.637402 33.321098 -732.009277 0.826038 0.278457 -0.490023 0.000000
39.542099 32.697399 -732.343628 0.698823 0.695778 0.165951 0.000000
36.579399 31.495701 -732.872070 0.939118 0.072443 -0.335870 0.000000
36.092899 31.413601 -733.347229 -0.409523 0.658221 0.631693 0.000000
39.013199 32.930401 -728.580078 0.981158 0.061098 -0.183293 0.000000
35.255299 33.317902 -733.544128 0.834809 0.031842 0.549617 0.000000
35.184502 33.482601 -733.658386 0.340240 0.695131 0.633269 0.000000
35.253300 33.540798 -733.434082 0.699219 0.272361 -0.660993 0.000000
35.377800 33.676601 -733.242615 0.433933 0.277533 -0.857133 0.000000
35.396999 33.725300 -732.460083 0.233407 0.368460 -0.899866 0.000000
35.648499 34.371899 -733.258606 -0.485823 0.653928 0.579961 0.000000
35.450100 34.239101 -733.284607 -0.523845 0.817446 0.239516 0.000000
35.294201 34.157799 -733.344788 -0.281529 0.880718 -0.380892 0.000000
37.668400 0.630800 -736.683228 0.278041 0.352384 -0.893599 0.000000
37.897800 0.570000 -736.620605 0.206513 0.921474 -0.328996 0.000000
38.095299 0.600100 -736.446228 0.570882 0.396492 -0.718949 0.000000
38.292000 0.631700 -736.270203 0.469297 0.472590 -0.745935 0.000000
38.514099 0.591100 -736.182678 -0.285295 0.262357 0.921833 0.000000
38.751400 0.508100 -736.147217 0.238699 0.469796 0.849891 0.000000
38.989300 0.424500 -736.112305 -0.110475 0.989624 0.091869 0.000000
37.650799 0.967700 -736.877380 0.420842 0.235132 -0.876131 0.000000
37.830101 1.050500 -736.637695 -0.637947 0.172048 0.750615 0.000000
38.033798 1.061900 -736.486328 0.595304 0.037819 -0.802610 0.000000
38.159302 1.098300 -736.349976 0.640808 0.257905 -0.723084 0.000000
38.382000 1.054800 -736.266296 0.368289 0.349798 -0.861397 0.000000
38.993698 0.698200 -736.383606 0.418001 0.110442 0.901708 0.000000
39.173000 0.585500 -736.430115 0.320201 0.932879 -0.164952 0.000000
37.614300 1.300400 -736.854187 -0.319832 0.036953 -0.946753 0.000000
37.814999 1.224700 -736.832214 -0.509560 0.238615 0.826687 0.000000
37.928902 1.295600 -736.652893 0.886278 0.251733 -0.388771 0.000000
38.027500 1.409300 -736.421082 0.787392 0.405822 -0.464028 0.000000
38.149502 1.455400 -736.272888 0.568136 0.320281 -0.758051 0.000000
38.361698 1.440300 -736.154480 0.387295 0.244842 -0.888850 0.000000
38.563999 1.453000 -736.002075 -0.250981 0.889571 -0.381669 0.000000
38.052299 1.586800 -736.353394 -0.814678 0.020747 0.579542 0.000000
39.007900 1.225200 -736.249329 0.580457 0.234984 0.779649 0.000000
39.277302 0.859600 -736.606628 0.677664 0.104824 0.727862 0.000000
37.503601 1.362400 -737.260620 -0.288877 0.931453 0.221238 0.000000
37.720402 1.336700 -737.154419 0.421482 0.195321 -0.885552 0.000000
37.833801 1.410400 -736.971130 0.127144 0.991271 -0.034880 0.000000
37.870602 1.504600 -736.808472 0.957036 0.169045 -0.235598 0.000000
38.057301 1.763200 -736.305481 0.484885 0.017461 -0.874404 0.000000
38.290199 1.687700 -736.261475 -0.184266 0.238066 0.953609 0.000000
38.525799 1.605400 -736.225891 0.057620 0.541066 0.839004 0.000000
37.644798 1.800000 -736.798584 -0.696339 0.376978 0.610737 0.000000
37.825500 1.815700 -736.655884 -0.923630 0.284965 -0.256325 0.000000
37.928299 1.917900 -736.437927 0.957279 0.132992 -0.256767 0.000000
38.216099 1.882500 -736.299316 -0.322061 0.044909 0.945653 0.000000
38.448502 1.808600 -736.253723 -0.226305 0.055047 0.972500 0.000000
37.727699 2.129200 -736.491272 -0.178297 0.894384 0.410228 0.000000
38.058102 2.065100 -736.367126 -0.402697 0.071862 0.912508 0.000000
38.341702 2.041300 -736.214600 0.459158 0.181596 -0.869596 0.000000
38.550598 2.034300 -736.086975 0.375749 0.291244 -0.879767 0.000000
38.217800 2.156400 -736.289490 -0.580861 0.248940 0.775003 0.000000
38.899799 1.977300 -736.102722 0.174113 0.972239 -0.156321 0.000000
39.115601 1.846800 -736.151978 0.525285 0.804392 -0.277539 0.000000
38.399101 2.293600 -736.140320 0.397948 0.245923 -0.883832 0.000000
38.567001 2.206300 -736.158081 -0.147644 0.262034 0.953698 0.000000
39.019001 1.898300 -736.312988 0.075769 0.354917 0.931823 0.000000
37.957100 2.314000 -736.603577 0.206434 0.975980 0.069626 0.000000
38.085899 2.341000 -736.479675 -0.226642 0.902183 0.367014 0.000000
38.115601 2.456200 -736.291321 0.691210 0.230403 -0.684940 0.000000
38.123001 2.636100 -736.022583 0.589379 0.394571 0.704944 0.000000
38.296501 2.530700 -736.063477 0.369465 0.674890 -0.638764 0.000000
38.948898 2.236500 -736.068176 0.455886 0.221172 -0.862120 0.000000
39.163601 2.017100 -736.249512 0.441691 0.253479 0.860615 0.000000
37.834599 2.540700 -736.629578 0.453709 0.716296 -0.530159 0.000000
38.042999 2.536300 -736.499817 0.821480 0.052135 -0.567850 0.000000
38.070702 2.657900 -736.303223 0.129552 0.851548 0.508018 0.000000
38.447102 2.563700 -736.195618 0.101442 0.507212 0.855830 0.000000
39.036301 2.401900 -736.047729 0.473935 0.281253 0.834436 0.000000
37.537800 2.949400 -736.564270 -0.554189 0.752462 0.355916 0.000000
37.743301 2.928700 -736.460327 0.385500 0.878334 -0.282700 0.000000
37.967400 2.876300 -736.390686 0.462257 0.388167 -0.797273 0.000000
38.177101 2.866600 -736.267822 0.465671 0.326759 -0.822423 0.000000
38.390400 2.846100 -736.158386 0.406977 0.001292 -0.913437 0.000000
38.619801 2.778400 -736.107910 0.169917 0.080741 -0.982145 0.000000
38.988098 2.508700 -736.263184 0.418871 0.893879 0.159775 0.000000
39.293499 2.382600 -736.248779 0.481663 0.866415 0.131626 0.000000
37.835701 3.019000 -736.615784 -0.139883 0.204050 0.968915 0.000000
37.960499 3.057600 -736.477295 0.766964 0.315432 -0.558811 0.000000
38.076199 3.122500 -736.306091 0.386214 0.783741 -0.486404 0.000000
38.198799 3.166500 -736.161072 0.400146 0.517740 -0.756194 0.000000
38.415100 3.135800 -736.064575 0.322203 0.205813 -0.924027 0.000000
38.964901 2.735300 -736.293823 0.381053 0.228043 0.895989 0.000000
39.083000 2.791600 -736.133484 -0.095523 0.416703 -0.904010 0.000000
39.183701 3.484800 -735.048279 0.270420 0.947148 -0.172579 0.000000
37.490501 3.328400 -736.644287 0.397724 0.291055 -0.870117 0.000000
38.006802 3.299600 -736.348083 -0.689271 0.582974 0.430171 0.000000
38.346298 3.310900 -736.109070 -0.328842 0.135084 0.934674 0.000000
38.570202 3.257500 -736.040894 -0.088513 0.033875 0.995499 0.000000
39.205799 2.807400 -736.286499 0.346526 0.390036 -0.853107 0.000000
38.101200 3.433300 -736.240417 -0.435553 0.072821 0.897213 0.000000
39.016602 3.016400 -736.253418 0.006082 0.280976 -0.959696 0.000000
37.458801 3.728600 -736.488281 0.580085 0.764441 -0.281302 0.000000
37.683498 3.657200 -736.446106 0.164150 0.793643 0.585820 0.000000
37.852001 3.563200 -736.474121 0.602906 0.267431 -0.751655 0.000000
38.046902 3.595700 -736.298279 -0.655553 0.363101 0.662125 0.000000
38.244999 3.617700 -736.135986 0.566835 0.034818 -0.823095 0.000000
38.464199 3.577300 -736.051819 0.306941 0.179165 -0.934712 0.000000
39.049999 3.210300 -736.207886 0.886148 0.230072 -0.402255 0.000000
37.639599 3.893900 -736.544983 -0.420426 0.529243 0.736983 0.000000
37.834599 3.807000 -736.545471 -0.062300 0.020063 0.997856 0.000000
38.115101 3.788400 -736.389404 -0.858559 0.132198 0.495378 0.000000
38.142601 3.909600 -736.192688 0.686591 0.355585 -0.634154 0.000000
38.353401 3.893300 -736.078674 0.496145 0.241160 -0.834076 0.000000
38.579102 3.833100 -736.019775 0.082972 0.167146 -0.982435 0.000000
39.135502 3.574200 -736.036987 0.845472 0.475482 0.243092 0.000000
38.571098 4.125300 -735.959900 0.301594 0.036595 -0.952734 0.000000
39.073700 3.846800 -736.041809 -0.065192 0.368535 0.927325 0.000000
39.863499 3.838500 -735.537415 0.228138 0.969271 -0.092011 0.000000
40.042702 3.820300 -735.447021 0.254810 0.953870 -0.158756 0.000000
38.724098 4.242700 -735.952515 0.012186 0.129614 0.991490 0.000000
38.983601 4.086000 -736.014221 0.845443 0.511987 0.151973 0.000000
39.834000 3.826600 -735.841125 0.127010 0.983421 -0.129429 0.000000
40.043301 3.793800 -735.752502 0.214784 0.940892 -0.261898 0.000000
40.231701 3.743300 -735.703918 0.470926 0.874983 -0.112396 0.000000
38.598900 4.479600 -735.975525 0.426730 0.006525 -0.904355 0.000000
38.600201 4.677800 -735.981384 -0.320541 0.042143 0.946297 0.000000
39.068699 4.508500 -735.926208 0.454020 0.890628 0.025447 0.000000
37.580002 4.864300 -736.473816 -0.647826 0.553597 0.523309 0.000000
37.742599 4.856800 -736.378784 0.350983 0.933747 0.070197 0.000000
37.908798 4.770000 -736.398499 0.069740 0.562186 0.824065 0.000000
38.123001 4.742400 -736.299377 -0.618194 0.236322 0.749658 0.000000
38.240299 4.797000 -736.141907 0.409051 0.680647 -0.607780 0.000000
38.457001 4.761800 -736.052490 0.446570 0.177164 -0.877034 0.000000
38.946301 4.374700 -735.872986 0.320242 0.247789 -0.914355 0.000000
38.978100 4.476200 -735.702026 -0.039950 0.989611 -0.138112 0.000000
37.735199 3.904500 -736.836121 -0.614830 0.690653 0.380766 0.000000
37.877998 3.921100 -736.717773 -0.137740 0.958935 0.247933 0.000000
38.077499 4.140900 -736.261719 -0.868681 0.375356 0.323266 0.000000
38.201099 4.180300 -736.122192 -0.511885 0.312202 0.800315 0.000000
38.757000 4.159400 -735.788025 0.169689 0.946184 -0.275574 0.000000
37.995899 3.954400 -736.464905 0.470590 0.678253 -0.564374 0.000000
38.365501 4.078800 -736.037903 0.407730 0.080455 -0.909551 0.000000
37.610100 3.882000 -736.979797 -0.496072 0.045347 0.867096 0.000000
39.662201 3.862500 -735.652710 -0.139150 0.929965 0.340298 0.000000
38.500401 4.296300 -736.035217 -0.410704 0.134079 0.901856 0.000000
37.585999 4.513900 -736.372009 -0.094052 0.920070 0.380296 0.000000
37.785500 4.436400 -736.355530 0.591778 0.756778 0.277644 0.000000
37.964901 4.320700 -736.408875 0.306413 0.927712 0.213218 0.000000
38.160099 4.354400 -736.229797 0.486386 0.453411 -0.746891 0.000000
39.055302 4.002300 -736.161987 0.716799 0.683739 -0.136748 0.000000
38.646000 4.851800 -735.918213 0.289700 0.003667 -0.957110 0.000000
38.993599 4.731100 -735.868408 -0.886168 0.242765 -0.394680 0.000000
37.435299 5.093300 -736.909973 0.126887 0.946979 -0.295180 0.000000
37.644100 5.104600 -736.755188 0.562036 0.551909 -0.616045 0.000000
37.771099 5.136000 -736.624390 -0.265043 0.935364 0.234192 0.000000
37.976398 5.141300 -736.480774 -0.809565 0.012370 0.586900 0.000000
38.069901 5.263600 -736.236328 0.782554 0.116425 -0.611600 0.000000
38.192101 5.306300 -736.091675 0.608398 0.225621 -0.760886 0.000000
38.403500 5.292700 -735.972473 0.473692 0.097566 -0.875270 0.000000
38.620602 5.263700 -735.872314 0.404972 0.291886 -0.866487 0.000000
39.016499 5.124000 -735.819580 0.300640 0.641473 -0.705781 0.000000
37.906898 5.606900 -736.377686 0.565409 0.779603 0.269317 0.000000
38.115200 5.602200 -736.247070 -0.695184 0.623212 0.358224 0.000000
38.235699 5.649000 -736.097473 -0.557468 0.483809 0.674654 0.000000
38.440800 5.652400 -735.956970 -0.408601 0.292295 0.864643 0.000000
38.661201 5.614000 -735.869019 0.092226 0.050002 -0.994482 0.000000
37.618099 5.707300 -736.942871 0.530739 0.178918 -0.828435 0.000000
37.765301 5.723600 -736.821228 -0.629196 0.272386 0.727955 0.000000
37.954800 5.772100 -736.623291 -0.544191 0.780379 0.308002 0.000000
38.064602 5.848900 -736.435486 -0.979178 0.024745 0.201491 0.000000
38.098000 5.945500 -736.268616 -0.973560 0.057412 0.221097 0.000000
38.191200 6.065800 -736.026672 -0.707716 0.676744 0.202868 0.000000
38.188400 6.259100 -735.738708 -0.473389 0.137529 -0.870051 0.000000
38.391602 6.080800 -735.871826 0.443099 0.807816 0.388711 0.000000
38.565498 5.982400 -735.904480 0.066227 0.404118 0.912306 0.000000
39.124298 5.735900 -735.905029 0.163141 0.912172 -0.375934 0.000000
37.845402 6.207400 -736.548584 -0.344380 0.507761 0.789672 0.000000
38.008499 6.239300 -736.393005 0.575045 0.400389 -0.713451 0.000000
38.098202 6.369200 -736.138794 -0.900261 0.041592 0.433360 0.000000
38.298401 6.384800 -735.983215 -0.655980 0.026689 0.754306 0.000000
38.510201 6.368900 -735.867310 0.289951 0.087115 -0.953068 0.000000
38.747799 6.284000 -735.837891 0.328160 0.055774 -0.942974 0.000000
39.293201 5.932100 -736.006226 0.285932 0.887737 0.360784 0.000000
39.507801 5.848700 -735.989685 0.507291 0.083371 0.857732 0.000000
37.857800 6.732800 -736.319275 -0.157552 0.855490 0.493269 0.000000
38.025799 6.650000 -736.333191 0.054976 0.973694 0.221128 0.000000
38.146702 6.694900 -736.185913 -0.778674 0.241873 0.578934 0.000000
38.260101 6.759100 -736.014587 0.767968 0.095082 -0.633391 0.000000
38.464802 6.762100 -735.875305 0.443035 0.126785 -0.887494 0.000000
38.699001 6.686200 -735.835022 0.192634 0.051449 -0.979921 0.000000
39.164001 6.364700 -736.011780 0.081898 0.990851 -0.107275 0.000000
39.349300 6.239200 -736.078125 0.233579 0.264350 -0.935714 0.000000
38.653198 7.134400 -735.804626 0.145777 0.126177 -0.981238 0.000000
39.143398 6.925800 -735.795288 0.118676 0.023291 0.992660 0.000000
39.343800 6.939600 -735.642517 0.256767 0.957279 0.132992 0.000000
39.567001 6.893700 -735.564514 -0.128459 0.867459 0.480639 0.000000
37.934502 7.390200 -736.438110 -0.159286 0.826205 -0.540383 0.000000
38.037998 7.482400 -736.230774 0.875498 0.020173 -0.482801 0.000000
38.153801 7.540500 -736.066711 -0.525943 0.178311 0.831619 0.000000
38.347900 7.571400 -735.891785 -0.480426 0.006654 0.877010 0.000000
38.559799 7.554000 -735.778015 0.432832 0.058344 -0.899585 0.000000
38.777802 7.520300 -735.684814 0.345609 0.389004 -0.853950 0.000000
37.891701 7.740700 -736.343323 0.543260 0.818672 -0.186131 0.000000
38.099098 7.736600 -736.211914 -0.074170 0.978804 0.190897 0.000000
38.221298 7.777300 -736.069580 -0.846020 0.386261 0.367495 0.000000
38.413399 7.813500 -735.887695 -0.587687 0.088081 0.804280 0.000000
38.624001 7.799700 -735.768982 0.387596 0.016852 -0.921675 0.000000
38.857800 7.723800 -735.728577 -0.229955 0.156370 0.960557 0.000000
39.253300 7.583600 -735.678284 0.154835 0.938604 0.308300 0.000000
38.077202 8.149900 -736.267578 0.064255 0.987191 0.146034 0.000000
38.181099 8.240300 -736.062073 -0.859740 0.017601 0.510428 0.000000
38.302799 8.282000 -735.918518 -0.825520 0.040508 0.562918 0.000000
38.513100 8.268700 -735.799011 0.459859 0.070429 -0.885194 0.000000
38.733898 8.227100 -735.715210 0.287138 0.211501 -0.934248 0.000000
39.201599 7.895100 -735.906372 0.336370 0.892502 0.300491 0.000000
39.437599 7.815500 -735.870117 0.272170 0.961832 -0.028325 0.000000
39.571499 8.003100 -735.497925 0.555785 0.542271 -0.630115 0.000000
38.246700 8.523500 -736.007385 0.813509 0.058007 -0.578652 0.000000
38.365200 8.573000 -735.853821 0.705821 0.244748 -0.664767 0.000000
38.481499 8.628100 -735.693420 -0.542415 0.515546 0.663324 0.000000
38.714500 8.553400 -735.651611 0.317697 0.360259 -0.877087 0.000000
38.879200 8.478900 -735.654785 0.169450 0.141836 -0.975279 0.000000
39.545502 8.344300 -735.415771 0.441033 0.560861 -0.700660 0.000000
37.946999 8.692400 -736.436707 0.375592 0.807122 -0.455505 0.000000
38.069599 8.732500 -736.294678 0.517846 0.568450 -0.639296 0.000000
38.297100 8.858600 -735.953125 0.842992 0.051726 -0.535433 0.000000
38.416302 8.905800 -735.802612 0.660210 0.055853 -0.749002 0.000000
38.624298 8.898000 -735.676575 0.400694 0.130753 -0.906834 0.000000
38.858898 8.819200 -735.640076 -0.200809 0.200809 0.958828 0.000000
39.449299 8.345800 -735.964478 0.139019 0.263474 -0.954597 0.000000
39.674500 8.295200 -735.891724 0.262344 0.943615 -0.201909 0.000000
39.906399 8.227300 -735.840576 0.285745 0.907056 -0.309190 0.000000
38.009201 9.327100 -736.020874 0.270970 0.587895 0.762204 0.000000
38.220501 9.310500 -735.906311 -0.457865 0.732253 0.504147 0.000000
38.426701 9.307500 -735.774475 -0.523289 0.405180 0.749665 0.000000
38.640301 9.284300 -735.668274 -0.386003 0.176499 0.905456 0.000000
38.868000 9.224000 -735.609070 -0.020827 0.273205 0.961730 0.000000
39.268600 8.889700 -735.850098 0.353336 0.387580 0.851431 0.000000
39.446499 8.782800 -735.894226 0.655934 0.592186 0.468045 0.000000
37.888500 9.555000 -736.365784 0.635655 0.507512 -0.581700 0.000000
37.987099 9.659100 -736.143005 -0.833358 0.379658 0.401713 0.000000
38.191700 9.660700 -736.005371 0.487748 0.682177 -0.544736 0.000000
38.377602 9.712100 -735.804688 -0.674286 0.365854 0.641474 0.000000
38.583099 9.710200 -735.671814 -0.465877 0.169009 0.868559 0.000000
38.796799 9.686300 -735.566772 0.266587 0.066963 -0.961482 0.000000
39.346298 9.320500 -735.758118 0.241718 0.187703 0.952019 0.000000
39.528301 9.203000 -735.815918 0.520430 0.136338 0.842950 0.000000
37.865200 9.925200 -736.284302 0.039245 0.998089 -0.047730 0.000000
38.081902 9.894600 -736.187195 -0.215369 0.596525 0.773158 0.000000
38.277401 9.920500 -736.018188 -0.897475 0.058561 0.437161 0.000000
38.346901 10.099700 -735.700317 0.761179 0.594130 -0.260030 0.000000
38.471500 10.130800 -735.570374 0.354414 0.532430 -0.768706 0.000000
38.705399 10.052500 -735.534119 0.097058 0.050203 -0.994012 0.000000
39.241402 9.911600 -735.392883 -0.001261 0.356781 0.934187 0.000000
37.997799 9.921900 -736.509277 0.393707 0.851217 -0.347023 0.000000
38.240501 10.002800 -736.224915 -0.870319 0.435909 -0.229189 0.000000
38.323799 10.145500 -735.952576 -0.965287 0.025627 0.259932 0.000000
38.633598 10.228500 -735.620300 -0.145730 0.755692 0.638507 0.000000
38.862400 10.164600 -735.565186 -0.012186 0.129614 0.991490 0.000000
39.280102 9.964100 -735.591980 0.240020 0.625934 -0.742022 0.000000
37.955700 10.344700 -736.202576 0.967129 0.252453 -0.030490 0.000000
38.111599 10.381100 -736.043274 0.943556 0.230035 -0.238299 0.000000
38.309898 10.398500 -735.884827 -0.857405 0.228339 0.461214 0.000000
38.412899 10.487100 -735.681519 0.868225 0.252163 -0.427317 0.000000
38.621799 10.475000 -735.560608 0.376830 0.466627 -0.800162 0.000000
38.832802 10.457200 -735.447021 0.281761 0.149644 -0.947743 0.000000
39.439201 10.144900 -735.517517 -0.730340 0.032491 -0.682310 0.000000
37.935600 10.920200 -735.617126 0.308634 0.914309 -0.262266 0.000000
38.088699 10.693700 -735.859375 0.340629 0.938362 0.058729 0.000000
38.254002 10.616900 -735.865723 0.282047 0.490855 -0.824325 0.000000
38.516800 10.642800 -735.650696 -0.878721 0.042233 0.475463 0.000000
38.700001 10.697700 -735.444580 0.310362 0.085120 -0.946800 0.000000
39.339298 10.276700 -735.658020 0.264584 0.110787 0.957978 0.000000
39.596298 10.142600 -735.690308 0.597352 0.408715 0.690016 0.000000
39.724998 9.988200 -735.839111 -0.401596 0.089091 -0.911473 0.000000
37.875999 10.896100 -735.862976 0.548491 0.812861 -0.195998 0.000000
38.252701 10.800600 -735.755798 -0.172308 0.974736 -0.142123 0.000000
38.901100 10.707600 -735.462830 0.161517 0.280959 -0.946031 0.000000
39.423801 10.239800 -735.824585 -0.616897 0.085640 0.782371 0.000000
38.431801 10.861700 -735.621277 0.299888 0.884595 -0.357153 0.000000
38.627899 10.882700 -735.457703 0.381577 0.285052 -0.879286 0.000000
39.436901 10.427400 -735.607483 -0.457631 0.201238 -0.866070 0.000000
38.059299 10.630500 -736.306396 0.973145 0.195133 0.122115 0.000000
38.053101 10.825500 -736.014282 -0.120732 0.991807 0.041748 0.000000
38.470100 10.986500 -735.490295 -0.606615 0.032222 0.794343 0.000000
38.835098 10.916600 -735.440674 -0.106960 0.140610 0.984271 0.000000
37.923801 10.911100 -736.237183 -0.366118 0.930172 0.027168 0.000000
38.244801 11.054200 -735.803284 -0.834317 0.260628 0.485786 0.000000
38.367199 11.092100 -735.663391 -0.740312 0.130116 0.659551 0.000000
