ply
format ascii 1.0
element vertex 689
property float x
property float y
property float z
property float nx
property float ny
property float nz
property float label
element face 0
property list uchar int vertex_indices
end_header
79.502403 64.571701 -765.326904 -0.095146 0.745068 -0.660168 1.000000
79.477402 63.928299 -766.005188 -0.466097 0.549627 -0.693299 1.000000
79.411003 61.819698 -768.372314 0.124147 0.836894 -0.533100 1.000000
79.394096 60.785702 -769.672974 0.192145 0.968463 -0.158616 1.000000
79.407097 60.324402 -770.438721 0.134991 0.893781 -0.427707 1.000000
79.387604 59.693501 -771.150696 0.137613 0.988729 -0.058977 1.000000
79.387398 59.159901 -771.898621 -0.006573 0.895195 -0.445626 1.000000
79.346703 58.466801 -772.506714 0.094189 0.468131 -0.878625 1.000000
79.309097 57.786201 -773.123779 -0.095036 0.993965 -0.054785 1.000000
79.237396 56.110100 -774.834717 -0.161718 0.918278 -0.361405 1.000000
79.040100 50.270599 -781.265930 0.001260 0.351537 -0.936173 1.000000
79.104103 49.196800 -783.353577 0.145387 0.926324 -0.347544 1.000000
79.172600 48.483799 -784.973572 -0.184553 0.978984 -0.086776 1.000000
79.175697 66.594299 -762.084473 0.061045 0.807780 -0.586315 1.000000
78.999199 57.155499 -773.695374 -0.030436 0.249578 -0.967876 1.000000
78.937401 55.518398 -775.429688 -0.059406 0.996942 -0.050765 1.000000
78.899399 54.820702 -776.063782 0.047393 0.318945 -0.946588 1.000000
78.862099 54.124001 -776.703430 -0.153443 0.954013 -0.257517 1.000000
78.844299 53.528999 -777.376221 -0.032773 0.969835 -0.241548 1.000000
78.828300 52.940498 -778.054871 -0.033393 0.436784 -0.898947 1.000000
78.813599 52.356800 -778.738892 0.230067 0.086747 -0.969301 1.000000
78.789101 49.841900 -782.034912 0.166709 0.815522 -0.554195 1.000000
78.881897 48.914299 -784.162415 0.039656 0.945348 -0.323644 1.000000
78.846603 67.106300 -760.647278 -0.157588 0.969873 -0.185775 1.000000
78.926498 65.702499 -763.321411 0.023133 0.965510 -0.259336 1.000000
78.965698 65.329903 -764.191589 -0.356391 0.775674 -0.520879 1.000000
78.919601 63.383202 -766.497375 0.157552 0.493269 -0.855490 1.000000
78.898399 62.752300 -767.189026 -0.019070 0.939511 -0.341987 1.000000
78.557297 51.776901 -779.461609 -0.195336 0.901439 -0.386331 1.000000
78.539497 51.170700 -780.148376 0.155175 0.248014 -0.956248 1.000000
78.689400 64.777199 -764.862671 -0.052630 0.772377 -0.632980 1.000000
78.671204 64.167702 -765.553894 0.042279 0.876954 -0.478711 1.000000
78.633904 62.257000 -767.898804 0.157902 0.795523 -0.584988 1.000000
78.611000 61.561401 -768.668518 -0.081114 0.838175 -0.539335 1.000000
78.616997 60.587399 -770.087402 -0.009133 0.906811 -0.421439 1.000000
78.605499 59.996899 -770.812378 -0.192342 0.181874 -0.964327 1.000000
78.598198 59.425400 -771.547485 -0.018304 0.962777 -0.269675 1.000000
78.549500 58.206699 -772.819885 0.041692 0.434409 -0.899750 1.000000
78.489799 56.757702 -774.316895 0.167386 0.396289 -0.902739 1.000000
78.262398 50.652401 -780.838623 -0.409647 0.860718 0.302249 1.000000
78.296700 49.526199 -782.724182 -0.038357 0.963882 -0.263552 1.000000
78.177597 67.246002 -759.867798 -0.048017 0.968951 -0.242546 1.000000
78.228798 66.689102 -761.109009 -0.200264 0.841712 -0.501413 1.000000
78.286003 66.406898 -762.017090 -0.204277 0.833752 -0.512961 1.000000
78.288803 65.908501 -762.743896 0.347836 0.928022 -0.133360 1.000000
78.282700 61.143299 -769.391174 0.156111 0.831107 -0.533752 1.000000
78.242599 58.864300 -772.237610 -0.110619 0.924557 -0.364633 1.000000
78.186302 57.658298 -773.430603 0.281432 0.850448 -0.444448 1.000000
78.120003 56.172798 -774.927429 -0.027220 0.926786 -0.374603 1.000000
78.075302 55.391300 -775.627075 0.087861 0.305547 -0.948115 1.000000
78.013000 54.623001 -776.150513 0.992176 0.115998 0.046174 1.000000
78.009903 54.054401 -776.922424 -0.017331 0.983257 -0.181400 1.000000
77.997704 53.490501 -777.606079 0.124092 0.342275 -0.931369 1.000000
77.971397 52.849701 -778.272888 0.083820 0.421849 -0.902783 1.000000
77.956802 52.267899 -778.959900 -0.007117 0.999412 -0.033551 1.000000
77.913300 50.169701 -781.521973 -0.170325 0.922010 -0.347689 1.000000
77.992500 49.228901 -783.553406 0.127843 0.906139 -0.403197 1.000000
78.018700 48.797600 -784.394470 -0.347205 0.892600 -0.287599 1.000000
77.916801 65.611198 -763.483582 -0.106096 0.913529 -0.392694 1.000000
77.922897 65.127502 -764.220703 0.052351 0.799412 -0.598498 1.000000
77.908699 63.817799 -765.942871 0.175342 0.267771 -0.947393 1.000000
77.902199 63.265999 -766.663513 -0.061868 0.884027 -0.463324 1.000000
77.891502 62.691601 -767.379089 -0.037631 0.826496 -0.561683 1.000000
77.867599 61.943699 -768.221497 -0.127098 0.343028 -0.930687 1.000000
77.507103 51.671501 -779.503296 0.111644 0.163172 -0.980260 1.000000
77.498299 51.117500 -780.206177 -0.849704 0.405434 -0.337085 1.000000
77.512001 49.773800 -782.224915 0.103896 0.963287 -0.247556 1.000000
77.296799 67.305801 -759.270081 0.100048 0.968815 -0.226690 1.000000
77.355301 67.079002 -760.111816 -0.174617 0.915673 -0.362010 1.000000
77.405403 66.506302 -761.368713 -0.096974 0.978337 -0.182901 1.000000
77.444397 66.134201 -762.242310 0.028610 0.862386 -0.505443 1.000000
77.497803 64.651703 -764.816284 -0.038885 0.957067 -0.287246 1.000000
77.476402 61.582600 -768.970276 0.194996 0.826844 -0.527547 1.000000
77.475403 61.052601 -769.712280 0.078370 0.900566 -0.427597 1.000000
77.451897 60.406101 -770.418030 -0.007357 0.997340 -0.072515 1.000000
77.449699 59.865898 -771.163391 0.005690 0.984306 -0.176379 1.000000
77.435699 59.263199 -771.891785 -0.034360 0.856258 -0.515404 1.000000
77.399498 58.597900 -772.511719 -0.171480 0.836525 -0.520405 1.000000
77.395103 58.040001 -773.262573 0.042986 0.533864 -0.844477 1.000000
77.366600 57.409199 -773.901978 0.169923 0.489083 -0.855526 1.000000
77.343803 56.805401 -774.553772 0.089121 0.749492 -0.655988 1.000000
77.285500 56.014500 -775.154419 0.170158 0.350160 -0.921105 1.000000
77.226196 55.160000 -775.836121 0.073724 0.301364 -0.950655 1.000000
77.208397 54.573399 -776.507690 -0.999984 0.002956 -0.004926 1.000000
77.184196 53.896000 -777.251526 0.006015 0.965957 -0.258631 1.000000
77.163902 53.291698 -777.926819 -0.117821 0.389502 -0.913459 1.000000
77.128998 52.607300 -778.585022 -0.132872 0.848340 -0.512508 1.000000
77.059303 50.609600 -780.792480 -0.113639 0.942538 -0.314179 1.000000
77.131798 49.522999 -782.976074 0.293897 0.857070 -0.423150 1.000000
77.094704 65.735001 -762.989380 -0.090412 0.891597 -0.443712 1.000000
77.122803 65.309097 -763.843628 -0.178709 0.866960 -0.465234 1.000000
77.135902 64.191002 -765.546875 -0.098121 0.628266 -0.771786 1.000000
77.099297 63.493000 -766.212097 -0.067105 0.897019 -0.436869 1.000000
77.097198 62.964100 -766.944397 0.006810 0.554373 -0.832241 1.000000
77.097801 62.446800 -767.683777 -0.092244 0.745272 -0.660349 1.000000
76.742500 52.056599 -779.274170 0.080721 0.853944 -0.514066 1.000000
76.719704 51.432598 -779.957886 0.097402 0.594585 -0.798111 1.000000
76.705399 50.229198 -781.538086 -0.021436 0.989449 -0.143284 1.000000
76.526497 67.452202 -758.659119 0.104400 0.978903 -0.175638 1.000000
76.626099 66.759003 -760.525696 -0.105323 0.920552 -0.376154 1.000000
76.693604 66.268799 -761.819885 0.084546 0.823966 -0.560297 1.000000
76.748497 61.995499 -768.374023 0.062699 0.865246 -0.497412 1.000000
76.549599 55.708199 -775.539673 -0.032832 0.395291 -0.917969 1.000000
76.392303 49.937000 -782.341187 0.122249 0.924420 -0.361252 1.000000
76.190002 67.172699 -759.476685 -0.220434 0.933684 -0.282211 1.000000
76.330200 65.850403 -762.581909 0.171020 0.785481 -0.594787 1.000000
76.366501 64.946297 -764.180176 0.105635 0.917790 -0.382756 1.000000
76.388702 64.538696 -764.952515 0.142373 0.774811 -0.615952 1.000000
76.373901 61.548100 -769.054016 -0.164841 0.901606 -0.399917 1.000000
76.371002 61.007198 -769.793884 -0.076471 0.880115 -0.468561 1.000000
76.361099 60.429298 -770.524597 0.074037 0.873073 -0.481936 1.000000
76.353203 59.859600 -771.261719 0.130325 0.928738 -0.347076 1.000000
76.330002 59.210201 -771.976501 0.003966 0.466669 -0.884423 1.000000
76.324501 58.647999 -772.723816 0.206757 0.939427 -0.273364 1.000000
76.306602 58.074299 -773.378174 0.090636 0.444815 -0.891025 1.000000
76.273003 57.417900 -774.010925 0.037659 0.564883 -0.824311 1.000000
76.235298 56.737999 -774.641296 -0.203749 0.978233 0.039320 1.000000
76.163498 55.169300 -776.229675 0.169722 0.430834 -0.886328 1.000000
76.115700 54.482601 -776.781189 -0.993698 0.025366 0.109185 1.000000
76.128601 53.997799 -777.580627 0.049732 0.904581 -0.423392 1.000000
76.081398 53.308701 -778.140320 -0.121891 0.903674 -0.410506 1.000000
76.033897 52.559700 -778.782776 -0.983458 0.057990 0.171602 1.000000
75.999603 51.200901 -780.403198 0.087495 0.949391 -0.301663 1.000000
75.993698 50.661201 -781.114990 0.357731 0.833656 -0.420768 1.000000
75.843300 66.606499 -760.883789 0.083820 0.902783 -0.421849 1.000000
75.939201 65.470299 -763.320129 -0.215166 0.822515 -0.526471 1.000000
75.958900 64.010902 -765.546875 -0.052243 0.814716 -0.577502 1.000000
75.950600 63.449100 -766.265625 0.129758 0.747230 -0.651775 1.000000
75.956497 62.955502 -767.012512 -0.049440 0.806585 -0.589047 1.000000
75.955498 62.426300 -767.749084 0.155624 0.983208 -0.095305 1.000000
75.807999 56.169498 -775.273926 0.161447 0.901529 -0.401473 1.000000
75.622803 52.050900 -779.459412 -0.319080 0.944110 -0.082725 1.000000
75.625397 50.365002 -781.855896 0.034860 0.998261 -0.047536 1.000000
75.302299 68.438400 -756.954773 0.896624 0.392182 0.205568 1.000000
75.342598 68.063004 -757.828613 0.413139 0.658699 -0.628834 1.000000
75.343597 67.554398 -758.549500 0.319922 0.922796 -0.214703 1.000000
75.389503 66.947197 -759.796570 -0.011800 0.903354 -0.428733 1.000000
75.493599 66.253799 -761.666809 0.035020 0.932572 -0.359280 1.000000
75.601196 64.799004 -764.633423 -0.006805 0.828877 -0.559390 1.000000
75.596802 61.997200 -768.519104 0.117284 0.705190 -0.699251 1.000000
75.594704 61.350800 -769.406006 0.104102 0.784431 -0.611417 1.000000
75.602501 60.804501 -770.238770 0.032205 0.796720 -0.603491 1.000000
75.585098 60.184101 -770.957214 -0.011969 0.887066 -0.461487 1.000000
75.570702 59.576599 -771.684082 -0.161654 0.875261 -0.455835 1.000000
75.564499 59.007401 -772.427429 -0.041162 0.407641 -0.912214 1.000000
75.543800 58.417400 -773.075012 -0.208705 0.854340 -0.475968 1.000000
75.496101 57.688599 -773.683289 0.079749 0.382526 -0.920496 1.000000
75.471497 57.074100 -774.331909 0.195079 0.884454 -0.423893 1.000000
75.425102 55.631100 -775.952393 -0.161261 0.985225 -0.057677 1.000000
75.392799 54.967999 -776.601318 0.139214 0.842610 -0.520220 1.000000
75.348198 54.294998 -777.158813 0.081231 0.097249 -0.991940 1.000000
75.313599 53.615002 -777.812622 -0.064446 0.961642 -0.266631 1.000000
75.288902 52.982700 -778.484375 -0.100236 0.939542 -0.327436 1.000000
75.276802 51.677898 -780.207275 0.005555 0.989979 -0.141108 1.000000
75.273300 51.148102 -780.919128 0.096540 0.945566 -0.310780 1.000000
75.254601 65.870796 -762.488708 -0.116354 0.926724 -0.357275 1.000000
75.305298 65.178001 -763.892578 -0.018624 0.954777 -0.296738 1.000000
74.997200 66.739098 -760.586182 -0.090463 0.947893 -0.305476 1.000000
75.134598 64.275299 -765.208313 -0.044002 0.742362 -0.668552 1.000000
75.123299 63.696999 -765.919922 -0.082848 0.640981 -0.763073 1.000000
75.129997 63.204201 -766.666504 0.020344 0.863944 -0.503176 1.000000
75.134003 62.696400 -767.410217 0.040153 0.936476 -0.348426 1.000000
75.034203 56.659901 -774.989502 0.044485 0.899132 -0.435412 1.000000
74.836998 52.477402 -779.142090 0.046494 0.595964 -0.801664 1.000000
74.851402 50.788799 -781.625488 -0.055548 0.969007 -0.240709 1.000000
74.761200 67.254601 -759.124390 -0.160694 0.923643 -0.347938 1.000000
74.541603 68.246902 -757.359375 -0.252024 0.887302 -0.386237 1.000000
74.550499 67.774498 -758.096375 -0.148381 0.885962 -0.439380 1.000000
74.755798 65.432503 -763.130920 -0.146301 0.834949 -0.530525 1.000000
74.831802 62.286800 -768.181885 -0.046158 0.832238 -0.552494 1.000000
74.832298 61.759701 -768.923889 0.060047 0.853223 -0.518078 1.000000
74.832497 61.122398 -769.816528 0.093136 0.838220 -0.537320 1.000000
74.840698 60.575802 -770.651123 0.039425 0.882306 -0.469022 1.000000
74.806999 59.927299 -771.270081 0.035637 0.914695 -0.402571 1.000000
74.807503 59.338200 -772.098389 0.063808 0.818162 -0.571437 1.000000
74.776497 58.697899 -772.728821 0.232062 0.514840 -0.825280 1.000000
74.717300 57.423100 -774.004578 0.201015 0.142119 -0.969224 1.000000
74.686302 56.060200 -775.645081 0.095748 0.128846 -0.987031 1.000000
74.582397 54.033798 -777.590515 0.149634 0.188002 -0.970703 1.000000
74.534103 53.337799 -778.149719 -0.136024 0.163478 -0.977125 1.000000
74.507301 51.958099 -779.849976 0.153247 0.915262 -0.372572 1.000000
74.405998 66.859398 -759.830872 -0.071801 0.943859 -0.322452 1.000000
74.492599 66.388496 -761.232178 -0.079159 0.887415 -0.454123 1.000000
74.519501 65.998001 -762.009277 -0.103110 0.914246 -0.391820 1.000000
74.604797 64.846100 -764.353699 -0.074898 0.846489 -0.527112 1.000000
74.576103 58.174198 -773.456970 0.162418 0.832950 -0.528975 1.000000
74.471603 55.513599 -776.290710 0.150180 0.945726 -0.288182 1.000000
74.451599 54.913399 -776.959778 0.036534 0.466829 -0.883592 1.000000
74.338501 51.582298 -780.659973 0.230948 0.969981 -0.076150 1.000000
74.080101 68.593803 -756.263428 -0.380766 0.690653 0.614830 1.000000
73.996101 67.360199 -758.716125 -0.033474 0.898432 -0.437835 1.000000
74.241203 64.362198 -765.001526 -0.131353 0.810257 -0.571165 1.000000
74.240601 63.835899 -765.733398 -0.040286 0.840450 -0.540389 1.000000
74.231796 63.268700 -766.452881 -0.101238 0.859806 -0.500484 1.000000
74.257202 62.864300 -767.234985 0.069033 0.944315 -0.321719 1.000000
74.165199 57.044701 -774.600830 0.096322 0.370365 -0.923878 1.000000
73.985603 52.973202 -778.772278 0.113542 0.944402 -0.308567 1.000000
73.896202 66.544701 -760.544128 -0.201944 0.899304 -0.387906 1.000000
73.995499 65.660896 -762.622314 -0.168578 0.869278 -0.464690 1.000000
74.050301 65.243401 -763.671692 0.117811 0.839221 -0.530876 1.000000
74.101097 61.486198 -769.354797 0.023809 0.763276 -0.645634 1.000000
74.108101 60.880402 -770.260986 -0.093215 0.836069 -0.540648 1.000000
73.967499 56.444000 -775.268372 -0.089344 0.985164 0.146524 1.000000
73.814201 52.487499 -779.497925 0.322895 0.037012 -0.945711 1.000000
73.536797 68.244003 -756.924805 -0.209630 0.846060 -0.490141 1.000000
73.572998 67.842201 -757.789917 -0.015072 0.826220 -0.563145 1.000000
73.619301 66.968803 -759.397278 -0.085972 0.869588 -0.486236 1.000000
73.895401 62.505100 -767.944824 0.017124 0.902314 -0.430740 1.000000
73.880096 60.293598 -770.894714 0.103020 0.955865 -0.275153 1.000000
73.904099 59.872700 -771.683716 0.079551 0.920908 -0.381577 1.000000
73.881500 59.220901 -772.400330 -0.121643 0.030132 -0.992116 1.000000
73.869698 58.619900 -773.137573 0.191379 0.135613 -0.972103 1.000000
73.848503 57.915199 -773.940002 0.223259 0.400683 -0.888599 1.000000
73.738998 55.826900 -775.922180 -0.127155 0.012163 -0.991808 1.000000
73.711304 55.187599 -776.578430 0.122574 0.313843 -0.941530 1.000000
73.667000 54.461498 -777.215027 0.002967 0.010880 -0.999936 1.000000
73.651398 53.877602 -777.895874 0.254562 0.321475 -0.912059 1.000000
73.628601 52.007099 -780.308105 0.033829 0.983363 -0.178475 1.000000
73.508698 66.289001 -761.280823 -0.025356 0.892801 -0.449737 1.000000
73.624496 64.793800 -764.333008 0.040473 0.822021 -0.568018 1.000000
73.674301 61.963100 -768.683594 -0.069915 0.897922 -0.434567 1.000000
73.120399 67.389397 -758.409302 -0.057891 0.908747 -0.413312 1.000000
73.298599 65.810402 -762.081604 -0.287519 0.812280 -0.507478 1.000000
73.403801 64.145699 -765.260925 0.004122 0.795520 -0.605914 1.000000
73.402000 63.607399 -765.989624 -0.052321 0.801780 -0.595325 1.000000
73.400703 63.069599 -766.721375 0.025447 0.890628 -0.454020 1.000000
73.238503 53.488400 -778.596985 0.225527 0.952074 -0.206620 1.000000
72.807098 68.581299 -756.225281 0.461232 0.457949 -0.759966 1.000000
72.938400 66.704201 -759.903625 -0.042193 0.883332 -0.466846 1.000000
73.091904 65.474403 -762.876221 -0.013919 0.940182 -0.340389 1.000000
73.123497 65.095596 -763.661499 -0.212967 0.874206 -0.436358 1.000000
73.200104 61.462299 -769.302429 0.195603 0.855576 -0.479302 1.000000
73.221603 61.026699 -770.081116 0.309381 0.794871 -0.521981 1.000000
73.166397 57.531700 -774.432312 0.163871 0.851834 -0.497518 1.000000
73.140099 56.902500 -775.079285 0.251825 0.423730 -0.870079 1.000000
73.002502 53.001900 -779.302612 0.268223 0.323919 -0.907267 1.000000
72.528297 68.132896 -757.014526 -0.192917 0.815719 -0.545331 1.000000
72.542900 67.678703 -757.762207 -0.162264 0.872715 -0.460478 1.000000
72.568901 66.962502 -758.966614 0.051467 0.849908 -0.524411 1.000000
72.686302 66.404602 -760.714478 -0.171681 0.873081 -0.456350 1.000000
72.843399 64.506203 -764.640686 -0.046515 0.807678 -0.587786 1.000000
72.875504 62.746101 -767.336426 -0.214482 0.835112 -0.506543 1.000000
72.880096 62.233200 -768.082092 -0.145012 0.784857 -0.602471 1.000000
72.942596 60.596401 -770.859375 0.151684 0.905849 -0.395512 1.000000
72.939201 60.038101 -771.601624 0.167260 0.920631 -0.352792 1.000000
72.945801 59.526402 -772.362183 -0.055639 0.899724 -0.432899 1.000000
72.925102 58.933498 -773.007080 -0.099661 0.885723 -0.453389 1.000000
72.905098 58.342098 -773.656372 0.077905 0.973191 -0.216402 1.000000
72.825996 56.347198 -775.749023 0.030124 0.920748 -0.388993 1.000000
72.801903 55.724998 -776.406372 0.139938 0.903239 -0.405680 1.000000
72.787003 55.146301 -777.080627 0.153067 0.324061 -0.933571 1.000000
72.747398 54.440601 -777.723389 0.123819 0.248941 -0.960571 1.000000
72.368599 65.965202 -761.421570 -0.289129 0.864328 -0.411512 1.000000
72.405403 65.611198 -762.217285 -0.123720 0.981185 -0.148219 1.000000
72.504402 63.965199 -765.316101 -0.102800 0.829641 -0.548751 1.000000
72.504501 63.435299 -766.049377 -0.237292 0.834349 -0.497548 1.000000
72.591904 61.931099 -768.855286 0.333621 0.793348 -0.509211 1.000000
72.455002 54.113701 -778.520325 0.059229 0.988304 -0.140523 1.000000
71.852303 68.260399 -756.379211 -0.093974 0.986131 -0.136797 1.000000
71.923103 67.287003 -758.324219 -0.264859 0.831749 -0.487897 1.000000
71.964798 66.646500 -759.564026 -0.267444 0.929686 -0.253293 1.000000
72.142601 65.223801 -763.028320 -0.253919 0.875945 -0.410177 1.000000
72.181702 64.882500 -763.830017 -0.113782 0.856965 -0.502657 1.000000
72.216499 62.990700 -766.752625 -0.254756 0.909843 -0.327544 1.000000
72.311699 61.529900 -769.580383 0.183691 0.797005 -0.575362 1.000000
72.342903 61.145199 -770.376221 0.252730 0.820208 -0.513212 1.000000
72.268303 57.967800 -774.172791 0.189050 0.818208 -0.542951 1.000000
72.248299 57.376099 -774.828796 0.129289 0.501177 -0.855632 1.000000
71.636200 67.861298 -757.136902 -0.089077 0.728683 -0.679033 1.000000
71.766502 66.333099 -760.361572 -0.180548 0.927932 -0.326106 1.000000
71.945198 64.397499 -764.560730 -0.328611 0.869674 -0.368350 1.000000
72.008102 62.640099 -767.541016 0.237301 0.906986 -0.347945 1.000000
72.087402 60.570702 -771.094727 -0.001253 0.940631 -0.339429 1.000000
72.086098 60.027401 -771.842224 0.089717 0.514095 -0.853028 1.000000
72.068100 59.400700 -772.566284 0.130658 0.928359 -0.347963 1.000000
72.039001 58.771400 -773.200989 -0.052331 0.950897 -0.305053 1.000000
71.978600 56.781601 -775.473389 0.010950 0.271328 -0.962425 1.000000
71.956596 56.176601 -776.133484 0.089540 0.953800 -0.286789 1.000000
71.937401 55.583599 -776.801270 0.065164 0.991172 -0.115465 1.000000
71.928101 54.981300 -777.563721 0.098105 0.865886 -0.490527 1.000000
71.590103 65.615501 -761.649597 -0.240686 0.893342 -0.379486 1.000000
71.737396 63.633400 -765.652405 -0.260030 0.761179 -0.594130 1.000000
71.837303 62.312000 -768.335205 0.138877 0.852264 -0.504341 1.000000
71.211998 67.379700 -757.729492 -0.183586 0.929141 -0.320925 1.000000
71.234001 66.806900 -758.714111 -0.266474 0.818123 -0.509574 1.000000
71.528702 54.605099 -778.244629 -0.760549 0.645096 -0.073601 1.000000
70.954803 68.026299 -756.602478 -0.274560 0.961563 -0.003629 1.000000
71.034103 66.428001 -759.511475 -0.176321 0.958496 -0.224047 1.000000
71.120102 65.995399 -760.841980 -0.107696 0.899334 -0.423792 1.000000
71.185997 65.262100 -762.424500 -0.231901 0.926179 -0.297345 1.000000
71.228500 64.940102 -763.234314 -0.382003 0.872063 -0.305907 1.000000
71.245003 64.495697 -763.996277 -0.930937 0.233087 -0.281117 1.000000
71.256500 63.922100 -764.897400 -0.095380 0.933652 -0.345250 1.000000
71.316597 63.261799 -766.329224 0.368456 0.853511 -0.368456 1.000000
71.416397 61.944401 -769.016296 0.038819 0.900864 -0.432361 1.000000
71.449699 61.574501 -769.815125 0.155088 0.846335 -0.509573 1.000000
71.447899 61.034199 -770.557373 0.167089 0.808351 -0.564491 1.000000
71.409103 58.482899 -773.808289 0.239128 0.526082 -0.816122 1.000000
71.375999 57.831501 -774.442871 0.127479 0.396446 -0.909164 1.000000
71.098999 62.975101 -767.138672 0.249331 0.868882 -0.427641 1.000000
71.199997 60.605801 -771.323425 0.009664 0.791096 -0.611615 1.000000
71.186501 60.006302 -772.052185 0.030574 0.902610 -0.429371 1.000000
71.176804 59.423302 -772.790283 0.226544 0.748376 -0.623387 1.000000
71.102097 57.326801 -775.109070 0.173336 0.920231 -0.350900 1.000000
71.078300 56.717899 -775.764587 0.143593 0.213449 -0.966344 1.000000
71.033302 56.000801 -776.393188 0.060148 0.295621 -0.953410 1.000000
71.031097 55.439301 -777.164124 0.205892 0.244071 -0.947649 1.000000
70.432198 67.624397 -757.171875 -0.141923 0.790286 -0.596076 1.000000
70.441704 67.051003 -758.059875 -0.343456 0.835901 -0.428144 1.000000
70.436600 66.460602 -758.848389 -0.307464 0.916617 -0.255498 1.000000
70.530602 66.066597 -760.197571 -0.187338 0.910950 -0.367526 1.000000
70.568398 65.465599 -761.364319 -0.293169 0.894390 -0.337814 1.000000
70.787498 63.734402 -765.653687 0.352553 0.918903 -0.176984 1.000000
70.855301 62.537498 -767.913086 0.071684 0.912960 -0.401703 1.000000
70.348503 65.089500 -762.190491 -0.412746 0.839616 -0.353109 1.000000
70.379204 64.714104 -762.980286 -0.064344 0.936264 -0.345354 1.000000
70.454903 64.238098 -764.294128 0.526679 0.807991 -0.264121 1.000000
70.648003 61.756001 -769.436584 -0.171243 0.873776 -0.455183 1.000000
70.664497 61.308300 -770.209290 -0.103651 0.870385 -0.481338 1.000000
70.643898 58.973400 -773.334412 -0.081414 0.437430 -0.895559 1.000000
70.626701 58.243698 -774.219482 0.211876 0.473341 -0.855019 1.000000
70.829201 57.680901 -776.729919 -0.932974 0.132501 0.334669 1.000000
69.913597 68.147202 -756.197998 -0.218438 0.951088 -0.218438 1.000000
70.345596 63.519699 -766.437927 0.254721 0.889288 -0.379847 1.000000
70.383904 62.189701 -768.650330 0.188523 0.831009 -0.523339 1.000000
70.424797 60.809799 -770.955994 -0.067271 0.788642 -0.611162 1.000000
70.430298 60.307800 -771.715210 -0.032205 0.936530 -0.349105 1.000000
70.422501 59.739498 -772.455872 -0.006273 0.942205 -0.334978 1.000000
70.326302 56.524300 -776.199280 0.150986 0.929464 -0.336602 1.000000
70.304100 55.869099 -776.940186 0.250754 0.940675 -0.228588 1.000000
69.651604 67.274399 -757.405212 -0.138389 0.855097 -0.499657 1.000000
69.643097 66.672600 -758.187378 -0.196054 0.711661 -0.674612 1.000000
69.657501 66.123001 -759.090698 -0.536493 0.837276 -0.105563 1.000000
69.706100 65.832397 -759.916199 -0.437330 0.841978 -0.315936 1.000000
69.742104 65.484299 -760.717224 -0.408183 0.808362 -0.424190 1.000000
70.024399 64.119499 -765.057922 0.385255 0.882937 -0.268329 1.000000
70.115097 63.148499 -767.208679 0.191611 0.865963 -0.461946 1.000000
70.101501 57.738899 -774.772583 0.159930 0.132655 -0.978174 1.000000
70.090897 57.146400 -775.522705 -0.008031 0.983189 -0.182412 1.000000
70.100502 55.618099 -777.774170 -0.809231 0.582932 -0.073046 1.000000
69.318298 67.719597 -756.669006 -0.185890 0.882610 -0.431791 1.000000
69.448303 65.080299 -761.514282 0.358655 0.903226 -0.235688 1.000000
69.578697 65.067497 -762.640015 0.425913 0.862513 -0.273256 1.000000
69.647697 64.873703 -763.500916 0.343088 0.918223 -0.197881 1.000000
69.819000 62.723801 -768.003113 0.339227 0.738509 -0.582692 1.000000
69.844398 61.587601 -769.828613 0.203943 0.798904 -0.565826 1.000000
69.827301 59.279598 -772.953979 -0.138230 0.804110 -0.578186 1.000000
69.815399 58.686699 -773.693481 -0.109403 0.291302 -0.950355 1.000000
68.903198 66.813202 -757.593994 -0.204275 0.415898 -0.886172 1.000000
68.855499 66.133400 -758.154419 -0.755381 0.496487 -0.427667 1.000000
68.912697 65.675102 -759.292175 -0.074853 0.984973 -0.155647 1.000000
68.964302 65.397499 -760.125793 -0.007414 0.996641 -0.081553 1.000000
69.370300 64.863602 -764.336487 0.414209 0.877764 -0.240750 1.000000
69.394897 64.050003 -765.702271 0.437386 0.809084 -0.392526 1.000000
69.431099 63.703098 -766.502808 0.115329 0.932128 -0.343273 1.000000
69.466904 62.312000 -768.783691 -0.110885 0.896903 -0.428099 1.000000
69.486099 61.198502 -770.529419 0.219868 0.399893 -0.889800 1.000000
69.479103 60.637600 -771.267029 0.096756 0.827479 -0.553097 1.000000
69.453201 59.982899 -771.977417 -0.277679 0.927020 -0.252047 1.000000
69.418098 58.157700 -774.272522 -0.080839 0.958522 -0.273314 1.000000
69.409500 56.875401 -776.021118 0.057553 0.297999 -0.952830 1.000000
69.403801 56.305000 -776.783691 -0.074983 0.974779 -0.210198 1.000000
69.436600 55.378399 -778.379395 0.152221 0.770149 -0.619435 1.000000
68.698700 65.569199 -760.968811 0.332059 0.941912 0.050390 1.000000
68.809196 65.514603 -761.984924 0.342218 0.936806 0.072672 1.000000
68.899696 65.215103 -763.179626 0.464780 0.880414 -0.094079 1.000000
69.073402 63.396599 -767.242004 0.145912 0.876916 -0.457961 1.000000
69.104103 61.979900 -769.518372 0.311034 0.836196 -0.451702 1.000000
69.057098 59.006100 -773.349915 0.160034 0.939687 -0.302287 1.000000
69.015900 57.679199 -774.887329 -0.029444 0.938373 -0.344369 1.000000
69.039597 55.956501 -777.539185 -0.031720 0.980981 -0.191497 1.000000
69.152100 55.428101 -779.246521 0.306731 0.890269 0.336656 1.000000
67.985298 66.416199 -756.991211 0.520649 0.287852 -0.803782 1.000000
67.950798 65.746300 -757.654724 -0.299527 0.934802 -0.190861 1.000000
68.042603 65.651100 -758.572815 0.400462 0.916268 0.009072 1.000000
68.177002 65.599098 -759.792114 0.212315 0.977116 0.012903 1.000000
68.617699 65.228500 -764.074524 0.107867 0.957803 -0.266417 1.000000
68.646301 64.849602 -764.859924 0.271441 0.851128 -0.449334 1.000000
68.664001 64.007401 -766.215271 0.340168 0.698239 -0.629880 1.000000
68.705803 63.016499 -767.987915 0.293143 0.784357 -0.546673 1.000000
68.728600 61.564301 -770.258423 0.271969 0.797041 -0.539221 1.000000
68.710098 60.951801 -770.976685 0.171243 0.873776 -0.455183 1.000000
68.699600 60.375801 -771.711426 -0.152268 0.841169 -0.518893 1.000000
68.700302 59.851898 -772.466614 0.020687 0.817824 -0.575097 1.000000
68.666801 58.574799 -774.007507 0.148837 0.153840 -0.976822 1.000000
68.624496 57.243198 -775.550781 -0.249927 0.965798 -0.069075 1.000000
68.631798 56.687199 -776.408386 0.157603 0.949660 -0.270754 1.000000
68.176498 65.594803 -762.628418 -0.020663 0.995090 -0.096790 1.000000
68.385002 62.562000 -768.755798 0.136076 0.847184 -0.513578 1.000000
68.307800 56.265099 -777.127686 0.078371 0.957148 -0.278793 1.000000
68.318100 55.721100 -777.995483 0.207217 0.945513 -0.251130 1.000000
68.353798 55.356201 -778.823120 0.018056 0.997301 -0.071160 1.000000
68.432503 55.206402 -779.709473 -0.951885 0.292988 -0.089850 1.000000
67.244202 65.815201 -756.624817 0.630140 0.760097 0.158668 1.000000
67.685097 65.729401 -760.517273 0.365978 0.918449 -0.150037 1.000000
67.795898 65.729202 -761.464722 0.023063 0.999730 0.003008 1.000000
68.111504 64.746201 -765.575378 0.204524 0.887253 -0.413463 1.000000
68.100304 63.770100 -766.881714 -0.556981 0.715646 -0.421454 1.000000
68.131302 62.109200 -769.533081 -0.152539 0.919433 -0.362455 1.000000
68.080299 59.403099 -772.985413 -0.255932 0.949252 -0.182809 1.000000
68.057999 58.181499 -774.550476 0.172767 0.945457 -0.276155 1.000000
67.097900 66.081100 -757.444885 0.391720 0.919289 0.038249 1.000000
67.205597 66.110298 -758.322815 0.411521 0.906999 0.089461 1.000000
67.301903 66.038399 -759.248230 0.453716 0.889719 -0.050413 1.000000
67.716904 65.602097 -763.418274 0.120949 0.992653 0.003269 1.000000
67.780701 65.388397 -764.269287 0.164129 0.967973 -0.189976 1.000000
67.827797 63.351601 -767.594788 0.212132 0.757170 -0.617814 1.000000
67.858200 61.681400 -770.250977 0.150440 0.817737 -0.555584 1.000000
67.859200 61.164398 -771.001526 0.275801 0.652039 -0.706243 1.000000
67.819000 60.499199 -771.612976 -0.076673 0.949967 -0.302794 1.000000
67.815903 59.958000 -772.362427 0.125288 0.803319 -0.582222 1.000000
67.785400 58.858501 -773.680176 -0.080109 0.984020 -0.159021 1.000000
67.753799 57.585300 -775.237671 -0.119989 0.982942 -0.139381 1.000000
67.764297 57.101101 -776.022217 0.050292 0.970270 -0.236741 1.000000
66.621696 66.520500 -756.023499 0.698956 0.701962 -0.136785 1.000000
67.044197 66.188103 -760.099121 0.495620 0.845114 -0.200357 1.000000
67.187798 65.621002 -762.135010 0.025614 0.992274 -0.121389 1.000000
67.452202 65.159897 -765.047974 0.137495 0.866945 -0.479063 1.000000
67.453003 64.445702 -766.078186 0.123198 0.890707 -0.437565 1.000000
67.464302 62.951801 -768.316101 0.170302 0.809312 -0.562148 1.000000
67.466499 62.444000 -769.063477 -0.017443 0.876168 -0.481691 1.000000
67.390404 56.627300 -776.754089 -0.045888 0.365794 -0.929564 1.000000
67.403702 56.153198 -777.547302 0.099474 0.959859 -0.262250 1.000000
67.408096 55.633400 -778.330505 0.043477 0.962696 -0.267070 1.000000
67.439301 55.244701 -779.152771 0.262156 0.455323 -0.850856 1.000000
67.475098 54.878601 -779.982788 0.313285 0.358688 -0.879315 1.000000
66.325600 66.560997 -756.873108 0.325212 0.945500 -0.016323 1.000000
66.455101 66.738701 -757.723389 0.492426 0.870178 -0.017538 1.000000
66.534302 66.437401 -758.835999 0.443456 0.896178 0.014561 1.000000
66.724297 66.084297 -760.969971 0.225095 0.965980 -0.127340 1.000000
66.879097 65.627296 -762.953796 -0.056114 0.990591 0.124826 1.000000
66.978699 65.528702 -763.947388 -0.180298 0.970538 -0.159838 1.000000
67.058800 64.015198 -766.818909 0.113196 0.786490 -0.607141 1.000000
67.075203 62.033199 -769.822083 -0.082554 0.918922 -0.385704 1.000000
67.062202 61.452202 -770.549927 -0.176713 0.880643 -0.439591 1.000000
67.045700 60.852402 -771.274780 -0.098443 0.931836 -0.349270 1.000000
67.035797 60.282700 -772.013672 0.191732 0.762325 -0.618142 1.000000
67.031898 59.739498 -772.765015 0.228209 0.825535 -0.516151 1.000000
66.984596 58.614201 -773.986023 0.048644 0.011385 -0.998751 1.000000
66.978203 58.052799 -774.741821 -0.072435 0.160307 -0.984406 1.000000
66.970200 57.375401 -775.652527 -0.039628 0.990695 -0.130206 1.000000
65.940300 66.925598 -755.617615 -0.112506 0.983519 0.141540 1.000000
66.748199 64.891502 -765.530579 0.001251 0.939829 -0.341642 1.000000
66.762604 63.586700 -767.555725 0.107182 0.861743 -0.495895 1.000000
66.706001 59.235699 -773.408630 0.089500 0.853801 -0.512849 1.000000
66.116699 66.584999 -759.644775 0.216344 0.943921 -0.249416 1.000000
66.264297 66.004303 -761.773315 0.230818 0.918973 -0.319705 1.000000
66.467400 65.231796 -764.662476 -0.352320 0.889045 -0.292351 1.000000
66.526100 63.077202 -768.330811 0.017905 0.822259 -0.568832 1.000000
66.531097 62.590900 -769.086975 0.047801 0.883640 -0.465721 1.000000
66.426300 57.050098 -776.307129 0.987860 0.152243 -0.030906 1.000000
66.427803 56.528198 -777.085815 0.123738 0.251383 -0.959946 1.000000
66.437103 56.042702 -777.877930 -0.017452 0.980788 -0.194296 1.000000
66.455299 55.599998 -778.684875 0.120664 0.985622 -0.118275 1.000000
66.491096 55.243198 -779.517578 0.047679 0.994614 -0.092032 1.000000
65.677299 66.921303 -757.361511 0.324168 0.921095 -0.215636 1.000000
65.788696 66.974503 -758.250916 0.175324 0.954244 -0.242241 1.000000
65.948700 66.402603 -760.485229 0.405013 0.885687 -0.226985 1.000000
66.087402 65.787697 -762.597473 0.224695 0.936462 -0.269355 1.000000
66.146400 65.559303 -763.447571 0.330852 0.883784 -0.330852 1.000000
66.286301 64.502899 -766.221924 -0.094202 0.881562 -0.462574 1.000000
66.292503 61.846699 -770.194214 0.322725 0.461261 -0.826491 1.000000
66.286102 61.304798 -770.937805 0.181572 0.893334 -0.411079 1.000000
66.266701 60.699100 -771.663086 0.104884 0.852002 -0.512925 1.000000
66.247704 60.092602 -772.392212 0.307098 0.249427 -0.918410 1.000000
66.194901 58.437401 -774.375671 0.187551 0.869823 -0.456325 1.000000
66.180000 57.842602 -775.123779 0.295768 0.843946 -0.447523 1.000000
65.324600 67.170303 -756.211609 0.315483 0.948924 0.003712 1.000000
66.030502 64.046097 -766.981628 0.084270 0.838418 -0.538473 1.000000
65.970901 59.584999 -773.064514 0.169946 0.434305 -0.884589 1.000000
65.352997 66.886703 -759.086670 0.365456 0.927696 -0.076304 1.000000
65.516602 66.384697 -761.252808 0.346137 0.881213 -0.321953 1.000000
65.686096 65.365097 -764.234192 0.152417 0.935098 -0.319938 1.000000
65.708000 64.965698 -765.015320 0.212559 0.892748 -0.397265 1.000000
65.772797 63.558102 -767.660522 0.017145 0.900793 -0.433910 1.000000
65.772697 62.841900 -768.718201 0.283906 0.814073 0.506639 1.000000
65.712402 59.077400 -773.759827 0.194547 0.887895 -0.416886 1.000000
65.668098 57.455399 -775.772217 -0.021259 0.306385 -0.951670 1.000000
65.681297 55.835400 -778.282227 -0.109056 0.992747 -0.050593 1.000000
65.236504 66.693298 -759.972412 0.283189 0.957807 -0.049086 1.000000
65.402901 66.202797 -762.139526 0.298262 0.912244 -0.280803 1.000000
65.500900 56.985001 -776.575195 0.114812 0.454996 -0.883061 1.000000
64.877403 67.315102 -756.986816 0.339784 0.927819 -0.153943 1.000000
64.964897 67.210999 -757.903503 0.357424 0.920892 -0.155584 1.000000
65.313904 65.809998 -763.017883 0.156154 0.915820 -0.369986 1.000000
65.436996 64.627998 -765.838074 0.151684 0.905849 -0.395512 1.000000
65.482498 60.678398 -772.073425 0.784121 0.459433 -0.417224 1.000000
64.513603 67.557503 -755.928589 0.273640 0.814664 -0.511315 1.000000
65.183998 64.268501 -766.669922 0.196104 0.854772 -0.480529 1.000000
65.280602 62.963001 -769.449829 0.243755 0.952126 -0.184500 1.000000
64.575996 67.157700 -758.718811 0.195645 0.978226 -0.069266 1.000000
64.738403 66.752998 -760.739319 0.064403 0.997722 -0.020060 1.000000
64.896103 65.635696 -763.774292 0.044656 0.947992 -0.315147 1.000000
65.037102 63.488400 -768.189087 0.156684 0.865424 -0.475910 1.000000
64.468803 67.121101 -759.627075 0.257630 0.950937 -0.171304 1.000000
64.607597 66.607399 -761.594604 0.162279 0.974934 -0.152215 1.000000
64.742699 65.331596 -764.655273 0.169934 0.887434 -0.428466 1.000000
64.826401 63.964100 -767.402771 0.110442 0.901708 -0.418001 1.000000
64.937698 62.713799 -770.218384 -0.015084 0.829628 -0.558113 1.000000
64.042397 67.654404 -756.676208 0.281895 0.958443 -0.043850 1.000000
64.119102 67.516899 -757.546814 0.208136 0.973381 -0.095967 1.000000
64.478104 66.317299 -762.445007 0.158205 0.905044 -0.394799 1.000000
64.600304 64.981697 -765.481506 0.068751 0.854472 -0.514928 1.000000
64.564400 63.321602 -768.931030 0.306172 0.882319 -0.357452 1.000000
64.143600 65.967796 -763.168884 0.341546 0.746221 -0.571402 1.000000
64.284302 64.658798 -766.313599 0.191910 0.829594 -0.524352 1.000000
63.580101 67.634399 -758.272705 0.306011 0.932005 -0.194226 1.000000
63.637001 67.374001 -759.146301 0.246228 0.962998 -0.109578 1.000000
63.714500 67.173500 -760.110229 0.118848 0.967399 -0.223639 1.000000
63.776699 66.954803 -760.968384 0.286237 0.876883 -0.386192 1.000000
63.901798 65.620697 -764.006897 0.252796 0.917290 -0.307689 1.000000
64.037201 64.281303 -767.142273 0.102288 0.944501 -0.312177 1.000000
64.056602 63.865799 -767.919495 0.119822 0.965018 -0.233202 1.000000
64.136902 63.126202 -769.698425 0.150791 0.891819 -0.426522 1.000000
64.178802 62.713200 -770.666016 0.059272 0.931229 -0.359583 1.000000
63.158100 67.837898 -756.648682 0.175442 0.976753 0.123183 1.000000
63.542702 66.600800 -761.778015 0.169261 0.955593 -0.241231 1.000000
63.698399 65.403603 -764.875610 0.115746 0.907842 -0.403021 1.000000
63.724800 65.021599 -765.663574 0.149560 0.833684 -0.531603 1.000000
63.037102 67.833504 -757.539307 0.020023 0.997993 -0.060069 1.000000
63.384800 66.421303 -762.633118 0.037498 0.934871 -0.353001 1.000000
63.601101 63.602200 -768.663025 0.100148 0.938717 -0.329819 1.000000
63.746101 62.527199 -771.503296 0.124373 0.989175 -0.077879 1.000000
63.203499 66.113197 -763.444519 0.242503 0.919790 -0.308510 1.000000
63.307301 64.743896 -766.379028 0.152776 0.918060 -0.365822 1.000000
62.648701 67.792297 -758.399170 0.218969 0.943355 -0.249266 1.000000
62.708302 67.564301 -759.256470 0.156627 0.984003 -0.084890 1.000000
62.770302 67.347603 -760.118103 0.211264 0.965594 -0.151644 1.000000
62.829899 67.120697 -760.973511 0.126066 0.936687 -0.326688 1.000000
62.981400 65.773697 -764.293701 0.204829 0.859682 -0.467966 1.000000
63.100300 64.474800 -767.258118 0.148199 0.961327 -0.232135 1.000000
63.125099 64.089500 -768.047180 0.160933 0.948015 -0.274532 1.000000
63.170601 63.397800 -769.470581 0.167982 0.877887 -0.448438 1.000000
63.203201 63.047298 -770.275085 0.208349 0.959468 -0.189770 1.000000
62.624802 66.854897 -761.843689 0.081064 0.956044 -0.281795 1.000000
62.763500 65.448601 -765.138611 0.145838 0.951294 -0.271607 1.000000
63.030499 62.368599 -772.036377 0.057233 0.922389 -0.381999 1.000000
62.105202 67.920898 -757.512512 0.294377 0.951164 -0.092892 1.000000
62.453499 66.487999 -762.666321 0.210716 0.835283 -0.507840 1.000000
62.584499 65.044098 -765.947876 0.042008 0.948354 -0.314421 1.000000
62.713799 63.839802 -768.859192 0.227139 0.957704 -0.176664 1.000000
62.814899 62.954899 -771.051819 0.250601 0.891190 -0.378126 1.000000
62.365101 66.157600 -763.697021 0.008795 0.941107 -0.337994 1.000000
61.919300 67.835197 -758.900024 0.250568 0.834714 -0.490375 1.000000
61.973499 67.581100 -759.744995 0.178829 0.953306 -0.243369 1.000000
62.026199 67.321198 -760.586304 0.075022 0.975280 -0.207847 1.000000
62.319302 64.863899 -766.759277 0.143630 0.949033 -0.280549 1.000000
62.362000 64.459198 -767.727478 0.240094 0.945285 -0.220887 1.000000
62.437698 63.402100 -769.946716 0.300695 0.907954 -0.291895 1.000000
61.829700 67.063202 -761.410217 0.285082 0.916023 -0.282187 1.000000
61.975399 65.834702 -764.495789 -0.014561 0.893537 -0.448754 1.000000
62.289398 62.778500 -771.754089 0.139626 0.953448 -0.267285 1.000000
61.629700 66.866203 -762.236023 0.182101 0.887198 -0.423932 1.000000
61.660999 66.512802 -763.034485 0.001209 0.960928 -0.276796 1.000000
61.743500 65.448303 -765.336182 0.212562 0.909534 -0.357162 1.000000
61.898899 64.269203 -768.442383 0.398036 0.778202 -0.485767 1.000000
61.932999 63.927299 -769.247803 0.110184 0.960545 -0.255368 1.000000
61.976898 63.229500 -770.668518 0.056774 0.960116 -0.273778 1.000000
61.180000 68.174896 -758.367371 0.192287 0.953368 -0.232627 1.000000
61.471600 66.180099 -763.861328 0.224194 0.921050 -0.318441 1.000000
61.625702 64.743301 -767.333008 0.024823 0.977553 -0.209222 1.000000
61.851601 62.583900 -772.501770 0.309940 0.868749 -0.386280 1.000000
61.065601 68.051498 -759.235107 0.307485 0.854467 -0.418735 1.000000
61.100201 67.711403 -760.039612 0.372949 0.820487 -0.433255 1.000000
61.139500 67.342697 -760.927124 0.122779 0.856562 -0.501226 1.000000
61.373699 65.222397 -766.103088 0.334977 0.828794 -0.448209 1.000000
61.581600 63.781502 -770.042297 0.301313 0.948675 -0.096052 1.000000
61.113998 65.897797 -764.668030 0.243673 0.924818 -0.292123 1.000000
61.403099 63.078300 -771.357971 0.149569 0.921179 -0.359246 1.000000
60.751400 67.169601 -761.734619 0.023480 0.999448 -0.023480 1.000000
60.792599 66.861198 -762.552612 0.161631 0.902561 -0.399072 1.000000
60.827801 66.525200 -763.358521 0.162969 0.949529 -0.268023 1.000000
61.032001 64.626801 -767.961426 -0.010538 0.977731 -0.209597 1.000000
61.075901 64.330704 -768.783630 0.301086 0.853848 -0.424608 1.000000
60.359299 68.204498 -758.749817 0.335775 0.922319 0.191264 1.000000
60.701599 65.699501 -765.472595 0.192980 0.945739 -0.261413 1.000000
60.924500 63.543800 -770.635193 0.129998 0.912785 -0.387200 1.000000
60.986000 62.880199 -772.162415 0.091892 0.989876 -0.108177 1.000000
60.250000 68.102699 -759.666382 -0.066845 0.962314 -0.263596 1.000000
60.455502 66.315399 -764.124512 0.255649 0.930788 -0.261299 1.000000
60.539001 65.308601 -766.354675 0.125820 0.794884 -0.593573 1.000000
60.692001 64.073898 -769.530884 0.196755 0.924322 -0.326981 1.000000
59.948101 67.114502 -762.109924 -0.052472 0.905484 -0.421124 1.000000
60.016602 66.929802 -762.980713 0.100116 0.955656 -0.276945 1.000000
60.108799 66.161301 -764.929016 0.315337 0.859871 -0.401478 1.000000
60.367401 63.372299 -771.341919 0.257043 0.920473 -0.294379 1.000000
60.419102 62.642899 -772.880615 0.088480 0.987433 -0.130950 1.000000
59.910702 65.749802 -765.852112 0.210343 0.903750 -0.372815 1.000000
60.088799 63.888500 -770.189087 0.010721 0.970853 -0.239437 1.000000
59.624500 66.765099 -763.745911 0.146697 0.970749 -0.190068 1.000000
59.719299 65.369102 -766.662781 -0.101486 0.859060 -0.501714 1.000000
59.948799 63.095699 -772.065002 -0.124277 0.958896 -0.255095 1.000000
59.284302 66.594902 -764.564087 0.146368 0.949375 -0.277964 1.000000
59.318501 66.257599 -765.367676 0.276312 0.888679 -0.365926 1.000000
58.849602 65.975304 -766.071472 0.162472 0.914080 -0.371566 1.000000
58.570202 66.635902 -765.114319 0.554694 0.716963 -0.422230 1.000000
58.656799 67.254204 -764.340576 0.382648 0.923317 -0.032649 1.000000
65.665398 56.912899 -778.105286 0.874210 0.455409 0.168399 1.000000
72.593300 53.921501 -779.409180 -0.960925 0.189013 -0.202230 1.000000
77.194603 49.055500 -783.946716 -0.261222 0.536523 -0.802438 1.000000
72.930199 52.477798 -780.005493 0.573918 0.570532 0.587462 1.000000
72.108597 53.261398 -778.934570 -0.319569 0.840234 -0.438044 1.000000
65.590401 56.306400 -777.465576 -0.027000 0.980223 -0.196045 1.000000
58.573700 66.251999 -764.181885 -0.086166 0.991483 0.097655 1.000000
65.440399 58.848598 -774.592407 0.304514 0.812563 0.497004 1.000000
65.281700 57.869900 -774.820801 -0.609982 0.281898 0.740578 1.000000
76.598198 52.171700 -777.153076 -0.826321 0.211526 -0.521967 1.000000
73.728699 52.970402 -777.737793 0.658802 0.718266 0.223773 1.000000
81.423798 61.542900 -769.785278 0.080078 0.983643 0.161351 1.000000
71.204399 62.060398 -765.662720 -0.395143 0.884225 -0.249014 1.000000
71.888496 62.574600 -765.949829 -0.312268 0.922545 -0.226715 1.000000
71.294899 62.886299 -765.248413 0.810268 0.153697 0.565546 1.000000
73.944199 64.734001 -762.591675 -0.143857 0.321966 -0.935758 1.000000
70.650200 63.798000 -763.002380 -0.303067 0.585288 -0.752056 1.000000
68.653999 66.775902 -756.455872 0.151625 0.241282 0.958537 1.000000
67.283897 66.978203 -757.204285 -0.866940 0.406807 -0.287964 1.000000
65.588997 67.780800 -757.487915 -0.196120 0.261951 -0.944944 1.000000
66.305099 67.418999 -756.456421 -0.341879 0.521646 -0.781667 1.000000
71.441803 63.580700 -763.593628 0.431593 0.887725 -0.160224 1.000000
82.957100 61.246899 -770.355530 0.038389 0.985319 0.166353 1.000000
83.935799 61.041199 -770.133789 -0.273758 0.938004 -0.212614 1.000000
76.349701 53.852200 -776.208313 0.683080 0.430457 0.590008 1.000000
74.131897 52.008900 -778.779175 0.052533 0.099477 -0.993652 1.000000
70.870697 54.391102 -777.661194 0.236675 0.631656 -0.738238 1.000000
70.910301 61.636799 -768.215820 0.457292 0.811017 -0.364878 1.000000
65.406700 63.440399 -766.418579 0.131573 0.121916 0.983781 1.000000
65.951302 63.688702 -765.689819 0.205788 0.639026 -0.741146 1.000000
68.462997 66.269997 -760.281189 0.487776 0.859833 -0.150874 1.000000
75.907402 64.426300 -763.477295 0.221771 0.971032 -0.088959 1.000000
76.661499 66.353500 -759.754700 0.192181 0.761035 -0.619590 1.000000
69.028099 66.425697 -761.429688 0.198335 0.980079 -0.010439 1.000000
61.939098 68.627502 -758.402771 -0.536056 0.278246 -0.797009 1.000000
60.970901 68.908096 -758.917725 0.076571 0.881261 0.466386 1.000000
62.987598 68.779099 -758.848083 0.504806 0.329637 0.797816 1.000000
63.303902 68.629501 -757.958984 0.099492 0.989066 -0.108856 1.000000
64.162903 68.403999 -758.365723 -0.188952 0.429169 0.883239 1.000000
68.100197 66.433296 -759.324524 0.022915 0.874816 -0.483912 1.000000
68.151901 55.833401 -775.988220 0.169609 0.343423 0.923739 1.000000
69.537201 55.432201 -776.745483 0.119349 0.800079 -0.587903 1.000000
76.244797 51.011600 -781.990906 -0.895904 0.426015 0.125964 1.000000
75.478798 51.960999 -781.224792 -0.186292 0.928660 0.320759 1.000000
74.784302 52.472698 -780.626526 -0.290544 0.917888 -0.270307 1.000000
80.647697 52.292000 -779.888611 -0.075723 0.933914 0.349387 1.000000
73.584099 53.107800 -780.089478 0.872887 0.451899 0.183998 1.000000
79.419197 52.071701 -780.675781 0.115022 0.992760 0.034618 1.000000
87.570297 63.296902 -722.886108 0.895144 0.150384 0.419644 1.000000
87.675201 63.384899 -723.774902 0.379606 0.914696 0.138675 1.000000
87.766502 63.327999 -724.740784 -0.992678 0.116982 -0.030081 1.000000
87.537399 63.350101 -725.652527 0.099875 0.988177 -0.116325 1.000000
87.415199 63.425201 -726.539612 0.560607 0.827824 -0.020661 1.000000
87.339897 63.417500 -727.480408 0.883256 0.460525 -0.088186 1.000000
86.636101 63.556599 -722.806519 0.812819 0.527945 0.246168 1.000000
86.718201 63.463799 -723.737183 0.070921 0.996163 -0.051281 1.000000
86.823402 63.556702 -724.623474 -0.035152 0.989919 0.137205 1.000000
87.188004 63.411400 -728.372986 0.993823 0.063865 0.090755 1.000000
86.585602 63.521000 -725.505188 0.114285 0.993061 -0.027739 1.000000
86.950897 63.365398 -729.267517 0.940259 0.177589 -0.290475 1.000000
88.139397 66.119698 -736.789307 0.093451 0.946358 0.309310 1.000000
88.250000 66.222000 -737.711975 0.955385 0.251137 0.155466 1.000000
86.380898 63.605999 -726.363403 0.227265 0.973826 0.003533 1.000000
86.464699 63.526501 -727.287170 0.196265 0.978916 -0.056592 1.000000
85.856400 63.548302 -723.251221 0.074633 0.994739 -0.070178 1.000000
85.958298 63.565399 -724.211914 0.139754 0.989638 0.032950 1.000000
86.581200 63.719898 -730.011475 0.465583 0.885003 0.001319 1.000000
87.841003 66.263000 -738.513184 0.468722 0.811923 -0.347967 1.000000
86.271004 63.635601 -728.139404 0.082279 0.976300 0.200172 1.000000
87.439499 65.821404 -736.313477 0.621179 0.778292 -0.091649 1.000000
86.471199 63.917301 -730.859375 0.487474 0.871961 0.045314 1.000000
85.605698 63.586399 -725.019897 0.163933 0.984777 -0.057789 1.000000
86.029701 63.666801 -729.005005 -0.238194 0.959354 0.151338 1.000000
87.234001 66.070801 -737.187317 -0.212576 0.973373 0.085776 1.000000
85.443703 63.602501 -725.890503 0.104155 0.993394 0.048158 1.000000
85.542900 63.662399 -726.758179 0.213106 0.977028 0.001165 1.000000
86.123901 64.146896 -731.652222 0.436095 0.898003 -0.058418 1.000000
87.215500 66.259804 -739.122803 0.141517 0.932915 -0.331123 1.000000
84.955002 63.564201 -723.524414 0.536030 0.774266 -0.336427 1.000000
85.404404 63.693100 -727.638611 0.133027 0.990313 0.039794 1.000000
85.661697 63.874001 -729.841492 0.125998 0.950956 0.282502 1.000000
86.872299 66.230797 -738.064026 -0.183302 0.881316 0.435526 1.000000
84.886200 63.673401 -724.477417 0.021999 0.998329 -0.053426 1.000000
85.597099 64.076698 -730.699829 0.116122 0.975176 0.188542 1.000000
85.808197 64.230904 -732.498108 0.490786 0.812716 -0.314040 1.000000
86.440002 65.789902 -736.320984 -0.329546 0.941374 -0.072211 1.000000
85.155296 63.777401 -728.509827 0.252013 0.959740 -0.124048 1.000000
86.375603 65.838402 -737.269775 -0.144516 0.982466 0.117799 1.000000
84.599503 63.715000 -725.298828 0.068037 0.996793 0.042118 1.000000
84.711800 63.736198 -726.347229 0.223678 0.969273 0.102361 1.000000
85.535500 64.390701 -733.324585 -0.906706 0.421018 -0.025076 1.000000
86.402000 66.363297 -738.831726 0.081215 0.980639 0.178188 1.000000
