ply
format ascii 1.0
element vertex 682
property float x
property float y
property float z
property float nx
property float ny
property float nz
property float label
element face 0
property list uchar int vertex_indices
end_header
-17.381100 77.945503 -742.432007 -0.311887 0.927194 0.207454 1.000000
-16.653400 78.320000 -743.693970 -0.612029 0.790480 0.023700 1.000000
-15.008700 78.694199 -746.502930 -0.255785 0.966697 0.008406 1.000000
-14.294800 79.083900 -747.742981 -0.460432 0.876119 -0.142893 1.000000
-13.282600 79.330399 -749.473083 -0.345840 0.937980 0.024247 1.000000
-12.485700 79.478600 -750.831177 -0.276575 0.959876 0.046304 1.000000
-11.022800 79.378700 -753.289795 0.034273 0.979731 -0.197364 1.000000
-18.851299 77.107697 -740.755676 -0.191511 0.981051 0.029373 1.000000
-16.325300 78.270302 -745.131775 -0.377228 0.925449 -0.035243 1.000000
-12.129100 79.370399 -752.322876 -0.161998 0.986712 0.012461 1.000000
-10.218300 79.358002 -755.548828 -0.379863 0.924025 -0.043375 1.000000
-9.288700 80.240601 -757.202271 -0.358463 0.933523 -0.006333 1.000000
-21.891500 76.301903 -736.396606 -0.019386 0.986423 0.163073 1.000000
-21.124500 76.375099 -737.701416 -0.126879 0.991455 0.030316 1.000000
-20.393000 76.660202 -738.966797 -0.530691 0.846612 0.040183 1.000000
-18.900999 77.207001 -742.247070 -0.392106 0.907365 0.151463 1.000000
-18.032301 77.630501 -743.761719 -0.120914 0.985271 -0.120914 1.000000
-15.720400 78.533096 -747.770020 -0.218898 0.959170 -0.179098 1.000000
-14.910800 78.730400 -749.161682 -0.211129 0.974158 -0.080254 1.000000
-13.952100 79.110397 -750.824585 -0.332857 0.942023 0.042410 1.000000
-11.788700 79.025703 -754.482483 -0.003189 0.995906 -0.090344 1.000000
-23.296101 76.288101 -735.395020 0.098109 0.995105 -0.011859 1.000000
-20.353201 76.735397 -740.431030 -0.394881 0.916927 0.057559 1.000000
-16.802200 78.134697 -746.596375 -0.359771 0.928397 0.092974 1.000000
-10.754700 79.128700 -756.953003 -0.515942 0.854310 0.062920 1.000000
-18.020201 77.654701 -745.291382 -0.285113 0.952567 -0.106425 1.000000
-13.977100 79.110603 -752.312378 -0.256154 0.961541 -0.099115 1.000000
-13.207000 79.144501 -753.623779 -0.103578 0.965449 -0.239124 1.000000
-10.487100 79.726700 -758.304810 -0.502039 0.826433 0.254881 1.000000
-23.320999 76.245003 -736.861816 0.031583 0.999438 -0.011207 1.000000
-22.556400 76.328400 -738.172913 -0.130172 0.991311 -0.018914 1.000000
-21.801500 76.379204 -739.463684 -0.106778 0.984997 0.135572 1.000000
-20.388000 76.786400 -741.914978 -0.376993 0.919863 0.108300 1.000000
-15.413600 78.428001 -750.564270 -0.129200 0.984091 -0.121955 1.000000
-12.312100 78.742599 -755.880005 0.211680 0.860229 -0.463893 1.000000
-24.706100 76.170799 -734.912720 -0.265672 0.956679 0.119094 1.000000
-19.742901 77.176804 -743.500427 -0.265856 0.952539 0.148291 1.000000
-17.114000 78.075996 -748.090271 -0.445287 0.889169 0.105352 1.000000
-16.351500 78.429901 -749.432312 -0.353451 0.935306 0.016588 1.000000
-18.129000 77.489700 -746.781982 -0.234931 0.971923 -0.013118 1.000000
-12.045000 78.515999 -757.302917 -0.304219 0.937434 0.169316 1.000000
-22.016300 76.438797 -740.917419 -0.170872 0.983989 0.050673 1.000000
-19.687099 77.312202 -745.006104 -0.336664 0.939252 -0.066809 1.000000
-15.647700 78.368401 -752.041992 -0.039562 0.991309 -0.125468 1.000000
-14.837600 78.726700 -753.470703 -0.354109 0.932355 -0.072944 1.000000
-14.067100 78.812103 -754.798584 -0.301004 0.945820 -0.121739 1.000000
-11.790300 78.979897 -758.712585 -0.395913 0.895553 0.203070 1.000000
-25.274000 76.148399 -736.565674 -0.190644 0.981291 0.026901 1.000000
-24.518299 76.184898 -737.864075 -0.249475 0.963358 -0.098511 1.000000
-23.722601 76.077904 -739.213379 0.027362 0.994868 -0.097407 1.000000
-21.907600 76.505096 -742.373413 -0.018847 0.992221 -0.123058 1.000000
-18.562500 77.291397 -748.197083 -0.103267 0.993805 -0.041085 1.000000
-17.805799 77.603203 -749.531006 -0.709808 0.659220 0.248196 1.000000
-17.084299 78.175201 -750.836426 -0.422037 0.869789 0.255642 1.000000
-13.926500 78.523804 -756.286011 -0.035489 0.968001 -0.248425 1.000000
-23.564301 76.184402 -740.782288 -0.188387 0.980333 0.058796 1.000000
-21.778299 76.502602 -743.882629 -0.310947 0.948322 0.063221 1.000000
-20.443800 77.045700 -746.236572 -0.180094 0.978876 0.096785 1.000000
-16.417400 78.137001 -753.271973 -0.023109 0.999708 0.007033 1.000000
-15.639500 78.264198 -754.620789 -0.117080 0.983712 -0.136392 1.000000
-13.828900 78.117897 -757.705383 -0.090594 0.982042 -0.165486 1.000000
-13.114600 78.358498 -758.959473 -0.415144 0.897339 0.149794 1.000000
-12.400900 78.635201 -760.216919 0.807869 0.574517 0.131445 1.000000
-20.215900 77.305603 -747.757813 -0.051970 0.998035 0.035000 1.000000
-18.430799 77.570000 -750.853394 -0.158810 0.986475 -0.040572 1.000000
-17.670200 77.992104 -752.211121 -0.137928 0.988677 -0.059112 1.000000
-15.426700 78.166496 -756.081482 -0.399536 0.909048 -0.118329 1.000000
-26.032499 75.723602 -738.517822 -0.127144 0.991271 -0.034880 1.000000
-25.274900 75.801804 -739.828491 -0.260628 0.963949 -0.053622 1.000000
-23.867599 76.208702 -742.297180 -0.272532 0.960768 -0.051492 1.000000
-22.092699 76.538498 -745.387207 -0.248398 0.961078 0.120948 1.000000
-19.913401 77.157303 -749.208374 0.640240 0.603271 0.475559 1.000000
-23.447100 76.294998 -743.819885 -0.320574 0.946396 0.039593 1.000000
-17.838100 77.942596 -753.680115 -0.220663 0.968110 -0.118622 1.000000
-17.074200 77.970200 -754.997070 -0.314917 0.933654 -0.170638 1.000000
-15.569800 77.913696 -757.576172 -0.423086 0.898178 -0.119476 1.000000
-14.788000 77.619797 -758.881775 -0.397190 0.885124 -0.242479 1.000000
-25.295300 75.852600 -741.331299 0.135900 0.986750 0.088630 1.000000
-22.110800 76.811501 -746.940796 -0.125782 0.991782 0.023375 1.000000
-19.970400 77.302101 -750.690674 -0.166227 0.984394 -0.057767 1.000000
-19.099001 77.602898 -752.230713 -0.454022 0.887217 0.081918 1.000000
-27.499100 75.634903 -738.490784 -0.081125 0.996210 0.031368 1.000000
-23.591801 76.439102 -745.326477 0.091954 0.985223 0.144499 1.000000
-21.873800 77.040497 -748.366272 -0.141241 0.983861 0.109854 1.000000
-17.204300 77.590500 -756.479187 -0.093451 0.946358 -0.309310 1.000000
-27.251699 75.690598 -740.008484 -0.133268 0.987125 0.088452 1.000000
-25.680000 75.888603 -742.742126 -0.260691 0.942074 -0.211036 1.000000
-24.942200 75.933098 -744.018311 -0.001085 0.992979 0.118289 1.000000
-21.590599 76.994102 -749.936218 -0.065825 0.997818 0.005224 1.000000
-19.431101 77.353996 -753.703979 -0.241016 0.970121 0.027856 1.000000
-18.658001 77.456001 -755.049072 -0.009295 0.998676 -0.050605 1.000000
-16.976801 77.282097 -757.919312 -0.047301 0.973910 -0.221950 1.000000
-29.033501 75.779297 -737.731384 -0.039682 0.975220 0.217651 1.000000
-26.855499 75.781197 -741.489624 -0.203461 0.975379 0.085084 1.000000
-23.817600 76.686501 -746.859619 -0.024835 0.978034 0.206960 1.000000
-21.104300 77.166603 -751.609070 -0.033518 0.959613 0.279318 1.000000
-25.040800 76.291397 -745.548706 -0.206431 0.957572 0.201103 1.000000
-23.455900 76.923599 -748.380371 -0.071619 0.966231 0.247526 1.000000
-20.773399 77.347702 -753.080200 0.150753 0.967652 0.202292 1.000000
-18.757299 77.313797 -756.561890 0.087195 0.993122 -0.078136 1.000000
-29.412701 75.411400 -739.165771 -0.014924 0.999876 -0.004975 1.000000
-28.655701 75.521103 -740.491699 -0.122293 0.990913 0.056003 1.000000
-27.228100 75.695702 -742.987427 0.176425 0.959062 0.221526 1.000000
-26.526400 75.969498 -744.241272 0.007866 0.987696 0.156189 1.000000
-23.326000 76.984703 -749.926880 -0.043225 0.994184 -0.098643 1.000000
-22.589300 77.230797 -751.237488 -0.046416 0.959679 0.277241 1.000000
-20.660200 77.421501 -754.603394 -0.185125 0.967050 -0.174768 1.000000
-18.647400 77.472900 -758.093994 -0.067622 0.997156 0.033274 1.000000
-31.001101 75.376503 -737.713379 0.031582 0.999413 0.013244 1.000000
-28.549900 75.583397 -741.991882 0.121737 0.967488 0.221689 1.000000
-25.851200 76.482903 -746.800476 -0.062836 0.995448 0.071655 1.000000
-25.095501 76.786697 -748.154724 -0.154614 0.985518 0.069635 1.000000
-22.511400 77.444199 -752.729492 0.111364 0.993456 -0.025360 1.000000
-20.561899 77.386101 -756.099487 -0.114571 0.979395 -0.166312 1.000000
-27.061300 76.202797 -745.620728 -0.110098 0.970638 0.213869 1.000000
-24.777599 76.792603 -749.674377 0.123182 0.917636 0.377850 1.000000
-22.228300 77.338600 -754.182922 -0.118946 0.988078 -0.097748 1.000000
-20.292900 77.270599 -757.534180 -0.034077 0.994833 0.095636 1.000000
-19.177299 77.250198 -759.468506 -0.084925 0.964591 0.249704 1.000000
-32.510399 75.247498 -736.736206 -0.126146 0.989497 0.070596 1.000000
-31.073900 75.368698 -739.254578 -0.045421 0.998203 -0.039083 1.000000
-30.343300 75.330101 -740.520081 0.153053 0.954252 0.256863 1.000000
-28.732700 75.893700 -743.408325 -0.007342 0.997501 -0.070276 1.000000
-24.417999 77.138603 -751.105713 0.102340 0.983664 0.148091 1.000000
-30.011299 75.612701 -741.915894 0.070497 0.954912 0.288396 1.000000
-28.375200 75.995102 -744.825195 -0.030611 0.989756 0.139450 1.000000
-24.079901 77.371902 -752.520813 -0.056225 0.995516 -0.076069 1.000000
-22.215700 77.187500 -755.739685 -0.254193 0.933912 -0.251384 1.000000
-34.380501 75.131699 -734.934326 -0.148037 0.988795 0.019211 1.000000
-32.465698 75.245796 -738.289429 -0.137629 0.978283 -0.154988 1.000000
-27.546400 76.406898 -747.046082 -0.263618 0.963266 0.051224 1.000000
-26.822201 76.515503 -748.325378 0.104516 0.994518 0.003232 1.000000
-23.677000 77.275703 -753.927002 -0.147534 0.974734 -0.167710 1.000000
-21.763300 77.072601 -757.230225 -0.037058 0.976656 0.211589 1.000000
-20.803301 77.383003 -758.952087 -0.276474 0.960959 0.010962 1.000000
-26.341900 76.987198 -749.675171 0.045564 0.984892 0.167069 1.000000
-35.543800 74.940804 -733.508728 0.176108 0.953133 0.246013 1.000000
-34.129799 75.122200 -736.453003 0.083715 0.986894 0.137953 1.000000
-31.867001 75.533699 -740.486816 0.097812 0.953341 0.285611 1.000000
-30.245300 75.852097 -743.381470 0.011318 0.999046 0.042184 1.000000
-25.969101 77.194603 -751.099426 0.148135 0.973637 0.173457 1.000000
-36.599201 74.873100 -732.403076 -0.326414 0.938944 0.108805 1.000000
-28.816099 76.121696 -746.292786 -0.137926 0.984674 0.106743 1.000000
-23.692801 76.851997 -755.419983 -0.335624 0.910980 -0.239732 1.000000
-36.772099 74.586403 -730.881226 0.774242 0.546618 0.318994 1.000000
-33.919601 75.331596 -737.899414 0.220557 0.912499 0.344530 1.000000
-31.702801 75.733398 -741.972473 0.028336 0.989507 0.141682 1.000000
-30.109301 75.948799 -744.886414 -0.001148 0.981453 0.191699 1.000000
-27.770000 77.028198 -749.311890 -0.158756 0.953870 0.254810 1.000000
-25.984301 77.314102 -752.585571 -0.103312 0.986803 -0.124686 1.000000
-25.217899 77.164497 -753.937622 0.037039 0.943866 -0.328246 1.000000
-23.518801 76.826897 -756.934326 -0.173380 0.980870 0.088509 1.000000
-22.790300 77.057800 -758.291870 -0.120979 0.991572 -0.046356 1.000000
-21.946600 77.330399 -759.865601 0.235753 0.969208 0.071100 1.000000
-36.217499 75.220299 -734.788696 0.241997 0.941712 0.233700 1.000000
-33.703999 75.694901 -739.410583 0.151050 0.966978 0.205273 1.000000
-29.114201 76.370201 -747.812683 -0.126783 0.884631 0.448726 1.000000
-27.563299 77.177597 -750.764587 -0.115482 0.991317 0.062886 1.000000
-35.723099 75.369003 -736.263794 0.177565 0.984055 0.010310 1.000000
-31.785400 75.845398 -743.468506 -0.174088 0.958151 -0.227245 1.000000
-25.296499 76.616898 -755.338379 -0.019678 0.982721 -0.184043 1.000000
-33.403301 75.809196 -740.921387 0.132703 0.987642 0.083380 1.000000
-30.446501 76.004997 -746.309692 -0.041428 0.981256 -0.188202 1.000000
-35.558300 75.786003 -737.697998 0.109244 0.994010 0.003245 1.000000
-29.258801 76.824997 -749.305298 -0.234610 0.958321 0.163034 1.000000
-27.652300 77.172600 -752.281921 -0.110434 0.976536 -0.184884 1.000000
-26.834299 76.960999 -753.719727 -0.175256 0.926753 -0.332285 1.000000
-25.033199 76.494400 -756.885986 -0.251777 0.955152 0.155862 1.000000
-24.357300 76.823196 -758.174622 -0.219380 0.954238 0.203230 1.000000
-23.689199 77.117500 -759.442505 -0.103824 0.980831 0.164897 1.000000
-37.457100 76.247704 -735.182983 0.232384 0.957421 0.171300 1.000000
-35.248001 76.023201 -739.135376 0.157992 0.984778 0.072463 1.000000
-33.425800 75.959198 -742.419678 -0.001071 0.995026 -0.099610 1.000000
-31.998199 75.898804 -744.990784 -0.050605 0.992988 0.106833 1.000000
-30.764200 76.497597 -747.673279 -0.126177 0.981238 0.145777 1.000000
-29.126699 77.030701 -750.749573 -0.188635 0.982047 0.001143 1.000000
-26.775801 76.580299 -755.173584 -0.143107 0.987784 -0.061664 1.000000
-37.070400 76.117699 -736.600708 0.230650 0.962995 0.139432 1.000000
-34.881500 75.987701 -740.576782 0.384461 0.916368 0.111618 1.000000
-33.314201 75.873497 -743.963989 0.063610 0.997948 -0.007300 1.000000
-31.926001 76.208199 -746.575317 -0.073028 0.957048 0.280580 1.000000
-30.741699 76.671799 -749.251587 -0.058013 0.983855 0.169304 1.000000
-29.105600 76.905602 -752.297729 -0.361745 0.887100 -0.286694 1.000000
-28.362900 76.627602 -753.598877 -0.122669 0.982570 -0.139673 1.000000
-26.682600 76.362503 -756.620117 -0.127692 0.991025 -0.039551 1.000000
-25.900900 76.653503 -758.113770 -0.219224 0.962222 0.161464 1.000000
-25.227100 77.119797 -759.446777 -0.102019 0.988525 0.111400 1.000000
-38.402599 77.122200 -736.068481 -0.085407 0.974139 0.209186 1.000000
-37.348400 76.709396 -737.926514 0.450498 0.888443 0.087868 1.000000
-36.641300 76.486900 -739.185425 0.944918 0.272125 0.181873 1.000000
-35.042702 76.122498 -742.063416 0.170620 0.981369 0.088335 1.000000
-33.640202 76.163902 -745.446289 0.038608 0.983931 0.174323 1.000000
-32.250301 76.370598 -748.066528 -0.078215 0.988783 0.127246 1.000000
-30.854900 76.807701 -750.750183 -0.156281 0.976443 -0.148779 1.000000
-28.461700 76.411102 -755.087891 0.111863 0.987930 -0.107153 1.000000
-36.506100 76.245598 -740.675171 0.603025 0.795993 -0.052499 1.000000
-34.938000 76.163200 -743.553284 0.401604 0.899651 0.171294 1.000000
-35.291500 76.491699 -744.956116 0.222265 0.974364 -0.034842 1.000000
-34.260601 76.464500 -746.802612 0.274076 0.961125 0.033484 1.000000
-32.756100 76.464699 -749.510376 0.065266 0.983740 -0.167319 1.000000
-31.325300 76.511398 -752.100586 -0.221233 0.971175 -0.088743 1.000000
-30.569300 76.391502 -753.422119 -0.114426 0.984064 -0.136107 1.000000
-28.967600 76.746002 -756.419983 -0.011586 0.997440 -0.070569 1.000000
-28.231400 76.539497 -757.677917 -0.068330 0.997618 0.009461 1.000000
-37.059200 77.450600 -744.238281 0.315430 0.932395 0.176474 1.000000
-35.771099 76.820000 -746.321899 0.353672 0.934980 -0.027008 1.000000
-34.629902 76.607597 -748.281494 0.204400 0.974928 -0.087954 1.000000
-33.084702 76.285500 -750.923828 -0.293917 0.946171 -0.135551 1.000000
-30.687700 76.407501 -755.226624 0.809416 0.424743 -0.405510 1.000000
-37.965199 78.172897 -745.289429 0.972049 0.154152 -0.177084 1.000000
-37.196602 77.804901 -746.517517 0.361855 0.932128 -0.014065 1.000000
-36.396702 77.168404 -747.711487 -0.196163 0.816586 -0.542870 1.000000
-35.166500 76.519897 -749.657288 0.552024 0.825851 -0.115066 1.000000
-17.479500 76.975998 -759.283386 0.097299 0.956125 -0.276329 1.000000
-31.002300 77.088799 -736.969116 0.801020 0.167445 0.574743 1.000000
-22.892300 77.717796 -745.933716 0.625695 0.461304 0.629050 1.000000
-28.330799 75.571800 -736.406677 -0.073459 0.981461 0.177024 1.000000
-27.690500 75.676598 -734.749573 0.005023 0.999672 0.025117 1.000000
-26.816500 75.443901 -735.903198 -0.097046 0.992157 -0.078779 1.000000
-27.381800 76.124702 -732.211121 -0.520642 0.853084 0.034343 1.000000
-26.450100 75.961700 -733.467896 -0.116219 0.990740 -0.070192 1.000000
-25.908701 76.060097 -731.924377 -0.120280 0.990882 0.060713 1.000000
-24.999100 76.123497 -733.212219 -0.073602 0.993061 -0.091719 1.000000
-23.657801 76.099297 -733.830688 -0.026203 0.987754 0.153803 1.000000
-21.906200 76.199501 -734.887695 0.020542 0.995754 -0.089737 1.000000
-14.492100 79.574097 -738.682983 -0.996660 0.029029 -0.076335 1.000000
-12.874600 80.050102 -758.387695 -0.982448 0.063268 -0.175480 1.000000
-31.509800 72.073502 -716.658630 -0.267714 0.099584 0.958338 1.000000
-30.063400 72.430298 -717.066223 -0.001116 0.987889 0.155160 1.000000
-29.134899 72.993599 -718.083496 -0.348525 0.565746 -0.747303 1.000000
-31.218700 72.916702 -717.874023 0.567572 0.015117 0.823185 1.000000
-28.198099 73.555496 -719.055481 -0.285243 0.908389 -0.305722 1.000000
-26.885099 73.759102 -719.804871 0.014246 0.389812 0.920784 1.000000
-26.020201 74.174400 -720.920898 0.047465 0.893690 0.446167 1.000000
-33.025799 73.040001 -718.178223 -0.397225 0.857820 -0.326126 1.000000
-30.419901 73.686996 -718.888123 0.149233 0.246960 0.957466 1.000000
-28.606800 74.083298 -720.402710 -0.146474 0.971822 0.184684 1.000000
-25.330900 74.631798 -722.142700 0.121776 0.987213 0.102859 1.000000
-31.983999 73.630600 -719.036377 -0.136716 0.530692 0.836465 1.000000
-27.702801 74.534698 -721.496277 0.019417 0.384451 0.922941 1.000000
-24.595600 75.159103 -723.351685 0.379346 0.163389 0.910714 1.000000
-34.200199 73.351799 -719.341797 -0.120104 0.891596 0.436614 1.000000
-30.115101 74.451500 -720.136780 0.107104 0.866829 0.486966 1.000000
-32.970699 73.866699 -720.117371 0.047900 0.877254 -0.477631 1.000000
-26.968201 75.035797 -722.700989 -0.042049 0.976744 -0.210246 1.000000
-23.937901 75.427498 -724.643799 0.073447 0.969750 0.232790 1.000000
-31.625299 74.494499 -720.496582 0.149148 0.840251 0.521280 1.000000
-29.662399 74.815002 -721.538696 -0.454539 0.738833 -0.497514 1.000000
-26.022301 75.309799 -723.792114 -0.346105 0.852071 -0.392666 1.000000
-28.871799 75.017601 -722.842896 -0.411502 0.560237 -0.718888 1.000000
-24.035200 75.536499 -726.289429 -0.668838 0.736457 0.101428 1.000000
-34.525600 74.002197 -721.520386 -0.279953 0.651092 0.705483 1.000000
-32.973000 74.513702 -721.508911 -0.274272 0.131173 0.952664 1.000000
-31.137100 75.014198 -721.834412 0.029459 0.764543 0.643899 1.000000
-27.995100 75.348503 -724.087402 0.363043 0.293748 0.884258 1.000000
-23.817200 75.522797 -727.960815 -0.120794 0.990509 -0.065574 1.000000
-22.416401 76.017502 -727.842407 0.163933 0.984777 0.057789 1.000000
-30.729200 75.259003 -723.215515 -0.270881 0.752447 -0.600373 1.000000
-27.799601 75.480499 -725.611511 0.032695 0.922002 -0.385802 1.000000
-26.640499 75.534401 -726.669800 -0.440522 0.808959 -0.389262 1.000000
-21.616800 76.421799 -729.122803 -0.987654 0.035560 -0.152564 1.000000
-20.210899 76.229797 -731.245483 0.405423 0.041207 0.913200 1.000000
-33.985901 74.888901 -722.932495 -0.193482 0.969975 -0.147354 1.000000
-32.582199 75.289398 -723.117310 -0.298635 0.952299 0.062803 1.000000
-29.364300 75.717102 -725.148193 -0.342933 0.805494 -0.483297 1.000000
-26.373800 75.795502 -728.081787 -0.003313 0.990724 0.135852 1.000000
-21.398600 77.746597 -726.994324 -0.952065 0.261115 -0.159347 1.000000
-32.409199 75.510399 -724.594482 -0.231932 0.905850 -0.354463 1.000000
-31.099501 75.728500 -725.278320 0.102373 0.942630 0.317755 1.000000
-29.126101 75.977997 -726.569885 0.183199 0.956112 0.228665 1.000000
-28.026899 76.040100 -727.542480 -0.124916 0.986243 -0.108261 1.000000
-26.124201 76.053703 -729.536072 0.095448 0.965937 -0.240530 1.000000
-20.509399 78.326897 -728.056274 -0.316218 0.856103 -0.408770 1.000000
-19.738800 78.137901 -729.504883 -0.561933 0.799022 -0.213996 1.000000
-19.645901 77.516899 -731.651978 -0.713235 0.622665 -0.321845 1.000000
-30.605900 76.078400 -726.641113 -0.251906 0.939427 -0.232421 1.000000
-27.920700 76.147202 -729.303589 0.234769 0.945940 -0.223786 1.000000
-21.218901 79.179802 -726.458618 0.008134 0.979553 0.201023 1.000000
-29.631300 76.298599 -729.102905 -0.760593 0.326428 0.561198 1.000000
-13.856900 81.026001 -737.725830 -0.941526 0.322695 -0.096941 1.000000
-11.767300 81.690201 -740.455017 0.942865 0.094154 0.319593 1.000000
-28.692301 76.241798 -730.554810 -0.201944 0.899304 -0.387906 1.000000
-34.368099 74.860298 -724.534729 -0.469950 0.871938 0.137370 1.000000
-35.533699 74.033897 -723.208984 0.753476 0.185684 -0.630710 1.000000
-34.810398 74.893204 -726.456726 -0.130739 0.989221 0.065948 1.000000
-33.384499 75.233200 -725.687683 -0.295240 0.954144 0.049418 1.000000
-36.748199 74.739197 -728.665283 0.506922 0.255786 -0.823167 1.000000
-35.193298 74.905502 -728.151428 -0.501282 0.864610 0.034147 1.000000
-32.184200 75.557999 -726.536377 -0.187273 0.974071 0.126943 1.000000
-33.606701 75.175598 -727.605103 -0.331052 0.940398 0.077817 1.000000
-35.711601 74.932198 -729.758423 0.443563 0.825563 -0.348852 1.000000
-26.206100 75.208900 -725.247192 -0.341970 0.917165 0.204609 1.000000
-33.932098 75.288200 -729.183105 -0.090944 0.993650 -0.066243 1.000000
-31.323900 75.948997 -728.560303 0.301855 0.846742 0.438077 1.000000
-32.488201 75.302902 -729.574707 0.010325 0.983169 0.182408 1.000000
-34.345901 75.240303 -731.193970 -0.449799 0.892963 0.017249 1.000000
-32.836399 75.333801 -731.712280 -0.252205 0.954108 0.161464 1.000000
-31.447100 75.619400 -730.954590 -0.088608 0.996039 0.007473 1.000000
-33.965599 75.116798 -733.160522 0.031392 0.999482 0.007089 1.000000
-31.496901 75.544502 -732.562500 -0.188804 0.980098 -0.061331 1.000000
-30.179300 75.646004 -731.901672 -0.026036 0.998749 0.042699 1.000000
-24.662201 75.607697 -729.309387 0.103896 0.963287 0.247556 1.000000
-32.605301 75.237503 -733.704102 -0.154975 0.985450 -0.069798 1.000000
-31.160999 75.427696 -734.136108 -0.001162 0.977614 -0.210402 1.000000
-32.613098 75.250702 -735.232727 0.009478 0.997311 0.072666 1.000000
-28.943701 75.709900 -733.293274 -0.277114 0.960743 -0.013428 1.000000
-29.767401 75.603897 -734.553589 0.074217 0.946587 -0.313793 1.000000
-31.195499 75.347603 -735.619873 0.153122 0.968918 -0.194298 1.000000
-29.884300 75.406097 -736.472473 -0.103705 0.993557 0.045719 1.000000
-22.970400 77.961304 -734.174377 -0.126597 0.030249 0.991493 1.000000
-22.813801 75.496399 -731.372192 0.863690 0.253491 0.435640 1.000000
-26.514099 77.173798 -738.521423 -0.147707 0.988845 0.019168 1.000000
-29.241600 74.209198 -741.163818 -0.616897 0.085640 0.782371 1.000000
-11.833800 77.238899 -756.626526 0.644492 0.329551 -0.689947 1.000000
-13.156800 79.808601 -739.337402 -0.524851 0.738740 -0.422842 1.000000
-19.443899 76.684700 -732.846191 0.878052 0.326047 -0.350311 1.000000
-20.760700 76.505302 -733.920471 -0.202182 0.973235 -0.109253 1.000000
-22.180599 76.011597 -733.464722 -0.241286 0.968855 0.055681 1.000000
-21.195801 76.461601 -732.462280 -0.287246 0.957067 0.038885 1.000000
-23.855200 76.093399 -732.233398 0.354019 0.935169 -0.011420 1.000000
-20.648500 77.224197 -730.197021 -0.449249 0.810567 -0.375707 1.000000
-21.693300 76.155403 -730.654114 -0.604505 0.790955 -0.094681 1.000000
-24.756300 75.926003 -730.930298 0.119524 0.954879 0.271884 1.000000
-23.218100 75.679901 -729.756775 -0.002991 0.999852 -0.016947 1.000000
-27.260799 75.952904 -730.622070 0.007102 0.999414 0.033483 1.000000
-30.095600 75.759499 -730.397705 -0.219306 0.949416 -0.224754 1.000000
-25.149500 75.239098 -727.366882 -0.035862 0.963340 0.265877 1.000000
-36.224499 74.174400 -726.011475 -0.528001 0.781571 0.332208 1.000000
-36.044300 73.792801 -724.591675 -0.639877 0.722442 0.261984 1.000000
-24.319700 77.176903 -736.049072 -0.944084 0.325857 -0.050231 1.000000
-27.130600 76.532799 -758.975220 -0.901605 0.270039 -0.337917 1.000000
-40.523800 92.141098 -739.532227 0.000000 0.000000 0.000000 1.000000
-30.414400 76.428001 -756.718323 -0.565212 0.704443 -0.429296 1.000000
-20.565100 76.421700 -735.426514 -0.255125 0.963382 -0.082503 1.000000
-2.664800 73.538803 -771.740173 0.026823 0.076177 0.996733 1.000000
-1.912000 73.114799 -772.976074 -0.348484 0.404741 -0.845425 1.000000
-3.929500 73.885803 -770.632080 -0.174882 0.780126 -0.600682 1.000000
-2.386400 72.032097 -773.956787 -0.291773 0.588330 -0.754146 1.000000
-1.690400 71.360298 -775.065979 -0.417511 0.721155 -0.552830 1.000000
-5.765600 74.272202 -769.739014 0.073716 0.968306 -0.238641 1.000000
-4.432400 73.174500 -771.887512 0.183068 0.880189 -0.437898 1.000000
-3.753100 72.301300 -772.943726 -0.272944 0.815712 -0.510015 1.000000
-5.769000 73.333298 -770.924927 -0.233539 0.866354 -0.441464 1.000000
-3.745100 71.387497 -774.152283 -0.088056 0.812713 -0.575972 1.000000
-3.047900 70.694099 -775.261108 -0.333004 0.798254 -0.501896 1.000000
-7.611000 73.983299 -768.961975 -0.337673 0.879767 -0.334645 1.000000
-5.696700 72.336502 -772.038330 -0.185390 0.749222 -0.635843 1.000000
-7.330000 73.255501 -770.314026 -0.212388 0.627863 -0.748785 1.000000
-5.479600 71.459702 -773.260620 -0.226691 0.803443 -0.550536 1.000000
-7.062200 72.367401 -771.475708 -0.180978 0.839081 -0.513021 1.000000
-5.124100 70.911003 -774.616699 -0.144287 0.945281 -0.292619 1.000000
-4.359300 70.306396 -775.852417 -0.144202 0.807233 -0.572347 1.000000
-3.527000 69.106102 -777.888916 -0.184011 0.875892 -0.446042 1.000000
-2.757000 68.485703 -779.130615 -0.142370 0.881545 -0.450120 1.000000
-9.402600 73.045097 -769.285400 -0.390221 0.850402 -0.352909 1.000000
-8.632900 72.603401 -770.549805 -0.183109 0.929523 -0.320091 1.000000
-7.212500 71.759300 -772.879028 -0.168540 0.897442 -0.407666 1.000000
-8.428000 72.045502 -771.908691 -0.024594 0.928107 -0.371502 1.000000
-7.017700 70.983597 -774.189026 -0.071238 0.870218 -0.487490 1.000000
-6.256000 70.316803 -775.407471 -0.206743 0.846591 -0.490449 1.000000
-5.553700 69.637299 -776.522095 -0.438622 0.791462 -0.425674 1.000000
-5.260900 68.745796 -777.753479 -0.270748 0.596911 -0.755243 1.000000
-4.553100 68.091797 -778.882324 -0.414544 0.725040 -0.549973 1.000000
-3.848800 67.371696 -779.995605 -0.279268 0.710139 -0.646306 1.000000
-10.678800 72.582001 -769.851685 -0.080121 0.913927 -0.397891 1.000000
-9.914500 72.078796 -771.100830 -0.214235 0.902119 -0.374547 1.000000
-8.612000 71.360001 -773.250000 -0.204391 0.837246 -0.507192 1.000000
-3.622200 66.440598 -781.171387 -0.269133 0.782218 -0.561875 1.000000
-8.597000 70.451401 -774.466614 -0.277234 0.812906 -0.512178 1.000000
-7.896400 69.812599 -775.586121 -0.138665 0.791734 -0.594919 1.000000
-7.199800 69.033203 -776.678528 -0.106132 0.881603 -0.459905 1.000000
-5.967600 67.817703 -778.634216 0.213787 0.916845 -0.337181 1.000000
-3.549000 65.675201 -782.508423 -0.256807 0.838082 -0.481320 1.000000
-1.455000 63.709801 -785.846924 -0.280122 0.812197 -0.511731 1.000000
-0.660200 63.425201 -787.180908 -0.131759 0.806839 -0.575891 1.000000
-12.252100 72.708504 -769.817078 -0.578262 0.789934 0.204002 1.000000
-11.496200 72.114799 -771.040405 0.321032 0.941784 -0.099906 1.000000
-10.805900 71.414497 -772.134399 -0.146226 0.923313 -0.355120 1.000000
-10.044600 70.850998 -773.371277 -0.147658 0.912667 -0.381098 1.000000
-5.927800 67.061699 -779.951904 -0.098938 0.844562 -0.526238 1.000000
-5.208800 66.293297 -781.085571 -0.017591 0.864674 -0.502025 1.000000
-7.795700 68.419197 -777.924927 -0.190418 0.872381 -0.450214 1.000000
-4.280100 64.898399 -783.508301 -0.097864 0.866595 -0.489321 1.000000
-3.469800 64.073402 -784.793091 -0.274413 0.762963 -0.585308 1.000000
-2.113000 63.016499 -786.992676 -0.218773 0.824607 -0.521690 1.000000
-10.272400 70.014000 -774.645020 -0.117155 0.938591 -0.324534 1.000000
-9.507000 69.530800 -775.903870 -0.054524 0.921586 -0.384327 1.000000
-7.467700 67.502701 -779.145874 0.039844 0.942123 -0.332892 1.000000
-5.487600 65.483101 -782.286072 0.003970 0.882749 -0.469829 1.000000
-0.557900 61.044201 -790.193481 -0.234399 0.834952 -0.497907 1.000000
0.175500 60.716999 -791.420410 -0.316077 0.891307 -0.325065 1.000000
-12.971900 72.458504 -771.112671 -0.196884 0.798218 -0.569284 1.000000
-12.295500 71.604897 -772.159180 -0.109509 0.987935 -0.109509 1.000000
-11.609100 70.870300 -773.241516 0.279195 0.942112 -0.185672 1.000000
-9.163800 68.825500 -777.185730 -0.016829 0.922984 -0.384469 1.000000
-6.756900 66.362900 -780.998291 0.106889 0.789225 -0.604731 1.000000
-3.637400 63.178799 -785.940796 -0.303377 0.792592 -0.528924 1.000000
-2.244400 62.163799 -788.210815 -0.323853 0.864120 -0.385247 1.000000
0.559600 60.280102 -792.804688 -0.245853 0.886561 -0.391875 1.000000
-4.930600 63.989899 -784.503113 -0.145238 0.777097 -0.612394 1.000000
-8.858700 67.806900 -778.724121 0.063129 0.851545 -0.520467 1.000000
-5.839500 64.576500 -783.475220 -0.177636 0.840412 -0.512009 1.000000
-3.469800 62.371799 -787.257385 -0.236002 0.819067 -0.522907 1.000000
-2.242200 61.074600 -789.191772 -0.254598 0.713191 -0.653099 1.000000
0.585600 59.669998 -794.190125 -0.998123 0.032743 -0.051755 1.000000
-11.886300 70.167198 -774.590027 0.191429 0.830533 -0.523040 1.000000
-11.201900 69.327400 -775.647583 -0.051457 0.960108 -0.274854 1.000000
-8.404900 66.908203 -780.140930 0.004004 0.868810 -0.495129 1.000000
-7.153100 65.374199 -782.075928 -0.076300 0.796110 -0.600322 1.000000
-1.859600 60.428902 -790.518127 -0.298530 0.826818 -0.476710 1.000000
-1.094400 59.986599 -791.784119 -0.329010 0.802657 -0.497488 1.000000
-14.479100 72.980301 -770.949524 -0.027023 0.932938 -0.359020 1.000000
-10.675900 68.615700 -776.887573 -0.183782 0.844203 -0.503533 1.000000
-5.140200 63.049400 -785.664673 -0.165013 0.836958 -0.521798 1.000000
-3.525000 61.367699 -788.377808 -0.276411 0.785007 -0.554401 1.000000
-0.675800 59.557098 -793.153198 -0.419657 0.868099 -0.265126 1.000000
-14.053400 71.985298 -772.081909 0.020765 0.804290 -0.593874 1.000000
-13.387700 71.156303 -773.121216 -0.087274 0.930475 -0.355809 1.000000
-8.295200 66.017197 -781.305115 -0.144447 0.808606 -0.570343 1.000000
-10.753600 67.762100 -778.178528 -0.066856 0.899144 -0.432517 1.000000
-10.043900 67.196800 -779.347717 -0.265006 0.826013 -0.497468 1.000000
-7.633300 64.538696 -783.175415 -0.106132 0.881603 -0.459905 1.000000
-6.922800 63.851601 -784.322388 0.099356 0.839487 -0.534219 1.000000
-5.362500 62.069000 -786.788086 0.060033 0.921846 -0.382879 1.000000
-3.644000 60.528900 -789.585876 0.065070 0.879138 -0.472104 1.000000
-2.470600 59.546902 -791.509827 -0.279613 0.863286 -0.420183 1.000000
-0.703800 59.115799 -794.610229 -0.360675 0.913804 -0.186752 1.000000
-13.731000 70.499496 -774.390991 -0.089607 0.954508 -0.284404 1.000000
-12.997500 69.919098 -775.599670 0.132284 0.934173 -0.331393 1.000000
-12.267100 69.108200 -776.758179 0.115585 0.812019 -0.572071 1.000000
-9.813100 66.449699 -780.662781 -0.107989 0.850950 -0.514026 1.000000
-6.709600 62.931499 -785.570618 0.223197 0.867324 -0.444897 1.000000
-5.130800 61.278900 -788.093994 0.073686 0.767198 -0.637164 1.000000
-2.219800 58.925098 -792.881592 -0.284622 0.880973 -0.377990 1.000000
-0.417000 58.946999 -796.134521 0.336916 0.817773 -0.466621 1.000000
-15.798400 72.549202 -771.693726 0.136507 0.986414 0.091401 1.000000
-14.866000 71.288902 -773.130615 0.034328 0.858197 -0.512172 1.000000
-9.212000 65.215103 -782.150085 0.018055 0.790269 -0.612494 1.000000
-3.824300 59.705799 -790.799377 0.014454 0.905349 -0.424423 1.000000
-12.428900 68.248703 -778.046509 0.243648 0.440382 -0.864118 1.000000
-11.639100 67.355103 -779.297119 0.039375 0.881180 -0.471139 1.000000
-8.582600 63.939701 -784.145386 0.134636 0.937011 -0.322310 1.000000
-6.901100 62.219299 -786.844482 -0.023485 0.824741 -0.565023 1.000000
-5.343300 60.396301 -789.299072 -0.020088 0.885233 -0.464714 1.000000
-2.338900 58.447102 -794.346313 -0.226886 0.949663 -0.216018 1.000000
-13.691700 69.646797 -776.861206 0.038266 0.964057 -0.262925 1.000000
-11.335300 66.527000 -780.499023 0.071084 0.873911 -0.480860 1.000000
-10.616100 65.597603 -781.613525 0.023197 0.855572 -0.517164 1.000000
-8.243200 63.125198 -785.411072 0.092677 0.854054 -0.511862 1.000000
-4.097400 58.897099 -792.064087 -0.208225 0.858367 -0.468881 1.000000
-1.989500 58.304699 -795.759521 -0.504844 0.861692 -0.051176 1.000000
-16.360500 71.819397 -772.832886 0.202666 0.818283 -0.537903 1.000000
-15.430400 70.503502 -774.251770 0.126868 0.844326 -0.520595 1.000000
-14.700300 70.015701 -775.476196 -0.207734 0.935500 -0.285808 1.000000
-9.746900 64.462502 -783.328430 -0.043313 0.925325 -0.376693 1.000000
-6.775000 61.338001 -788.081421 -0.091478 0.596787 -0.797168 1.000000
-3.520900 58.327702 -793.369080 -0.248650 0.885908 -0.391586 1.000000
-5.351100 59.581799 -790.567383 -0.313531 0.820853 -0.477387 1.000000
-13.839100 68.762604 -778.097778 0.293156 0.816760 -0.496954 1.000000
-13.123700 67.482201 -779.135925 0.017144 0.903336 -0.428590 1.000000
-8.386300 62.299198 -786.707825 -0.004119 0.789493 -0.613745 1.000000
-6.806200 60.285500 -789.172913 -0.140950 0.808606 -0.571217 1.000000
-3.482500 57.567299 -794.679688 -0.475873 0.745919 -0.465993 1.000000
-11.062400 64.845802 -782.783386 0.252129 0.848070 -0.466056 1.000000
-9.724900 63.418598 -784.930176 -0.129587 0.887170 -0.442873 1.000000
-5.614400 58.627602 -791.679382 -0.175702 0.909938 -0.375689 1.000000
-17.832899 72.103996 -773.022888 -0.039051 0.953595 -0.298550 1.000000
-17.200001 71.156700 -773.977783 0.363523 0.799110 -0.478826 1.000000
-16.345100 70.112000 -775.321228 0.261473 0.851699 -0.454137 1.000000
-15.641900 69.539803 -776.492188 -0.263052 0.921400 -0.286051 1.000000
-13.143400 66.713997 -780.471130 0.012214 0.850895 -0.525194 1.000000
-12.429700 65.965897 -781.621216 -0.009319 0.882646 -0.469946 1.000000
-8.519800 61.262199 -787.782715 0.017988 0.798374 -0.601894 1.000000
-6.915100 59.224899 -790.286926 0.022816 0.881789 -0.471093 1.000000
-5.281600 57.980400 -793.026917 -0.210389 0.843070 -0.494944 1.000000
-3.731800 56.409500 -795.536682 0.476216 0.814789 -0.330662 1.000000
-11.276400 64.044899 -784.033875 0.405394 0.789792 -0.460308 1.000000
-9.989700 62.493401 -786.056396 0.017797 0.839217 -0.543506 1.000000
-4.918500 57.150501 -794.206177 -0.161773 0.778629 -0.606272 1.000000
-15.442300 69.159401 -777.937927 0.035592 0.965887 -0.256506 1.000000
-14.630700 68.259300 -779.227173 0.322101 0.770799 -0.549655 1.000000
-8.340800 60.309799 -788.989929 0.088025 0.806656 -0.584429 1.000000
-19.105900 71.544502 -774.226379 -0.217491 0.956695 -0.193474 1.000000
-18.389601 70.557098 -775.175903 0.612635 0.783056 -0.107248 1.000000
-17.668400 69.744003 -776.191528 0.147148 0.813028 -0.563323 1.000000
-16.943800 68.922096 -777.210327 -0.225349 0.960699 -0.162093 1.000000
-14.871200 67.208504 -780.333618 0.329530 0.495091 -0.803925 1.000000
-14.020100 66.136200 -781.495117 0.094510 0.873156 -0.478191 1.000000
-13.168400 65.296600 -782.734009 -0.017625 0.860928 -0.508422 1.000000
-11.383300 63.156300 -785.205688 0.141597 0.853962 -0.500699 1.000000
-9.908500 61.570499 -787.307922 0.015106 0.825348 -0.564423 1.000000
-17.185101 68.633301 -778.625427 -0.263960 0.945059 -0.192841 1.000000
-16.395901 68.317101 -779.906616 0.073441 0.882679 -0.464203 1.000000
-13.345400 64.383301 -783.961304 0.094001 0.811301 -0.577022 1.000000
-11.534500 62.356098 -786.470276 0.031818 0.831416 -0.554739 1.000000
-10.034400 60.634499 -788.534912 0.131305 0.902194 -0.410858 1.000000
-8.919700 59.580601 -790.143616 0.009688 0.765342 -0.643551 1.000000
-8.140800 58.810799 -791.256470 -0.079865 0.919124 -0.385788 1.000000
-7.356100 58.089901 -792.395874 0.070128 0.797171 -0.599667 1.000000
-6.570500 57.366100 -793.535889 -0.194266 0.835795 -0.513525 1.000000
-20.482700 70.582100 -776.018799 -0.190927 0.893420 -0.406630 1.000000
-19.745501 69.684601 -776.997620 0.116974 0.850585 -0.512662 1.000000
-19.004299 68.875099 -778.012817 0.230423 0.911549 -0.340563 1.000000
-17.001301 67.571098 -781.049377 0.191400 0.782445 -0.592576 1.000000
-16.304100 66.468300 -781.890930 0.402089 0.463452 -0.789644 1.000000
-15.603100 65.465797 -782.772217 -0.014741 0.875072 -0.483769 1.000000
-14.845600 64.717697 -783.835815 0.151037 0.797059 -0.584709 1.000000
-13.905400 63.655102 -785.111572 0.137305 0.825304 -0.547742 1.000000
-13.135600 62.740799 -786.141418 0.123808 0.843351 -0.522907 1.000000
-12.082600 61.559601 -787.573120 0.217041 0.842362 -0.493275 1.000000
-10.532700 59.827599 -789.682617 0.240023 0.884060 -0.401032 1.000000
-20.654699 69.162804 -778.029480 -0.090749 0.889336 -0.448158 1.000000
-19.846001 68.355904 -779.142517 0.154599 0.882805 -0.443570 1.000000
-19.034700 67.741402 -780.323914 -0.105441 0.940965 -0.321663 1.000000
-17.816000 66.948601 -782.141724 0.307692 0.776405 -0.550020 1.000000
-17.108999 65.798798 -782.966797 0.432179 0.538154 -0.723610 1.000000
-16.399300 64.833298 -783.857788 -0.034424 0.852333 -0.521865 1.000000
-15.631000 64.049896 -784.909485 0.108033 0.845534 -0.522877 1.000000
-14.678700 63.001301 -786.187317 0.086246 0.863875 -0.496268 1.000000
-13.845000 62.148201 -787.327515 0.094614 0.871299 -0.481545 1.000000
-12.865800 60.817699 -788.557495 0.386441 0.787433 -0.480221 1.000000
-12.061500 60.134998 -789.704224 0.020565 0.840421 -0.541544 1.000000
-11.218500 59.214001 -790.837585 -0.047348 0.896914 -0.439664 1.000000
-10.403800 58.616199 -792.030396 0.281557 0.945325 -0.164582 1.000000
-21.280300 68.567299 -779.387024 -0.040594 0.925803 -0.375821 1.000000
-20.520300 67.719299 -780.384216 0.022896 0.879461 -0.475421 1.000000
-19.698799 67.160004 -781.581177 -0.157820 0.884661 -0.438711 1.000000
-18.521200 66.129997 -783.221130 0.232716 0.754375 -0.613809 1.000000
-17.807301 65.161400 -784.100281 0.308707 0.429708 -0.848558 1.000000
-17.088499 64.174896 -784.981873 0.039425 0.882306 -0.469022 1.000000
-16.310699 63.402802 -786.034302 0.004064 0.841304 -0.540548 1.000000
-15.345900 62.329601 -787.301392 0.108195 0.846807 -0.520779 1.000000
-14.464500 61.335999 -788.454529 0.132173 0.785615 -0.604433 1.000000
-9.686800 56.082600 -794.749023 0.596050 0.545394 0.589296 1.000000
-8.924800 55.437599 -795.817383 0.470298 0.712925 0.520152 1.000000
-14.617900 60.462002 -789.709595 0.085105 0.809219 -0.581311 1.000000
-13.896300 59.461498 -790.573181 0.039782 0.943211 -0.329803 1.000000
-13.079000 58.710701 -791.680481 -0.099920 0.818182 -0.566211 1.000000
-12.261600 57.948299 -792.784119 0.011563 0.926363 -0.376455 1.000000
-11.502600 57.228100 -793.804626 0.119609 0.955558 -0.269449 1.000000
-21.829000 67.171898 -781.598999 -0.689177 0.710289 0.143264 1.000000
-20.992901 66.545998 -782.765686 0.106383 0.878012 -0.466666 1.000000
-20.214800 65.899101 -783.829712 0.094405 0.803173 -0.588219 1.000000
-19.431999 64.969101 -784.804871 0.097899 0.626848 -0.772967 1.000000
-18.703300 63.931999 -785.654480 0.176544 0.853049 -0.491060 1.000000
-17.971399 63.014900 -786.550293 0.060076 0.856437 -0.512744 1.000000
-17.180599 62.357201 -787.631287 -0.037193 0.855438 -0.516569 1.000000
-16.385700 61.622700 -788.693420 0.164375 0.845568 -0.507933 1.000000
-16.396601 60.756401 -789.915405 0.202162 0.819286 -0.536564 1.000000
-15.650400 59.916901 -790.852478 0.373274 0.754698 -0.539535 1.000000
-14.946200 58.868500 -791.648987 0.575446 0.632822 -0.518071 1.000000
-14.110800 58.176800 -792.783630 0.029139 0.822841 -0.567524 1.000000
-13.274700 57.485199 -793.918884 -0.140348 0.984838 -0.101963 1.000000
-22.061300 66.027298 -783.630371 0.121217 0.980756 -0.153052 1.000000
-21.271000 65.340401 -784.684387 0.065923 0.851391 -0.520372 1.000000
-20.482700 64.354897 -785.631714 0.171787 0.761638 -0.624817 1.000000
-19.629101 63.367001 -786.685120 0.137529 0.870051 -0.473389 1.000000
-18.831900 62.453201 -787.671570 0.106118 0.878660 -0.465506 1.000000
-18.034901 61.783699 -788.742615 0.019597 0.915831 -0.401085 1.000000
-10.201800 57.523899 -793.029175 0.028247 0.964095 -0.264051 1.000000
-8.899700 57.010899 -793.680908 -0.252104 0.884603 -0.392328 1.000000
-17.917601 60.971001 -790.036499 0.196104 0.854772 -0.480529 1.000000
-16.277100 59.357300 -792.068420 0.218726 0.852278 -0.475164 1.000000
-17.158400 60.135899 -791.100586 0.064057 0.900880 -0.429315 1.000000
-15.837000 58.384800 -793.145813 -0.126517 0.766543 -0.629607 1.000000
-22.979601 65.202698 -784.875610 0.352356 0.905014 -0.238316 1.000000
-22.149900 64.628998 -786.013306 0.293748 0.884258 -0.363043 1.000000
-21.366501 63.770100 -786.944885 0.108929 0.881334 -0.459765 1.000000
-20.580299 62.932098 -787.890503 0.806521 0.575664 -0.134667 1.000000
-15.393600 57.336399 -794.099121 0.158590 0.979814 -0.121708 1.000000
-14.571700 56.586601 -795.144409 0.233138 0.922541 -0.307514 1.000000
-18.970600 60.635300 -791.013672 0.212090 0.931228 -0.296364 1.000000
-17.979200 59.671902 -792.247070 0.354258 0.877282 -0.323849 1.000000
-17.600800 58.823299 -793.453491 0.155575 0.876747 -0.455094 1.000000
-16.798901 57.890202 -794.379211 0.724916 0.688318 -0.026744 1.000000
-23.520399 64.485703 -786.975586 0.698426 0.669919 -0.251813 1.000000
-22.677200 63.670502 -788.018311 -0.139817 0.528360 -0.837429 1.000000
-16.383101 57.018501 -795.549805 -0.801160 0.029260 -0.597735 1.000000
-19.089100 59.062099 -793.693115 -0.665116 0.690759 -0.283676 1.000000
-18.256100 58.414299 -794.790405 0.372586 0.866301 -0.332721 1.000000
-16.451900 56.570000 -796.972900 -0.750122 0.330699 -0.572674 1.000000
-17.960800 57.647598 -795.999084 0.318017 0.913393 -0.254124 1.000000
-17.906601 57.246700 -797.429871 0.219625 0.935853 -0.275580 1.000000
-19.276400 61.490700 -789.671082 -0.332475 0.531639 -0.778987 1.000000
-8.871200 51.532001 -803.872070 -0.087122 0.984600 -0.151569 1.000000
-1.714800 67.990997 -780.189026 -0.263284 0.877110 -0.401695 1.000000
-1.322600 67.357002 -781.536987 -0.333262 0.713668 -0.616128 1.000000
-1.626900 66.324898 -782.574829 -0.400389 0.713451 -0.575045 1.000000
-0.691100 65.898300 -783.657288 -0.331077 0.791706 -0.513409 1.000000
-0.379500 65.115097 -784.880493 -0.442360 0.789119 -0.426156 1.000000
0.556800 64.902802 -786.030579 -0.508228 0.798189 -0.323418 1.000000
-2.436900 65.201103 -783.335693 -0.121380 0.908259 -0.400415 1.000000
-1.794200 64.616302 -784.565918 -0.176563 0.902913 -0.391884 1.000000
-0.321100 62.433399 -788.334229 0.721506 0.382940 0.576876 1.000000
-9.019700 58.151199 -792.265381 -0.081168 0.841581 -0.533998 1.000000
-7.391700 56.504398 -794.402710 -0.018640 0.953135 -0.301971 1.000000
-11.245700 56.415501 -794.991882 0.020088 0.885233 -0.464714 1.000000
-11.075500 55.558701 -796.162598 0.080526 0.854708 -0.512825 1.000000
-13.130200 56.356300 -795.206116 0.064502 0.935939 -0.346205 1.000000
-13.134600 55.597599 -796.512695 -0.121490 0.827011 -0.548901 1.000000
-12.254600 54.684502 -797.317078 0.072339 0.838283 -0.540416 1.000000
-15.264500 55.670101 -796.575378 0.044085 0.412797 -0.909756 1.000000
-14.326100 54.790798 -797.463074 -0.051940 0.832436 -0.551682 1.000000
-13.393400 54.094398 -798.421387 0.137024 0.872629 -0.468768 1.000000
-14.912100 54.218399 -798.726685 0.800486 0.589754 -0.106829 1.000000
-19.361401 58.197201 -795.726807 -0.764860 0.559615 -0.319093 1.000000
-0.647200 72.303596 -774.229675 -0.092664 0.995324 -0.027254 1.000000
-0.910700 70.823402 -776.356201 -0.344263 0.706473 -0.618368 1.000000
-1.074600 69.638199 -777.502319 -0.299488 0.858531 -0.416211 1.000000
-0.069500 71.505402 -775.331787 0.288787 0.957298 -0.013518 1.000000
-0.573500 68.986504 -778.871826 -0.249014 0.884225 -0.395143 1.000000
0.467500 70.537399 -776.878113 0.960707 0.099295 -0.259197 1.000000
0.025100 68.401001 -780.218872 -0.314265 0.875995 -0.365883 1.000000
0.986100 69.877800 -778.096130 0.663701 0.613798 -0.427496 1.000000
0.518100 67.677597 -781.604980 -0.049923 0.899956 -0.433112 1.000000
1.150400 68.973198 -780.995972 -0.597438 0.380188 0.706063 1.000000
0.777500 64.618797 -787.760315 0.148363 0.606939 0.780778 1.000000
1.672400 65.902702 -785.873779 -0.406026 0.873938 -0.267162 1.000000
2.157900 65.820000 -787.635498 -0.941790 0.171359 -0.289254 1.000000
0.810000 66.205299 -784.697083 0.328050 0.735285 -0.593076 1.000000
-2.497100 70.104103 -776.865479 -0.397797 0.896137 -0.196713 1.000000
-13.909800 53.028599 -800.379395 -0.191365 0.836281 -0.513823 1.000000
-13.057600 52.262699 -801.440308 0.220810 0.884722 0.410499 1.000000
-12.254500 53.118599 -800.438110 -0.048695 0.927828 -0.369815 1.000000
-12.033200 53.719299 -799.117676 -0.058873 0.938049 -0.341465 1.000000
-11.678900 51.549400 -802.942078 0.618894 0.684909 0.384539 1.000000
-11.256900 52.435799 -801.854614 -0.533891 0.772610 -0.343561 1.000000
-10.745300 54.079498 -798.443176 0.041207 0.913200 -0.405423 1.000000
-10.439500 53.018200 -800.680115 0.222208 0.772288 -0.595143 1.000000
-9.916000 54.606300 -797.334778 0.014133 0.926332 -0.376443 1.000000
-9.986300 51.864700 -802.929321 0.189808 0.926547 -0.324783 1.000000
-9.420400 53.360802 -799.643677 -0.022526 0.899696 -0.435935 1.000000
-9.053500 52.140701 -801.826416 -0.122249 0.924420 -0.361252 1.000000
-8.753300 54.039101 -798.511475 0.038355 0.916542 -0.398094 1.000000
-8.237200 54.724300 -797.254272 -0.023637 0.802272 -0.596490 1.000000
-8.368600 52.839802 -800.666016 -0.100706 0.909109 -0.404202 1.000000
-7.603100 53.408199 -799.548096 0.003886 0.910626 -0.413214 1.000000
-7.404200 55.547199 -796.248779 0.159356 0.866956 -0.472221 1.000000
-7.779900 51.838299 -802.903015 -0.688324 0.703654 0.176297 1.000000
-6.983300 54.158100 -798.340515 -0.151777 0.883196 -0.443766 1.000000
-6.911300 52.338200 -801.782471 0.174740 0.870761 -0.459609 1.000000
-6.226100 54.844799 -797.193970 0.022526 0.899696 -0.435935 1.000000
-6.116400 55.919399 -795.570984 0.054139 0.862059 -0.503909 1.000000
-5.886300 52.963402 -800.940308 -0.553358 0.742708 -0.377067 1.000000
-5.607300 53.575100 -799.620728 -0.084978 0.947834 -0.307229 1.000000
-5.403200 54.264400 -798.337891 0.011695 0.913481 -0.406713 1.000000
-4.134700 54.701000 -797.709717 -0.589188 0.723020 -0.360694 1.000000
0.394900 66.682198 -783.062378 -0.003983 0.877635 -0.479313 1.000000
1.128800 69.402496 -779.523682 -0.260346 0.836495 -0.482179 1.000000
1.704300 67.358704 -783.022705 -0.204742 0.914895 -0.347918 1.000000
1.930000 68.650803 -782.244324 -0.575979 0.803378 -0.151101 1.000000
-0.817000 72.357300 -776.304382 0.788076 0.470904 -0.396466 1.000000
-3.844500 53.766201 -799.258423 0.324765 0.421107 0.846875 1.000000
-4.562600 55.452999 -796.442688 -0.271969 0.797041 -0.539221 1.000000
-10.721900 51.198601 -804.093384 0.659113 0.406757 -0.632549 1.000000
130.951096 60.895000 -807.813721 -0.337826 0.887356 0.313803 1.000000
129.503296 59.551601 -809.635071 -0.392916 0.784216 -0.480231 1.000000
132.472702 61.509201 -806.799377 -0.025614 0.992274 0.121389 1.000000
128.735794 58.951302 -810.753174 0.499331 0.853695 -0.147896 1.000000
130.884705 59.860600 -808.857300 0.507653 0.448124 -0.735849 1.000000
127.846001 59.602798 -813.878113 0.612658 0.777431 0.142304 1.000000
134.082703 61.766499 -806.026611 0.885819 0.085094 -0.456162 1.000000
132.294495 60.216301 -807.599609 0.519119 0.433423 -0.736655 1.000000
128.773499 58.751400 -812.261414 0.588080 0.792630 0.160932 1.000000
127.821899 60.189999 -815.328979 0.904570 0.400616 0.145807 1.000000
127.592003 60.571400 -816.820618 0.514311 0.838192 0.181433 1.000000
133.869400 60.411800 -806.645630 0.288981 0.443517 -0.848400 1.000000
131.075806 58.796101 -809.894287 0.149563 0.657172 -0.738752 1.000000
130.140594 58.270599 -810.996887 0.122535 0.900001 -0.418310 1.000000
135.851303 61.485699 -805.193115 -0.387713 0.697884 -0.602193 1.000000
132.558899 59.200802 -808.647095 0.451515 0.504440 -0.735986 1.000000
129.179199 58.365101 -813.668579 0.458710 0.885545 -0.073449 1.000000
128.642700 58.828899 -815.048584 0.791096 0.611615 0.009664 1.000000
127.826302 60.675499 -818.263794 0.697024 0.708863 0.108031 1.000000
135.306000 60.378899 -806.029907 0.497767 0.296776 -0.814956 1.000000
133.742706 59.297100 -807.672974 0.612691 0.545177 -0.572182 1.000000
130.202805 57.923199 -812.441406 0.339581 0.940474 0.013886 1.000000
128.499603 59.089901 -816.516418 0.852481 0.505660 0.132608 1.000000
132.490402 58.169201 -809.798584 0.395384 0.743191 -0.539757 1.000000
131.629501 57.955200 -811.073914 0.148950 0.922934 -0.354975 1.000000
128.041504 60.492100 -819.717896 0.873302 0.486956 -0.014756 1.000000
137.570007 60.610500 -804.454285 0.745020 0.664941 -0.052909 1.000000
