ply
format ascii 1.0
element vertex 689
property float x
property float y
property float z
property float nx
property float ny
property float nz
property float label
element face 0
property list uchar int vertex_indices
end_header
34.019901 27.590200 -734.461304 0.158814 0.962069 -0.221814 1.000000
33.795601 27.611601 -734.471924 0.113028 0.968996 -0.219707 1.000000
33.579800 27.647400 -734.488770 0.126701 0.960055 -0.249484 1.000000
33.354000 27.667400 -734.498779 0.195412 0.929263 -0.313503 1.000000
33.135899 27.700199 -734.514282 0.155830 0.919535 -0.360795 1.000000
32.917400 27.732800 -734.529785 0.009060 0.917628 -0.397337 1.000000
32.681301 27.737801 -734.533325 0.092974 0.928397 -0.359771 1.000000
32.479500 27.797899 -734.560730 0.393281 0.850295 -0.349756 1.000000
32.286800 27.900801 -734.606689 0.220557 0.912499 -0.344530 1.000000
32.080799 27.913601 -734.613525 -0.035541 0.917471 -0.396211 1.000000
31.871500 27.905199 -734.611023 -0.114386 0.891084 -0.439187 1.000000
31.656799 27.863899 -734.594177 -0.030531 0.906640 -0.420798 1.000000
31.448900 27.866699 -734.596619 0.011464 0.933678 -0.357931 1.000000
31.240400 27.866199 -734.597595 0.091068 0.943680 -0.318080 1.000000
31.033100 27.873899 -734.602173 0.028003 0.967945 -0.249596 1.000000
30.828199 27.896999 -734.613281 0.143313 0.967043 -0.210451 1.000000
30.621201 27.907101 -734.619019 0.146126 0.965982 -0.213369 1.000000
30.414801 27.921200 -734.626282 0.105857 0.981915 -0.156960 1.000000
30.212400 27.959600 -734.644226 0.129990 0.973030 -0.190567 1.000000
30.008499 27.989401 -734.658386 0.174626 0.981518 -0.078281 1.000000
29.804600 28.019100 -734.672485 0.080471 0.995410 -0.051810 1.000000
29.598801 28.037701 -734.681824 -0.065610 0.997052 -0.039796 1.000000
29.386600 28.021000 -734.675720 -0.667081 0.722288 -0.182489 1.000000
34.676800 27.662001 -734.402283 -0.122419 0.954342 -0.272481 1.000000
34.430500 27.628401 -734.337830 -0.124277 0.958896 -0.255095 1.000000
29.508101 27.996500 -734.530823 -0.094609 0.989311 0.110962 1.000000
29.261299 28.011499 -734.538879 -0.826289 0.069687 -0.558918 1.000000
35.911900 27.698999 -734.309326 0.744983 0.633468 0.209091 1.000000
35.763599 27.844000 -734.373779 0.704321 0.695272 -0.143277 1.000000
35.553600 27.885700 -734.393494 -0.102225 0.970506 -0.218332 1.000000
35.367298 27.836901 -734.373291 -0.303532 0.945360 -0.119006 1.000000
35.171501 27.772900 -734.346497 -0.207958 0.963931 -0.166105 1.000000
34.205799 27.613701 -734.283020 -0.047902 0.969101 -0.241968 1.000000
33.976501 27.628099 -734.290771 0.116933 0.955175 -0.271969 1.000000
33.694901 27.687201 -734.318481 0.130518 0.943225 -0.305438 1.000000
33.466801 27.704500 -734.327515 0.172375 0.926338 -0.334939 1.000000
33.254700 27.748199 -734.348083 0.226851 0.911740 -0.342444 1.000000
33.032700 27.776300 -734.361877 0.109836 0.907881 -0.404584 1.000000
32.805901 27.797300 -734.372620 0.135205 0.935510 -0.326404 1.000000
32.587299 27.831699 -734.388977 0.178331 0.891657 -0.416107 1.000000
32.415199 27.929800 -734.433228 0.383719 0.844182 -0.374322 1.000000
32.213600 27.974300 -734.453979 0.126625 0.886372 -0.445320 1.000000
32.008900 27.999300 -734.466309 -0.044259 0.905295 -0.422471 1.000000
31.792299 27.949400 -734.445923 -0.154988 0.879231 -0.450479 1.000000
31.581900 27.940001 -734.443115 -0.108461 0.918482 -0.380298 1.000000
31.366899 27.902500 -734.427979 0.035676 0.965722 -0.257116 1.000000
31.159500 27.913799 -734.434326 0.024235 0.984401 -0.174261 1.000000
30.949600 27.910000 -734.434021 0.025196 0.973061 -0.229167 1.000000
30.744801 27.937700 -734.447510 0.176323 0.951608 -0.251698 1.000000
30.540899 27.970501 -734.463196 0.166034 0.957684 -0.235104 1.000000
30.333700 27.983801 -734.470398 0.057231 0.975354 -0.213092 1.000000
30.126900 28.000500 -734.479126 0.106778 0.984997 -0.135572 1.000000
29.925400 28.047800 -734.501099 0.196850 0.960469 -0.196850 1.000000
29.717300 28.057301 -734.506714 -0.072940 0.989900 -0.121567 1.000000
34.963600 27.719801 -734.252380 -0.207463 0.967730 -0.143033 1.000000
35.825100 27.683100 -734.134705 0.725387 0.681246 0.098582 1.000000
35.639500 27.896999 -734.230225 0.033274 0.997156 0.067622 1.000000
34.742199 27.716200 -734.156921 -0.086257 0.986634 -0.138247 1.000000
34.498402 27.705900 -734.153992 -0.187707 0.967017 -0.172173 1.000000
34.068802 27.652500 -734.133484 0.019314 0.987264 -0.157917 1.000000
33.848801 27.682899 -734.148376 0.183911 0.954457 -0.234923 1.000000
33.571301 27.749500 -734.179626 0.176017 0.935521 -0.306297 1.000000
33.350601 27.779600 -734.194519 0.221638 0.930313 -0.292223 1.000000
33.136200 27.820200 -734.213806 0.193200 0.944077 -0.267192 1.000000
32.907398 27.838301 -734.223389 0.029825 0.929753 -0.366974 1.000000
32.701099 27.892500 -734.248718 0.194006 0.891263 -0.409893 1.000000
32.507702 27.967300 -734.283020 0.335551 0.809456 -0.481857 1.000000
31.884199 28.043800 -734.320984 -0.090860 0.887631 -0.451504 1.000000
29.998699 28.042900 -734.333679 0.187538 0.981953 0.024461 1.000000
29.647100 28.035101 -734.332825 -0.277611 0.956790 0.086511 1.000000
29.425400 27.971300 -734.306213 -0.111194 0.989039 0.097148 1.000000
29.196400 27.928499 -734.288879 -0.876849 0.106242 0.468880 1.000000
35.395100 27.873100 -734.146484 -0.226862 0.973465 -0.030008 1.000000
35.134800 27.833500 -734.130920 -0.272083 0.959318 -0.075366 1.000000
34.257702 27.693399 -734.075500 -0.044223 0.978879 -0.199600 1.000000
32.338200 28.056801 -734.250122 0.315047 0.832289 -0.456113 1.000000
32.134102 28.086599 -734.264709 0.020133 0.881839 -0.471120 1.000000
31.708099 28.037600 -734.246216 -0.170160 0.885703 -0.431944 1.000000
31.496500 28.022900 -734.241211 -0.179299 0.884833 -0.430026 1.000000
31.278799 27.972500 -734.220581 -0.040030 0.938776 -0.342195 1.000000
31.071100 27.983999 -734.227173 0.068582 0.948500 -0.309265 1.000000
30.863800 27.998600 -734.235229 0.095321 0.951906 -0.291187 1.000000
30.654400 28.000601 -734.237488 0.083218 0.972537 -0.217361 1.000000
30.447901 28.020599 -734.247925 0.025614 0.992274 -0.121389 1.000000
30.236401 28.011801 -734.245605 -0.030385 0.998522 -0.045054 1.000000
29.826401 28.070400 -734.274475 0.047656 0.986828 0.154592 1.000000
34.911400 27.750401 -734.074585 -0.223117 0.959799 -0.170308 1.000000
35.764000 27.834801 -734.031799 0.690312 0.499766 -0.523166 1.000000
35.566502 27.898800 -734.061829 0.008042 0.982277 -0.187264 1.000000
34.588902 27.721500 -733.991516 -0.076868 0.947171 -0.311381 1.000000
33.949699 27.717199 -733.995117 0.210702 0.885538 -0.414037 1.000000
33.742901 27.769699 -734.020081 0.221749 0.876578 -0.427127 1.000000
33.466400 27.838800 -734.052979 0.199686 0.912233 -0.357710 1.000000
33.239700 27.860300 -734.064514 0.242765 0.886168 -0.394680 1.000000
33.027302 27.904900 -734.086121 0.118964 0.905524 -0.407276 1.000000
30.073601 28.026100 -734.164917 0.079305 0.996206 -0.035850 1.000000
29.581200 28.018499 -734.165771 -0.215896 0.972157 -0.091101 1.000000
29.352301 27.959999 -734.141785 -0.183199 0.956112 -0.228665 1.000000
35.961899 27.846001 -733.864685 0.094092 0.571792 0.814985 1.000000
35.672501 27.887699 -733.885925 -0.011295 0.999134 -0.040048 1.000000
35.449299 27.909201 -733.897583 -0.121497 0.991276 -0.051097 1.000000
35.252499 27.844700 -733.870728 -0.233875 0.969269 -0.076291 1.000000
35.069199 27.803200 -733.854004 -0.148474 0.976936 -0.153465 1.000000
34.806999 27.762600 -733.838379 -0.076455 0.986863 -0.142325 1.000000
34.485298 27.755501 -733.838318 -0.099240 0.971042 -0.217322 1.000000
34.236301 27.738501 -733.833008 0.064702 0.933551 -0.352557 1.000000
33.593102 27.858500 -733.892273 0.154591 0.926156 -0.344001 1.000000
33.369598 27.884800 -733.906128 0.260057 0.893109 -0.367051 1.000000
32.886101 28.007900 -733.965271 0.231243 0.859981 -0.454928 1.000000
32.656300 28.039600 -733.981506 0.071313 0.868346 -0.490804 1.000000
32.456402 28.098000 -734.009277 0.378969 0.826120 -0.417024 1.000000
32.259399 28.174299 -734.044983 0.244235 0.857097 -0.453579 1.000000
32.055302 28.205500 -734.060913 0.009534 0.832222 -0.554361 1.000000
31.845200 28.199400 -734.060120 -0.167409 0.851857 -0.496300 1.000000
31.629801 28.161301 -734.045227 -0.205765 0.851598 -0.482122 1.000000
31.409901 28.097601 -734.018921 -0.180327 0.850967 -0.493293 1.000000
31.190901 28.041700 -733.996094 -0.116419 0.924506 -0.362954 1.000000
30.981199 28.042299 -733.998413 0.006102 0.957976 -0.286783 1.000000
30.771299 28.042500 -734.000427 -0.001150 0.980932 -0.194346 1.000000
30.564100 28.059500 -734.009888 0.041506 0.980726 -0.190927 1.000000
30.351400 28.044600 -734.005188 -0.068953 0.987547 -0.141412 1.000000
29.929199 28.036301 -734.005493 0.091254 0.994996 0.040679 1.000000
29.719801 28.042700 -734.010315 -0.156536 0.987641 -0.007883 1.000000
29.502399 28.005501 -733.995789 -0.132310 0.985769 -0.103702 1.000000
35.849701 27.716200 -733.562988 0.275784 0.792682 0.543689 1.000000
35.695202 27.851999 -733.625122 0.378902 0.366428 -0.849802 1.000000
35.501400 27.922400 -733.658386 0.131303 0.990945 -0.028056 1.000000
35.239601 27.880699 -733.642395 -0.162994 0.986057 0.033524 1.000000
35.043598 27.818100 -733.616394 -0.115998 0.992176 0.046174 1.000000
34.785599 27.784500 -733.604004 -0.019359 0.999538 -0.023435 1.000000
34.550499 27.789200 -733.608521 -0.193816 0.961167 -0.196453 1.000000
34.319099 27.800501 -733.615784 0.142886 0.960878 -0.237270 1.000000
34.093498 27.821699 -733.627502 0.101171 0.964330 -0.244604 1.000000
33.878300 27.860399 -733.646912 0.223435 0.939536 -0.259517 1.000000
33.669201 27.909100 -733.670715 0.145573 0.952233 -0.268442 1.000000
33.447701 27.938400 -733.685913 0.243145 0.919346 -0.309326 1.000000
33.239300 27.988899 -733.710388 0.297443 0.901208 -0.315201 1.000000
33.037201 28.049801 -733.739624 0.273749 0.875695 -0.397768 1.000000
32.826698 28.097500 -733.762878 0.302610 0.842653 -0.445380 1.000000
32.624100 28.164101 -733.794617 0.145744 0.881679 -0.448776 1.000000
32.427101 28.240999 -733.830872 0.391975 0.807948 -0.439972 1.000000
32.226299 28.293501 -733.856323 0.230958 0.861941 -0.451349 1.000000
32.020100 28.311701 -733.866516 -0.071961 0.911050 -0.405967 1.000000
31.801701 28.253901 -733.842773 -0.110162 0.862694 -0.493581 1.000000
31.593300 28.259600 -733.847473 -0.240153 0.862436 -0.445567 1.000000
31.374201 28.201099 -733.823486 -0.246242 0.842729 -0.478719 1.000000
31.154400 28.140200 -733.798584 -0.210994 0.883813 -0.417561 1.000000
30.940399 28.116100 -733.789978 -0.017034 0.910683 -0.412755 1.000000
30.730000 28.114000 -733.791077 -0.064220 0.963293 -0.260656 1.000000
30.514799 28.084400 -733.780029 -0.127798 0.982218 -0.137535 1.000000
30.300800 28.063299 -733.772827 -0.055987 0.990633 -0.124543 1.000000
30.090700 28.065701 -733.775879 -0.073569 0.980521 -0.182114 1.000000
29.876900 28.047600 -733.770020 0.040196 0.996210 -0.077133 1.000000
29.663200 28.031000 -733.764709 -0.216021 0.976228 -0.017707 1.000000
29.445400 27.992599 -733.749817 -0.375749 0.879767 0.291244 1.000000
29.274000 27.931700 -733.724426 -0.371195 0.920398 0.122812 1.000000
35.709900 27.724001 -733.276184 0.602613 0.397890 0.691767 1.000000
35.561501 27.870300 -733.343079 0.137073 0.987629 0.076152 1.000000
35.334099 27.885401 -733.352173 -0.050463 0.997450 0.050463 1.000000
35.137501 27.821501 -733.325684 -0.152639 0.985643 0.072178 1.000000
34.957401 27.785299 -733.311279 -0.164570 0.986286 0.012485 1.000000
34.728600 27.799900 -733.320190 0.126436 0.989448 -0.070758 1.000000
34.494202 27.806000 -733.325317 -0.001106 0.990081 -0.140492 1.000000
34.278702 27.843399 -733.344177 0.171540 0.982456 -0.073174 1.000000
34.060799 27.877199 -733.361572 0.185616 0.962306 -0.198780 1.000000
33.847900 27.919500 -733.382690 0.218937 0.954994 -0.200132 1.000000
33.640400 27.971001 -733.407776 0.291085 0.939473 -0.180721 1.000000
33.437401 28.029900 -733.436218 0.274588 0.921522 -0.274588 1.000000
33.243500 28.103500 -733.471130 0.369562 0.882423 -0.291124 1.000000
33.047199 28.173599 -733.504395 0.364732 0.871388 -0.328106 1.000000
32.836800 28.221300 -733.527893 0.263706 0.861237 -0.434430 1.000000
32.630798 28.276300 -733.554626 0.259243 0.848292 -0.461729 1.000000
32.439999 28.338900 -733.584473 0.361468 0.795229 -0.486777 1.000000
32.242100 28.410000 -733.618286 0.221397 0.856971 -0.465385 1.000000
32.037998 28.441700 -733.634583 -0.074846 0.910405 -0.406892 1.000000
31.822001 28.398701 -733.617615 -0.059635 0.866783 -0.495107 1.000000
31.607599 28.368000 -733.606079 -0.333222 0.864536 -0.376219 1.000000
31.388399 28.308201 -733.581482 -0.214649 0.898023 -0.384032 1.000000
31.174101 28.280800 -733.571472 -0.196517 0.910865 -0.362912 1.000000
30.960100 28.256399 -733.562805 -0.150737 0.930700 -0.333282 1.000000
30.744801 28.224899 -733.550903 -0.199367 0.913644 -0.354270 1.000000
30.522699 28.155199 -733.521973 -0.181534 0.935385 -0.303480 1.000000
30.309401 28.138901 -733.516907 -0.097968 0.975959 -0.194696 1.000000
30.093000 28.104900 -733.503906 -0.148684 0.986936 -0.062049 1.000000
29.877001 28.075199 -733.492920 -0.109998 0.992248 -0.057834 1.000000
29.660601 28.044300 -733.481201 -0.198266 0.979457 0.036804 1.000000
29.391399 28.000900 -733.464600 0.107707 0.671326 0.733294 1.000000
35.845501 27.667299 -732.900696 0.638058 0.737900 0.219966 1.000000
35.649399 27.776699 -732.952026 0.083548 0.987273 -0.135323 1.000000
35.487900 27.901501 -733.009705 -0.028991 0.984533 0.172786 1.000000
35.233299 27.871599 -732.999023 -0.021525 0.999385 0.027675 1.000000
35.020901 27.781601 -732.960876 -0.158382 0.987362 -0.005616 1.000000
34.787800 27.788900 -732.966675 0.041196 0.998212 0.043309 1.000000
34.562401 27.809601 -732.978516 0.100753 0.992817 0.064527 1.000000
34.350201 27.852200 -732.999878 0.239084 0.969821 0.047817 1.000000
34.143002 27.903500 -733.025085 0.206362 0.974967 -0.082792 1.000000
33.934502 27.952900 -733.049622 0.230691 0.965294 -0.122434 1.000000
33.731201 28.010900 -733.077820 0.286194 0.945390 -0.155983 1.000000
33.530399 28.073200 -733.107910 0.330539 0.930764 -0.156280 1.000000
33.332901 28.141001 -733.140381 0.355029 0.917983 -0.176807 1.000000
33.141201 28.218300 -733.177185 0.470731 0.852159 -0.228554 1.000000
32.952801 28.300900 -733.216309 0.458334 0.816754 -0.350490 1.000000
32.762501 28.380400 -733.254089 0.320271 0.852509 -0.413103 1.000000
32.567402 28.452499 -733.288513 0.285984 0.861010 -0.420565 1.000000
32.375500 28.529800 -733.325317 0.291472 0.868312 -0.401346 1.000000
32.179699 28.581499 -733.350586 0.110885 0.896903 -0.428099 1.000000
31.969999 28.578199 -733.351379 -0.020066 0.886907 -0.461513 1.000000
31.752899 28.528900 -733.331726 -0.364342 0.845962 -0.389362 1.000000
31.533001 28.464001 -733.304871 -0.158423 0.879321 -0.449107 1.000000
31.318600 28.434900 -733.294189 -0.210363 0.889996 -0.404543 1.000000
31.101101 28.387800 -733.275391 -0.178469 0.909478 -0.375499 1.000000
30.885799 28.356400 -733.263611 -0.196208 0.912294 -0.359475 1.000000
30.670099 28.323299 -733.251099 -0.241244 0.914416 -0.325029 1.000000
30.445801 28.241301 -733.216675 -0.188699 0.884984 -0.425670 1.000000
30.223400 28.172199 -733.188171 -0.255350 0.932520 -0.255350 1.000000
30.013000 28.174900 -733.191711 -0.134152 0.962511 -0.235744 1.000000
29.793400 28.125299 -733.171814 -0.309691 0.945022 -0.105002 1.000000
29.572100 28.068001 -733.148376 -0.085401 0.994863 0.054346 1.000000
35.733101 27.558100 -732.477417 0.926724 0.116354 0.357275 1.000000
35.579800 27.652800 -732.521790 0.508018 0.851548 -0.129552 1.000000
35.418999 27.779600 -732.580688 0.119254 0.984144 0.131299 1.000000
35.181900 27.779200 -732.583130 -0.005306 0.996466 0.083835 1.000000
34.938000 27.768200 -732.580872 -0.047148 0.998487 0.028289 1.000000
34.702099 27.771299 -732.585022 0.089272 0.993295 -0.073452 1.000000
34.485901 27.807400 -732.603577 0.202846 0.979053 0.017588 1.000000
34.282501 27.864700 -732.631714 0.357229 0.931960 0.061955 1.000000
34.087502 27.936100 -732.666016 0.259932 0.965287 -0.025627 1.000000
33.891300 28.005699 -732.699585 0.249704 0.964591 -0.084925 1.000000
33.687500 28.063200 -732.727722 0.319380 0.945105 -0.069090 1.000000
33.488899 28.129101 -732.759583 0.342615 0.933050 -0.109691 1.000000
33.301701 28.213699 -732.799805 0.509023 0.839363 -0.190696 1.000000
33.119099 28.305500 -732.843323 0.485378 0.840607 -0.240392 1.000000
32.942799 28.407499 -732.891174 0.526629 0.812469 -0.250110 1.000000
32.770401 28.515600 -732.941772 0.413678 0.865518 -0.282400 1.000000
32.566299 28.573299 -732.969971 0.163698 0.906746 -0.388606 1.000000
32.373699 28.649500 -733.006470 0.326447 0.838765 -0.435783 1.000000
32.168701 28.705999 -733.034180 0.097698 0.912311 -0.397674 1.000000
31.927601 28.706400 -733.037109 -0.036008 0.905527 -0.422757 1.000000
31.701300 28.653400 -733.015686 -0.339306 0.853687 -0.395082 1.000000
31.485100 28.611900 -732.999512 -0.271474 0.854300 -0.443254 1.000000
31.264999 28.547899 -732.973083 -0.185875 0.885470 -0.425904 1.000000
31.048201 28.505800 -732.956482 -0.261362 0.885644 -0.383829 1.000000
30.829300 28.452999 -732.935181 -0.266998 0.890490 -0.368427 1.000000
30.611401 28.407301 -732.917114 -0.252031 0.910515 -0.327785 1.000000
30.393600 28.364300 -732.900085 -0.276649 0.938381 -0.207139 1.000000
30.170700 28.293200 -732.870483 -0.270780 0.928591 -0.253767 1.000000
29.950600 28.239799 -732.848877 -0.323919 0.907267 -0.268223 1.000000
29.728100 28.174500 -732.822021 -0.155569 0.956020 -0.248645 1.000000
29.504999 28.107401 -732.794312 -0.124762 0.562165 0.817561 1.000000
35.592201 27.538200 -732.133179 0.412823 0.855022 0.313869 1.000000
35.527802 27.695101 -732.204895 -0.021069 0.992445 0.120868 1.000000
35.362400 27.814699 -732.260925 0.196764 0.973795 0.114048 1.000000
35.126801 27.816799 -732.264526 0.234923 0.954457 0.183911 1.000000
34.923901 27.742599 -732.233276 -0.035631 0.996584 0.074501 1.000000
34.691898 27.752199 -732.240173 0.071517 0.995733 0.058314 1.000000
34.486698 27.806700 -732.267212 0.265829 0.958281 0.105035 1.000000
34.286098 27.868799 -732.297607 0.377565 0.924837 0.046045 1.000000
34.088100 27.935499 -732.330017 0.253013 0.966385 0.045666 1.000000
33.895699 28.011600 -732.366516 0.320049 0.944470 0.074460 1.000000
33.703300 28.087601 -732.403076 0.454041 0.890972 -0.003948 1.000000
33.518299 28.175699 -732.445007 0.317874 0.937249 -0.143248 1.000000
33.328899 28.256800 -732.483826 0.566446 0.803351 -0.183753 1.000000
33.153599 28.360701 -732.532776 0.609443 0.756712 -0.236570 1.000000
32.997898 28.495701 -732.595581 0.549866 0.794250 -0.258484 1.000000
32.819199 28.593700 -732.641907 0.545385 0.798544 -0.254721 1.000000
32.645100 28.699100 -732.691528 0.342948 0.851939 -0.395710 1.000000
32.455700 28.779900 -732.730225 0.437861 0.779685 -0.447627 1.000000
32.272701 28.871099 -732.773499 0.210505 0.837476 -0.504303 1.000000
32.038601 28.881800 -732.781006 0.034632 0.838099 -0.544418 1.000000
31.854401 28.845200 -732.766602 -0.281615 0.797648 -0.533339 1.000000
31.648399 28.829100 -732.761597 -0.182598 0.822446 -0.538740 1.000000
31.426701 28.752399 -732.729492 -0.311191 0.813519 -0.491271 1.000000
31.203800 28.671600 -732.695374 -0.380594 0.844198 -0.377462 1.000000
30.983299 28.607100 -732.668823 -0.216003 0.919801 -0.327581 1.000000
30.764799 28.557600 -732.648926 -0.330145 0.891841 -0.309231 1.000000
30.541599 28.481001 -732.616821 -0.294437 0.892279 -0.342264 1.000000
30.325500 28.448700 -732.604675 -0.240419 0.917046 -0.318159 1.000000
30.101601 28.372200 -732.572571 -0.224785 0.920615 -0.319280 1.000000
29.880899 28.316200 -732.549805 -0.327740 0.890436 -0.315768 1.000000
29.659201 28.256100 -732.525208 0.114875 0.936573 -0.331112 1.000000
29.500099 28.152100 -732.479980 -0.395807 0.664094 -0.634284 1.000000
35.459999 27.478201 -731.838379 0.390842 0.887196 0.245205 1.000000
35.313499 27.630501 -731.909119 0.174060 0.968289 0.179217 1.000000
35.108700 27.684700 -731.936096 0.163800 0.981586 0.098280 1.000000
34.897202 27.728100 -731.958313 0.187330 0.976349 0.107932 1.000000
34.678398 27.759800 -731.975220 0.051334 0.998391 0.024095 1.000000
34.473301 27.814501 -732.002380 0.293988 0.955770 -0.008611 1.000000
34.277000 27.884001 -732.036316 0.339816 0.939945 0.032058 1.000000
34.078098 27.949200 -732.068176 0.310675 0.947624 0.074094 1.000000
33.875801 28.009100 -732.097717 0.319720 0.946320 0.047509 1.000000
33.682999 28.084700 -732.134277 0.570092 0.821320 -0.020706 1.000000
33.513599 28.198500 -732.187805 0.504806 0.854844 -0.120054 1.000000
33.340401 28.305901 -732.238525 0.605328 0.766336 -0.215193 1.000000
33.175098 28.425800 -732.294922 0.583590 0.796623 -0.157524 1.000000
33.012001 28.549000 -732.352600 0.683483 0.699052 -0.210183 1.000000
32.853500 28.679501 -732.413574 0.612521 0.739798 -0.278419 1.000000
32.686298 28.795500 -732.468201 0.459840 0.802717 -0.379728 1.000000
32.506699 28.891899 -732.513977 0.435288 0.771129 -0.464634 1.000000
32.323700 28.982901 -732.557373 0.328248 0.786194 -0.523596 1.000000
32.116699 29.035999 -732.583923 0.137416 0.823019 -0.551142 1.000000
31.871599 29.029499 -732.583923 -0.171117 0.782899 -0.598153 1.000000
31.664101 28.956499 -732.553223 -0.378082 0.774013 -0.507895 1.000000
31.480900 28.919901 -732.538818 -0.349860 0.778721 -0.520760 1.000000
31.253799 28.811501 -732.492310 -0.375247 0.824909 -0.422746 1.000000
31.030500 28.729200 -732.457581 -0.317525 0.816719 -0.481817 1.000000
30.814501 28.694099 -732.444275 -0.363210 0.834911 -0.413525 1.000000
30.590700 28.612700 -732.409973 -0.312119 0.862556 -0.398221 1.000000
30.363600 28.514299 -732.367981 -0.356030 0.872502 -0.334638 1.000000
30.146200 28.475901 -732.353271 -0.152159 0.936257 -0.316655 1.000000
29.926100 28.423300 -732.331970 -0.331856 0.887452 -0.319843 1.000000
29.702200 28.350000 -732.301392 0.024464 0.930926 -0.364387 1.000000
29.545900 28.261299 -732.263123 -0.440313 0.884956 -0.151583 1.000000
35.396198 27.438400 -731.598816 0.397617 0.714390 0.575802 1.000000
35.262600 27.612499 -731.679504 0.206415 0.978430 -0.008163 1.000000
35.055698 27.663601 -731.705322 0.021825 0.998762 0.044690 1.000000
34.846802 27.711500 -731.729675 0.262925 0.964057 -0.038266 1.000000
34.641399 27.765499 -731.756714 0.225371 0.941583 -0.250259 1.000000
34.433300 27.815399 -731.781982 0.254269 0.954509 -0.155757 1.000000
34.226299 27.867300 -731.808105 0.320599 0.943325 -0.085757 1.000000
34.033298 27.942600 -731.844727 0.349316 0.933722 -0.078364 1.000000
33.839802 28.017200 -731.880981 0.449691 0.889696 -0.078869 1.000000
33.662701 28.118401 -731.929077 0.580035 0.795087 -0.177191 1.000000
33.495602 28.235901 -731.984619 0.637277 0.711118 -0.296968 1.000000
33.333801 28.361601 -732.043701 0.468961 0.844129 -0.259850 1.000000
33.167500 28.480101 -732.099609 0.612984 0.771173 -0.171879 1.000000
33.007099 28.607599 -732.159485 0.692899 0.677115 -0.247802 1.000000
32.862000 28.759399 -732.230286 0.769207 0.565359 -0.297809 1.000000
32.696499 28.878300 -732.286316 0.734368 0.553651 -0.392649 1.000000
32.526501 28.989799 -732.339111 0.441761 0.723031 -0.531105 1.000000
32.341599 29.077400 -732.381226 0.364720 0.769965 -0.523576 1.000000
32.143600 29.144501 -732.414124 0.197407 0.788097 -0.583039 1.000000
31.907700 29.152100 -732.420471 -0.154393 0.801946 -0.577101 1.000000
31.700100 29.078699 -732.389709 -0.401510 0.772135 -0.492541 1.000000
31.491301 29.004101 -732.358398 -0.266424 0.770896 -0.578566 1.000000
31.275801 28.970699 -732.345886 -0.355916 0.742711 -0.567190 1.000000
31.120199 28.873501 -732.303589 -0.395423 0.733419 -0.552935 1.000000
30.899401 28.807100 -732.276184 -0.338746 0.778634 -0.528187 1.000000
30.675800 28.726700 -732.242371 -0.292712 0.734180 -0.612617 1.000000
30.455299 28.666500 -732.217773 -0.263647 0.519494 -0.812783 1.000000
30.228399 28.570499 -732.176880 -0.309672 0.758938 -0.572814 1.000000
30.011999 28.539000 -732.165283 -0.324503 0.892758 -0.312540 1.000000
29.787100 28.459000 -732.131775 -0.142375 0.884451 -0.444383 1.000000
29.559999 28.368299 -732.093323 -0.483598 0.691093 -0.537145 1.000000
29.375401 28.285700 -732.058105 -0.361982 0.808479 -0.464038 1.000000
35.292900 27.492399 -731.407715 -0.251842 0.567818 0.783683 1.000000
35.122200 27.604500 -731.460815 0.065455 0.953590 0.293906 1.000000
34.924500 27.671301 -731.493713 0.291856 0.954585 0.059901 1.000000
34.727901 27.740000 -731.527527 0.199685 0.979742 0.015181 1.000000
34.524601 27.797800 -731.556274 0.285536 0.957237 -0.046541 1.000000
34.321499 27.856300 -731.585388 0.346924 0.936041 -0.058912 1.000000
34.122398 27.921499 -731.617615 0.284913 0.957658 -0.041419 1.000000
33.927601 27.993900 -731.653076 0.368748 0.923910 -0.102052 1.000000
33.747200 28.090000 -731.698975 0.558723 0.821308 -0.115246 1.000000
33.577400 28.203199 -731.752686 0.570700 0.820641 -0.029160 1.000000
33.409698 28.319700 -731.807922 0.398444 0.914395 0.071585 1.000000
33.253899 28.455099 -731.871521 0.612494 0.790269 0.018055 1.000000
33.097500 28.589300 -731.934509 0.691586 0.703746 -0.162637 1.000000
32.952099 28.740900 -732.005371 0.771066 0.621345 -0.139241 1.000000
32.801701 28.884001 -732.072388 0.850693 0.474629 -0.225942 1.000000
32.643700 29.014601 -732.133789 0.502474 0.650360 -0.569695 1.000000
32.482201 29.139500 -732.192688 0.456025 0.745773 -0.485658 1.000000
32.297699 29.227600 -732.234985 0.361981 0.754803 -0.547030 1.000000
32.088600 29.276899 -732.260071 0.193050 0.807163 -0.557870 1.000000
31.847401 29.276199 -732.262878 -0.185990 0.739350 -0.647124 1.000000
31.636400 29.197399 -732.229614 -0.307801 0.704235 -0.639774 1.000000
31.405800 29.088900 -732.183105 -0.463810 0.758814 -0.457255 1.000000
31.193501 29.021700 -732.155212 -0.357992 0.816222 -0.453457 1.000000
30.968000 28.925900 -732.114380 -0.260628 0.834317 -0.485786 1.000000
30.755100 28.909401 -732.109497 -0.236002 0.819067 -0.522907 1.000000
30.539600 28.878500 -732.098083 0.054984 0.819117 -0.570985 1.000000
30.320000 28.824301 -732.076172 -0.593076 0.735285 -0.328050 1.000000
30.150200 28.649500 -731.998779 -0.666960 0.627240 -0.402162 1.000000
29.991699 28.543699 -731.952576 -0.353072 0.743567 -0.567845 1.000000
29.778500 28.533199 -731.950500 -0.004025 0.862651 -0.505784 1.000000
29.552200 28.447701 -731.914429 -0.177074 0.797589 0.576625 1.000000
35.004398 27.504700 -731.170471 0.512284 0.727808 0.455916 1.000000
34.877102 27.689699 -731.256470 0.531135 0.846797 0.028821 1.000000
34.681198 27.759701 -731.291016 0.244479 0.969486 -0.018065 1.000000
34.486198 27.831600 -731.326416 0.215483 0.973982 -0.070186 1.000000
34.288799 27.899599 -731.359985 0.375974 0.926370 0.021964 1.000000
34.091900 27.968500 -731.393921 0.392122 0.909330 -0.139140 1.000000
33.901001 28.047501 -731.432373 0.443343 0.867150 -0.226932 1.000000
33.733700 28.164900 -731.488220 0.594902 0.781478 -0.188105 1.000000
33.552399 28.259600 -731.533813 0.557349 0.812738 -0.169759 1.000000
33.383701 28.374300 -731.588318 0.512796 0.843823 -0.158124 1.000000
33.229000 28.511700 -731.653015 0.752761 0.641129 -0.149345 1.000000
33.079300 28.656700 -731.721130 0.730365 0.682884 -0.015361 1.000000
32.949299 28.832899 -731.803223 0.827977 0.558076 -0.054824 1.000000
32.795502 28.970501 -731.867981 0.868496 0.485961 -0.097759 1.000000
32.667599 29.149000 -731.951111 0.541936 0.770289 -0.336097 1.000000
32.486900 29.243000 -731.996399 0.427563 0.660476 -0.617221 1.000000
32.311901 29.346201 -732.045715 0.378389 0.764898 -0.521300 1.000000
32.112499 29.410601 -732.077820 0.308919 0.760294 -0.571421 1.000000
31.881300 29.425501 -732.087524 -0.095448 0.729814 -0.676950 1.000000
31.674200 29.352600 -732.056885 -0.366126 0.615682 -0.697773 1.000000
31.469101 29.283899 -732.028198 -0.474467 0.598533 -0.645476 1.000000
31.274000 29.191500 -731.988525 -0.488699 0.589462 -0.643202 1.000000
31.048300 29.092800 -731.946411 -0.311750 0.715571 -0.625115 1.000000
30.829201 29.037500 -731.924011 -0.307675 0.809423 -0.500170 1.000000
30.604900 28.952299 -731.888000 -0.121552 0.906747 -0.403775 1.000000
30.384300 28.892300 -731.863403 -0.447569 0.860242 -0.244266 1.000000
30.160801 28.816000 -731.831482 -0.245854 0.867276 -0.432884 1.000000
29.936501 28.737600 -731.798584 -0.473695 0.713035 -0.516909 1.000000
29.707800 28.636000 -731.755188 0.041162 0.407641 0.912214 1.000000
29.447201 28.480700 -731.687622 -0.632726 0.619299 -0.464894 1.000000
34.961899 27.565399 -730.946716 0.905661 0.213011 0.366612 1.000000
34.899399 27.726101 -731.020996 -0.236016 0.970012 -0.058077 1.000000
34.686600 27.768400 -731.043091 0.273930 0.956808 0.097369 1.000000
34.475700 27.814100 -731.066589 0.295248 0.952786 0.070911 1.000000
34.297901 27.914801 -731.114929 0.435465 0.897030 -0.075554 1.000000
34.115002 28.007099 -731.159424 0.413107 0.903235 -0.116230 1.000000
33.921501 28.081800 -731.195984 0.476924 0.873182 -0.100480 1.000000
33.742298 28.180099 -731.243286 0.540976 0.838865 -0.060421 1.000000
33.575600 28.298599 -731.299622 0.536176 0.844105 0.001351 1.000000
33.394798 28.393999 -731.345520 0.507260 0.861665 -0.014880 1.000000
33.242699 28.535700 -731.412292 0.643187 0.751640 -0.146110 1.000000
33.091599 28.678600 -731.479614 0.795087 0.580035 -0.177191 1.000000
32.965500 28.861200 -731.564697 0.798695 0.569624 -0.193947 1.000000
32.840698 29.045300 -731.650513 0.947138 0.305145 -0.099073 1.000000
32.708099 29.216299 -731.730286 0.927135 0.335999 -0.165908 1.000000
32.549999 29.346300 -731.791870 0.307271 0.930231 0.200638 1.000000
32.382301 29.460699 -731.846313 0.440931 0.687186 -0.577369 1.000000
32.204498 29.559099 -731.893616 0.325920 0.643732 -0.692377 1.000000
31.992901 29.604401 -731.916870 0.092043 0.746570 -0.658910 1.000000
31.733601 29.575500 -731.906982 -0.299172 0.747129 -0.593544 1.000000
31.509300 29.476500 -731.864502 -0.371104 0.577091 -0.727494 1.000000
31.268801 29.364901 -731.816528 -0.458219 0.541532 -0.704825 1.000000
31.048201 29.298000 -731.788574 -0.227398 0.701014 -0.675921 1.000000
30.823200 29.205799 -731.749329 -0.450272 0.651137 -0.610964 1.000000
30.666500 29.105000 -731.705078 -0.292928 0.728319 -0.619471 1.000000
30.447500 29.053801 -731.684509 -0.393294 0.755581 -0.523848 1.000000
30.221100 28.959400 -731.644226 -0.290562 0.707944 -0.643731 1.000000
30.003500 28.920000 -731.628906 -0.220280 0.805639 -0.549930 1.000000
29.778799 28.840599 -731.595398 -0.123490 0.332472 -0.934993 1.000000
29.543800 28.704201 -731.535889 -0.120785 0.534074 0.836765 1.000000
34.835602 27.470501 -730.693726 0.705390 0.586448 0.398124 1.000000
34.739601 27.613800 -730.760681 0.744990 0.594390 -0.302803 1.000000
34.563999 27.718599 -730.810913 0.384127 0.886332 0.258576 1.000000
34.391399 27.828199 -730.863281 0.492058 0.861463 0.125540 1.000000
34.222599 27.943800 -730.918518 0.498391 0.864895 -0.059696 1.000000
34.048199 28.050301 -730.969482 0.410854 0.906091 -0.100984 1.000000
33.858601 28.131701 -731.009277 0.535844 0.841233 -0.072106 1.000000
33.702301 28.267300 -731.073425 0.513657 0.856095 -0.057073 1.000000
33.515900 28.353800 -731.115417 0.609750 0.783965 -0.116635 1.000000
33.342701 28.461500 -731.166992 0.645798 0.750684 -0.139349 1.000000
33.186699 28.597000 -731.231079 0.768942 0.630738 -0.104388 1.000000
33.058498 28.776699 -731.315125 0.794688 0.601425 -0.082209 1.000000
32.914398 28.930201 -731.387329 0.878075 0.455673 -0.146105 1.000000
32.810902 29.148100 -731.488586 0.936208 0.319380 -0.146668 1.000000
32.688000 29.334400 -731.575623 0.944896 0.295196 -0.141532 1.000000
32.542099 29.483601 -731.645813 0.499506 0.799529 -0.333536 1.000000
32.377998 29.603500 -731.702881 0.450206 0.607527 -0.654389 1.000000
32.191799 29.688400 -731.744202 0.301192 0.710298 -0.636208 1.000000
31.970301 29.718201 -731.760620 -0.032443 0.715147 -0.698221 1.000000
31.731199 29.720800 -731.764771 -0.192487 0.632896 -0.749928 1.000000
31.501900 29.614100 -731.718811 -0.155092 0.615850 -0.772448 1.000000
31.319500 29.572800 -731.702209 -0.474747 0.448463 -0.757295 1.000000
31.163099 29.469299 -731.656677 -0.439889 0.542807 -0.715443 1.000000
30.946899 29.429300 -731.641113 -0.320148 0.378356 -0.868534 1.000000
30.714800 29.294901 -731.582397 -0.273965 0.439262 -0.855566 1.000000
30.490700 29.211800 -731.547180 -0.284985 0.530607 -0.798273 1.000000
30.263800 29.113701 -731.505127 -0.226259 0.613240 -0.756798 1.000000
30.040501 29.040100 -731.474182 -0.322020 0.629477 -0.707150 1.000000
29.822701 29.000799 -731.458923 -0.026616 0.648597 -0.760666 1.000000
29.598700 28.926201 -731.427612 -0.556803 0.597421 -0.577112 1.000000
29.444300 28.916901 -731.329712 -0.449166 0.682932 -0.576068 1.000000
34.553200 27.648701 -730.643921 0.479691 0.874567 0.070911 1.000000
31.583099 29.815599 -731.677612 -0.012098 0.869747 -0.493350 1.000000
30.774599 29.483801 -731.535889 -0.220541 0.412959 -0.883644 1.000000
34.417900 27.787100 -730.645813 0.876778 0.449367 0.171257 1.000000
34.264301 27.927999 -730.712585 0.602356 0.797029 -0.043731 1.000000
34.098400 28.048201 -730.770081 0.468476 0.879615 -0.082508 1.000000
33.918900 28.146099 -730.817383 0.475173 0.871390 -0.122023 1.000000
33.740101 28.244900 -730.865173 0.581604 0.799892 -0.148017 1.000000
33.575600 28.367001 -730.923523 0.624272 0.748815 -0.222621 1.000000
33.410900 28.488501 -730.981506 0.573776 0.794106 -0.200439 1.000000
33.259602 28.631399 -731.049194 0.751630 0.620912 -0.222532 1.000000
33.107800 28.773001 -731.116272 0.745048 0.640588 -0.185878 1.000000
32.969101 28.935400 -731.192688 0.885075 0.443255 -0.142014 1.000000
32.856701 29.139299 -731.287903 0.936317 0.305652 -0.172880 1.000000
32.745602 29.344299 -731.383606 0.956695 0.217491 -0.193474 1.000000
32.624699 29.533100 -731.471985 0.894676 0.259649 -0.363508 1.000000
32.476002 29.677200 -731.540222 0.508078 0.538261 -0.672407 1.000000
32.296299 29.771999 -731.586121 0.317886 0.724522 -0.611568 1.000000
32.097099 29.836201 -731.618225 0.322758 0.705527 -0.630919 1.000000
31.874901 29.864500 -731.634216 -0.139177 0.773707 -0.618068 1.000000
31.405600 29.768499 -731.596375 -0.281874 0.830050 -0.481211 1.000000
31.178499 29.657301 -731.548279 -0.443080 0.616968 -0.650408 1.000000
30.952299 29.554300 -731.503906 -0.289102 0.611747 -0.736332 1.000000
30.581400 29.426001 -731.449890 -0.306239 0.518860 -0.798124 1.000000
30.358101 29.347300 -731.416687 -0.338470 0.524549 -0.781208 1.000000
30.129299 29.237700 -731.369385 -0.314526 0.488385 -0.813974 1.000000
29.903500 29.149500 -731.331787 -0.094464 0.591488 -0.800761 1.000000
29.684401 29.101999 -731.312988 -0.405311 0.834278 -0.373769 1.000000
29.495399 29.085400 -731.212097 0.139537 0.736694 -0.661674 1.000000
34.462799 27.681101 -730.364929 0.773223 0.608512 0.178436 1.000000
34.329498 27.856199 -730.447571 0.479691 0.874567 0.070911 1.000000
34.177101 27.999201 -730.515686 0.684771 0.720267 -0.110924 1.000000
34.008099 28.114401 -730.571411 0.498543 0.820486 -0.279747 1.000000
33.837700 28.226999 -730.625671 0.569915 0.792321 -0.217772 1.000000
33.670101 28.344299 -730.682312 0.600565 0.768164 -0.221914 1.000000
33.500099 28.457399 -730.736877 0.633979 0.748126 -0.195901 1.000000
33.342800 28.590700 -730.800720 0.774524 0.554144 -0.305019 1.000000
33.198898 28.745501 -730.874084 0.722442 0.639877 -0.261984 1.000000
33.049702 28.891300 -730.943481 0.766840 0.598167 -0.232707 1.000000
32.924999 29.076099 -731.030518 0.915365 0.370941 -0.156557 1.000000
32.820099 29.291901 -731.131470 0.918342 0.345980 -0.192211 1.000000
32.759701 29.450500 -731.205627 0.871658 0.438072 -0.219783 1.000000
32.644402 29.648199 -731.298279 0.881621 0.262834 -0.391998 1.000000
32.506500 29.809401 -731.374817 0.422415 0.441836 -0.791421 1.000000
32.341702 29.927401 -731.431519 0.366023 0.612227 -0.700860 1.000000
32.143299 29.992399 -731.464417 0.314358 0.614207 -0.723829 1.000000
31.899300 29.985800 -731.464783 -0.153468 0.815018 -0.558742 1.000000
31.621799 29.927700 -731.442078 -0.172963 0.699504 -0.693381 1.000000
31.416599 29.858000 -731.413025 -0.422947 0.515107 -0.745507 1.000000
31.204100 29.777700 -731.379028 -0.204946 0.768932 -0.605592 1.000000
30.977400 29.729099 -731.359924 -0.326239 0.709286 -0.624886 1.000000
30.755301 29.652700 -731.327881 -0.294734 0.763123 -0.575130 1.000000
30.534100 29.583200 -731.299072 -0.312930 0.579321 -0.752636 1.000000
30.310801 29.503901 -731.265808 -0.286618 0.546316 -0.787012 1.000000
30.089300 29.437300 -731.238281 -0.374675 0.510920 -0.773679 1.000000
29.863501 29.346901 -731.200012 -0.131527 0.208145 0.969214 1.000000
29.638300 29.263300 -731.164612 -0.059839 0.864193 -0.499590 1.000000
34.360199 27.788500 -730.231812 0.527091 0.837144 0.146168 1.000000
34.216202 27.945900 -730.306702 0.778154 0.627813 -0.018097 1.000000
34.070702 28.100300 -730.380188 0.599375 0.777195 -0.191616 1.000000
33.897202 28.208000 -730.432617 0.523283 0.825352 -0.212059 1.000000
33.729000 28.324400 -730.488892 0.563560 0.795159 -0.223880 1.000000
33.562901 28.444000 -730.546570 0.604001 0.781737 -0.155142 1.000000
33.406601 28.579300 -730.611511 0.797477 0.543663 -0.261648 1.000000
33.259701 28.729700 -730.683228 0.698024 0.653094 -0.293651 1.000000
33.105701 28.868000 -730.749390 0.731113 0.646933 -0.216684 1.000000
32.975101 29.043600 -730.832520 0.911706 0.357504 -0.202442 1.000000
32.875401 29.268299 -730.937927 0.942923 0.309837 -0.122057 1.000000
32.815498 29.428200 -731.012573 0.967370 0.207386 -0.145556 1.000000
32.714901 29.649900 -731.116577 -0.831416 0.031818 0.554739 1.000000
32.585999 29.825701 -731.199829 -0.967784 0.023014 0.250728 1.000000
32.458599 30.003201 -731.283691 0.346546 0.600354 -0.720750 1.000000
32.271099 30.084999 -731.324280 0.308018 0.620875 -0.720860 1.000000
32.064701 30.137100 -731.351379 0.055668 0.646603 -0.760793 1.000000
31.801001 30.099501 -731.338013 -0.129794 0.654939 -0.744452 1.000000
31.501900 30.007500 -731.299988 -0.228611 0.855398 -0.464792 1.000000
31.304600 29.950399 -731.276489 -0.371243 0.523632 -0.766804 1.000000
31.101299 29.884399 -731.249084 -0.399522 0.654819 -0.641556 1.000000
30.876900 29.791700 -731.209595 -0.319434 0.646975 -0.692377 1.000000
30.663200 29.767099 -731.201416 -0.142356 0.630860 -0.762726 1.000000
30.447201 29.729601 -731.187317 -0.262989 0.568497 -0.779518 1.000000
30.222500 29.641899 -731.150085 -0.293999 0.458888 -0.838443 1.000000
30.000000 29.568701 -731.119629 -0.186631 0.488226 -0.852529 1.000000
29.778900 29.506599 -731.094177 -0.262003 0.116011 -0.958069 1.000000
29.538200 29.331301 -731.016785 0.254034 0.074567 0.964317 1.000000
34.207001 27.850401 -730.051575 -0.469483 0.870651 0.146804 1.000000
34.146500 28.014500 -730.128479 0.818306 0.571538 0.060983 1.000000
34.003101 28.172400 -730.203979 0.520652 0.847674 -0.101836 1.000000
33.849400 28.312799 -730.271484 0.647521 0.744573 -0.162259 1.000000
33.675400 28.419701 -730.323730 0.500119 0.841590 -0.203976 1.000000
33.517502 28.552700 -730.387878 0.798878 0.570627 -0.190209 1.000000
33.383499 28.724199 -730.469482 0.786661 0.576473 -0.221007 1.000000
33.227200 28.858999 -730.534424 0.671803 0.668566 -0.318904 1.000000
33.091202 29.026501 -730.614075 0.775255 0.523821 -0.352975 1.000000
32.956501 29.195299 -730.694519 0.896224 0.359971 -0.259238 1.000000
32.844398 29.400000 -730.791077 0.921636 0.318643 -0.221479 1.000000
32.780102 29.552799 -730.862915 0.947540 0.211932 -0.239278 1.000000
32.723400 29.717300 -730.940125 0.945024 0.313246 -0.093842 1.000000
32.623402 29.939400 -731.044617 -0.341633 0.407152 0.847062 1.000000
32.490501 30.108200 -731.124878 0.438156 0.668063 -0.601424 1.000000
32.323502 30.222401 -731.180420 0.397617 0.575802 -0.714390 1.000000
32.119701 30.278099 -731.209473 0.172038 0.619642 -0.765798 1.000000
31.887800 30.289900 -731.218628 -0.092268 0.503926 -0.858804 1.000000
31.677700 30.211100 -731.185425 -0.318384 0.628687 -0.709495 1.000000
31.493500 30.173401 -731.170776 -0.165933 0.686567 -0.707879 1.000000
31.297899 30.118401 -731.148376 -0.232707 0.598167 -0.766840 1.000000
31.101500 30.062799 -731.125671 -0.292626 0.593246 -0.749953 1.000000
30.896099 29.993799 -731.096924 -0.282178 0.484848 -0.827827 1.000000
30.711500 29.971100 -731.089417 -0.153390 0.422897 -0.893101 1.000000
30.494301 29.925301 -731.071472 -0.047888 0.335213 -0.940925 1.000000
30.279600 29.896299 -731.061523 -0.209301 0.120507 -0.970397 1.000000
30.053699 29.801201 -731.020874 -0.300491 0.336370 -0.892502 1.000000
29.832500 29.736700 -730.994507 -0.295500 0.411863 -0.862003 1.000000
29.673800 29.628000 -730.946716 -0.510658 0.567959 -0.645485 1.000000
29.406000 29.482300 -730.883423 0.140128 0.359339 0.922627 1.000000
34.131302 27.972799 -729.932312 0.220709 0.951891 0.212584 1.000000
34.000000 28.151199 -730.017212 0.803122 0.486983 0.343283 1.000000
33.782501 28.449499 -730.159180 0.632996 0.739276 -0.229754 1.000000
33.610802 28.559900 -730.213318 0.600511 0.747055 -0.285123 1.000000
33.446999 28.683100 -730.273071 0.828495 0.531855 -0.175287 1.000000
33.307999 28.846500 -730.351318 0.725621 0.647260 -0.233515 1.000000
33.154202 28.985399 -730.418213 0.806451 0.547400 -0.223586 1.000000
33.028400 29.169100 -730.505615 0.880537 0.376078 -0.288478 1.000000
32.923000 29.385201 -730.607727 0.925344 0.263773 -0.272328 1.000000
32.808998 29.714500 -730.762390 0.930387 0.264813 -0.253484 1.000000
32.703300 29.927999 -730.863281 0.879983 0.294334 -0.372823 1.000000
32.586800 30.123199 -730.955811 0.790339 0.494163 -0.362171 1.000000
32.430302 30.254299 -731.019226 0.560105 0.566873 -0.604101 1.000000
32.258400 30.360500 -731.071289 0.400202 0.571482 -0.716412 1.000000
32.053799 30.414900 -731.099915 0.052707 0.645300 -0.762109 1.000000
31.800501 30.392799 -731.093689 -0.224890 0.575408 -0.786340 1.000000
31.543301 30.365601 -731.085205 -0.230958 0.451349 -0.861941 1.000000
31.341200 30.300100 -731.057983 -0.269219 0.552607 -0.788763 1.000000
31.126400 30.215300 -731.022217 -0.186686 0.566128 -0.802900 1.000000
30.939800 30.175200 -731.006470 -0.220280 0.549930 -0.805639 1.000000
30.752501 30.134501 -730.990601 -0.144249 0.371126 -0.917310 1.000000
30.568600 30.088301 -730.972229 -0.139856 0.308227 -0.940976 1.000000
30.352800 30.051100 -730.958313 -0.148717 0.510938 -0.846655 1.000000
30.134701 30.001600 -730.938782 -0.201678 0.470582 -0.858999 1.000000
29.915199 29.945601 -730.916382 0.041094 0.101069 0.994030 1.000000
29.687300 29.841999 -730.871887 -0.356045 0.913705 -0.195896 1.000000
29.582600 29.637899 -730.778870 0.440979 0.473766 -0.762288 1.000000
33.873699 28.339399 -729.964172 0.853526 0.477192 -0.209242 1.000000
32.878601 29.574499 -730.555298 0.934510 0.259976 -0.243113 1.000000
31.888700 30.537500 -731.019714 0.015315 0.644617 -0.764352 1.000000
29.752199 30.027700 -730.817871 -0.552004 0.612775 -0.565508 1.000000
32.821301 29.827299 -730.547607 0.938417 0.265537 -0.221049 1.000000
32.773399 30.006100 -730.631775 0.977651 0.039393 -0.206512 1.000000
32.716900 30.170601 -730.709412 0.958177 0.013495 -0.285858 1.000000
32.605099 30.373199 -730.805603 0.725182 0.431145 -0.536866 1.000000
32.444199 30.496901 -730.866028 0.521681 0.511616 -0.682714 1.000000
32.261501 30.585501 -730.910278 0.434164 0.516705 -0.737914 1.000000
32.063599 30.650299 -730.943787 -0.036539 0.461471 -0.886403 1.000000
31.701401 30.581900 -730.918091 -0.216440 0.551078 -0.805895 1.000000
31.510300 30.532900 -730.898499 -0.199743 0.547386 -0.812694 1.000000
31.327900 30.497999 -730.885315 -0.157200 0.428335 -0.889841 1.000000
31.145599 30.463600 -730.872314 -0.170972 0.360312 -0.917030 1.000000
30.964399 30.431601 -730.860413 -0.096215 0.304461 -0.947653 1.000000
30.716000 30.420700 -730.859497 -0.202323 0.351555 -0.914043 1.000000
30.493999 30.326500 -730.819275 -0.209512 0.399977 -0.892257 1.000000
30.276600 30.323601 -730.821716 -0.061215 0.186044 -0.980633 1.000000
30.054701 30.250601 -730.791382 0.144443 0.430470 -0.890972 1.000000
29.833900 30.186100 -730.765076 -0.300906 0.392552 -0.869114 1.000000
33.996498 28.086399 -729.594177 -0.677667 0.185936 0.711474 1.000000
33.907600 28.297001 -729.694214 0.869349 0.389603 0.304043 1.000000
33.768799 28.462700 -729.773987 0.839763 0.540746 -0.048905 1.000000
33.630699 28.629000 -729.854126 0.741215 0.631984 -0.226266 1.000000
33.489899 28.790300 -729.931885 0.822610 0.487299 -0.293006 1.000000
33.349098 28.951099 -730.009399 0.788934 0.524362 -0.320355 1.000000
33.223301 29.135799 -730.098022 0.823869 0.441189 -0.355798 1.000000
33.097099 29.319300 -730.185913 0.857811 0.375582 -0.350853 1.000000
32.974300 29.507500 -730.275879 0.914048 0.268838 -0.303714 1.000000
32.913502 29.666800 -730.351379 0.892936 0.268921 -0.361037 1.000000
31.914900 30.742300 -730.871216 -0.058849 0.450266 -0.890953 1.000000
30.360901 30.479099 -730.775574 -0.136076 0.262905 -0.955177 1.000000
29.619801 30.230700 -730.672729 -0.427566 0.205646 -0.880283 1.000000
32.861401 29.870100 -730.366699 0.937680 0.131628 -0.321607 1.000000
32.827202 30.071199 -730.461426 0.950774 0.028964 -0.308529 1.000000
32.778999 30.249399 -730.545593 0.958043 0.078234 -0.275742 1.000000
32.670799 30.457899 -730.645020 0.771119 0.333239 -0.542520 1.000000
32.518200 30.594700 -730.711670 0.489305 0.516025 -0.703063 1.000000
32.358501 30.719900 -730.773071 0.550532 0.402628 -0.731304 1.000000
32.171700 30.801800 -730.814819 0.258284 0.546309 -0.796766 1.000000
31.675501 30.772900 -730.810120 -0.199449 0.391620 -0.898250 1.000000
31.494600 30.739401 -730.797729 -0.128749 0.425861 -0.895581 1.000000
31.237301 30.712299 -730.789612 -0.183809 0.363343 -0.913344 1.000000
31.037300 30.650299 -730.764221 -0.211253 0.415120 -0.884900 1.000000
30.856701 30.619200 -730.752930 -0.017057 0.415916 -0.909243 1.000000
30.591200 30.581699 -730.740112 -0.162094 0.405951 -0.899405 1.000000
30.162001 30.505699 -730.712219 -0.045100 0.232813 -0.971475 1.000000
29.942900 30.449400 -730.689819 -0.206704 0.368598 -0.906316 1.000000
29.724899 30.401699 -730.671326 -0.432587 0.287878 -0.854397 1.000000
33.840000 28.445299 -729.605530 0.909012 0.373625 -0.184665 1.000000
33.708099 28.622400 -729.690796 0.689288 0.666898 -0.283072 1.000000
33.422699 28.939100 -729.844299 0.873144 0.296110 -0.387220 1.000000
32.013500 30.900499 -730.788574 0.103536 0.477967 -0.872254 1.000000
31.790701 30.956301 -730.761108 -0.111317 0.438223 -0.891947 1.000000
31.339399 30.873899 -730.730530 -0.099541 0.444432 -0.890265 1.000000
31.072100 30.831301 -730.715271 -0.155671 0.363233 -0.918601 1.000000
30.802700 30.786501 -730.699097 -0.131644 0.280574 -0.950762 1.000000
30.624901 30.759899 -730.689819 -0.096150 0.211031 -0.972739 1.000000
30.425900 30.701099 -730.665771 -0.177549 0.359359 -0.916153 1.000000
30.238899 30.661301 -730.650391 -0.161369 0.352205 -0.921907 1.000000
30.011499 30.619101 -730.634705 -0.111900 0.385435 -0.915925 1.000000
29.558300 30.420700 -730.549683 -0.521541 0.632938 -0.572176 1.000000
32.906399 30.055599 -730.282898 0.917539 0.001287 -0.397643 1.000000
32.767300 30.471399 -730.480713 0.912329 0.172218 -0.371479 1.000000
32.629501 30.632200 -730.558716 0.547671 0.359155 -0.755688 1.000000
32.474201 30.764400 -730.623596 0.601878 0.441822 -0.665234 1.000000
32.305901 30.875700 -730.678894 0.483841 0.540764 -0.688093 1.000000
31.528700 30.904699 -730.706421 -0.115100 0.456138 -0.882434 1.000000
29.804399 30.572701 -730.581421 -0.212705 0.123547 -0.969274 1.000000
32.819500 30.276899 -730.367004 0.938389 0.106055 -0.328906 1.000000
32.205002 31.033300 -730.631775 0.371282 0.580640 -0.724573 1.000000
31.995600 31.078300 -730.656982 0.177074 0.576625 -0.797589 1.000000
31.683300 31.086399 -730.666687 -0.203059 0.330858 -0.921575 1.000000
31.428699 31.060900 -730.659485 -0.147516 0.335014 -0.930594 1.000000
31.169399 31.028900 -730.649475 -0.059910 0.216411 -0.974462 1.000000
30.924801 31.021000 -730.650330 -0.207814 0.315255 -0.925974 1.000000
30.718901 30.949200 -730.620422 -0.102203 0.314572 -0.943716 1.000000
30.534401 30.911301 -730.606079 -0.231191 0.270423 -0.934571 1.000000
30.341499 30.860901 -730.586121 -0.155090 0.350700 -0.923556 1.000000
30.156300 30.823099 -730.571716 -0.086377 0.338865 -0.936862 1.000000
