ply
format ascii 1.0
element vertex 689
property float x
property float y
property float z
property float nx
property float ny
property float nz
property float label
element face 0
property list uchar int vertex_indices
end_header
35.748699 17.987801 -756.413696 0.013877 0.942363 -0.334305 1.000000
35.671799 18.036800 -756.287109 0.084405 0.951833 -0.294770 1.000000
35.603699 18.074900 -756.155884 0.124277 0.958896 -0.255095 1.000000
35.249401 18.329599 -755.676270 -0.038884 0.981523 -0.187350 1.000000
33.383801 19.449900 -752.355225 0.096924 0.989090 -0.110937 1.000000
33.253601 19.543501 -752.178711 0.066661 0.993143 -0.096038 1.000000
33.209000 19.528999 -751.950928 -0.043572 0.997905 -0.047823 1.000000
33.145500 19.562000 -751.819275 -0.388552 0.639871 -0.663018 1.000000
36.776100 17.529800 -758.013977 0.966338 0.092697 -0.239997 1.000000
36.698002 17.579700 -757.886719 0.943903 0.110812 0.311074 1.000000
36.247601 17.857901 -757.115906 -0.052223 0.975225 -0.214962 1.000000
36.135799 17.903299 -756.839600 -0.178118 0.973967 -0.140221 1.000000
36.048100 17.942200 -756.634277 -0.186199 0.939273 -0.288264 1.000000
35.949299 17.994699 -756.435181 -0.341659 0.844008 -0.413424 1.000000
35.877899 18.036800 -756.305420 -0.156414 0.942562 -0.295146 1.000000
35.810799 18.073400 -756.173279 -0.049747 0.974317 -0.219616 1.000000
35.760601 18.089100 -756.032288 0.025583 0.966060 -0.257048 1.000000
35.679699 18.143000 -755.907776 0.250735 0.950082 -0.185679 1.000000
35.603901 18.190500 -755.780701 0.394620 0.915355 -0.080009 1.000000
35.515099 18.254200 -755.660828 -0.265537 0.938417 -0.221049 1.000000
34.831200 18.638800 -754.354187 -0.113602 0.923875 -0.365444 1.000000
33.453899 19.519800 -752.106628 0.207729 0.973963 -0.090804 1.000000
33.270302 19.585800 -751.621704 0.118960 0.958214 -0.260143 1.000000
33.191502 19.637899 -751.499207 -0.239732 0.910980 -0.335624 1.000000
33.149601 19.643400 -751.354187 -0.224610 0.966463 -0.124498 1.000000
36.885601 17.656500 -757.614075 0.414114 0.754572 0.509049 1.000000
36.784401 17.734699 -757.498718 0.154591 0.957933 -0.241796 1.000000
36.155102 18.069201 -756.233887 -0.222616 0.917752 -0.328897 1.000000
36.078201 18.117701 -756.106873 -0.332589 0.869024 -0.366308 1.000000
36.017899 18.145599 -755.970886 0.940403 0.133957 0.312566 1.000000
35.924500 18.191200 -755.768677 -0.871128 0.393756 -0.293416 1.000000
35.870300 18.211599 -755.629517 0.237180 0.960515 -0.145453 1.000000
35.797901 18.254499 -755.500183 0.273830 0.948288 -0.160521 1.000000
33.313301 19.663401 -750.824585 -0.155586 0.986158 0.057321 1.000000
33.260799 19.658100 -750.599670 -0.274272 0.952664 -0.131173 1.000000
33.202202 19.684299 -750.464417 -0.259599 0.950967 -0.168134 1.000000
33.150398 19.701900 -750.324829 -0.215590 0.938860 -0.268444 1.000000
33.090698 19.729601 -750.190125 0.927460 0.210337 0.309153 1.000000
33.045101 19.739401 -750.046570 0.091881 0.995558 -0.020538 1.000000
33.005299 19.741800 -749.899414 0.977080 0.168033 0.130692 1.000000
33.003201 19.696301 -749.728027 -0.360672 0.932685 -0.003797 1.000000
32.961899 19.700600 -749.581482 -0.330726 0.927987 -0.171643 1.000000
32.932400 19.544800 -748.906372 -0.629140 0.700670 -0.336517 1.000000
32.860001 19.588499 -748.779602 -0.356493 0.734147 -0.577876 1.000000
32.804401 19.489201 -748.205627 -0.475400 0.809293 0.345023 1.000000
32.748699 19.512300 -748.069885 0.907609 0.234551 0.348184 1.000000
37.187000 17.662300 -757.530579 -0.001302 0.904847 -0.425734 1.000000
37.127998 17.688101 -757.393005 -0.254624 0.872349 -0.417341 1.000000
37.026901 17.765900 -757.277283 0.738986 0.657713 0.145991 1.000000
36.631802 17.995800 -756.558777 0.093675 0.972970 -0.211081 1.000000
35.724300 18.485201 -754.770813 -0.273052 0.681831 -0.678638 1.000000
34.645802 19.096600 -752.752319 0.175633 0.960040 -0.217891 1.000000
33.394901 19.713800 -750.081604 -0.159594 0.978598 -0.129902 1.000000
33.224800 19.712099 -749.410889 -0.163800 0.981586 -0.098280 1.000000
33.137501 19.701700 -749.032715 -0.378643 0.925139 0.027325 1.000000
33.088699 19.666500 -748.716125 0.175035 0.984136 0.028979 1.000000
32.982101 19.558500 -747.912109 -0.310005 0.945845 -0.096299 1.000000
32.929901 19.428900 -747.243591 -0.892359 0.409059 -0.190700 1.000000
32.936901 19.370899 -747.062378 -0.997820 0.026510 -0.060442 1.000000
32.965500 19.285101 -746.866272 -0.358516 0.863209 0.355439 1.000000
32.985401 19.235001 -746.764282 -0.554658 0.792146 0.254674 1.000000
33.010300 19.054800 -746.215027 -0.084702 0.926341 0.367041 1.000000
33.013802 19.000601 -746.034485 -0.550441 0.768692 0.325771 1.000000
33.114601 18.768801 -745.596375 -0.401872 0.769576 0.496238 1.000000
33.142502 18.696100 -745.444885 -0.397597 0.828458 0.394429 1.000000
33.157101 18.638300 -745.293884 -0.397057 0.798937 0.451713 1.000000
33.181198 18.569700 -745.142212 -0.542965 0.603859 0.583561 1.000000
33.259800 18.461700 -745.061584 0.267707 0.799991 0.536980 1.000000
33.319000 18.354200 -744.906982 -0.557132 0.644658 0.523469 1.000000
33.331100 18.298800 -744.755676 -0.852105 0.473728 0.222486 1.000000
37.112099 17.913099 -757.029297 0.065294 0.990866 -0.117988 1.000000
36.416901 18.286200 -755.660522 0.135075 0.948197 -0.287535 1.000000
35.924801 18.517799 -754.575073 -0.254740 0.852694 -0.456092 1.000000
35.848999 18.564600 -754.447571 -0.392597 0.843066 -0.367570 1.000000
35.747601 18.619499 -754.249573 0.439591 0.880643 -0.176713 1.000000
35.675800 18.661200 -754.119873 0.253985 0.964132 0.077080 1.000000
35.296001 18.896601 -753.485229 0.042712 0.995522 -0.084329 1.000000
34.869701 19.095301 -752.538025 0.052674 0.971403 -0.231520 1.000000
33.830299 19.694201 -750.638611 0.333282 0.930700 -0.150737 1.000000
33.745998 19.763000 -750.557617 -0.428787 0.874008 -0.228587 1.000000
33.181599 19.283300 -746.640686 0.821377 0.552025 0.143556 1.000000
33.229198 19.024000 -745.896484 -0.604427 0.699950 0.380443 1.000000
33.264301 18.929300 -745.693726 -0.666539 0.589695 0.456053 1.000000
33.416698 18.573999 -745.013184 -0.123641 0.692686 0.710562 1.000000
33.446400 18.499100 -744.860474 0.905248 0.414733 0.092316 1.000000
33.489399 18.409500 -744.706726 0.076000 0.929334 0.361334 1.000000
33.536400 18.336399 -744.627686 0.319675 0.820446 0.474000 1.000000
33.602901 18.220699 -744.471802 -0.519578 0.382761 0.763893 1.000000
33.657101 18.137199 -744.383179 0.805527 0.587273 0.078973 1.000000
37.294701 17.920700 -756.831299 0.364661 0.886893 -0.283626 1.000000
37.225601 17.952400 -756.676880 0.779849 0.572726 0.252627 1.000000
37.148800 17.999800 -756.548279 0.310083 0.946082 -0.093685 1.000000
37.089401 18.025600 -756.410828 0.019968 0.978442 -0.205555 1.000000
36.879601 18.189699 -756.184021 0.049985 0.898384 -0.436358 1.000000
36.588200 18.312799 -755.494629 0.131745 0.974910 -0.179424 1.000000
36.516602 18.353901 -755.364014 0.121013 0.988079 -0.095166 1.000000
35.871201 18.678600 -754.022583 0.942630 0.102373 0.317755 1.000000
35.687500 18.787701 -753.700623 0.160096 0.974443 -0.157575 1.000000
34.840698 19.221800 -751.969910 -0.003116 0.998116 -0.061279 1.000000
33.603100 18.547701 -744.755981 -0.291468 0.521491 0.801931 1.000000
33.658501 18.465401 -744.676575 -0.265048 0.738007 0.620561 1.000000
33.717098 18.358601 -744.521179 -0.213838 0.558441 0.801509 1.000000
33.782001 18.265699 -744.440613 -0.199720 0.556473 0.806505 1.000000
33.856201 18.162600 -744.359314 -0.138982 0.623178 0.769632 1.000000
33.904499 18.088100 -744.279785 -0.553108 0.516122 0.653979 1.000000
33.953999 17.990900 -744.124207 -0.266742 0.774973 0.572944 1.000000
34.034401 17.859600 -743.965881 -0.081507 0.559109 0.825078 1.000000
34.656502 17.128599 -743.762207 0.844101 0.273137 -0.461401 1.000000
37.169498 18.084801 -756.224121 0.177762 0.938416 -0.296269 1.000000
36.888599 18.241301 -755.696777 0.066055 0.968389 -0.240539 1.000000
36.827999 18.268499 -755.559875 0.402476 0.870259 -0.284011 1.000000
35.987999 18.712601 -753.898071 0.107970 0.992187 -0.062509 1.000000
35.629200 18.895300 -753.163391 -0.038380 0.998927 -0.025933 1.000000
34.959801 19.225700 -751.755310 0.120024 0.991058 -0.058298 1.000000
33.859501 18.390400 -744.512512 -0.243023 0.594231 0.766700 1.000000
33.925701 18.296301 -744.431824 0.143163 0.670604 0.727870 1.000000
33.995701 18.197800 -744.350708 -0.032215 0.785764 0.617686 1.000000
34.043800 18.123600 -744.271179 -0.428991 0.801746 0.416137 1.000000
34.116798 18.000601 -744.113708 -0.057580 0.835606 0.546304 1.000000
34.203800 17.861900 -743.954773 -0.511099 0.581945 0.632549 1.000000
34.489799 17.524700 -743.855408 -0.348093 0.157970 0.924054 1.000000
34.622601 17.356701 -743.768188 -0.846938 0.142380 0.512273 1.000000
37.346298 18.073799 -756.275818 -0.060229 0.992079 -0.110231 1.000000
37.269901 18.120300 -756.146973 0.166352 0.956859 -0.238217 1.000000
37.199600 18.159401 -756.015015 0.257291 0.928236 -0.268662 1.000000
37.127701 18.200600 -755.883911 0.101057 0.974392 -0.200867 1.000000
37.065102 18.230301 -755.747986 0.022745 0.973244 -0.228646 1.000000
37.001099 18.261700 -755.612671 0.001164 0.976541 -0.215328 1.000000
36.937599 18.292500 -755.477417 0.021546 0.941667 -0.335857 1.000000
36.845402 18.358700 -755.357483 0.244805 0.962381 -0.117869 1.000000
35.765999 18.884701 -753.063782 0.147701 0.987389 0.056987 1.000000
35.223999 19.175699 -752.008423 0.223951 0.972902 -0.057517 1.000000
34.105301 18.229900 -744.295410 -0.831465 0.317867 0.455661 1.000000
34.176300 18.109100 -744.138184 -0.718562 0.318105 0.618448 1.000000
34.264999 17.968800 -743.979370 -0.735115 0.547636 0.399626 1.000000
34.611000 17.544399 -743.799316 -0.518557 0.246121 0.818855 1.000000
34.674599 17.452900 -743.717773 -0.886864 0.061874 0.457869 1.000000
37.216900 18.251499 -755.672485 -0.003679 0.955321 -0.295548 1.000000
37.145901 18.291500 -755.541016 -0.006358 0.932010 -0.362378 1.000000
37.057400 18.353100 -755.418884 -0.120328 0.916983 -0.380347 1.000000
36.993198 18.384899 -755.284119 -0.197316 0.954368 -0.224162 1.000000
36.943600 18.398701 -755.141174 -0.012648 0.983066 -0.182816 1.000000
36.874401 18.436701 -755.008972 0.083593 0.958110 -0.273929 1.000000
36.799000 18.482201 -754.880188 0.144910 0.943946 -0.296591 1.000000
37.575298 18.195999 -755.700989 0.403902 0.867246 -0.291114 1.000000
37.297501 18.372000 -755.255676 -0.116920 0.964908 -0.235124 1.000000
37.236599 18.399700 -755.119019 -0.042667 0.971579 -0.232838 1.000000
37.170898 18.433201 -754.984680 -0.096052 0.948675 -0.301313 1.000000
37.100101 18.473101 -754.853210 -0.153487 0.944012 -0.292033 1.000000
37.038200 18.502001 -754.716919 -0.085474 0.945474 -0.314281 1.000000
36.963902 18.546200 -754.587524 -0.039748 0.942411 -0.332088 1.000000
36.892300 18.587000 -754.456604 -0.018670 0.952186 -0.304948 1.000000
36.569801 18.771601 -753.869019 -0.064963 0.956606 -0.284052 1.000000
36.513100 18.794300 -753.730225 -0.158537 0.967980 -0.194627 1.000000
36.431000 18.824600 -753.520508 -0.155175 0.956248 -0.248014 1.000000
35.366299 19.262899 -750.964722 -0.085581 0.996331 0.001057 1.000000
37.731602 18.312201 -755.421875 -0.115061 0.831642 -0.543262 1.000000
37.633999 18.372101 -755.258972 0.146033 0.839322 -0.523654 1.000000
37.347500 18.534901 -754.733887 -0.246269 0.948340 -0.200009 1.000000
37.288700 18.559900 -754.595886 -0.130076 0.957829 -0.256209 1.000000
37.212700 18.606100 -754.467224 -0.072211 0.941374 -0.329546 1.000000
37.142200 18.645500 -754.335571 -0.024284 0.936839 -0.348918 1.000000
37.067200 18.690399 -754.206482 -0.011052 0.956645 -0.291046 1.000000
37.019299 18.702101 -754.062683 -0.007633 0.993394 -0.114497 1.000000
36.601501 18.932699 -753.272400 -0.168060 0.974241 -0.150369 1.000000
36.509899 18.974600 -753.067871 -0.207071 0.961495 -0.180692 1.000000
36.426399 19.006500 -752.859009 -0.080707 0.972207 -0.219771 1.000000
35.904701 19.151699 -751.358826 -0.187658 0.979454 -0.073853 1.000000
35.667702 19.182400 -750.550110 0.933824 0.262594 0.242935 1.000000
37.801998 18.520500 -755.070984 -0.080751 0.972735 -0.217406 1.000000
37.732201 18.550200 -754.907104 -0.085569 0.973503 -0.212062 1.000000
37.628502 18.583099 -754.623230 0.175547 0.925486 -0.335647 1.000000
37.394501 18.728600 -754.240112 -0.143872 0.956945 -0.252106 1.000000
37.342899 18.744801 -754.098206 -0.122200 0.978834 -0.164168 1.000000
37.292801 18.759199 -753.955383 -0.131015 0.970531 -0.202247 1.000000
37.239399 18.777599 -753.814514 -0.108830 0.974467 -0.196394 1.000000
37.021702 18.903400 -753.423584 0.030298 0.912902 -0.407052 1.000000
36.965000 18.925800 -753.284485 -0.071230 0.968481 -0.238684 1.000000
36.856800 18.964500 -753.003601 -0.078373 0.988433 -0.129841 1.000000
36.656700 19.068800 -752.603699 -0.108303 0.982032 -0.154545 1.000000
36.527302 19.109900 -752.249512 -0.161910 0.986388 -0.028707 1.000000
35.695202 19.208000 -749.373230 -0.964540 0.149693 -0.217380 1.000000
37.239601 19.017300 -753.180298 -0.068606 0.918779 -0.388766 1.000000
37.184502 19.037901 -753.040405 -0.163700 0.962554 -0.216084 1.000000
37.106602 19.086500 -752.913086 0.088186 0.883256 -0.460525 1.000000
37.019199 19.146799 -752.791382 -0.398308 0.892150 -0.213117 1.000000
36.974899 19.154301 -752.645630 -0.198887 0.971634 -0.127947 1.000000
36.915298 19.133200 -752.336975 -0.115998 0.992176 -0.046174 1.000000
35.793598 19.208500 -748.240479 -0.896558 0.426463 -0.119635 1.000000
35.755798 19.183100 -748.000793 -0.948197 0.135075 -0.287535 1.000000
35.701900 19.153200 -747.682922 0.173923 0.984006 0.038520 1.000000
35.663502 19.152599 -747.531128 0.089999 0.992270 0.085442 1.000000
35.644600 19.127600 -747.366821 -0.063072 0.997385 0.035277 1.000000
35.602200 19.107599 -747.128906 -0.067656 0.983973 0.164985 1.000000
35.576599 19.090900 -746.968506 -0.034589 0.976849 0.211114 1.000000
35.553101 19.071400 -746.806519 -0.187120 0.982089 -0.022082 1.000000
35.472401 18.804399 -745.523682 -0.190177 0.977877 0.087113 1.000000
35.462601 18.767401 -745.351074 -0.227719 0.957484 0.177114 1.000000
35.449699 18.734100 -745.180420 -0.201818 0.961602 0.185989 1.000000
35.447899 18.686899 -745.002014 -0.284032 0.918418 0.275381 1.000000
35.448898 18.635900 -744.821472 -0.278874 0.930051 0.239237 1.000000
35.435001 18.603800 -744.650818 -0.301342 0.867314 0.396181 1.000000
35.463001 18.518801 -744.451416 -0.285313 0.916769 0.279520 1.000000
35.478001 18.450001 -744.260498 -0.340695 0.879751 0.331610 1.000000
35.509602 18.385201 -744.148499 -0.385840 0.786209 0.482703 1.000000
35.514801 18.328699 -743.963806 -0.416792 0.655908 0.629340 1.000000
35.541401 18.260201 -743.819214 -0.686655 0.617496 -0.383671 1.000000
37.880798 18.924900 -753.607117 -0.787659 0.562167 -0.252114 1.000000
37.449902 19.147900 -752.736084 -0.365390 0.894983 -0.255921 1.000000
37.373798 19.171000 -752.522278 -0.151050 0.966978 -0.205273 1.000000
37.198700 19.221399 -752.021912 0.170872 0.983989 0.050673 1.000000
36.469002 19.315701 -749.514099 0.020462 0.996164 0.085078 1.000000
36.234402 19.295401 -748.523499 -0.202679 0.970055 -0.133845 1.000000
35.924702 19.149799 -746.782227 -0.250580 0.962484 0.104087 1.000000
35.891998 19.117701 -746.537415 -0.174647 0.984272 -0.026602 1.000000
35.876801 19.087999 -746.369812 -0.041410 0.980816 0.190484 1.000000
35.832699 18.972200 -745.775513 -0.356775 0.912713 0.199163 1.000000
35.801899 18.912701 -745.438416 -0.288905 0.956762 0.033768 1.000000
35.778301 18.893200 -745.275024 -0.280104 0.944156 0.173528 1.000000
35.776600 18.846100 -745.096924 -0.347210 0.915891 0.201467 1.000000
35.777901 18.795300 -744.916626 -0.244703 0.947370 0.206425 1.000000
35.768600 18.757700 -744.742981 -0.397190 0.885124 0.242479 1.000000
35.756802 18.723200 -744.570984 -0.380774 0.900145 0.211541 1.000000
35.790501 18.631300 -744.367981 -0.319392 0.856340 0.405797 1.000000
38.205002 18.984699 -753.373230 0.745009 0.644455 -0.172160 1.000000
38.110802 19.052900 -753.254089 0.158353 0.982754 -0.095495 1.000000
38.045601 19.085699 -753.119324 -0.086511 0.956790 -0.277611 1.000000
37.978901 19.120501 -752.985291 -0.241522 0.942627 -0.230481 1.000000
37.609600 19.291201 -752.164978 -0.100554 0.990517 -0.093619 1.000000
37.039902 19.354700 -750.168579 -0.093639 0.994772 0.040760 1.000000
36.406502 19.254000 -747.322388 0.180927 0.979921 0.083785 1.000000
36.364201 19.258301 -747.172791 0.129936 0.990903 -0.035026 1.000000
36.266499 19.186300 -746.527283 0.032599 0.971925 0.233021 1.000000
36.277000 19.124701 -746.343201 0.025003 0.975120 0.220265 1.000000
36.255299 19.103100 -746.179504 0.085566 0.988107 0.127762 1.000000
36.179298 19.076200 -745.783875 -0.296362 0.949675 0.101422 1.000000
36.145901 19.044800 -745.538025 -0.345840 0.937980 0.024247 1.000000
36.124699 19.022400 -745.373413 -0.448216 0.892345 0.053132 1.000000
36.101299 19.002701 -745.209778 -0.346128 0.936505 0.056164 1.000000
36.081100 18.979099 -745.044128 -0.266091 0.945646 0.186946 1.000000
36.087002 18.922501 -744.860779 -0.384478 0.879022 0.281951 1.000000
36.080700 18.881399 -744.685425 -0.404090 0.878784 0.253871 1.000000
36.083599 18.828600 -744.503723 -0.473984 0.876661 0.082493 1.000000
38.216400 19.181101 -753.002686 0.135434 0.914531 -0.381171 1.000000
38.157200 19.212299 -752.885681 0.105377 0.968709 -0.224720 1.000000
37.984798 19.259399 -752.383118 0.247010 0.963724 -0.101108 1.000000
37.465500 19.379000 -750.788391 -0.231980 0.969300 -0.081506 1.000000
37.230598 19.408100 -749.975098 -0.236127 0.966207 -0.103385 1.000000
37.170799 19.410601 -749.750427 -0.192799 0.980553 -0.036667 1.000000
36.922401 19.408100 -748.768616 -0.234953 0.970566 -0.052895 1.000000
36.839802 19.414801 -748.469604 -0.135733 0.990516 0.021313 1.000000
36.795300 19.398100 -748.234497 -0.037367 0.990781 0.130217 1.000000
36.751900 19.356199 -747.910706 -0.202259 0.977382 0.061768 1.000000
36.618301 19.281700 -747.114380 -0.142300 0.989273 -0.033014 1.000000
36.580898 19.279800 -746.961426 -0.183185 0.982106 -0.043728 1.000000
36.514599 19.241501 -746.561401 -0.141799 0.963972 0.225057 1.000000
36.490101 19.223700 -746.399902 -0.229148 0.968498 0.097483 1.000000
36.464699 19.206800 -746.238770 -0.373184 0.925655 0.062419 1.000000
36.454601 19.170900 -746.067688 -0.352519 0.930596 0.098597 1.000000
36.425400 19.158701 -745.908813 -0.348502 0.937307 0.001258 1.000000
36.398800 19.143299 -745.747986 -0.345379 0.937086 -0.050829 1.000000
36.359299 19.143900 -745.595520 -0.385372 0.922556 0.019463 1.000000
36.345001 19.113001 -745.426514 -0.322146 0.946065 0.034379 1.000000
36.325100 19.089100 -745.260925 -0.211789 0.970173 0.117943 1.000000
36.288101 19.086500 -745.106384 -0.316786 0.936644 0.149479 1.000000
36.285000 19.041500 -744.929382 -0.478628 0.857355 0.189364 1.000000
36.277599 19.001900 -744.755127 -0.419414 0.884448 0.204556 1.000000
36.265701 18.892099 -744.306396 -0.246170 0.969220 -0.003568 1.000000
38.338699 19.154100 -752.893921 0.128265 0.815295 -0.564662 1.000000
38.271599 19.189199 -752.759888 0.102131 0.993250 -0.054993 1.000000
37.437199 19.415100 -750.313477 -0.221721 0.970813 -0.091444 1.000000
37.298000 19.444700 -749.876282 -0.274854 0.960108 -0.051457 1.000000
37.012100 19.418501 -748.656982 -0.108025 0.994047 -0.014185 1.000000
36.894901 19.396900 -748.117126 -0.180154 0.981900 0.058461 1.000000
36.707802 19.293900 -747.003784 -0.075598 0.995919 -0.049303 1.000000
36.627899 19.273001 -746.612976 -0.071619 0.966231 0.247526 1.000000
36.631199 19.220800 -746.434021 -0.150482 0.983550 0.099920 1.000000
36.588001 19.226299 -746.284485 -0.140800 0.990032 0.003326 1.000000
36.560398 19.212400 -746.124817 -0.269645 0.958593 0.091602 1.000000
36.544102 19.184299 -745.957825 -0.348426 0.936476 0.040153 1.000000
36.511600 19.176399 -745.801086 -0.310937 0.950292 -0.016234 1.000000
36.476700 19.171400 -745.645813 -0.306605 0.951830 0.003694 1.000000
36.451500 19.154400 -745.484070 -0.297202 0.951307 0.081763 1.000000
36.424301 19.139799 -745.323608 -0.233710 0.964538 0.122665 1.000000
36.415699 19.101999 -745.150818 -0.271109 0.961879 0.035900 1.000000
36.373798 18.916401 -744.303711 -0.048743 0.998720 0.013482 1.000000
37.289799 19.438999 -749.620911 -0.264192 0.961961 -0.069524 1.000000
36.975498 19.424999 -748.331726 -0.143746 0.987525 0.064277 1.000000
36.465599 18.905800 -744.409607 -0.188186 0.932567 0.308068 1.000000
37.615898 19.417601 -750.848022 -0.308561 0.948923 -0.065844 1.000000
37.565899 19.432199 -750.704712 -0.269608 0.959600 -0.080499 1.000000
37.145302 19.433399 -749.050781 -0.221724 0.972367 -0.073082 1.000000
36.882599 19.379400 -747.816101 -0.226973 0.971148 0.073177 1.000000
38.111599 19.254601 -752.786621 0.174709 0.983764 0.041039 1.000000
37.943100 19.298401 -752.283386 0.167673 0.980338 -0.104031 1.000000
36.669701 19.317400 -747.330017 -0.191997 0.979306 0.063999 1.000000
36.551998 19.272800 -746.701294 -0.167989 0.979730 0.109131 1.000000
37.969299 19.201799 -752.840271 -0.407810 0.887761 -0.213475 1.000000
37.918400 19.217800 -752.698425 -0.217287 0.969534 -0.113091 1.000000
37.432098 19.349100 -751.264893 -0.379498 0.924618 -0.032603 1.000000
37.186199 19.371500 -750.377686 -0.121996 0.992457 -0.012090 1.000000
37.111000 19.370501 -750.077698 -0.161644 0.986817 0.007913 1.000000
36.479599 19.254700 -747.161377 -0.123629 0.992313 0.005470 1.000000
36.387001 19.250601 -746.781006 -0.043321 0.994158 0.098860 1.000000
36.320801 19.118099 -746.031677 -0.217322 0.971042 0.099240 1.000000
36.252998 19.082600 -745.633484 -0.309936 0.950049 0.036686 1.000000
36.183601 18.976700 -744.969482 -0.343651 0.905192 0.250061 1.000000
36.176399 18.937599 -744.796692 -0.364698 0.896241 0.252483 1.000000
36.183201 18.880800 -744.614380 -0.388692 0.898212 0.205264 1.000000
38.118000 19.066200 -753.370422 0.306427 0.945811 -0.107448 1.000000
37.096699 19.364300 -750.446472 -0.093574 0.993234 -0.068771 1.000000
36.533699 19.353901 -748.192322 -0.086487 0.996207 0.009610 1.000000
37.575401 19.305500 -751.895630 -0.263344 0.958674 -0.107673 1.000000
37.001999 19.378599 -749.914429 -0.299824 0.942885 -0.145164 1.000000
36.684799 19.369499 -748.636597 0.007102 0.999414 -0.033483 1.000000
36.484200 19.285999 -747.543701 0.102573 0.977534 0.184137 1.000000
38.182800 19.096701 -753.107178 -0.235768 0.872491 -0.427986 1.000000
38.074902 19.181499 -752.994873 -0.247566 0.831883 -0.496670 1.000000
37.027199 19.392000 -749.660522 -0.175423 0.983993 -0.031367 1.000000
36.824100 19.383499 -748.832703 -0.098235 0.994496 -0.036424 1.000000
36.547199 19.299700 -747.439880 -0.137953 0.986894 0.083715 1.000000
36.481300 19.262501 -747.044922 -0.091637 0.994763 -0.045267 1.000000
36.439999 19.265900 -746.895630 -0.076857 0.997037 -0.003159 1.000000
36.393902 19.156200 -746.312317 -0.338605 0.934874 0.106573 1.000000
36.364101 19.145300 -746.155518 -0.285664 0.951775 0.111896 1.000000
36.257702 19.085501 -745.519226 -0.345052 0.938389 0.019099 1.000000
36.225300 19.077700 -745.363525 -0.363427 0.930216 0.051168 1.000000
36.197800 19.063801 -745.204529 -0.338364 0.933559 0.118224 1.000000
38.013599 19.257000 -752.570923 0.055670 0.991834 -0.114748 1.000000
37.395901 19.386299 -750.618530 -0.145425 0.987726 -0.057007 1.000000
36.947498 19.423100 -748.991272 -0.206524 0.977062 -0.051933 1.000000
38.056000 19.359900 -751.704224 -0.098993 0.946372 -0.307538 1.000000
38.000900 19.381001 -751.564575 0.130767 0.990421 -0.044347 1.000000
37.442501 19.486200 -749.746887 -0.222262 0.970668 -0.091667 1.000000
37.402199 19.489100 -749.598816 -0.254793 0.966243 -0.038157 1.000000
37.357399 19.497601 -749.453125 -0.141222 0.986180 -0.086632 1.000000
37.287498 19.490499 -749.150513 -0.160143 0.986983 -0.014765 1.000000
37.137001 19.465700 -748.464172 -0.171957 0.985051 -0.010249 1.000000
37.100498 19.440701 -748.227112 -0.191699 0.981453 -0.001148 1.000000
37.046299 19.437099 -748.000122 -0.153474 0.987917 -0.021600 1.000000
36.864498 19.309099 -746.808289 -0.155835 0.986956 0.040402 1.000000
36.841301 19.290600 -746.648315 -0.177296 0.979406 0.096596 1.000000
36.808701 19.283701 -746.493713 -0.180753 0.976067 0.120918 1.000000
36.789799 19.259800 -746.330627 -0.228822 0.973381 0.013042 1.000000
36.752998 19.257900 -746.178528 -0.175335 0.984396 -0.014898 1.000000
36.720200 19.251200 -746.023804 -0.186011 0.982547 0.001141 1.000000
36.687401 19.244400 -745.869019 -0.245602 0.969098 0.022987 1.000000
36.654301 19.237900 -745.714172 -0.273580 0.961787 0.010943 1.000000
36.643902 19.179600 -745.457520 -0.181969 0.975101 0.126751 1.000000
36.612801 19.170500 -745.301025 -0.204753 0.970349 0.128447 1.000000
38.242901 19.591900 -750.635681 -0.167743 0.960227 -0.223217 1.000000
38.181702 19.597500 -750.414429 -0.347694 0.933844 -0.083926 1.000000
38.179001 19.555000 -750.245728 -0.077293 0.996104 -0.042457 1.000000
38.136600 19.560699 -750.098816 0.084899 0.996222 -0.018269 1.000000
38.095699 19.564501 -749.950989 0.094759 0.995500 0.001065 1.000000
38.028801 19.577000 -749.732300 0.069330 0.997292 -0.024532 1.000000
37.719299 19.562201 -748.450989 -0.001049 0.997224 0.074451 1.000000
37.548000 19.539600 -747.688416 -0.296036 0.954996 -0.018580 1.000000
37.242100 19.329599 -745.696716 -0.431802 0.874063 0.222624 1.000000
37.231602 19.295401 -745.527893 -0.596580 0.799732 0.067240 1.000000
38.263802 19.620199 -751.153625 0.499100 0.420553 -0.757650 1.000000
38.282700 19.549500 -750.976074 0.323716 0.935636 -0.140687 1.000000
38.181999 19.528200 -750.525391 -0.306341 0.938255 -0.160726 1.000000
38.008099 19.571899 -750.028870 0.028632 0.997887 -0.058325 1.000000
37.945400 19.600201 -749.893982 0.083574 0.987585 -0.133012 1.000000
37.897099 19.611099 -749.751526 -0.021100 0.999753 -0.007033 1.000000
37.867699 19.598801 -749.598389 -0.087796 0.994649 0.054456 1.000000
37.828400 19.598499 -749.450684 -0.085738 0.987751 -0.130369 1.000000
37.785301 19.602900 -749.305176 -0.180525 0.981527 -0.063363 1.000000
37.749802 19.598101 -749.155273 -0.188202 0.981256 0.041428 1.000000
37.625301 19.556700 -748.545288 -0.238813 0.970851 -0.020401 1.000000
37.404499 19.486900 -747.475586 -0.310675 0.947624 0.074094 1.000000
37.380100 19.468201 -747.318298 -0.311893 0.948513 0.055191 1.000000
37.258701 19.397100 -746.615295 -0.189020 0.980763 0.048741 1.000000
37.181499 19.393900 -746.315796 -0.247307 0.968919 0.005974 1.000000
37.056999 19.251499 -745.351013 -0.302887 0.943662 0.133270 1.000000
37.034698 19.229401 -745.190430 0.517605 0.842030 0.151890 1.000000
36.954800 19.229099 -744.890625 0.266609 0.953689 0.139273 1.000000
36.964901 19.166800 -744.709900 0.426174 0.904126 0.030536 1.000000
38.132702 19.345501 -752.377991 -0.117072 0.921426 -0.370498 1.000000
38.020802 19.338400 -751.935425 0.633977 0.753134 -0.175680 1.000000
37.914101 19.396500 -751.740173 0.110644 0.986277 -0.122541 1.000000
37.526199 19.438101 -750.437317 -0.267185 0.959028 -0.094225 1.000000
37.413300 19.455601 -750.077393 -0.314428 0.940585 -0.128200 1.000000
37.245201 19.468399 -749.494324 -0.225195 0.969976 -0.091839 1.000000
37.075401 19.458700 -748.826721 -0.207812 0.978010 -0.017611 1.000000
38.136101 19.004999 -753.544128 0.344565 0.935248 -0.081152 1.000000
37.138599 19.312599 -750.893799 -0.073002 0.993956 -0.081987 1.000000
36.089901 19.142700 -746.391174 -0.305976 0.909144 0.282552 1.000000
36.063801 19.125601 -746.234375 -0.629866 0.776604 0.012459 1.000000
36.010101 19.018600 -745.661926 -0.221950 0.973910 0.047301 1.000000
35.979301 18.957399 -745.333923 -0.421260 0.906825 0.014436 1.000000
35.943901 18.951599 -745.181824 -0.535618 0.842087 0.063262 1.000000
35.941601 18.904499 -745.009277 -0.462810 0.850776 0.248970 1.000000
35.960201 18.831200 -744.823730 -0.388922 0.898746 0.202473 1.000000
35.951900 18.791500 -744.654419 -0.374110 0.911805 0.169274 1.000000
35.915001 18.787300 -744.502502 -0.528471 0.841210 0.114381 1.000000
35.923401 18.726601 -744.322388 -0.673301 0.663567 0.326105 1.000000
37.894699 18.860399 -753.800171 -0.600976 0.768690 -0.218960 1.000000
37.467499 19.070801 -752.938477 -0.191199 0.933663 -0.302847 1.000000
37.187401 19.197701 -752.335327 -0.093802 0.980661 -0.171768 1.000000
37.112701 19.217300 -752.124695 -0.222670 0.968295 -0.113243 1.000000
37.003601 19.231001 -751.765686 -0.157888 0.985926 -0.054969 1.000000
36.777699 19.267599 -751.051086 0.154929 0.986655 -0.050090 1.000000
36.137299 19.256599 -748.626709 0.009097 0.999639 -0.025269 1.000000
35.938000 19.234100 -747.806396 -0.200127 0.979568 0.019896 1.000000
35.841900 19.156700 -747.179382 -0.138398 0.989372 0.044608 1.000000
35.781601 19.132900 -746.872375 -0.178494 0.973487 0.143048 1.000000
35.757801 19.113001 -746.714905 -0.022001 0.998439 0.051336 1.000000
35.755798 19.066099 -746.544373 -0.318817 0.925279 0.205460 1.000000
35.645802 18.854900 -745.402222 -0.277519 0.953562 0.117058 1.000000
35.641399 18.810301 -745.231201 -0.331533 0.920608 0.206319 1.000000
35.625702 18.779900 -745.067078 -0.364474 0.914730 0.174437 1.000000
35.619999 18.736900 -744.896790 -0.371818 0.883632 0.284509 1.000000
35.614201 18.693899 -744.726074 -0.347918 0.914895 0.204742 1.000000
35.602100 18.658800 -744.559082 -0.600220 0.744272 0.292907 1.000000
35.634800 18.567400 -744.364014 -0.492528 0.783201 0.379489 1.000000
35.656700 18.514700 -744.262817 -0.350729 0.860598 0.369269 1.000000
35.671799 18.390200 -743.887085 -0.333969 0.682600 0.650017 1.000000
37.844601 18.810600 -754.000671 -0.356516 0.916146 -0.183229 1.000000
37.670300 18.903700 -753.674316 0.083686 0.970508 -0.226077 1.000000
37.355801 19.048599 -753.005493 -0.030933 0.961390 -0.273446 1.000000
37.207199 19.134501 -752.750000 0.008469 0.964225 -0.264950 1.000000
37.150600 19.155899 -752.613281 -0.129903 0.989792 -0.058629 1.000000
37.025002 19.165899 -752.180481 -0.278109 0.957363 -0.078178 1.000000
36.134998 19.270300 -749.229309 -0.180154 0.981900 -0.058461 1.000000
35.678200 19.125601 -747.028015 -0.211789 0.970173 0.117943 1.000000
35.658199 19.101000 -746.868530 -0.201478 0.979437 0.010481 1.000000
35.539700 18.499300 -744.344177 -0.350299 0.885520 0.305196 1.000000
37.367901 19.075199 -752.859985 -0.096089 0.962167 -0.254955 1.000000
35.596298 18.477501 -744.172424 -0.342568 0.890077 0.300682 1.000000
37.900501 18.953899 -753.720093 -0.434884 0.793785 -0.425184 1.000000
36.965900 19.263500 -751.298279 -0.136740 0.990532 -0.012229 1.000000
36.348701 19.277901 -749.035889 -0.105172 0.990464 -0.088992 1.000000
36.265202 19.284201 -748.745117 -0.365422 0.914265 -0.174890 1.000000
35.876499 19.107500 -746.672302 -0.239459 0.969001 -0.060795 1.000000
35.737999 18.474600 -743.945923 -0.044029 0.757014 0.651913 1.000000
38.025002 19.014000 -753.543579 -0.171208 0.969322 -0.176357 1.000000
37.987701 19.012199 -753.397217 -0.526929 0.791190 -0.310427 1.000000
37.781101 19.122200 -753.005127 -0.046369 0.980874 -0.189041 1.000000
35.898800 18.835899 -744.921814 -0.364192 0.893385 0.263110 1.000000
35.894901 18.575701 -743.995117 -0.527412 0.713753 -0.460861 1.000000
37.691502 19.290899 -752.248474 0.050362 0.984984 -0.165140 1.000000
36.741798 19.360001 -748.914612 -0.003049 0.999209 -0.039643 1.000000
36.209202 19.122499 -746.074402 -0.418714 0.891036 0.175309 1.000000
37.360699 19.428301 -750.436584 -0.130498 0.990653 -0.039717 1.000000
37.316601 19.411100 -750.209717 -0.211192 0.976311 -0.047066 1.000000
37.133999 19.420300 -749.554688 -0.200577 0.979424 -0.022286 1.000000
37.074200 19.422100 -749.335571 -0.216411 0.974462 -0.059910 1.000000
36.679501 19.331301 -747.530029 -0.140452 0.989903 0.019101 1.000000
36.459900 19.062099 -744.894287 -0.229385 0.933019 0.277232 1.000000
36.445801 18.864401 -744.144409 0.061727 0.890239 0.451292 1.000000
37.623001 19.485001 -750.408875 -0.282502 0.950956 -0.125998 1.000000
36.582600 19.231400 -745.582581 -0.281707 0.957295 0.065009 1.000000
36.575600 18.898399 -744.379822 -0.360723 0.856137 0.370012 1.000000
36.543800 18.888700 -744.225586 -0.380132 0.921244 -0.082520 1.000000
37.116501 19.458200 -748.591675 -0.211666 0.976083 -0.049590 1.000000
36.849098 19.333700 -747.137512 -0.262387 0.963743 0.048498 1.000000
36.805099 19.316000 -746.908020 -0.075864 0.996911 0.020302 1.000000
36.290401 18.885401 -744.161682 0.510287 0.594493 -0.621439 1.000000
37.347599 19.238600 -751.887085 -0.356516 0.916146 -0.183229 1.000000
37.053799 19.293699 -750.964172 0.029310 0.999558 -0.005053 1.000000
36.198200 19.235100 -747.500671 -0.298994 0.952964 0.049620 1.000000
37.268002 19.141100 -752.600586 -0.005524 0.991009 -0.133681 1.000000
35.676899 18.894600 -745.682129 -0.347683 0.926693 0.142675 1.000000
37.847500 18.719400 -754.363770 0.112650 0.932417 -0.343379 1.000000
35.909100 19.236799 -748.828613 -0.373370 0.914405 0.156393 1.000000
35.427898 18.849701 -745.637878 0.072152 0.985284 0.154949 1.000000
37.924000 18.550501 -754.991516 0.510580 0.856593 -0.074547 1.000000
37.871899 18.567200 -754.852905 -0.717019 0.637173 -0.282656 1.000000
37.397099 18.794399 -753.852722 -0.336269 0.899186 -0.279977 1.000000
37.344200 18.812099 -753.714478 -0.313497 0.911328 -0.266837 1.000000
37.105999 18.938700 -753.257080 -0.062851 0.953026 -0.296297 1.000000
36.943901 19.019400 -752.926819 -0.167050 0.946617 -0.275700 1.000000
36.767601 19.094299 -752.521973 0.227986 0.970496 -0.078487 1.000000
36.314602 19.226500 -751.270691 -0.175260 0.979253 -0.101725 1.000000
36.187801 19.217600 -750.758484 -0.141739 0.987488 -0.069112 1.000000
35.723701 19.220900 -749.011780 -0.327441 0.943802 0.044943 1.000000
35.638100 19.207600 -748.640686 -0.930854 0.212646 -0.297141 1.000000
35.207100 18.535801 -744.645386 -0.304767 0.829903 0.467309 1.000000
35.211300 18.481501 -744.470581 0.139964 0.961433 0.236761 1.000000
35.243099 18.392700 -744.278687 0.001305 0.899331 0.437266 1.000000
35.255798 18.332001 -744.113525 0.216376 0.965270 0.146410 1.000000
37.835701 18.382700 -755.339172 0.182176 0.908012 -0.377262 1.000000
37.692001 18.463499 -755.079773 0.220847 0.881905 -0.416497 1.000000
37.281300 18.681700 -754.293701 -0.173613 0.918880 -0.354284 1.000000
37.214802 18.715900 -754.161987 -0.094333 0.969748 -0.225143 1.000000
37.150501 18.747299 -754.029480 -0.066181 0.980677 -0.184102 1.000000
36.893501 18.849800 -753.417786 -0.025539 0.966822 -0.254171 1.000000
36.561298 19.020599 -752.761780 0.001186 0.969369 -0.245605 1.000000
35.981899 19.259701 -751.411072 -0.233770 0.898324 -0.371974 1.000000
35.788601 19.190300 -750.438721 0.071655 0.995448 -0.062836 1.000000
35.676998 19.185499 -750.000183 0.062079 0.996525 0.055544 1.000000
34.818802 19.000299 -746.111816 0.282597 0.932148 0.226359 1.000000
37.630501 18.275499 -755.591370 0.626816 0.750631 -0.208939 1.000000
37.338699 18.443199 -755.075012 -0.322231 0.904894 -0.278089 1.000000
37.269299 18.480900 -754.944519 -0.190304 0.926147 -0.325632 1.000000
37.198898 18.519800 -754.814514 -0.073600 0.951638 -0.298275 1.000000
37.145699 18.537901 -754.676575 -0.238795 0.931160 -0.275533 1.000000
37.082699 18.567801 -754.543274 -0.037187 0.942504 -0.332120 1.000000
36.996700 18.625700 -754.420776 -0.006102 0.957976 -0.286783 1.000000
36.593300 18.836901 -753.635193 -0.148952 0.958304 -0.243860 1.000000
36.503300 18.876600 -753.433899 -0.166063 0.928001 -0.333522 1.000000
35.860600 19.100300 -751.787720 0.096749 0.989640 -0.106075 1.000000
35.772099 19.138300 -751.586182 0.262084 0.934813 -0.239660 1.000000
35.145500 19.366400 -750.015808 0.444306 0.890013 -0.102316 1.000000
37.605000 18.150200 -755.912598 0.379511 0.883525 -0.274508 1.000000
35.442402 19.226200 -751.487793 0.058186 0.995752 -0.071360 1.000000
35.295700 19.265600 -751.070190 -0.001065 0.995500 -0.094759 1.000000
37.220200 18.362000 -755.362610 0.111782 0.953437 -0.280113 1.000000
37.143200 18.409201 -755.235779 0.075719 0.989012 -0.126976 1.000000
37.098202 18.417500 -755.094421 -0.036257 0.983614 -0.176606 1.000000
37.043301 18.438000 -754.957397 -0.042871 0.968889 -0.243753 1.000000
36.977901 18.471100 -754.825317 0.010987 0.960772 -0.277122 1.000000
36.904800 18.513700 -754.697021 0.062851 0.953026 -0.296297 1.000000
36.831299 18.556700 -754.568787 0.134115 0.952082 -0.274869 1.000000
35.507801 19.173300 -751.705994 -0.053072 0.992565 -0.109532 1.000000
36.199402 18.912701 -753.092285 -0.049121 0.958488 -0.280871 1.000000
35.803001 19.048000 -752.062073 0.199228 0.973587 -0.111518 1.000000
36.299198 18.925900 -752.981812 -0.098511 0.963358 -0.249475 1.000000
37.575901 18.340200 -755.470093 0.580711 0.812430 0.052278 1.000000
36.873001 18.642500 -754.338013 -0.003667 0.957110 -0.289700 1.000000
37.626801 18.047600 -756.211487 -0.165048 0.918346 -0.359721 1.000000
35.399799 19.183300 -751.727783 -0.024326 0.983449 -0.179546 1.000000
35.335300 19.215799 -751.596375 -0.033943 0.995283 -0.090878 1.000000
35.203201 19.261299 -751.253174 0.057253 0.997068 -0.050772 1.000000
37.346699 18.040899 -756.464111 -0.229740 0.887834 -0.398710 1.000000
37.112900 18.185801 -756.082520 0.072492 0.937128 -0.341373 1.000000
36.194599 18.655701 -754.233215 0.078121 0.992924 -0.089442 1.000000
35.237000 19.130800 -752.252380 0.287501 0.953565 -0.089763 1.000000
34.011299 18.124300 -744.008972 -0.627304 0.689543 -0.361969 1.000000
37.164101 17.921700 -756.888306 -0.314120 0.878626 0.359645 1.000000
37.086700 17.969200 -756.760376 -0.211384 0.947818 -0.238659 1.000000
35.390900 18.900299 -753.568604 0.031811 0.994927 -0.095434 1.000000
34.700901 19.281401 -752.278198 0.117943 0.970173 -0.211789 1.000000
34.633499 19.317699 -752.148682 -0.130218 0.978493 -0.159982 1.000000
33.208000 19.362000 -746.861023 0.026126 0.956708 0.289874 1.000000
33.502300 18.351801 -744.421326 0.863952 0.492667 0.104245 1.000000
36.866100 17.861401 -757.163330 0.323173 0.888350 -0.326179 1.000000
36.783001 17.938801 -757.118591 -0.014696 0.883107 -0.468942 1.000000
36.107300 18.250900 -755.640381 -0.240794 0.939515 -0.243578 1.000000
36.043999 18.281700 -755.507202 0.045019 0.972158 -0.229960 1.000000
35.971901 18.323099 -755.378113 0.481539 0.876375 -0.009337 1.000000
34.702801 19.015200 -752.973816 0.109042 0.973856 -0.199283 1.000000
34.475899 19.156000 -752.604126 0.080179 0.942427 -0.324658 1.000000
33.746201 19.632200 -751.497314 0.269280 0.948570 -0.166440 1.000000
33.654099 19.699200 -751.381470 -0.940007 0.217993 -0.262424 1.000000
33.413700 19.692200 -750.440491 -0.064527 0.992817 -0.100753 1.000000
33.344799 19.707001 -750.229980 0.267185 0.959028 -0.094225 1.000000
33.220600 19.743500 -749.884521 0.290532 0.942524 0.165044 1.000000
33.178398 19.748699 -749.742188 0.354926 0.932835 0.062013 1.000000
33.133999 19.733101 -749.518127 0.303655 0.951622 -0.047009 1.000000
33.046200 19.724300 -749.151978 -0.080309 0.941322 0.327817 1.000000
33.015598 19.667801 -748.836487 -0.410731 0.859920 -0.303049 1.000000
32.973999 19.672100 -748.693298 -0.945338 0.288064 0.152823 1.000000
32.940102 19.643200 -748.462219 0.988312 0.150913 0.021559 1.000000
32.896099 19.555401 -747.985779 -0.400821 0.914831 -0.049270 1.000000
32.869202 19.541300 -747.833618 -0.966940 0.154037 0.203226 1.000000
32.878101 19.291100 -746.987122 0.953686 0.036535 -0.298578 1.000000
32.934799 19.148001 -746.700073 0.953437 0.280113 -0.111782 1.000000
32.921600 19.116400 -746.538513 -0.955968 0.264305 -0.127550 1.000000
32.883202 19.089899 -746.298706 0.864521 0.479641 0.150161 1.000000
36.867901 17.643200 -757.781311 -0.678973 0.712692 -0.176257 1.000000
36.783100 17.699499 -757.656311 -0.190222 0.973787 0.124715 1.000000
36.516399 17.860500 -757.206177 0.063585 0.945982 -0.317923 1.000000
35.959499 18.143101 -756.078125 -0.548608 0.775728 -0.311891 1.000000
35.894600 18.175600 -755.945374 -0.262762 0.959147 -0.104846 1.000000
35.744598 18.242201 -755.608398 0.318149 0.907532 -0.274166 1.000000
35.652000 18.308599 -755.488708 0.033024 0.250740 0.967491 1.000000
35.595001 18.331600 -755.352722 0.983368 0.164094 0.077855 1.000000
35.434200 18.411600 -755.021423 -0.022947 0.969816 -0.242756 1.000000
33.367401 19.642500 -751.474426 -0.776891 0.467437 -0.421834 1.000000
33.292801 19.687700 -751.349426 -0.095166 0.988079 -0.121013 1.000000
33.248501 19.672199 -751.126526 -0.261256 0.963772 0.053751 1.000000
33.214100 19.667900 -750.980286 0.704682 0.701727 0.104890 1.000000
33.207401 19.629299 -750.819397 -0.293748 0.884258 0.363043 1.000000
33.114498 19.650299 -750.539612 0.888905 0.181855 0.420448 1.000000
33.058201 19.673100 -750.405029 -0.102326 0.977643 -0.183693 1.000000
36.194698 17.877600 -756.984985 0.289441 0.952143 -0.098227 1.000000
34.315399 18.961500 -753.635498 -0.003755 0.942497 -0.334192 1.000000
33.973301 19.194799 -753.151978 0.450294 0.875654 -0.174544 1.000000
33.898701 19.239799 -753.025879 0.203260 0.973901 -0.101006 1.000000
33.341499 19.575500 -752.083130 0.147323 0.986472 -0.071893 1.000000
36.750099 17.491600 -758.281616 0.299175 0.954159 -0.008618 1.000000
36.656101 17.544399 -758.109192 0.122370 0.925335 -0.358860 1.000000
34.599499 18.698500 -754.332886 0.089293 0.969644 -0.227634 1.000000
33.777901 19.239100 -753.103516 0.092129 0.967988 -0.233478 1.000000
34.541599 18.679600 -754.432983 0.040137 0.971813 -0.232311 1.000000
34.269402 18.815500 -754.214294 0.191444 0.972434 -0.133123 1.000000
34.067001 18.946600 -753.904419 0.164455 0.944598 -0.284059 1.000000
33.410599 19.261999 -752.514282 0.535440 0.562465 0.630029 1.000000
36.521099 17.440500 -758.402100 0.082721 0.759006 -0.645808 1.000000
36.223400 17.615101 -757.880920 -0.313909 0.897096 -0.310934 1.000000
36.154598 17.652000 -757.748596 -0.297765 0.868862 -0.395493 1.000000
36.076401 17.700300 -757.620300 -0.357714 0.830463 -0.427050 1.000000
36.019501 17.723000 -757.483093 -0.411042 0.857493 -0.309436 1.000000
35.963001 17.745100 -757.345703 -0.028277 0.962656 -0.269248 1.000000
35.904202 17.770100 -757.209412 0.175991 0.952500 -0.248537 1.000000
35.845200 17.795401 -757.073181 0.054528 0.997549 -0.043837 1.000000
35.783798 17.823500 -756.937988 0.249025 0.968161 -0.025510 1.000000
35.588001 17.945101 -756.619019 0.057221 0.954952 -0.291191 1.000000
35.510700 17.992500 -756.491089 0.255433 0.909340 -0.328413 1.000000
33.459099 19.149200 -752.737610 0.336641 0.941324 -0.024137 1.000000
36.674900 17.041300 -758.908813 0.533849 0.803122 0.264576 1.000000
36.409599 17.268000 -758.693787 -0.329663 0.262265 -0.906940 1.000000
36.061901 17.502501 -758.192627 -0.092572 0.953101 -0.288147 1.000000
35.891201 17.570400 -757.780518 -0.134126 0.925055 -0.355365 1.000000
35.811699 17.620300 -757.652771 -0.609530 0.562254 -0.558877 1.000000
35.733700 17.668501 -757.524475 0.807321 0.529365 0.260779 1.000000
35.106701 18.012199 -756.342529 -0.496219 0.780696 -0.379842 1.000000
35.015800 18.076300 -756.221130 -0.352634 0.841619 -0.409055 1.000000
34.731602 18.259600 -755.781799 0.117948 0.914443 -0.387147 1.000000
34.295200 18.513201 -755.009277 0.235621 0.887655 -0.395666 1.000000
34.144901 18.626900 -754.835815 0.302812 0.908436 -0.288183 1.000000
33.453899 19.054100 -753.702820 -0.047046 0.952354 -0.301346 1.000000
33.382099 19.095600 -753.575012 -0.135990 0.981332 -0.135990 1.000000
36.318100 17.156799 -759.021423 0.801946 0.577101 0.154393 1.000000
36.202900 17.226299 -758.826721 -0.040476 0.928345 -0.369510 1.000000
35.700699 17.532600 -757.987671 0.121618 0.958561 -0.257622 1.000000
34.914200 17.977501 -756.551575 0.245876 0.940442 -0.234763 1.000000
34.570599 18.186899 -755.977112 -0.040218 0.844574 -0.533926 1.000000
33.505699 18.837700 -754.202271 -0.961744 0.082799 -0.261136 1.000000
33.415501 18.901600 -754.083130 0.850025 0.422690 0.314308 1.000000
35.250801 17.896999 -756.668701 -0.386910 0.861683 -0.328334 1.000000
35.135899 17.965700 -756.483276 -0.292223 0.930313 -0.221638 1.000000
34.631302 18.273300 -755.686096 -0.150715 0.977777 -0.145732 1.000000
33.508301 18.960899 -753.923584 -0.254562 0.912059 -0.321475 1.000000
34.421299 18.649500 -754.509583 0.064098 0.940543 -0.333572 1.000000
34.272400 18.785299 -754.422974 0.118308 0.985904 -0.118308 1.000000
33.918800 18.981199 -753.800415 0.142854 0.951914 -0.271022 1.000000
36.633701 17.689800 -757.688171 0.114462 0.953852 -0.277604 1.000000
36.144699 17.927401 -756.716187 -0.274993 0.946898 -0.166622 1.000000
36.466301 18.054600 -756.382324 0.043731 0.960840 -0.273633 1.000000
33.359501 19.667200 -750.547974 0.201881 0.979409 -0.001154 1.000000
32.991501 19.735100 -749.448914 -0.430834 0.877954 -0.208755 1.000000
32.814201 19.271000 -747.272217 -0.717366 0.681121 0.146494 1.000000
36.653400 18.279200 -755.723816 0.102398 0.957875 -0.268309 1.000000
36.025002 18.566900 -754.419373 -0.256807 0.929330 -0.265320 1.000000
34.874401 19.186100 -752.337585 0.163687 0.948300 -0.271909 1.000000
34.795399 19.235300 -752.216980 0.179945 0.983314 0.026702 1.000000
33.828602 19.757799 -750.475525 -0.886669 0.367570 -0.280553 1.000000
33.216301 19.227400 -746.515198 -0.544017 0.771894 0.328978 1.000000
37.511101 18.017900 -756.349487 0.266331 0.880247 -0.392725 1.000000
37.240398 18.178699 -755.912781 0.143008 0.950267 -0.276660 1.000000
36.848000 18.392099 -755.213806 0.124469 0.974379 -0.187332 1.000000
36.607601 18.516800 -754.765930 0.037349 0.974677 -0.220477 1.000000
37.320000 18.271500 -755.596191 -0.053142 0.942302 -0.330519 1.000000
37.237999 18.322901 -755.473877 0.021644 0.938340 -0.345034 1.000000
35.658298 19.038099 -752.210815 0.123604 0.989988 -0.068156 1.000000
35.408699 19.219500 -751.105225 -0.057481 0.996691 -0.057481 1.000000
35.190102 19.341299 -750.731323 0.159333 0.981538 0.105816 1.000000
37.117699 18.749800 -753.912781 -0.082436 0.975699 -0.203014 1.000000
35.688499 19.187799 -750.319092 -0.109711 0.993915 -0.009776 1.000000
37.738800 18.824699 -753.905396 0.036535 0.953686 -0.298578 1.000000
36.375801 19.271299 -750.592529 -0.122277 0.990783 -0.058281 1.000000
35.404202 18.889000 -745.949280 0.208392 0.963321 0.169073 1.000000
35.371498 18.773001 -745.456787 0.137617 0.973421 0.183069 1.000000
35.357399 18.738100 -745.294128 0.046782 0.977618 0.205120 1.000000
35.330200 18.719801 -745.139404 0.027594 0.972999 0.229153 1.000000
35.339500 18.655300 -744.961914 0.062908 0.951325 0.301702 1.000000
35.323700 18.622499 -744.799805 0.114308 0.940016 0.321408 1.000000
35.369999 18.511000 -744.598694 -0.245854 0.867276 0.432884 1.000000
35.355900 18.475901 -744.434998 -0.164582 0.945325 0.281557 1.000000
35.367298 18.408300 -744.255005 -0.303049 0.859920 0.410731 1.000000
35.394901 18.346901 -744.151123 -0.277258 0.834871 0.475520 1.000000
35.418098 18.290800 -744.049805 -0.219783 0.871658 0.438072 1.000000
35.413101 18.234200 -743.847778 -0.212794 0.731575 0.647701 1.000000
36.922699 19.317301 -750.299622 0.020302 0.996911 -0.075864 1.000000
36.631699 19.321100 -749.295471 -0.083279 0.996098 -0.029202 1.000000
36.168701 19.177000 -747.208801 -0.471124 0.880439 -0.053568 1.000000
35.843601 18.694401 -744.500427 -0.494328 0.837144 0.234156 1.000000
37.786098 19.430000 -750.943115 -0.073099 0.996115 -0.049097 1.000000
36.721199 19.259600 -746.674927 -0.014848 0.985692 0.167899 1.000000
36.438202 19.063700 -745.049194 -0.293557 0.954378 0.054645 1.000000
36.436699 18.827299 -744.273315 -0.066526 0.993386 0.093588 1.000000
36.569302 19.115101 -745.200378 -0.235185 0.969359 0.070929 1.000000
38.097500 19.450100 -751.116272 -0.003703 0.951597 -0.307325 1.000000
38.041199 19.468300 -750.980103 -0.221097 0.973560 -0.057412 1.000000
37.280602 19.481001 -748.388123 -0.179783 0.983652 -0.010306 1.000000
37.163200 19.444799 -747.864624 -0.100248 0.994934 0.007546 1.000000
36.955299 19.311300 -746.712891 -0.288118 0.957531 0.011034 1.000000
36.933300 19.286200 -746.555420 -0.327683 0.940597 0.088886 1.000000
36.900398 19.274599 -746.404175 -0.255355 0.966439 0.028101 1.000000
38.068401 19.497601 -750.842285 -0.110357 0.993211 -0.036786 1.000000
38.023201 19.502001 -750.700073 -0.043660 0.997792 -0.050049 1.000000
37.234600 19.443300 -747.779785 -0.086304 0.996223 0.009589 1.000000
36.938900 19.286800 -746.249817 -0.313987 0.949407 -0.006205 1.000000
36.901600 19.280701 -746.100830 -0.299695 0.953801 -0.021140 1.000000
36.881302 19.253099 -745.941528 -0.256844 0.966452 -0.001195 1.000000
