ply
format ascii 1.0
element vertex 678
property float x
property float y
property float z
property float nx
property float ny
property float nz
property float label
element face 0
property list uchar int vertex_indices
end_header
-36.697800 61.641800 -779.085510 -0.044146 0.954820 -0.293888 1.000000
-36.459499 57.826900 -784.848328 0.006330 0.935528 -0.353197 1.000000
-36.378201 56.886299 -786.414612 -0.337977 0.848837 -0.406507 1.000000
-36.133801 55.513100 -789.512329 -0.278615 0.911700 -0.301955 1.000000
-35.458302 54.858398 -794.596008 -0.260462 0.891524 -0.370600 1.000000
-36.838699 66.155602 -775.012878 -0.188710 0.468061 -0.863312 1.000000
-36.970901 62.809700 -777.860779 -0.217675 0.578922 -0.785791 1.000000
-36.896599 61.069199 -780.266174 -0.152693 0.871079 -0.466805 1.000000
-36.629902 56.257401 -787.312927 -0.348832 0.914427 -0.205280 1.000000
-35.996899 54.329700 -793.535522 -0.614915 0.787374 0.043822 1.000000
-37.209099 65.161003 -775.378601 -0.260762 0.744356 -0.614766 1.000000
-37.119999 60.427200 -781.164917 -0.218916 0.877154 -0.427408 1.000000
-37.085400 58.603699 -783.395630 -0.140063 0.876477 -0.460620 1.000000
-36.778900 55.859600 -788.394226 0.051135 0.964075 -0.260662 1.000000
-36.639599 54.894600 -790.355286 -0.264048 0.859300 -0.438044 1.000000
-36.544800 54.423000 -791.486328 0.013384 0.962396 -0.271320 1.000000
-37.525299 64.278000 -776.079224 -0.314200 0.816287 -0.484720 1.000000
-37.556900 61.997700 -778.363220 -0.275005 0.355276 -0.893393 1.000000
-37.380699 59.669899 -782.033325 0.025985 0.854780 -0.518339 1.000000
-37.244400 57.321499 -785.469482 -0.081311 0.897179 -0.434119 1.000000
-36.689899 54.065601 -792.580688 -0.499765 0.816230 -0.289832 1.000000
-36.171398 54.504501 -795.431213 -0.198098 0.972825 -0.119868 1.000000
-37.885399 63.415298 -776.853088 -0.118128 0.549806 -0.826897 1.000000
-37.834999 61.413300 -779.340088 -0.144986 0.968711 -0.201441 1.000000
-37.702900 57.880100 -784.004578 -0.270901 0.887539 -0.372676 1.000000
-37.552799 56.612701 -786.334473 -0.017057 0.415916 -0.909243 1.000000
-37.336601 55.216599 -789.224976 -0.205268 0.934180 -0.291844 1.000000
-36.830799 53.758499 -794.033081 -0.653540 0.750469 0.098398 1.000000
-39.412399 34.380501 -798.495422 0.908505 0.371726 0.190887 1.000000
-39.150501 35.243000 -799.236023 0.987361 0.017004 0.157570 1.000000
-38.200001 65.815102 -774.693970 -0.492878 0.307065 -0.814115 1.000000
-38.284599 64.780197 -775.268921 -0.271396 0.598341 -0.753878 1.000000
-38.304501 62.547501 -777.546326 -0.324683 0.583136 -0.744670 1.000000
-38.169601 60.774601 -780.314209 -0.156684 0.865424 -0.475910 1.000000
-38.100498 59.021900 -782.642029 -0.065671 0.507207 -0.859318 1.000000
-37.897202 55.961399 -787.232727 -0.163195 0.927560 -0.336153 1.000000
-37.674702 54.437901 -790.290771 -0.379457 0.824010 -0.420737 1.000000
-37.597801 53.938400 -791.318604 -0.461485 0.788572 -0.406430 1.000000
-38.694000 63.957100 -775.932678 -0.206442 0.812004 -0.545923 1.000000
-38.720600 61.677399 -778.207825 0.058689 0.940325 -0.335178 1.000000
-38.509800 60.097401 -781.243408 -0.050969 0.869226 -0.491781 1.000000
-38.535599 58.102100 -783.218384 -0.072747 0.163383 0.983877 1.000000
-38.422501 57.363201 -784.730774 -0.102613 0.969119 -0.224228 1.000000
-38.215698 55.349800 -788.205078 -0.367401 0.819098 -0.440563 1.000000
-37.876598 53.503399 -792.343079 -0.433825 0.896756 -0.087319 1.000000
-37.747700 53.252602 -793.432312 -0.363818 0.930908 0.032368 1.000000
-37.469601 53.514999 -794.920410 0.405555 0.793337 0.454028 1.000000
-37.230499 54.033600 -795.885681 0.191939 0.980892 -0.031794 1.000000
-40.536499 32.688499 -797.737183 0.692196 0.666618 0.276559 1.000000
-40.283600 33.432301 -798.549622 -0.625431 0.500682 0.598459 1.000000
-39.081600 63.092899 -776.643799 -0.418030 0.546909 -0.725356 1.000000
-38.967701 61.294701 -779.289490 -0.120714 0.887602 -0.444511 1.000000
-38.725601 56.769299 -785.663513 0.138603 0.957018 -0.254765 1.000000
-38.520500 54.734798 -789.141479 -0.448859 0.846816 -0.285357 1.000000
-39.977901 36.411400 -799.452271 0.479382 0.360739 0.800038 1.000000
-39.353699 66.574799 -773.672119 -0.029104 0.317612 -0.947774 1.000000
-39.444599 65.515297 -774.222595 -0.293841 0.397370 -0.869342 1.000000
-39.473900 64.654099 -774.953491 -0.330482 0.556177 -0.762527 1.000000
-39.503700 62.229900 -777.343811 -0.144568 0.860109 -0.489196 1.000000
-39.328499 60.625301 -780.163513 -0.198010 0.946351 -0.255365 1.000000
-39.262699 59.473400 -781.807312 -0.263994 0.838295 -0.477041 1.000000
-39.262600 57.513500 -783.893799 -0.075740 0.896491 -0.436540 1.000000
-39.096500 56.019001 -786.538879 -0.326472 0.841954 -0.429568 1.000000
-38.876900 54.035099 -790.043579 -0.056475 0.933805 -0.353296 1.000000
-38.797600 53.541901 -791.071899 -0.080674 0.906554 -0.414308 1.000000
-38.409000 52.862900 -794.261230 -0.219684 0.903469 0.368080 1.000000
-41.424000 32.082699 -797.237122 0.558762 0.531753 0.636415 1.000000
-39.965500 63.827599 -775.570129 -0.313862 0.735565 -0.600362 1.000000
-39.956100 61.494202 -778.104309 -0.313124 0.881890 -0.352453 1.000000
-39.732899 58.702801 -782.477722 -0.274397 0.522139 -0.807513 1.000000
-39.640499 57.017101 -784.850220 -0.198634 0.900379 -0.387120 1.000000
-39.534199 55.301601 -787.342773 -0.107719 0.945530 -0.307197 1.000000
-39.474701 54.717899 -788.338623 -0.067244 0.960441 -0.270243 1.000000
-39.166500 53.061699 -792.046326 -0.001333 0.867668 -0.497143 1.000000
-39.097198 52.513901 -793.066528 -0.188663 0.920617 -0.341863 1.000000
-38.636299 53.074200 -795.390625 -0.272135 0.788091 0.552136 1.000000
-38.387100 53.566799 -796.445801 -0.212844 0.928900 -0.303055 1.000000
-41.586800 32.795799 -798.212524 -0.510586 0.796895 0.322894 1.000000
-40.540298 37.307598 -800.054382 0.775451 0.604821 0.181294 1.000000
-40.766499 35.814301 -800.205811 -0.396681 0.716000 -0.574446 1.000000
-40.464600 64.981598 -774.236328 -0.111045 0.520615 -0.846540 1.000000
-40.486599 62.998501 -776.190613 -0.208559 0.773986 -0.597870 1.000000
-40.367298 61.002300 -779.049683 -0.234945 0.853380 -0.465342 1.000000
-40.263599 60.158600 -780.594421 -0.081921 0.890028 -0.448485 1.000000
-40.276600 57.789902 -783.012512 -0.176992 0.492305 -0.852238 1.000000
-40.096199 56.354301 -785.664978 -0.260568 0.535178 -0.803548 1.000000
-39.874401 54.227798 -789.308594 -0.090214 0.927723 -0.362203 1.000000
-39.475498 52.105499 -794.063721 -0.019686 0.983137 0.181805 1.000000
-42.572300 31.195900 -796.607178 -0.711770 0.671452 -0.206243 1.000000
-40.836300 66.542503 -773.255798 -0.020901 0.993340 -0.113305 1.000000
-40.945900 64.259499 -774.965820 0.054867 0.552890 -0.831446 1.000000
-40.998199 62.195400 -776.805481 -0.078285 0.539458 -0.838366 1.000000
-40.739601 59.416401 -781.346680 -0.083059 0.868602 -0.488500 1.000000
-40.704399 57.179798 -783.916382 -0.157921 0.980579 -0.116298 1.000000
-40.663300 55.436798 -786.005371 -0.232315 0.924983 -0.300726 1.000000
-40.521999 54.798500 -787.562378 -0.199743 0.896655 -0.395111 1.000000
-40.272400 53.722900 -790.258423 -0.125332 0.942008 -0.311307 1.000000
-40.178799 53.289902 -791.300903 -0.183061 0.883087 -0.432025 1.000000
-39.740700 52.154400 -795.242920 -0.857295 0.513276 0.039906 1.000000
-39.455002 52.965302 -796.184326 -0.500409 0.638569 0.584653 1.000000
-42.759998 31.937300 -797.525330 -0.862780 0.412234 0.292701 1.000000
-41.658100 36.820000 -799.313477 0.461773 0.879500 0.115088 1.000000
-41.266701 38.112999 -800.411926 0.810785 0.583933 -0.040609 1.000000
-41.296902 65.687103 -773.827271 -0.150025 0.981869 -0.115873 1.000000
-41.433300 63.338200 -775.431519 -0.204871 0.862850 -0.462081 1.000000
-41.414398 61.437401 -777.538696 -0.142882 0.940301 -0.308898 1.000000
-41.226200 60.552200 -779.643127 -0.083003 0.961553 -0.261777 1.000000
-41.153500 58.644798 -782.094421 -0.102454 0.535357 -0.838389 1.000000
-41.047600 56.647701 -784.847473 -0.154443 0.925266 -0.346453 1.000000
-40.907600 54.121300 -788.367920 -0.188138 0.975576 -0.113381 1.000000
-40.489700 52.809399 -792.357178 0.034542 0.942876 -0.331350 1.000000
-40.449799 52.109100 -793.339600 -0.004122 0.795520 -0.605914 1.000000
-40.368900 51.529999 -794.452026 -0.278915 0.959318 -0.043776 1.000000
-42.888500 32.848598 -798.226074 -0.782410 0.276610 0.557961 1.000000
-42.609299 33.631802 -799.154114 -0.381288 0.645384 0.661890 1.000000
-41.720901 64.637604 -774.202026 -0.092586 0.508510 -0.856064 1.000000
-41.625000 61.032799 -778.563477 -0.188772 0.903512 -0.384749 1.000000
-41.508202 59.821400 -780.558716 -0.203949 0.890628 -0.406432 1.000000
-41.520401 57.651402 -782.746399 -0.231711 0.426050 -0.874523 1.000000
-41.369999 54.829700 -786.632080 -0.330783 0.935177 -0.126596 1.000000
-41.101101 53.765800 -789.425598 -0.399727 0.901177 -0.167627 1.000000
-39.976002 53.094601 -797.169617 0.208285 0.898685 -0.385983 1.000000
-40.281700 51.119301 -797.316772 0.961474 0.254242 0.104536 1.000000
-40.617802 48.440300 -798.007629 -0.856020 0.086596 -0.509637 1.000000
-40.587799 47.736900 -798.929688 -0.954965 0.247089 -0.164281 1.000000
-40.005901 50.085201 -800.122070 0.810823 0.562031 0.163364 1.000000
-39.904301 49.647598 -801.214478 0.246022 0.897170 -0.366823 1.000000
-42.038601 62.577499 -776.038086 -0.191264 0.775767 -0.601334 1.000000
-41.673599 55.795502 -785.365173 -0.163684 0.936710 -0.309486 1.000000
-41.246300 53.288898 -790.640686 -0.197468 0.963799 -0.179159 1.000000
-41.000900 50.660301 -794.906006 0.448902 0.826925 -0.338646 1.000000
-40.506802 52.727699 -795.848572 -0.200003 0.910805 0.361156 1.000000
-40.283199 52.182800 -797.813171 -0.928068 0.076115 0.364550 1.000000
-40.625401 49.778500 -798.170288 0.932385 0.313583 -0.179787 1.000000
-40.589600 49.109001 -799.089172 -0.833336 0.530305 -0.155972 1.000000
-40.014301 49.398499 -802.387329 -0.729732 0.607304 -0.314123 1.000000
-42.184101 66.480301 -773.137878 0.034790 0.998366 -0.045332 1.000000
-42.369202 63.851700 -774.704895 -0.043842 0.632167 -0.773591 1.000000
-42.387100 61.717201 -776.805725 -0.212307 0.624523 -0.751597 1.000000
-42.107498 59.144600 -781.220825 -0.233317 0.805022 -0.545437 1.000000
-42.149300 56.890999 -783.295471 -0.357483 0.858887 -0.366768 1.000000
-42.093700 54.837700 -785.771484 -0.301172 0.812061 -0.499851 1.000000
-41.974400 54.084999 -787.297729 -0.196367 0.875532 -0.441457 1.000000
-41.854900 53.550301 -788.599304 -0.003643 0.960549 -0.278086 1.000000
-41.457500 52.945702 -791.711670 -0.189942 0.952402 -0.238437 1.000000
-41.349701 51.599201 -793.781799 -0.226749 0.373039 -0.899682 1.000000
-40.651699 51.278801 -798.479370 -0.887292 0.358820 -0.289759 1.000000
-42.724098 65.497299 -773.490784 -0.068287 0.234659 -0.969676 1.000000
-42.864700 62.984001 -775.217407 -0.121391 0.554305 -0.823414 1.000000
-42.778301 61.097000 -777.713623 -0.209405 0.931780 -0.296539 1.000000
-42.687901 60.600498 -778.793579 -0.206716 0.869994 -0.447638 1.000000
-42.634201 60.005600 -779.745178 -0.328188 0.813336 -0.480392 1.000000
-42.584400 58.261700 -781.864197 -0.135866 0.444782 -0.885274 1.000000
-42.527302 56.312199 -784.242676 -0.314667 0.808015 -0.498092 1.000000
-42.214199 53.046902 -789.584473 -0.464710 0.862179 -0.201723 1.000000
-41.823002 52.410000 -792.690674 -0.108524 0.955796 -0.273271 1.000000
-40.952202 50.985401 -799.610779 -0.181059 0.404124 -0.896605 1.000000
-40.716000 48.938702 -803.209412 0.807292 0.537678 -0.243272 1.000000
-43.299500 64.541100 -773.929626 -0.072517 0.558805 -0.826122 1.000000
-43.362400 62.219799 -775.940430 -0.023485 0.824741 -0.565023 1.000000
-43.128399 59.236401 -780.488220 -0.185878 0.745048 -0.640588 1.000000
-43.151299 57.361301 -782.287415 -0.023774 0.773365 -0.633516 1.000000
-43.101002 55.365200 -784.667725 -0.391315 0.793903 -0.465392 1.000000
-43.110802 54.300301 -785.708984 -0.330684 0.852325 -0.405204 1.000000
-43.034302 53.781101 -786.723572 -0.797435 0.493802 -0.346780 1.000000
-42.970200 53.200802 -787.723877 -0.453036 0.805219 -0.382599 1.000000
-42.559601 52.793301 -790.706116 0.303080 0.950511 -0.068354 1.000000
-42.328800 50.990501 -794.012329 -0.639790 0.410463 -0.649761 1.000000
-42.309898 50.248100 -794.898682 -0.987913 0.114216 0.104797 1.000000
-41.423901 48.444401 -802.290588 -0.860315 0.460937 0.217706 1.000000
-41.217201 48.092602 -803.943787 0.574267 0.276851 -0.770436 1.000000
-43.584900 66.378098 -772.916077 0.099308 0.991935 0.078761 1.000000
-43.777901 63.650299 -774.532715 -0.201613 0.607917 -0.767977 1.000000
-43.807999 61.388699 -776.679871 -0.186948 0.573002 -0.797947 1.000000
-43.698299 60.628101 -778.147827 -0.341098 0.817050 -0.464846 1.000000
-43.642799 60.039398 -779.100525 -0.294830 0.802505 -0.518711 1.000000
-43.591099 58.372101 -781.143188 -0.422936 0.585476 -0.691624 1.000000
-43.608101 56.510101 -782.960083 -0.267735 0.487495 -0.831063 1.000000
-43.327999 52.635300 -788.701904 -0.548882 0.781163 -0.297510 1.000000
-42.866901 52.465000 -791.745117 -0.324616 0.919507 -0.221654 1.000000
-42.706501 51.969799 -793.253723 -0.175561 0.935866 -0.305504 1.000000
-42.760502 49.424999 -795.545227 -0.161810 0.515119 -0.841707 1.000000
-43.963501 65.450897 -773.537781 0.228240 0.225507 -0.947129 1.000000
-44.132301 62.743999 -775.278809 -0.296838 0.458467 -0.837673 1.000000
-43.929699 55.706299 -783.794983 -0.371989 0.812627 -0.448621 1.000000
-43.536701 52.272598 -789.780212 0.098084 0.993244 0.062007 1.000000
-42.869202 45.717300 -800.690613 0.937901 0.341412 -0.061480 1.000000
-44.285599 59.272800 -779.629578 -0.448915 0.720583 -0.528427 1.000000
-44.213699 57.612301 -781.779297 -0.248997 0.870736 -0.424050 1.000000
-44.206001 54.903999 -784.605530 -0.228554 0.852159 -0.470731 1.000000
-44.219501 54.035198 -785.412720 -0.262234 0.820840 -0.507400 1.000000
-44.167301 53.396599 -786.392029 -0.179871 0.851786 -0.492044 1.000000
-44.120800 52.727299 -787.367126 -0.063481 0.947029 -0.314813 1.000000
-43.652100 52.058102 -790.963013 -0.345397 0.915805 -0.204945 1.000000
-43.352501 50.569000 -794.350403 0.006708 0.862638 -0.505777 1.000000
-43.355301 48.664600 -796.286377 0.675093 0.363006 -0.642242 1.000000
-44.704800 64.633499 -773.804688 0.096403 0.445689 -0.889982 1.000000
-44.792599 62.053600 -775.895691 -0.296319 0.540346 -0.787542 1.000000
-44.815701 60.908798 -776.922119 0.003975 0.883845 -0.467762 1.000000
-44.768799 60.278099 -777.856018 -0.252104 0.884603 -0.392328 1.000000
-44.677101 58.431000 -780.309570 -0.169946 0.884589 -0.434305 1.000000
-44.652901 56.029099 -782.912415 -0.138082 0.800282 -0.583508 1.000000
-44.453400 52.028500 -788.231995 0.554339 0.789894 -0.262251 1.000000
-43.873199 51.810501 -792.044922 -0.351895 0.916067 -0.192331 1.000000
-43.729599 51.450401 -793.300720 -0.198256 0.904454 -0.377700 1.000000
-45.010101 66.294403 -772.936890 -0.305781 0.823257 -0.478273 1.000000
-45.209499 63.706100 -774.339172 -0.139019 0.263474 -0.954597 1.000000
-45.260700 62.725498 -775.020630 -0.097767 0.617243 -0.780674 1.000000
-45.172501 59.623001 -778.715210 -0.185745 0.857399 -0.479965 1.000000
-45.050499 56.962299 -782.169373 -0.231251 0.509977 -0.828521 1.000000
-45.110401 55.233700 -783.556702 -0.284242 0.519801 -0.805614 1.000000
-45.031300 52.647800 -786.670776 -0.420443 0.653099 -0.629833 1.000000
-44.802101 51.557999 -789.188721 -0.814385 0.578900 0.040649 1.000000
-44.576599 51.807400 -790.322998 -0.682818 0.723934 -0.098385 1.000000
-44.108101 50.044899 -794.996826 0.117811 0.839221 -0.530876 1.000000
-44.166000 47.971199 -796.747070 -0.424946 0.553917 -0.715959 1.000000
-45.691700 61.344398 -776.166687 -0.121579 0.470583 -0.873940 1.000000
-45.573299 58.841599 -779.431091 -0.290943 0.806776 -0.514261 1.000000
-45.493099 57.847000 -780.932007 -0.119973 0.635415 -0.762794 1.000000
-45.514999 54.403900 -784.287476 -0.162564 0.830715 -0.532433 1.000000
-45.488499 53.640900 -785.223877 -0.154227 0.582469 -0.798088 1.000000
-45.392899 51.925499 -787.549622 -0.510777 0.804909 -0.302039 1.000000
-44.837200 51.483501 -791.409912 0.021663 0.939163 -0.342788 1.000000
-44.516102 50.910301 -793.962708 0.041847 0.894990 -0.444120 1.000000
-44.497200 49.231602 -795.780884 -0.118764 0.125962 0.984900 1.000000
-44.592800 47.033298 -797.421997 -0.003637 0.961380 -0.275200 1.000000
-44.558800 45.784401 -798.896729 -0.929562 0.348074 -0.121485 1.000000
-45.697601 65.547096 -773.617188 0.173138 0.065673 -0.982706 1.000000
-45.967800 60.577099 -776.986084 -0.361693 0.843950 -0.396140 1.000000
-45.772598 56.171398 -782.642090 -0.054910 0.556136 -0.829276 1.000000
-45.668999 51.168201 -788.339600 -0.245614 0.969278 -0.013179 1.000000
-44.995499 51.138199 -792.504578 -0.310981 0.943621 -0.113448 1.000000
-44.947201 44.716599 -799.297729 0.897781 0.192900 -0.395952 1.000000
-46.074100 64.484802 -774.039185 -0.160034 0.302287 -0.939687 1.000000
-46.243500 62.229401 -775.276611 -0.121779 0.820171 -0.559007 1.000000
-46.188301 59.951801 -777.914612 -0.250314 0.863205 -0.438429 1.000000
-46.049702 57.076900 -781.667175 -0.144362 0.858879 -0.491413 1.000000
-46.051201 52.885201 -785.889587 -0.269045 0.721167 -0.638384 1.000000
-45.763100 51.012798 -789.547974 -0.274588 0.921522 -0.274588 1.000000
-45.207199 46.114899 -797.903503 -0.199449 0.391620 -0.898250 1.000000
-45.540401 42.328899 -799.680603 -0.165775 0.413717 -0.895185 1.000000
-45.214199 43.743198 -800.254822 -0.948062 0.311709 -0.063377 1.000000
-46.569698 63.473701 -774.379578 0.060641 0.411010 -0.909612 1.000000
-46.606201 59.106499 -778.548218 -0.168095 0.510234 -0.843448 1.000000
-46.594501 58.301701 -779.429626 -0.220724 0.838752 -0.497771 1.000000
-46.485199 55.391701 -783.024170 -0.164334 0.797545 -0.580444 1.000000
-46.461201 53.880001 -784.691406 -0.040928 0.616743 -0.786100 1.000000
-46.428902 52.087700 -786.691284 -0.278419 0.612521 -0.739798 1.000000
-45.938999 50.854599 -790.926208 0.095166 0.988079 0.121013 1.000000
-45.562401 50.686501 -793.397217 -0.297510 0.936812 -0.184041 1.000000
-45.425800 50.430500 -794.489380 0.056127 0.938502 -0.340680 1.000000
-45.454800 48.656799 -796.096008 -0.195171 0.531046 -0.824559 1.000000
-45.496399 47.743801 -796.760376 -0.480131 0.506712 -0.716043 1.000000
-45.611301 45.257702 -798.558594 -0.006789 0.541774 -0.840497 1.000000
-45.744400 43.939602 -799.070374 -0.021696 0.345861 -0.938035 1.000000
-46.813499 65.817902 -773.455078 -0.852700 0.516145 0.080603 1.000000
-47.139000 61.656898 -775.654724 0.044321 0.431127 -0.901202 1.000000
-47.182301 60.695499 -776.357483 -0.139473 0.838305 -0.527060 1.000000
-47.139801 60.035702 -777.279114 -0.270881 0.752447 -0.600373 1.000000
-47.011002 57.755299 -780.355408 -0.053806 0.933072 -0.355643 1.000000
-46.967800 56.431000 -781.949585 -0.075700 0.824129 -0.561321 1.000000
-46.931198 54.767799 -783.844177 -0.034980 0.589059 -0.807333 1.000000
-46.918999 51.312698 -787.390686 -0.167409 0.496300 -0.851857 1.000000
-46.880798 50.581100 -788.358582 -0.347877 0.876528 -0.332686 1.000000
-46.776901 50.157501 -789.417175 -0.213369 0.965982 -0.146126 1.000000
-46.267799 50.374401 -792.300171 -0.185862 0.917958 -0.350441 1.000000
-45.908501 49.652199 -795.214478 -0.180896 0.296890 -0.937621 1.000000
-45.989899 46.895401 -797.489685 0.085569 0.212062 -0.973503 1.000000
-47.428101 64.215698 -774.114014 -0.020485 0.242201 -0.970010 1.000000
-47.568401 62.929401 -774.556824 -0.141150 0.490388 -0.859998 1.000000
-47.622101 59.193802 -777.998901 -0.285461 0.799606 -0.528339 1.000000
-47.573299 58.556499 -778.939026 -0.057760 0.826958 -0.559289 1.000000
-47.469002 57.014599 -781.129883 0.003838 0.924989 -0.379975 1.000000
-47.410099 53.402901 -785.132080 -0.040508 0.562918 -0.825520 1.000000
-47.401402 52.624100 -785.971130 -0.038027 0.629553 -0.776026 1.000000
-46.713001 49.667900 -793.145874 -0.003350 0.988224 -0.152979 1.000000
-46.506100 46.061100 -798.044922 0.023542 0.585783 -0.810126 1.000000
-46.577900 44.741402 -798.938904 0.148419 0.504035 -0.850835 1.000000
-46.783901 42.897099 -799.544983 0.155658 0.627164 -0.763175 1.000000
-46.965900 41.652901 -799.691711 0.292910 0.190183 -0.937035 1.000000
-47.834400 55.813900 -782.387329 -0.100229 0.570867 -0.814902 1.000000
-47.855099 54.917198 -783.167908 -0.191119 0.866703 -0.460760 1.000000
-47.806999 54.108601 -784.278076 -0.014787 0.869716 -0.493332 1.000000
-47.750301 51.916302 -786.838501 0.142440 0.619239 -0.772175 1.000000
-47.762402 49.969398 -788.732788 -0.176608 0.485300 -0.856325 1.000000
-47.634399 49.505501 -789.980591 -0.373334 0.845078 -0.382706 1.000000
-47.023399 49.128601 -794.080322 -0.435774 0.899534 -0.030651 1.000000
-46.862400 47.970100 -796.231506 -0.641647 0.454011 -0.618193 1.000000
-47.656898 39.621799 -799.832886 0.523336 0.697224 -0.489896 1.000000
-48.293900 62.078201 -774.978210 -0.126297 0.432815 -0.892592 1.000000
-48.335499 61.131001 -775.680481 0.067353 0.792473 -0.606177 1.000000
-48.335602 60.288799 -776.529297 0.115333 0.819011 -0.562067 1.000000
-48.206902 57.946201 -779.673218 -0.054745 0.974465 -0.217764 1.000000
-48.110500 50.878700 -787.385620 -0.226326 0.534252 -0.814464 1.000000
-47.995201 48.517101 -790.466919 0.885958 0.458824 -0.067515 1.000000
-47.478500 50.100800 -792.007080 -0.454898 0.869788 -0.191146 1.000000
-47.202301 48.614700 -795.182800 -0.455657 0.579168 -0.675974 1.000000
-47.114601 47.243301 -797.098877 -0.360475 0.835862 -0.413996 1.000000
-47.258499 43.971401 -799.524719 0.610411 0.232612 0.757159 1.000000
-48.543201 59.478500 -777.407288 -0.108195 0.846807 -0.520779 1.000000
-48.358700 56.426201 -781.594727 -0.077085 0.486338 -0.870364 1.000000
-47.394901 45.462799 -798.460510 -0.039724 0.491759 -0.869825 1.000000
-48.003700 40.677799 -799.583313 -0.046255 0.059164 -0.997176 1.000000
-48.618401 63.876400 -773.854980 -0.171130 0.178850 -0.968879 1.000000
-48.730202 58.755402 -778.313904 -0.177549 0.845968 -0.502806 1.000000
-48.612999 57.266102 -780.515991 -0.122264 0.313049 -0.941834 1.000000
-48.539299 53.422199 -784.816223 -0.117596 0.843498 -0.524101 1.000000
-48.507702 49.256599 -789.184326 -0.279886 0.465445 -0.839657 1.000000
-48.425800 47.709400 -791.231201 -0.956602 0.235492 0.171630 1.000000
-47.723499 47.580200 -795.607727 -0.870522 0.420928 -0.254971 1.000000
-48.939899 62.879200 -774.367493 -0.103877 0.488082 -0.866594 1.000000
-48.834702 55.294201 -782.604370 -0.036534 0.883592 -0.466829 1.000000
-48.834801 54.410900 -783.489075 -0.152930 0.932734 -0.326526 1.000000
-48.725101 52.758900 -785.807190 0.046515 0.807678 -0.587786 1.000000
-47.961800 46.130501 -797.061890 -0.688315 0.454988 -0.564985 1.000000
-48.259499 41.897701 -799.504883 -0.339095 0.240131 -0.909589 1.000000
-49.286701 60.617401 -776.030884 -0.008291 0.233320 -0.972365 1.000000
-48.881401 52.275799 -786.851013 0.313718 0.815037 -0.487130 1.000000
-49.003399 48.504299 -789.897888 0.072786 0.935628 -0.345402 1.000000
-48.270302 48.909401 -793.923279 -0.099207 0.925481 0.365572 1.000000
-49.522598 62.076401 -775.016724 -0.004139 0.773951 -0.633232 1.000000
-49.585201 59.842602 -776.881287 -0.025039 0.910622 -0.412481 1.000000
-49.493698 58.253201 -779.028625 0.115086 0.913753 -0.389628 1.000000
-49.416401 56.653801 -781.100830 -0.048068 0.936680 -0.346871 1.000000
-49.142101 51.658600 -787.769897 0.601080 0.350223 -0.718364 1.000000
-49.369999 47.565498 -790.502502 -0.568022 0.441425 -0.694619 1.000000
-49.345299 46.824799 -791.395630 0.984091 0.036188 0.173938 1.000000
-49.840099 63.644699 -773.790588 -0.092290 0.984028 -0.152219 1.000000
-49.921799 59.202499 -777.754517 -0.039623 0.944563 -0.325932 1.000000
-49.823898 57.631699 -779.918579 -0.176088 0.730384 -0.659949 1.000000
-49.776901 55.886600 -781.951416 0.097455 0.877095 -0.470326 1.000000
-49.768299 53.943100 -783.952026 -0.115343 0.553354 -0.824921 1.000000
-49.737099 53.195000 -784.890076 0.087207 0.898369 -0.430497 1.000000
-49.775600 45.893799 -791.981384 -0.111829 0.547529 -0.829281 1.000000
-49.550499 46.181198 -793.046326 0.928628 0.267955 0.256613 1.000000
-48.689999 46.715099 -797.684509 -0.540711 0.829483 -0.139966 1.000000
-50.274300 62.733501 -774.446228 -0.187238 0.330834 -0.924927 1.000000
-50.326900 61.399300 -775.464783 0.037862 0.601587 -0.797909 1.000000
-50.392300 60.274502 -776.198181 -0.085078 0.252695 -0.963798 1.000000
-50.142601 55.177799 -782.781311 -0.069360 0.547799 -0.833730 1.000000
-50.035999 52.692501 -785.900818 0.003850 0.920197 -0.391437 1.000000
-49.863602 45.312901 -794.303101 0.157460 0.978235 -0.135143 1.000000
-49.244400 43.984200 -799.328674 0.802438 0.261222 -0.536523 1.000000
-50.670601 58.594898 -778.383484 -0.036656 0.878393 -0.476532 1.000000
-50.566601 57.029499 -780.558777 0.088174 0.808017 -0.582524 1.000000
-50.280102 52.324100 -786.942688 0.018624 0.954777 -0.296738 1.000000
-50.592300 46.954300 -790.434509 -0.832537 0.541948 -0.114783 1.000000
-50.632099 45.171799 -791.972229 -0.073601 0.645096 -0.760549 1.000000
-50.983700 63.543301 -773.655823 0.007047 0.999707 -0.023155 1.000000
-51.088100 59.664799 -776.887878 -0.211862 0.827633 -0.519748 1.000000
-50.964298 57.975899 -779.294983 -0.110833 0.850682 -0.513864 1.000000
-50.903301 56.280499 -781.337219 0.056243 0.882055 -0.467777 1.000000
-50.881401 54.462101 -783.270813 -0.191892 0.948572 -0.251773 1.000000
-50.826000 53.742599 -784.311584 -0.043569 0.993156 -0.108365 1.000000
-50.464401 52.074501 -788.101501 0.156323 0.869271 -0.468968 1.000000
-50.929798 46.196400 -791.187012 -0.319621 0.325624 -0.889838 1.000000
-51.068600 44.105202 -792.442688 0.289705 0.313234 -0.904409 1.000000
-51.331100 62.360802 -774.760681 0.075811 0.819620 -0.567869 1.000000
-51.379002 61.053799 -775.772278 -0.081911 0.582000 -0.809053 1.000000
-51.223900 55.516399 -782.161987 -0.006690 0.491076 -0.871091 1.000000
-51.072601 53.214001 -785.328918 0.115454 0.908331 -0.402002 1.000000
-51.412899 43.291599 -793.149414 0.009674 0.617732 -0.786330 1.000000
-51.682701 59.053501 -777.641724 -0.164284 0.851021 -0.498772 1.000000
-51.549000 57.391998 -780.068970 -0.114819 0.885946 -0.449352 1.000000
-51.260700 52.747700 -786.354187 0.156349 0.896499 -0.414541 1.000000
-51.930199 60.182800 -776.336182 0.185890 0.431791 -0.882610 1.000000
-51.845402 58.397701 -778.599487 -0.056928 0.865035 -0.498471 1.000000
-51.355000 52.370399 -787.436096 0.276875 0.876016 -0.394888 1.000000
-51.858200 45.395699 -791.397400 -0.197341 0.367314 -0.908921 1.000000
-51.984501 63.264500 -774.121094 0.026062 0.843601 -0.536338 1.000000
-51.932999 56.686401 -780.938477 0.060513 0.840140 -0.538984 1.000000
-51.924999 54.885101 -782.769714 -0.009526 0.543001 -0.839678 1.000000
-51.926102 54.064400 -783.576599 -0.019185 0.934942 -0.354281 1.000000
-52.250599 41.759399 -793.868225 -0.318471 0.128743 -0.939149 1.000000
-52.255798 61.868301 -775.199280 0.122304 0.579103 -0.806028 1.000000
-52.046001 53.584801 -784.614929 0.028728 0.955519 -0.293526 1.000000
-51.665401 51.863800 -788.536377 0.152330 0.874811 -0.459892 1.000000
-52.347198 43.825901 -792.509827 0.035124 0.365548 -0.930130 1.000000
-52.605202 59.525299 -776.950989 0.139618 0.644046 -0.752138 1.000000
-52.451199 57.880402 -779.469299 0.097323 0.809085 -0.579578 1.000000
-52.373901 56.027401 -781.746704 0.072924 0.584819 -0.807879 1.000000
-52.178501 53.175400 -785.696777 -0.031142 0.957943 -0.285265 1.000000
-52.613400 42.983799 -793.228394 -0.854681 0.300293 -0.423491 1.000000
-52.771301 61.132900 -775.917175 0.168061 0.400762 -0.900636 1.000000
-52.828098 58.825100 -777.859802 -0.029430 0.783394 -0.620829 1.000000
-52.351002 52.646301 -786.698425 -0.056127 0.938502 -0.340680 1.000000
-52.998798 62.953800 -774.531128 0.089121 0.655988 -0.749492 1.000000
-52.978500 57.200001 -780.281982 -0.354854 0.711344 -0.606686 1.000000
-52.956200 55.234901 -782.334473 -0.152585 0.663215 -0.732709 1.000000
-52.924500 54.480202 -783.255615 0.083288 0.859701 -0.503962 1.000000
-52.542500 52.174000 -787.706482 -0.096384 0.972604 -0.211545 1.000000
-53.353600 62.101200 -775.326782 0.131353 0.571165 -0.810257 1.000000
-53.415100 60.389500 -776.649170 0.191910 0.524352 -0.829594 1.000000
-53.405998 58.341999 -778.703125 0.226287 0.903686 -0.363518 1.000000
-53.317402 56.382000 -781.125000 -0.221096 0.315240 -0.922898 1.000000
-53.233002 53.773602 -784.156494 -0.008363 0.968902 -0.247303 1.000000
-53.787601 59.575802 -777.326782 0.323903 0.581735 -0.746104 1.000000
-53.461700 53.379501 -785.216675 0.059120 0.881304 -0.468837 1.000000
-53.354698 52.941002 -786.251221 0.150991 0.890130 -0.429966 1.000000
-53.104301 51.869598 -788.715881 0.027488 0.396612 -0.917575 1.000000
-54.029598 61.426601 -775.964722 0.155540 0.519949 -0.839917 1.000000
-53.992599 57.904701 -779.596130 -0.100366 0.875025 -0.473559 1.000000
-53.970699 55.716400 -781.846680 0.151335 0.345710 -0.926058 1.000000
-53.979000 54.862099 -782.630493 -0.515448 0.433108 -0.739413 1.000000
-53.598999 52.360500 -787.202515 -0.089116 0.908984 -0.407192 1.000000
-54.291000 63.119801 -774.453125 -0.096351 0.990210 0.100994 1.000000
-54.356899 58.930599 -778.125183 0.374403 0.390068 -0.841231 1.000000
-54.281601 57.046200 -780.362610 0.374668 0.480797 -0.792753 1.000000
-54.276798 54.004101 -783.322998 -0.171152 0.840875 -0.513455 1.000000
-54.495998 62.523499 -775.385376 0.330699 0.572674 -0.750122 1.000000
-54.550301 60.758598 -776.778625 0.219821 0.631400 -0.743649 1.000000
-54.388500 53.669201 -784.480713 -0.043483 0.993423 -0.105921 1.000000
-54.768398 56.354198 -781.216370 0.405957 0.647874 -0.644560 1.000000
-54.521500 53.189999 -785.626404 -0.016597 0.933283 -0.358759 1.000000
-54.270802 52.057701 -788.103882 -0.077268 0.963953 -0.254605 1.000000
-55.048302 59.925499 -777.530273 0.277527 0.575669 -0.769145 1.000000
-54.991299 55.380699 -782.218994 -0.109806 0.483433 -0.868467 1.000000
-54.632999 52.752499 -786.729309 -0.019362 0.925517 -0.378210 1.000000
-55.209202 61.852200 -776.056274 0.328514 0.447974 -0.831503 1.000000
-55.277699 58.057499 -779.318787 0.154140 0.987637 -0.028544 1.000000
-55.243801 54.512199 -782.905884 -0.069108 0.847631 -0.526067 1.000000
-55.377899 57.660599 -780.368530 0.279639 0.720669 -0.634380 1.000000
-55.485100 53.608002 -783.655029 -0.083738 0.937073 -0.338941 1.000000
-55.699299 62.700100 -775.246216 0.254750 0.832184 0.492517 1.000000
-55.674301 61.112400 -776.891785 0.307024 0.593150 -0.744251 1.000000
-55.761200 55.819199 -781.453308 -0.171073 0.226772 -0.958806 1.000000
-55.556499 53.418900 -784.849426 -0.118256 0.990824 -0.065443 1.000000
-55.715698 53.011600 -785.939514 -0.053378 0.882794 -0.466718 1.000000
-55.585098 52.411499 -787.214478 0.042580 0.940625 -0.336767 1.000000
-55.473400 51.961201 -788.245728 0.062950 0.857515 -0.510592 1.000000
-56.234001 60.415600 -777.627808 0.260866 0.741492 -0.618174 1.000000
-56.137001 57.285999 -781.130981 0.504903 0.498237 -0.704864 1.000000
-56.398998 55.000900 -781.890808 0.018145 0.738364 -0.674158 1.000000
-56.345600 54.162300 -782.977478 0.040928 0.616743 -0.786100 1.000000
-56.483799 62.107201 -776.168518 0.012475 0.625153 -0.780402 1.000000
-56.554001 53.464100 -784.030212 0.020599 0.830816 -0.556166 1.000000
-56.759300 53.097599 -785.144470 -0.173094 0.974129 -0.145298 1.000000
-56.562698 52.622898 -786.653992 0.125138 0.901274 -0.414783 1.000000
-57.258999 56.218102 -781.477478 -0.847425 0.308295 -0.432233 1.000000
-57.388000 54.633202 -782.297180 -0.223958 0.696932 -0.681270 1.000000
-57.362400 53.750099 -783.273926 -0.206028 0.948277 -0.241504 1.000000
-56.783798 52.258801 -787.780579 0.024559 0.929351 -0.368380 1.000000
-57.653599 53.093300 -784.155823 -0.018347 0.962598 -0.270310 1.000000
-58.077301 55.288399 -781.412720 -0.068880 0.521519 -0.850455 1.000000
-57.707901 52.837101 -785.685181 -0.110189 0.986965 -0.117298 1.000000
-58.413502 54.238998 -782.076782 -0.214369 0.882608 -0.418389 1.000000
-57.825802 52.511902 -786.800293 -0.061015 0.967524 -0.245305 1.000000
-57.666100 51.772301 -788.339294 0.278474 0.185192 -0.942421 1.000000
-58.552299 53.727901 -783.129883 -0.092547 0.904749 -0.415770 1.000000
-58.569099 52.865299 -784.817993 -0.125784 0.992052 -0.003281 1.000000
-59.307800 55.284599 -781.223999 -0.208490 0.610025 -0.764462 1.000000
-58.879700 52.628799 -785.912476 0.008506 0.961168 -0.275834 1.000000
-58.637100 52.224499 -787.541077 -0.047234 0.897441 -0.438599 1.000000
-59.531399 54.533600 -782.101013 0.098121 0.645840 -0.757141 1.000000
-59.398998 53.368401 -783.862976 0.123619 0.842065 -0.525018 1.000000
-59.940899 53.975899 -782.982605 0.188696 0.828754 -0.526840 1.000000
-59.752300 52.942902 -784.887512 0.221049 0.938417 -0.265537 1.000000
-59.716301 52.534302 -786.717712 0.111426 0.988759 -0.099697 1.000000
-60.585701 53.681099 -783.884277 0.357867 0.887928 -0.288989 1.000000
-60.359402 52.784401 -785.834229 0.182084 0.971538 -0.151524 1.000000
-61.025700 53.246201 -784.880798 0.038520 0.984006 -0.173923 1.000000
-46.645401 49.934399 -790.581116 0.736119 0.538503 0.410053 1.000000
-41.353001 34.109200 -799.129517 -0.397912 0.022179 -0.917155 1.000000
-35.638901 70.022003 -775.562805 0.038179 0.081811 0.995916 1.000000
-34.160099 67.285301 -775.564514 -0.105930 0.067203 -0.992100 1.000000
-17.261299 56.633202 -798.677124 -0.896129 0.394880 -0.202540 1.000000
-17.096500 54.603100 -799.255676 -0.970583 0.162403 -0.177748 1.000000
-15.063600 52.784000 -799.557312 0.246918 0.951242 0.184851 1.000000
-18.173599 42.948002 -810.074829 -0.210985 0.571354 -0.793120 1.000000
-23.520300 45.048801 -807.568115 -0.082721 0.759006 -0.645808 1.000000
-42.067902 34.551601 -799.910522 -0.314281 0.085474 0.945474 1.000000
-43.101501 34.994598 -800.160522 0.014106 0.368035 0.929705 1.000000
-37.722000 30.647499 -797.240723 0.523712 0.658429 -0.540552 1.000000
-38.638302 31.238100 -797.568970 -0.167179 0.080583 -0.982628 1.000000
-39.183498 33.213299 -798.642212 -0.113420 0.620125 0.776261 1.000000
-40.207001 34.434101 -799.312317 0.380138 0.834411 -0.399066 1.000000
-43.389400 36.076302 -800.231628 0.228746 0.248155 -0.941326 1.000000
-44.603100 35.939301 -800.169495 -0.204668 0.029576 -0.978384 1.000000
-45.718899 36.138699 -800.288391 0.018124 0.077825 0.996802 1.000000
-37.897301 32.112999 -797.496094 -0.699529 0.226916 0.677620 1.000000
-42.589199 37.017300 -800.196472 0.831256 0.408530 0.376983 1.000000
-42.202702 38.460800 -800.974915 0.332736 0.776384 0.535271 1.000000
-42.732899 39.338001 -801.455017 0.051765 0.388901 0.919824 1.000000
-43.286999 40.194401 -801.924011 0.762773 0.340265 0.549906 1.000000
-46.330399 37.124802 -800.289490 -0.180582 0.362587 0.914287 1.000000
-43.437599 41.404202 -802.101929 0.278164 0.075630 0.957551 1.000000
-47.109200 37.945499 -800.257019 0.824034 0.525493 0.211720 1.000000
-43.043400 38.677700 -800.255371 0.536634 0.489825 -0.687092 1.000000
-43.692200 42.534199 -802.356995 0.208484 0.292438 0.933282 1.000000
-43.611900 39.639900 -800.505310 -0.845996 0.295403 -0.443877 1.000000
-43.838299 40.816601 -800.848022 -0.377482 0.201034 0.903932 1.000000
-43.269402 43.893700 -802.517517 0.855349 0.057209 -0.514884 1.000000
-44.063499 42.103100 -801.211670 0.956643 0.028612 -0.289854 1.000000
-42.023399 45.163399 -802.337219 -0.956697 0.049288 0.286883 1.000000
-41.807098 46.674900 -803.157715 -0.967933 0.097426 -0.231545 1.000000
-41.749401 46.311699 -801.926025 -0.946193 0.236891 0.220459 1.000000
-42.333401 47.725201 -802.212585 0.026548 0.627367 0.778271 1.000000
-40.555099 46.804901 -801.254211 0.336841 0.376831 -0.862866 1.000000
-28.333900 50.188999 -801.882629 0.113364 0.356482 -0.927399 1.000000
-43.560699 45.265999 -799.072021 -0.719126 0.666545 0.196406 1.000000
-39.784901 48.783798 -800.436523 -0.023882 0.686964 0.726299 1.000000
-41.048401 49.649300 -800.340881 -0.182622 0.174851 0.967510 1.000000
-43.258301 46.224899 -798.494385 0.390474 0.457963 0.798624 1.000000
-16.264601 52.035702 -799.012085 -0.596200 0.582688 -0.552287 1.000000
-17.139400 51.390800 -798.671570 -0.055990 0.938812 -0.339848 1.000000
-15.925500 53.272800 -798.936707 0.046410 0.586450 -0.808654 1.000000
-18.112101 51.664200 -798.086487 -0.184674 0.773799 -0.605913 1.000000
-40.761002 49.196701 -797.159119 0.588374 0.375314 0.716210 1.000000
-41.980499 50.695202 -798.014587 0.203331 0.847966 0.489501 1.000000
-17.049700 52.538200 -798.079590 -0.467462 0.284204 -0.837083 1.000000
-19.211599 51.894299 -797.761902 0.046571 0.794536 -0.605428 1.000000
-20.008400 52.297401 -797.050476 0.020551 0.837106 0.546654 1.000000
-40.370899 50.356400 -795.885376 0.962108 0.268292 0.048667 1.000000
-19.098600 52.703999 -796.429016 0.026696 0.751699 0.658966 1.000000
-40.205898 51.468399 -796.108521 0.963879 0.212601 0.160429 1.000000
-19.916300 53.376801 -795.777527 0.212718 0.622627 -0.753052 1.000000
-19.554701 54.102001 -794.867371 0.052838 0.649765 0.758297 1.000000
-17.669701 56.510502 -795.563416 0.013704 0.310212 0.950569 1.000000
-19.600100 55.430599 -793.997498 -0.017970 0.236008 0.971585 1.000000
-18.879101 57.499901 -793.241516 -0.389376 0.560241 -0.731106 1.000000
-19.766899 56.799999 -792.869812 -0.097713 0.954982 0.280111 1.000000
-18.314800 60.410301 -793.933289 0.291073 0.435839 -0.851658 1.000000
-19.241600 58.053398 -792.228271 -0.408873 0.331140 -0.850393 1.000000
-18.751499 59.257401 -791.330322 -0.230209 0.740740 0.631117 1.000000
-18.181000 60.153400 -790.409729 0.167220 0.310946 -0.935602 1.000000
-19.287201 59.620098 -790.128418 -0.586315 0.807780 -0.061045 1.000000
-17.770901 61.658199 -790.768677 -0.745060 0.559203 -0.363563 1.000000
-45.042900 54.145401 -786.482117 0.102052 0.368748 -0.923910 1.000000
-18.746901 60.606701 -789.418091 -0.187551 0.456325 -0.869823 1.000000
-17.831400 62.789299 -789.856018 -0.153093 0.698771 0.698771 1.000000
-18.646000 60.824902 -788.283875 0.641129 0.752761 0.149345 1.000000
-35.297199 68.945602 -775.567627 -0.054884 0.099686 0.993504 1.000000
-32.402699 70.057602 -775.257080 0.092659 0.029433 0.995263 1.000000
-18.303900 62.100201 -787.924072 -0.771365 0.613758 0.168215 1.000000
-46.623699 50.218300 -794.122681 0.148863 0.514387 0.844539 1.000000
-18.525200 54.000999 -796.882874 0.378668 0.879534 0.288149 1.000000
-17.892000 53.033901 -797.447693 -0.221420 0.586840 0.778840 1.000000
-41.881802 35.778198 -799.817993 -0.042732 0.505894 0.861536 1.000000
-24.464100 45.631100 -807.065430 -0.091506 0.471607 -0.877048 1.000000
-15.593800 55.807899 -799.366089 0.301050 0.082105 0.950067 1.000000
-17.091299 53.738499 -797.842590 -0.515087 0.028692 -0.856657 1.000000
-17.536100 56.006100 -797.738770 -0.998419 0.030446 0.047244 1.000000
-17.996700 55.096298 -797.023071 0.801600 0.200018 0.563410 1.000000
-18.377600 55.882500 -796.182129 -0.899122 0.227347 0.374023 1.000000
-17.695400 58.004398 -795.728577 -0.891128 0.384030 -0.241687 1.000000
-18.794201 53.604099 -795.604675 -0.052675 0.900882 0.430857 1.000000
-18.690001 54.760101 -795.769287 0.839554 0.200468 0.504938 1.000000
-17.748600 58.428902 -794.692322 -0.917166 0.372729 -0.140995 1.000000
-18.920601 55.595699 -795.054321 -0.695131 0.340240 -0.633269 1.000000
-18.552401 56.685699 -794.815002 -0.752379 0.404875 -0.519617 1.000000
-17.598200 59.294800 -793.750183 -0.878137 0.393128 -0.272629 1.000000
-17.216200 60.500099 -793.257385 -0.918380 0.377019 -0.120149 1.000000
-18.070700 58.267601 -793.435974 -0.815862 0.397553 -0.419906 1.000000
-21.972401 50.525200 -796.044312 -0.817398 0.173114 0.549448 1.000000
-17.768999 59.471802 -792.632629 -0.875478 0.215525 0.432537 1.000000
-17.142099 61.186199 -792.244324 -0.932086 0.320882 -0.168081 1.000000
-16.963699 62.148602 -791.442871 -0.753136 0.383920 -0.534220 1.000000
-17.907301 61.640099 -789.210388 -0.920201 0.353707 -0.167694 1.000000
-17.978800 61.216801 -787.007874 0.632504 0.767517 -0.104194 1.000000
-18.512100 61.294998 -783.517517 0.617217 0.623944 0.479310 1.000000
-23.984501 60.849098 -787.153625 -0.945530 0.307197 0.107719 1.000000
-23.830700 61.777302 -785.375000 0.619817 0.004123 0.784735 1.000000
-21.878099 64.105499 -781.343872 -0.928212 0.151233 0.339928 1.000000
-31.550400 59.333302 -788.046814 -0.893188 0.281824 0.350416 1.000000
-32.667400 58.802799 -788.406372 -0.712573 0.297576 0.635364 1.000000
-26.192900 62.762699 -782.619995 -0.577088 0.346253 0.739648 1.000000
-26.740101 64.117897 -783.609680 -0.440670 0.373854 0.816115 1.000000
-27.479300 62.365799 -783.138123 -0.572855 0.367214 0.732797 1.000000
-29.563000 61.747299 -783.752930 -0.926414 0.065128 0.370831 1.000000
-31.029800 60.764198 -784.070923 -0.791200 0.357886 0.495904 1.000000
-27.256300 66.190598 -778.726074 -0.701125 0.293606 0.649784 1.000000
-29.117300 66.231102 -778.157593 -0.408492 0.480100 0.776298 1.000000
-30.812599 64.093597 -776.975525 -0.104781 0.854037 0.509551 1.000000
-30.385000 67.370796 -777.227478 -0.749883 0.284987 0.597041 1.000000
-17.909401 62.448002 -786.816284 -0.787127 0.616789 0.001374 1.000000
-17.648300 60.431301 -791.376709 -0.667214 0.362296 0.650820 1.000000
-22.004499 61.914902 -779.986328 -0.049323 0.915805 -0.398582 1.000000
-40.634701 48.809502 -801.471375 -0.848400 0.437335 0.298254 1.000000
-23.537399 59.102699 -785.545471 0.273924 0.001207 -0.961751 1.000000
-41.302898 47.659000 -801.465088 -0.884250 0.271730 -0.379822 1.000000
-40.987099 48.112801 -800.447998 -0.704211 0.646462 -0.293555 1.000000
-23.325500 62.667702 -783.179626 0.764809 0.049848 -0.642326 1.000000
-43.147701 44.875301 -801.977905 -0.845568 0.507933 -0.164375 1.000000
-41.997501 46.483799 -800.799011 -0.806878 0.524862 -0.271048 1.000000
-22.631300 63.162601 -782.185120 0.912383 0.260473 -0.315769 1.000000
-21.126801 63.874001 -780.510376 -0.777835 0.135860 0.613609 1.000000
-41.855701 47.175301 -799.903625 -0.672468 0.534956 -0.511478 1.000000
-44.038502 43.382301 -801.693298 -0.920496 0.386100 -0.060119 1.000000
-38.957600 32.245499 -798.019592 0.399507 0.510390 0.761509 1.000000
-43.880402 44.247200 -800.844482 -0.760577 0.550651 -0.343955 1.000000
-42.755798 46.255299 -799.637329 -0.696339 0.610737 -0.376978 1.000000
-42.002300 47.595001 -798.828918 -0.506160 0.743578 -0.436914 1.000000
-23.758301 63.585602 -781.203979 -0.281899 0.279008 0.917980 1.000000
-39.706902 31.618900 -797.465515 -0.020651 0.258742 0.965726 1.000000
-43.726501 37.204601 -800.281921 0.730311 0.111102 -0.674019 1.000000
-44.428799 42.606701 -800.248108 -0.935342 0.001259 -0.353743 1.000000
-42.309200 47.931900 -797.780579 -0.303878 0.856103 -0.418025 1.000000
-39.806702 30.470699 -796.897888 -0.133631 0.268586 0.953942 1.000000
-44.701000 39.246498 -800.094971 0.439250 0.011872 -0.898286 1.000000
-44.844398 40.370399 -800.084778 0.458567 0.218007 0.861504 1.000000
-43.483700 47.280998 -798.075317 -0.539598 0.657267 -0.526150 1.000000
-42.197399 48.689602 -796.789673 -0.006849 0.815008 -0.579409 1.000000
-41.591599 49.411900 -796.177185 -0.575446 0.632822 -0.518071 1.000000
-41.005901 30.822701 -797.054199 0.840228 0.477716 -0.256523 1.000000
-43.760601 33.681000 -799.109924 0.110819 0.666394 0.737318 1.000000
-44.448700 34.471699 -799.614197 0.110504 0.503727 0.856766 1.000000
-46.210098 39.299099 -800.567688 0.434583 0.667693 0.604420 1.000000
-45.709599 41.111801 -799.913513 0.130872 0.464524 0.875837 1.000000
-45.449299 35.078701 -799.717285 0.609304 0.716541 0.339585 1.000000
-47.331200 40.579399 -800.697815 -0.468366 0.085284 0.879409 1.000000
-44.000198 32.737499 -798.067200 0.335921 0.608552 0.718903 1.000000
-44.780201 33.751499 -798.626282 0.517846 0.639296 0.568450 1.000000
-32.267200 60.184399 -784.364807 -0.727552 0.146113 0.670312 1.000000
-46.435799 35.614498 -799.578125 0.452935 0.650154 0.610041 1.000000
-36.424999 57.057899 -788.111572 -0.106156 0.993394 -0.043580 1.000000
-43.928200 31.661600 -797.641785 0.068409 0.921509 -0.382285 1.000000
-45.663399 34.545101 -798.723816 0.449988 0.718984 0.529691 1.000000
-47.184700 36.532299 -799.810974 0.633198 0.531886 0.562279 1.000000
-47.904099 42.959202 -799.655823 -0.796108 0.064318 -0.601726 1.000000
-48.046501 38.640301 -800.231384 0.608179 0.181387 0.772798 1.000000
-45.058399 32.869202 -797.652771 0.122535 0.418310 0.900001 1.000000
-47.861000 37.403702 -799.546814 0.861213 0.412952 0.296282 1.000000
-47.931301 44.434200 -798.744019 -0.966037 0.227681 -0.122202 1.000000
-36.992802 58.356499 -787.466614 0.982628 0.127535 0.134823 1.000000
-45.810398 33.746700 -797.892212 0.194076 0.510013 0.837986 1.000000
-46.705101 35.040401 -798.516602 0.589296 0.619689 0.518378 1.000000
-47.353901 35.960201 -798.687317 0.768432 0.474764 0.429082 1.000000
-48.632999 39.155899 -799.413818 0.950259 0.218872 0.221591 1.000000
-48.443901 43.323002 -798.735413 -0.578465 0.725950 -0.371988 1.000000
-47.917301 36.913799 -798.517822 0.898120 0.411101 0.156132 1.000000
-48.294899 38.071602 -798.705811 0.949523 0.308819 0.055101 1.000000
-48.930000 40.175400 -799.002502 0.977283 0.184090 0.105018 1.000000
-49.060600 41.318802 -798.976013 -0.942427 0.080179 -0.324658 1.000000
-48.250999 45.001598 -797.812378 -0.766490 0.358127 -0.533140 1.000000
-45.961899 32.207100 -797.153503 0.518422 0.095687 -0.849755 1.000000
-46.886700 34.124001 -797.728699 0.759377 0.431352 0.487116 1.000000
-49.035400 42.293301 -798.385620 -0.942839 0.285999 -0.171052 1.000000
-46.709499 33.135899 -797.182983 0.456852 0.523303 0.719334 1.000000
-47.532799 35.071800 -797.666016 0.715581 0.383288 0.583980 1.000000
-48.597900 39.043499 -798.110474 0.962786 0.261202 -0.069401 1.000000
-48.790600 43.664902 -797.711426 -0.843121 0.289291 -0.453274 1.000000
-48.064999 36.126499 -797.663391 0.825047 0.302152 0.477494 1.000000
-48.660400 40.138699 -797.689270 -0.956594 0.113849 0.268265 1.000000
-48.971001 41.237000 -797.825806 0.927467 0.369134 -0.059538 1.000000
-48.418301 37.216599 -797.558716 0.813948 0.186435 0.550210 1.000000
-48.645000 45.258202 -796.764771 -0.882130 0.380203 -0.278014 1.000000
-49.151798 42.614799 -797.294128 -0.978433 0.180918 -0.099689 1.000000
-48.303902 46.585098 -796.062073 -0.928428 0.330883 -0.168932 1.000000
-47.768799 33.854301 -796.896790 0.670206 0.417424 0.613662 1.000000
-48.746300 38.244202 -797.210327 -0.844717 0.048707 -0.532993 1.000000
-48.973900 44.129398 -796.681885 -0.953698 0.262034 -0.147644 1.000000
-48.394402 34.811199 -796.998718 0.571927 0.224741 0.788918 1.000000
-48.765999 39.345600 -796.760498 -0.935162 0.137885 -0.326283 1.000000
-48.944599 40.720699 -796.745972 0.902061 0.086763 0.422798 1.000000
-48.785198 36.320301 -796.817505 0.497353 0.054030 0.865864 1.000000
-49.202301 41.804699 -796.499390 0.966456 0.097789 0.237487 1.000000
-48.715199 45.401600 -795.623718 -0.962303 0.226501 0.150564 1.000000
-49.245300 42.926800 -796.097717 -0.964229 0.125208 -0.233635 1.000000
-48.435600 46.488701 -794.942688 -0.972390 0.230716 0.035030 1.000000
-48.088501 47.505100 -794.511292 -0.970155 0.226578 0.086375 1.000000
-49.282101 37.308601 -796.522583 -0.413312 0.057891 -0.908747 1.000000
-49.169701 44.150501 -795.567383 -0.983189 0.182412 -0.008031 1.000000
-49.256302 35.232800 -796.364075 0.780874 0.452939 0.430211 1.000000
-49.577801 38.382000 -796.252808 -0.554263 0.099854 -0.826330 1.000000
-49.565701 39.797699 -796.065308 -0.621431 0.161784 -0.766583 1.000000
-49.872398 36.202499 -796.290222 0.622107 0.250418 0.741804 1.000000
-49.808102 40.830799 -795.655273 -0.773572 0.266260 -0.575059 1.000000
-49.584599 41.921700 -795.322388 -0.802353 0.217143 -0.555949 1.000000
-48.766201 45.538200 -794.151001 -0.899782 0.385206 -0.204959 1.000000
-48.320999 46.495399 -793.640076 -0.929828 0.315553 0.189332 1.000000
-47.979301 47.593102 -793.202576 -0.970104 0.218811 0.104979 1.000000
-47.737400 48.667400 -792.855713 -0.861462 0.362153 -0.355989 1.000000
-50.398499 37.233299 -796.075012 -0.510967 0.034247 -0.858918 1.000000
-49.713799 42.911301 -794.758972 -0.867680 0.377984 -0.322893 1.000000
-49.467499 44.023602 -794.402283 -0.848746 0.384661 -0.362858 1.000000
-50.844700 38.228298 -795.766418 -0.618690 0.055469 -0.783674 1.000000
-50.868999 39.386902 -795.641479 -0.588230 0.332196 -0.737313 1.000000
-47.688999 48.695599 -791.659790 -0.825285 0.563643 0.034793 1.000000
