ply
format ascii 1.0
element vertex 693
property float x
property float y
property float z
property float nx
property float ny
property float nz
property float label
element face 0
property list uchar int vertex_indices
end_header
40.238701 26.413500 -726.741516 0.015896 0.997196 -0.073121 1.000000
40.089699 26.404900 -726.895081 -0.039166 0.998196 -0.045517 1.000000
39.941101 26.399200 -727.048523 -0.031498 0.995999 -0.083633 1.000000
39.790699 26.379601 -727.203003 -0.015961 0.997014 -0.075548 1.000000
39.642200 26.376801 -727.356384 0.030085 0.999030 -0.032160 1.000000
39.494099 26.377701 -727.509705 0.052544 0.993871 -0.097263 1.000000
39.346600 26.384701 -727.662598 0.094544 0.984933 -0.144808 1.000000
39.196098 26.367300 -727.817322 0.136243 0.976199 -0.168741 1.000000
39.046398 26.356899 -727.971619 0.175911 0.973206 -0.148069 1.000000
38.898800 26.364000 -728.124695 0.124478 0.979799 -0.156521 1.000000
38.749699 26.360001 -728.278625 0.114550 0.973046 -0.200148 1.000000
38.599499 26.347099 -728.433289 0.029862 0.975892 -0.216201 1.000000
38.445900 26.309299 -728.590088 0.024336 0.983855 -0.177303 1.000000
38.293701 26.282801 -728.745972 0.058684 0.980865 -0.185634 1.000000
38.141998 26.261700 -728.901672 0.106107 0.965190 -0.239060 1.000000
37.991299 26.249201 -729.056885 0.114384 0.965194 -0.235194 1.000000
37.839100 26.225901 -729.213013 0.094863 0.967599 -0.233995 1.000000
37.685799 26.195400 -729.369873 0.003531 0.973303 -0.229497 1.000000
37.529900 26.146000 -729.528381 -0.097695 0.982979 -0.155588 1.000000
37.375500 26.109699 -729.685974 -0.226632 0.964803 -0.133389 1.000000
37.265701 26.035500 -729.795471 -0.346216 0.923710 -0.163997 1.000000
36.942101 25.823000 -730.118225 -0.340334 0.910937 -0.233165 1.000000
37.167999 25.986000 -729.985413 -0.297652 0.952229 -0.068292 1.000000
36.812698 25.735399 -730.339111 -0.795142 0.584707 0.160832 1.000000
47.510601 24.337999 -719.280884 0.886657 0.381278 0.261661 1.000000
47.376499 24.575701 -719.433472 0.694442 0.685079 0.220037 1.000000
45.956501 25.415001 -720.953430 0.059494 0.958229 0.279747 1.000000
44.239300 26.013500 -722.767517 0.194272 0.976309 0.095280 1.000000
43.102200 26.431900 -723.970093 0.068911 0.992991 0.096023 1.000000
42.955002 26.427000 -724.122314 -0.041534 0.997883 0.050054 1.000000
39.957699 26.406900 -727.227722 -0.044369 0.996686 -0.068177 1.000000
36.955502 25.829000 -730.306030 -0.606288 0.794973 0.020811 1.000000
47.327499 24.688400 -719.605530 0.582348 0.794111 0.173948 1.000000
47.186901 24.804399 -719.757874 0.365561 0.916021 0.165138 1.000000
47.042999 24.864201 -719.910400 0.310312 0.904464 0.292664 1.000000
46.902100 24.969299 -720.062378 0.273691 0.908887 0.314671 1.000000
46.758400 25.027800 -720.214722 0.218728 0.919229 0.327377 1.000000
46.618500 25.142900 -720.366272 0.272734 0.911545 0.307737 1.000000
46.475300 25.205000 -720.518188 0.115583 0.909345 0.399666 1.000000
46.334499 25.299999 -720.669617 0.023583 0.956977 0.289203 1.000000
46.193298 25.387600 -720.820923 0.140494 0.959821 0.242910 1.000000
45.906101 25.487000 -721.124207 0.112818 0.960900 0.252869 1.000000
45.763599 25.549601 -721.275513 0.062318 0.957663 0.281067 1.000000
45.619301 25.587200 -721.427124 -0.008463 0.963605 0.267198 1.000000
45.475201 25.626101 -721.578674 0.013338 0.964003 0.265556 1.000000
45.333099 25.692200 -721.729614 0.003437 0.981960 0.189059 1.000000
45.188999 25.728901 -721.881104 0.067446 0.974907 0.212150 1.000000
45.046299 25.783701 -722.032104 0.015917 0.961171 0.275495 1.000000
44.904499 25.849100 -722.182800 0.085084 0.975379 0.203461 1.000000
44.760899 25.890400 -722.333923 0.184696 0.958029 0.219244 1.000000
44.617802 25.937901 -722.484924 0.115645 0.985965 0.120414 1.000000
44.473499 25.969400 -722.636230 0.068680 0.988298 0.136197 1.000000
44.188099 26.068600 -722.937622 0.210896 0.955077 0.208209 1.000000
44.047600 26.142700 -723.087524 0.287502 0.956230 0.054461 1.000000
43.904800 26.188700 -723.238098 0.245622 0.966112 0.079355 1.000000
43.762100 26.236200 -723.388489 0.271427 0.958357 0.088761 1.000000
43.620399 26.293100 -723.538696 0.192642 0.963208 0.187400 1.000000
43.480202 26.365999 -723.688171 -0.037416 0.974033 0.223291 1.000000
43.335899 26.392599 -723.839172 -0.021641 0.987513 0.156043 1.000000
42.899101 26.431601 -724.293884 -0.048643 0.998726 0.013454 1.000000
42.751999 26.429199 -724.446228 -0.052712 0.997218 0.052712 1.000000
42.604198 26.419800 -724.598816 -0.037048 0.998178 0.047633 1.000000
42.458900 26.436800 -724.750305 -0.021273 0.990856 0.133234 1.000000
42.314800 26.466801 -724.901184 -0.034880 0.991271 0.127144 1.000000
42.171001 26.498301 -725.052124 0.023563 0.990766 0.133523 1.000000
42.021801 26.477900 -725.205383 -0.055093 0.997077 0.052933 1.000000
41.875900 26.490101 -725.357178 -0.027088 0.995773 0.087767 1.000000
41.730598 26.507601 -725.508789 -0.090764 0.991515 0.093062 1.000000
41.582600 26.500099 -725.661682 -0.118759 0.990429 0.070333 1.000000
41.434700 26.494600 -725.814514 -0.088235 0.996095 -0.003189 1.000000
41.287601 26.496599 -725.966980 0.012883 0.999913 -0.002973 1.000000
41.139099 26.486300 -726.120300 -0.005083 0.999354 -0.035582 1.000000
40.989799 26.469101 -726.273987 -0.071334 0.993015 -0.093980 1.000000
40.839199 26.441900 -726.428284 -0.023857 0.998897 -0.040454 1.000000
40.689800 26.426300 -726.582214 -0.102143 0.993370 0.052755 1.000000
40.541100 26.417500 -726.735718 -0.146349 0.986979 0.066735 1.000000
40.391899 26.404800 -726.889587 -0.038073 0.999156 0.015435 1.000000
40.242802 26.393600 -727.043518 -0.017528 0.999118 -0.038150 1.000000
39.894901 26.371599 -727.402527 0.070865 0.981300 -0.178964 1.000000
39.744900 26.355700 -727.556885 0.097196 0.957702 -0.270852 1.000000
39.591499 26.311800 -727.713379 0.121314 0.958773 -0.256977 1.000000
39.443199 26.311701 -727.867004 0.153045 0.968431 -0.196773 1.000000
39.295601 26.318501 -728.020325 0.150037 0.978343 -0.142597 1.000000
39.146301 26.310900 -728.174500 0.159107 0.975940 -0.149085 1.000000
38.995998 26.296801 -728.329285 0.143372 0.950007 -0.277365 1.000000
38.844501 26.273100 -728.484985 0.183835 0.946411 -0.265540 1.000000
38.693600 26.255501 -728.640320 0.146097 0.959500 -0.240862 1.000000
38.540100 26.218901 -728.797119 0.088917 0.957472 -0.274484 1.000000
38.387199 26.187700 -728.953674 0.091275 0.960320 -0.263542 1.000000
38.237099 26.178499 -729.108826 0.126852 0.958581 -0.255011 1.000000
38.086102 26.164200 -729.264282 0.131922 0.960028 -0.246864 1.000000
37.935600 26.153400 -729.419617 0.106050 0.954454 -0.278873 1.000000
37.782200 26.122601 -729.576721 0.125967 0.938660 -0.321014 1.000000
37.626801 26.077600 -729.734985 0.082243 0.949061 -0.304170 1.000000
37.472401 26.041500 -729.892883 0.008266 0.974198 -0.225542 1.000000
37.216202 25.991100 -730.155518 -0.195606 0.970361 -0.141910 1.000000
36.837002 25.781300 -730.536072 -0.311845 0.924142 0.220712 1.000000
37.070599 25.903900 -730.203918 -0.447479 0.890801 -0.078967 1.000000
40.153301 26.399099 -727.223389 -0.005481 0.992008 -0.126056 1.000000
37.389301 26.014700 -730.081116 -0.081053 0.971395 -0.223209 1.000000
37.077499 25.916300 -730.399780 -0.300905 0.945509 -0.124374 1.000000
36.777802 25.817301 -730.705872 0.341250 0.935426 0.092338 1.000000
47.625999 24.343000 -719.536682 0.583479 0.267230 0.766903 1.000000
47.536999 24.502800 -719.640015 0.911363 0.403077 0.083348 1.000000
47.445202 24.612700 -719.742920 0.836836 0.515322 0.184795 1.000000
47.305000 24.731001 -719.896790 0.513034 0.811127 0.280835 1.000000
47.214500 24.856199 -719.999329 0.414293 0.886085 0.207883 1.000000
47.073002 24.945999 -720.152710 0.430041 0.882098 0.192271 1.000000
46.931999 25.040501 -720.306030 0.340417 0.896382 0.283929 1.000000
46.790401 25.123600 -720.458984 0.267649 0.915793 0.299477 1.000000
46.649899 25.220600 -720.611816 0.380243 0.855158 0.352307 1.000000
46.508099 25.295000 -720.764587 0.198248 0.976463 0.084963 1.000000
46.365799 25.359400 -720.917175 0.160055 0.981100 0.108740 1.000000
46.222000 25.402201 -721.069885 0.204408 0.968046 0.145271 1.000000
46.077301 25.429300 -721.222473 0.249068 0.954983 0.161162 1.000000
45.938400 25.539000 -721.374512 0.264633 0.940762 0.211983 1.000000
45.794998 25.582399 -721.526917 0.148818 0.966667 0.208345 1.000000
45.651798 25.628201 -721.679077 0.125520 0.964047 0.234218 1.000000
45.510700 25.700500 -721.830994 0.074386 0.964493 0.253416 1.000000
45.367901 25.749100 -721.983093 -0.082040 0.949319 0.303418 1.000000
45.225399 25.800699 -722.135010 -0.073218 0.971692 0.224618 1.000000
45.081200 25.829800 -722.287170 0.072500 0.974449 0.212585 1.000000
44.939201 25.885700 -722.438904 -0.110667 0.968019 0.225150 1.000000
44.795200 25.916000 -722.591003 0.063999 0.979306 0.191997 1.000000
44.650398 25.935400 -722.743286 -0.079586 0.948505 0.306601 1.000000
44.509800 26.006300 -722.894470 -0.045176 0.994984 0.089251 1.000000
44.367100 26.050100 -723.046082 0.035628 0.987247 0.155155 1.000000
44.222000 26.064699 -723.198425 0.114996 0.971776 0.205981 1.000000
44.083698 26.159401 -723.348816 0.058393 0.967826 0.244752 1.000000
43.941700 26.209000 -723.500122 0.058658 0.980426 0.187945 1.000000
43.799500 26.256100 -723.651428 0.234806 0.953983 0.186503 1.000000
43.656799 26.296400 -723.802795 0.308112 0.949905 0.052417 1.000000
43.516998 26.367800 -723.953186 0.227628 0.972590 0.047473 1.000000
43.375401 26.418600 -724.104187 0.140114 0.978319 0.152514 1.000000
43.231098 26.440001 -724.255981 -0.243113 0.934510 0.259976 1.000000
43.083199 26.423100 -724.409119 -0.191281 0.978335 0.079193 1.000000
42.937500 26.429899 -724.561401 -0.075545 0.996978 0.018088 1.000000
42.790901 26.427999 -724.714111 -0.017771 0.998306 -0.055403 1.000000
42.645302 26.436100 -724.866516 0.164855 0.980579 0.106240 1.000000
42.501099 26.459900 -725.018188 0.035726 0.999319 0.009187 1.000000
42.356701 26.480301 -725.170227 0.321505 0.943518 -0.080048 1.000000
42.211899 26.497999 -725.322327 -0.497514 0.738833 0.454539 1.000000
42.066799 26.511499 -725.474487 -0.051821 0.989209 0.137038 1.000000
41.921398 26.523600 -725.626770 -0.221159 0.955676 0.194352 1.000000
41.774601 26.521900 -725.779724 -0.215996 0.966163 0.140980 1.000000
41.627998 26.522600 -725.932617 -0.104364 0.993140 0.052743 1.000000
41.479801 26.509600 -726.086182 -0.065480 0.997225 -0.035423 1.000000
41.330502 26.486500 -726.240295 -0.023195 0.992981 -0.115977 1.000000
41.181301 26.464500 -726.394470 0.039637 0.997347 -0.061062 1.000000
41.033001 26.452801 -726.548279 -0.011859 0.995105 -0.098109 1.000000
40.882900 26.425699 -726.702881 0.049685 0.987926 -0.146745 1.000000
40.735100 26.419701 -726.856628 0.092433 0.988681 -0.118174 1.000000
40.586498 26.407101 -727.010681 0.009797 0.993889 -0.109948 1.000000
40.438702 26.402201 -727.164490 0.012113 0.992154 -0.124432 1.000000
40.238701 26.371799 -727.370972 0.001059 0.996315 -0.085761 1.000000
40.089600 26.358101 -727.525513 0.005213 0.997827 -0.065688 1.000000
39.940300 26.343100 -727.680115 -0.052127 0.988087 -0.144796 1.000000
39.789101 26.312599 -727.835815 -0.107932 0.976349 -0.187330 1.000000
39.637299 26.278900 -727.991821 0.043926 0.992276 -0.116010 1.000000
39.488800 26.272800 -728.146179 0.068492 0.993700 -0.088703 1.000000
39.339699 26.262699 -728.301025 0.100276 0.976764 -0.189411 1.000000
39.189400 26.244101 -728.456421 0.109578 0.962998 -0.246228 1.000000
39.038101 26.218399 -728.612427 0.083577 0.971733 -0.220792 1.000000
38.888599 26.207199 -728.767578 0.146574 0.975909 -0.161608 1.000000
38.738998 26.196400 -728.922791 0.058288 0.968566 -0.241831 1.000000
38.587502 26.171499 -729.078979 0.079642 0.964557 -0.251569 1.000000
38.435501 26.142900 -729.235718 0.149334 0.971312 -0.185073 1.000000
38.285702 26.132900 -729.391174 0.116260 0.967134 -0.226133 1.000000
38.130100 26.079700 -729.549927 0.039080 0.954310 -0.296252 1.000000
37.981400 26.079300 -729.704895 0.189138 0.948410 -0.254451 1.000000
37.831402 26.070200 -729.860718 0.119369 0.966508 -0.227187 1.000000
37.678200 26.038300 -730.018188 0.099408 0.945039 -0.311479 1.000000
37.517601 25.952499 -730.180115 0.106982 0.949634 -0.294532 1.000000
37.368099 25.949900 -730.335693 -0.027347 0.976184 -0.215212 1.000000
37.161400 25.894400 -730.547485 -0.205631 0.949169 -0.238314 1.000000
37.049198 25.804300 -730.658630 -0.249205 0.917594 -0.309706 1.000000
36.884800 25.698799 -730.823120 -0.151772 0.880276 -0.449533 1.000000
36.769699 25.591600 -730.935913 -0.910107 0.413445 0.027739 1.000000
47.646099 24.408899 -719.812317 0.836587 0.532905 0.127021 1.000000
47.557999 24.582199 -719.915527 0.361001 0.772185 0.522884 1.000000
47.417599 24.698299 -720.069580 0.558192 0.789600 0.254861 1.000000
47.278801 24.835501 -720.223328 0.380269 0.887294 0.260969 1.000000
47.141102 24.986700 -720.376770 0.497225 0.841806 0.210074 1.000000
46.999401 25.070801 -720.530090 0.442304 0.864984 0.237003 1.000000
46.860600 25.195900 -720.682983 0.374777 0.904386 0.204029 1.000000
46.716599 25.238701 -720.835999 0.422467 0.897212 0.128577 1.000000
46.573101 25.288900 -720.988892 0.269552 0.961613 0.051403 1.000000
46.432201 25.375700 -721.141479 0.241282 0.958537 0.151625 1.000000
46.288898 25.423901 -721.294128 0.196552 0.961655 0.191276 1.000000
46.145401 25.469801 -721.446716 0.199340 0.956564 0.212718 1.000000
46.003700 25.538900 -721.598999 0.268290 0.942455 0.199498 1.000000
45.864799 25.644300 -721.750793 0.218752 0.969843 0.107479 1.000000
45.722301 25.698700 -721.903015 0.257125 0.948234 0.186382 1.000000
45.580399 25.760300 -722.054871 0.244259 0.951394 0.187580 1.000000
45.439098 25.828600 -722.206726 0.226135 0.968970 0.099803 1.000000
45.294701 25.854900 -722.359009 -0.091273 0.971491 0.218804 1.000000
45.151402 25.894600 -722.510986 0.231117 0.964493 0.127824 1.000000
45.007301 25.923700 -722.663208 0.199331 0.977089 0.074596 1.000000
44.863300 25.953800 -722.815430 -0.007602 0.993695 0.111859 1.000000
44.719398 25.983900 -722.967529 0.159292 0.985249 0.062537 1.000000
44.576599 26.028299 -723.119202 0.154828 0.987456 -0.030966 1.000000
44.432400 26.054100 -723.271301 -0.058213 0.982485 0.177014 1.000000
44.288502 26.084200 -723.423279 0.306199 0.951359 -0.034022 1.000000
44.148499 26.158100 -723.574219 0.124166 0.992232 -0.007692 1.000000
44.004601 26.187500 -723.726074 0.187279 0.979890 -0.068870 1.000000
43.860500 26.212500 -723.878113 0.291302 0.950355 -0.109403 1.000000
43.720501 26.284599 -724.028687 0.307099 0.951380 -0.023816 1.000000
43.580200 26.351200 -724.179382 0.316226 0.948677 -0.003720 1.000000
43.435501 26.368601 -724.331421 0.231551 0.961526 -0.147826 1.000000
43.289700 26.375099 -724.483826 0.274946 0.912121 0.304040 1.000000
43.145802 26.401699 -724.635681 -0.044509 0.998854 -0.017596 1.000000
43.001301 26.421301 -724.787720 -0.037765 0.999244 0.009186 1.000000
42.855999 26.433399 -724.939880 -0.055006 0.993475 0.099909 1.000000
42.710999 26.448601 -725.092224 0.011009 0.999827 0.015012 1.000000
42.563702 26.441299 -725.245178 0.002990 0.999816 -0.018940 1.000000
42.418098 26.450500 -725.397583 -0.317508 0.850303 0.419730 1.000000
42.276100 26.495899 -725.548706 0.306605 0.951830 -0.003694 1.000000
42.132099 26.522100 -725.700623 0.180949 0.981440 -0.063512 1.000000
41.987000 26.536800 -725.852783 0.372545 0.901412 -0.220605 1.000000
41.839500 26.528500 -726.006104 0.320148 0.868534 -0.378356 1.000000
41.690399 26.506399 -726.160095 -0.056378 0.980023 -0.190727 1.000000
41.541000 26.482201 -726.314270 -0.102383 0.994730 -0.005389 1.000000
41.391701 26.459999 -726.468506 -0.059164 0.997176 0.046255 1.000000
41.244301 26.455900 -726.621887 -0.035565 0.996909 0.070053 1.000000
41.096901 26.452000 -726.775513 -0.284647 0.937251 0.201336 1.000000
40.949501 26.449200 -726.929016 -0.123308 0.985266 0.118519 1.000000
40.800800 26.435400 -727.083130 -0.320569 0.937152 0.137776 1.000000
40.649502 26.399799 -727.238586 -0.067729 0.990673 -0.118238 1.000000
40.500702 26.387400 -727.392883 -0.016149 0.995869 -0.089359 1.000000
40.351601 26.372299 -727.547424 -0.149918 0.988554 0.016908 1.000000
40.199501 26.333300 -727.703430 -0.275153 0.955865 0.103020 1.000000
40.051201 26.326900 -727.857727 -0.039562 0.997609 -0.056670 1.000000
39.900700 26.302700 -728.013123 -0.086676 0.990422 -0.107479 1.000000
39.748600 26.267300 -728.169312 0.030015 0.992711 -0.116724 1.000000
39.599701 26.258301 -728.323914 0.034415 0.993589 -0.107685 1.000000
39.448502 26.231800 -728.479919 -0.033574 0.985237 -0.167872 1.000000
39.298100 26.212000 -728.635376 -0.005818 0.978546 -0.205948 1.000000
39.146900 26.187099 -728.791504 0.019503 0.985484 -0.168645 1.000000
38.996300 26.168200 -728.947327 0.097123 0.988779 -0.113505 1.000000
38.844002 26.137100 -729.103882 -0.010268 0.984594 -0.174557 1.000000
38.694000 26.124001 -729.259583 -0.012956 0.976409 -0.215540 1.000000
38.543201 26.105900 -729.415588 0.062611 0.973544 -0.219753 1.000000
38.385799 26.038601 -729.575317 0.091958 0.968711 -0.230526 1.000000
38.234901 26.021700 -729.731628 0.020876 0.961546 -0.273850 1.000000
38.084801 26.012100 -729.887390 0.078487 0.970496 -0.227986 1.000000
37.930000 25.967300 -730.046021 0.080378 0.942132 -0.325464 1.000000
37.776299 25.933001 -730.203918 0.140388 0.950627 -0.276765 1.000000
37.622700 25.899401 -730.361877 0.143265 0.949298 -0.279835 1.000000
37.471699 25.886400 -730.518616 0.122665 0.964538 -0.233710 1.000000
37.319401 25.864401 -730.675903 0.041528 0.955145 -0.293213 1.000000
37.162998 25.814699 -730.835693 -0.168426 0.940723 -0.294404 1.000000
37.001999 25.733500 -730.998230 -0.331455 0.916883 -0.222405 1.000000
36.891102 25.655300 -731.108826 -0.346916 0.933593 -0.089743 1.000000
36.755699 25.586000 -731.245483 -0.873148 0.484163 -0.056555 1.000000
47.724701 24.499300 -719.987000 0.681656 0.588324 0.434993 1.000000
47.634300 24.631901 -720.090027 0.535908 0.792005 0.292457 1.000000
47.494400 24.755800 -720.244019 0.513714 0.841300 0.168260 1.000000
47.352901 24.849600 -720.397705 0.484070 0.857114 0.176160 1.000000
47.213600 24.976101 -720.551208 0.466539 0.859571 0.208517 1.000000
47.074100 25.093800 -720.704529 0.448758 0.872338 0.194017 1.000000
46.932701 25.179199 -720.857483 0.412547 0.890694 0.190967 1.000000
46.791698 25.268200 -721.010376 0.334290 0.931335 0.144446 1.000000
46.649300 25.334900 -721.163330 0.307982 0.942774 0.127765 1.000000
46.506401 25.391800 -721.315979 0.263026 0.943312 0.202433 1.000000
46.362000 25.425900 -721.468811 0.283630 0.947674 0.146520 1.000000
46.221600 25.514799 -721.621094 0.235104 0.957684 0.166034 1.000000
46.078602 25.565599 -721.773621 0.248717 0.962652 0.106961 1.000000
45.937199 25.637699 -721.925720 0.235114 0.960159 0.151051 1.000000
45.794998 25.697599 -722.077881 0.292223 0.930313 0.221638 1.000000
45.653301 25.761101 -722.229919 0.227945 0.960533 0.159430 1.000000
45.511700 25.825899 -722.381775 0.212541 0.967383 0.137829 1.000000
45.369301 25.878099 -722.533813 0.189186 0.969097 0.158299 1.000000
45.227600 25.938601 -722.685486 0.200660 0.970069 0.136755 1.000000
45.083900 25.973900 -722.837524 0.128033 0.987850 0.088096 1.000000
44.940399 26.009300 -722.989624 0.049039 0.979584 0.194960 1.000000
44.796101 26.035400 -723.141724 -0.102789 0.983150 0.151161 1.000000
44.653000 26.075199 -723.293579 0.075001 0.984533 0.158335 1.000000
44.510201 26.118099 -723.445313 0.048434 0.992327 0.113763 1.000000
44.364300 26.124399 -723.597778 -0.135272 0.990098 0.037512 1.000000
44.220501 26.154800 -723.749817 0.119446 0.987495 0.102889 1.000000
44.078499 26.205601 -723.901184 0.049344 0.998437 0.026247 1.000000
43.933399 26.220900 -724.053528 0.065841 0.994314 -0.083696 1.000000
43.791801 26.274799 -724.204712 0.328245 0.944491 0.013834 1.000000
43.653198 26.361099 -724.354919 0.231601 0.972723 -0.013065 1.000000
43.507000 26.363001 -724.507507 0.092602 0.994076 -0.056900 1.000000
43.362999 26.389400 -724.659424 0.173488 0.982303 -0.070592 1.000000
43.217400 26.398199 -724.811829 0.137312 0.961183 -0.239315 1.000000
43.072899 26.419100 -724.963806 0.169280 0.983717 -0.060373 1.000000
42.927299 26.428600 -725.116272 0.073428 0.997136 0.018091 1.000000
42.782299 26.443899 -725.268616 0.003032 0.999439 0.033348 1.000000
42.637001 26.457399 -725.420898 -0.036307 0.998948 -0.028008 1.000000
42.491199 26.465200 -725.573486 0.123857 0.991968 0.025664 1.000000
42.347198 26.491501 -725.725281 0.151459 0.988412 0.010097 1.000000
42.202599 26.512100 -725.877380 0.116732 0.992774 -0.027793 1.000000
42.056198 26.514601 -726.030273 0.073380 0.988888 -0.129289 1.000000
41.906700 26.488600 -726.184509 0.088265 0.991543 -0.095142 1.000000
41.760300 26.493099 -726.337524 0.011542 0.997883 -0.064007 1.000000
41.612499 26.484301 -726.491028 -0.062383 0.992462 -0.105485 1.000000
41.461800 26.450001 -726.645874 0.024191 0.998152 -0.055745 1.000000
41.314400 26.446699 -726.799377 0.044781 0.998710 -0.023952 1.000000
41.168900 26.461800 -726.952026 -0.012960 0.999876 -0.008972 1.000000
41.020901 26.454000 -727.105896 -0.075129 0.996269 -0.042464 1.000000
40.870399 26.424400 -727.260925 -0.146625 0.982752 -0.112695 1.000000
40.718399 26.383801 -727.416687 -0.106595 0.993020 -0.050493 1.000000
40.569500 26.371000 -727.571228 -0.037842 0.999220 -0.011250 1.000000
40.422001 26.370300 -727.724976 -0.056682 0.994718 -0.085579 1.000000
40.270100 26.333300 -727.880981 -0.066526 0.993386 -0.093588 1.000000
40.118999 26.304300 -728.036621 -0.080707 0.981740 -0.172256 1.000000
39.965698 26.258400 -728.193420 -0.012508 0.985852 -0.167151 1.000000
39.813499 26.222700 -728.349670 0.066473 0.987760 -0.141109 1.000000
39.665501 26.222500 -728.504028 0.087113 0.977877 -0.190177 1.000000
39.514500 26.198200 -728.659973 0.010627 0.974177 -0.225537 1.000000
39.361900 26.161800 -728.816711 0.024790 0.978611 -0.204222 1.000000
39.211700 26.146601 -728.972290 0.055844 0.982619 -0.177038 1.000000
39.063099 26.144100 -729.127075 0.093139 0.974859 -0.202423 1.000000
38.910198 26.108200 -729.284180 0.075686 0.971513 -0.224577 1.000000
38.757401 26.075001 -729.441284 0.057412 0.973560 -0.221097 1.000000
38.606499 26.057199 -729.597473 0.022866 0.971219 -0.237088 1.000000
38.451900 26.012100 -729.755798 0.063649 0.967214 -0.245859 1.000000
38.299599 25.986000 -729.912781 0.084771 0.965372 -0.246720 1.000000
38.145401 25.945601 -730.071106 0.103476 0.936656 -0.334616 1.000000
37.990799 25.904301 -730.229614 0.090918 0.944754 -0.314918 1.000000
37.838100 25.878000 -730.387085 0.128336 0.953922 -0.271226 1.000000
37.683399 25.837900 -730.545776 0.176776 0.951353 -0.252345 1.000000
37.530800 25.814301 -730.703430 0.169192 0.948828 -0.266646 1.000000
37.376499 25.779400 -730.861877 0.094660 0.955675 -0.278793 1.000000
37.223202 25.752899 -731.020020 -0.030062 0.972803 -0.229673 1.000000
37.062599 25.675200 -731.182495 -0.255678 0.937485 -0.236118 1.000000
36.905499 25.624800 -731.342896 -0.339893 0.901967 -0.266323 1.000000
36.791698 25.528601 -731.455322 -0.565067 0.804424 -0.183306 1.000000
36.669601 25.375900 -731.572571 -0.423024 0.880187 -0.215223 1.000000
36.556702 25.288799 -731.684570 -0.440033 0.897454 0.030762 1.000000
47.739601 24.534700 -720.203125 0.946670 0.286829 0.146781 1.000000
47.647900 24.643000 -720.306030 0.549725 0.822365 0.146692 1.000000
47.508598 24.775801 -720.460083 0.538472 0.829217 0.149823 1.000000
47.368301 24.886801 -720.613892 0.523770 0.832929 0.178592 1.000000
47.229000 25.009399 -720.767517 0.513021 0.839081 0.180978 1.000000
47.088600 25.113001 -720.920776 0.474400 0.865082 0.163029 1.000000
46.997501 25.216700 -721.022827 0.440494 0.879525 0.180003 1.000000
46.854401 25.273800 -721.175781 0.322234 0.943027 0.082860 1.000000
46.710800 25.322300 -721.328918 0.365411 0.899586 0.239205 1.000000
46.569199 25.399401 -721.481628 0.109176 0.980131 0.165604 1.000000
46.425499 25.443399 -721.634521 0.265285 0.953158 0.145307 1.000000
46.285198 25.534300 -721.786926 0.272313 0.952431 0.136821 1.000000
46.142502 25.588900 -721.939392 0.189576 0.953258 0.235289 1.000000
46.000900 25.658300 -722.091675 0.154184 0.950581 0.269488 1.000000
45.859402 25.726999 -722.243774 0.207899 0.936243 0.283245 1.000000
45.716499 25.775801 -722.396179 0.099294 0.971569 0.214927 1.000000
45.574799 25.838400 -722.548218 0.140221 0.973967 0.178118 1.000000
45.432201 25.888100 -722.700317 0.145427 0.981329 0.125874 1.000000
45.288799 25.927799 -722.852478 0.160992 0.977185 0.138528 1.000000
45.148102 26.000200 -723.004028 0.120739 0.969728 0.212247 1.000000
45.006699 26.062401 -723.155579 0.152215 0.974934 0.162279 1.000000
44.861301 26.074200 -723.308228 0.068076 0.971628 0.226507 1.000000
44.720200 26.138100 -723.459595 -0.139881 0.952522 0.270436 1.000000
44.575001 26.153299 -723.612000 -0.036582 0.980644 0.192353 1.000000
44.430199 26.172600 -723.764282 0.086233 0.980147 0.178540 1.000000
44.285801 26.196100 -723.916504 -0.329487 0.868926 0.369332 1.000000
44.142101 26.228201 -724.068481 0.242130 0.964679 -0.103770 1.000000
43.995701 26.229099 -724.221313 -0.221740 0.943427 0.246531 1.000000
43.849998 26.238600 -724.373779 0.196906 0.977194 0.079496 1.000000
43.710602 26.316299 -724.524414 0.416339 0.909201 -0.003891 1.000000
43.566601 26.343800 -724.676514 0.039166 0.998196 0.045517 1.000000
43.419998 26.343800 -724.829285 0.066512 0.993174 -0.095823 1.000000
43.274899 26.358700 -724.981689 0.151459 0.988412 -0.010097 1.000000
43.132801 26.405899 -725.132996 0.146665 0.986761 0.069226 1.000000
42.987301 26.417200 -725.285522 0.132945 0.990941 0.018992 1.000000
42.841099 26.422400 -725.438293 -0.095223 0.993684 0.059375 1.000000
42.694599 26.424299 -725.591187 -0.118275 0.985622 0.120664 1.000000
42.551102 26.456400 -725.742981 -0.021273 0.990856 0.133234 1.000000
42.407501 26.487101 -725.894897 0.054751 0.997331 0.048310 1.000000
42.261902 26.499300 -726.047485 0.049745 0.998075 -0.037044 1.000000
42.113499 26.483700 -726.201294 -0.002979 0.999885 -0.014894 1.000000
41.966999 26.487801 -726.354309 0.064124 0.996634 -0.051082 1.000000
41.820999 26.496500 -726.507202 0.024727 0.996609 -0.078482 1.000000
41.671001 26.468700 -726.661804 -0.123590 0.992058 -0.023382 1.000000
41.522400 26.455500 -726.815796 -0.118489 0.990473 0.070173 1.000000
41.373901 26.442801 -726.969910 0.033550 0.999395 0.009150 1.000000
41.227299 26.448700 -727.123108 0.099492 0.989066 -0.108856 1.000000
41.079899 26.447300 -727.276794 -0.001051 0.997054 -0.076696 1.000000
40.929001 26.416800 -727.432129 -0.109325 0.990829 -0.079404 1.000000
40.778702 26.391199 -727.587219 -0.132651 0.990982 -0.018950 1.000000
40.630100 26.382200 -727.741516 -0.164207 0.986373 -0.010192 1.000000
40.478901 26.351299 -727.897217 -0.132481 0.989577 -0.056449 1.000000
40.327702 26.322001 -728.052795 -0.113032 0.989318 -0.092057 1.000000
40.175098 26.281900 -728.209290 -0.092693 0.983510 -0.155291 1.000000
40.021900 26.237900 -728.366089 -0.121032 0.990155 -0.070314 1.000000
39.870998 26.213699 -728.521912 -0.127352 0.990130 -0.058513 1.000000
39.719299 26.184799 -728.678223 -0.057372 0.993320 -0.100119 1.000000
39.568501 26.163799 -728.833984 -0.028979 0.984136 -0.175035 1.000000
39.418098 26.146700 -728.989685 0.023835 0.988597 -0.148687 1.000000
39.266102 26.117800 -729.146423 -0.031190 0.985378 -0.167503 1.000000
39.112499 26.077801 -729.303772 0.025317 0.970466 -0.239904 1.000000
38.959999 26.047899 -729.460815 0.049131 0.979026 -0.197723 1.000000
38.810200 26.038401 -729.616516 0.032131 0.977036 -0.210640 1.000000
38.656300 25.999300 -729.774414 0.046932 0.952589 -0.300617 1.000000
38.502998 25.965799 -729.931885 0.057650 0.951861 -0.301060 1.000000
38.350201 25.937599 -730.089417 0.053755 0.932199 -0.357933 1.000000
38.191299 25.864599 -730.250183 0.086038 0.941119 -0.326943 1.000000
38.036598 25.824301 -730.408813 0.123823 0.949312 -0.288921 1.000000
37.883900 25.799400 -730.566528 0.084549 0.950854 -0.297873 1.000000
37.733601 25.792900 -730.722778 0.117357 0.963363 -0.241163 1.000000
37.581402 25.773800 -730.880188 0.104579 0.971453 -0.212938 1.000000
37.426201 25.733801 -731.039429 0.005849 0.976799 -0.214077 1.000000
37.274399 25.719200 -731.196716 -0.015773 0.964588 -0.263290 1.000000
37.115799 25.657600 -731.357971 -0.169583 0.954741 -0.244360 1.000000
36.956100 25.590000 -731.520020 -0.311487 0.914179 -0.259331 1.000000
36.842098 25.494301 -731.632385 -0.385329 0.893194 -0.231788 1.000000
36.731602 25.423401 -731.742920 -0.397674 0.912311 -0.097698 1.000000
36.618401 25.334700 -731.855103 -0.845288 0.484106 -0.226118 1.000000
36.591599 25.195299 -731.970581 0.997954 0.056089 -0.030690 1.000000
47.837898 24.489201 -720.410400 0.518898 0.522257 0.676751 1.000000
47.747398 24.613501 -720.513611 0.171212 0.780300 0.601513 1.000000
47.609001 24.753500 -720.668030 0.251455 0.874822 0.414073 1.000000
47.469299 24.869200 -720.822083 0.404831 0.860457 0.309395 1.000000
47.328999 24.972799 -720.976013 0.423621 0.894311 0.144060 1.000000
47.188599 25.070601 -721.129517 0.470875 0.845121 0.253076 1.000000
47.049999 25.192801 -721.282898 0.363115 0.911376 0.193757 1.000000
46.908798 25.273899 -721.436218 0.270061 0.936117 0.225284 1.000000
46.769199 25.374800 -721.589111 0.431335 0.894985 0.113805 1.000000
46.626701 25.433800 -721.742126 0.251185 0.966000 0.061234 1.000000
46.484402 25.493200 -721.895081 0.295188 0.949101 0.109868 1.000000
46.343300 25.568701 -722.047729 0.342461 0.915617 0.210635 1.000000
46.201599 25.633499 -722.200378 0.286465 0.941634 0.176813 1.000000
46.061699 25.719601 -722.352722 0.341781 0.928481 0.145291 1.000000
45.918800 25.765499 -722.505188 0.247270 0.964988 0.087496 1.000000
45.775700 25.809200 -722.657776 0.201934 0.974982 0.092914 1.000000
45.634998 25.880501 -722.809875 0.188002 0.970703 0.149634 1.000000
45.493099 25.936399 -722.962097 0.175562 0.966240 0.188566 1.000000
45.347698 25.948299 -723.114929 0.087208 0.989517 0.115114 1.000000
45.206699 26.013000 -723.266785 0.145427 0.981329 0.125874 1.000000
45.066700 26.087900 -723.418396 0.178429 0.973132 0.145527 1.000000
44.924999 26.141800 -723.570313 0.257786 0.955792 0.141452 1.000000
44.782700 26.188499 -723.722229 0.158537 0.967980 0.194627 1.000000
44.639400 26.222700 -723.874390 -0.079259 0.967459 0.240292 1.000000
44.498199 26.279301 -724.026001 0.123483 0.976638 0.175870 1.000000
44.352901 26.290300 -724.178589 0.017252 0.999579 0.023340 1.000000
44.206902 26.293900 -724.331482 -0.212541 0.976248 0.042028 1.000000
44.059502 26.282200 -724.484802 -0.141066 0.989717 0.023699 1.000000
43.913101 26.282400 -724.637817 -0.039628 0.990695 0.130206 1.000000
43.767799 26.294201 -724.790588 0.096640 0.994173 0.047765 1.000000
43.620899 26.289801 -724.943787 0.107334 0.994194 0.007589 1.000000
43.476002 26.306299 -725.096497 0.043396 0.998115 -0.043396 1.000000
43.332901 26.341299 -725.248474 0.171578 0.985154 0.005681 1.000000
43.187801 26.356400 -725.401184 0.236113 0.958964 -0.156969 1.000000
43.042099 26.364599 -725.554199 0.222502 0.964175 -0.144431 1.000000
42.899601 26.405500 -725.705994 0.160352 0.980473 -0.113838 1.000000
42.751999 26.396099 -725.859619 0.222502 0.964175 -0.144431 1.000000
42.606300 26.405899 -726.012573 0.148916 0.985226 -0.084584 1.000000
42.462601 26.434299 -726.164917 0.088347 0.994189 -0.061508 1.000000
42.319500 26.469000 -726.316772 0.015434 0.999075 -0.040128 1.000000
42.174099 26.482100 -726.469727 -0.023295 0.999642 -0.013167 1.000000
42.027699 26.485500 -726.622986 0.097249 0.991940 -0.081231 1.000000
41.879299 26.471701 -726.777222 0.040364 0.996006 -0.079637 1.000000
41.731998 26.467800 -726.931030 0.041446 0.997891 -0.049948 1.000000
41.584900 26.467600 -727.084717 0.007145 0.999261 -0.037766 1.000000
41.437599 26.465000 -727.238525 0.028232 0.998590 -0.044963 1.000000
41.289101 26.452999 -727.392883 -0.026827 0.996894 -0.074043 1.000000
41.137402 26.413300 -727.548828 -0.119946 0.986881 -0.108070 1.000000
40.986801 26.384899 -727.704285 -0.080535 0.988599 -0.127222 1.000000
40.837002 26.364300 -727.859497 0.021185 0.991228 -0.130454 1.000000
40.687401 26.346001 -728.014587 0.001127 0.986179 -0.165678 1.000000
40.534302 26.299601 -728.171387 -0.005575 0.988929 -0.148284 1.000000
40.384701 26.284000 -728.326721 -0.021273 0.990856 -0.133234 1.000000
40.233501 26.255100 -728.482788 -0.051618 0.989917 -0.131912 1.000000
40.080101 26.210100 -728.640076 -0.127696 0.972260 -0.195969 1.000000
39.928200 26.177900 -728.796692 -0.070616 0.989783 -0.123868 1.000000
39.776100 26.145599 -728.953491 -0.063391 0.990050 -0.125629 1.000000
39.625301 26.125000 -729.109619 -0.007704 0.991644 -0.128771 1.000000
39.474400 26.103600 -729.265991 -0.012671 0.982571 -0.185456 1.000000
39.322899 26.079000 -729.422729 -0.046087 0.982001 -0.183165 1.000000
39.171600 26.057199 -729.579285 -0.035628 0.987247 -0.155155 1.000000
39.016399 26.006399 -729.737976 -0.017579 0.978585 -0.205093 1.000000
38.859798 25.946301 -729.897522 -0.023969 0.947397 -0.319163 1.000000
38.706902 25.914900 -730.055176 0.057746 0.950880 -0.304127 1.000000
38.549198 25.849100 -730.215576 0.029034 0.948031 -0.316852 1.000000
38.397499 25.829399 -730.372803 0.072469 0.959902 -0.270807 1.000000
38.241699 25.781099 -730.532288 0.104468 0.948145 -0.300180 1.000000
38.087898 25.747400 -730.690796 0.092979 0.949432 -0.299890 1.000000
37.935699 25.726700 -730.848511 0.115589 0.959780 -0.255855 1.000000
37.783001 25.703400 -731.006470 0.178293 0.960140 -0.215272 1.000000
37.630600 25.683500 -731.164429 0.129695 0.966935 -0.219583 1.000000
37.479500 25.672899 -731.321594 0.054961 0.952238 -0.300370 1.000000
37.324200 25.633801 -731.481323 0.051721 0.957477 -0.283837 1.000000
37.167500 25.586599 -731.641785 0.001234 0.949175 -0.314746 1.000000
37.004299 25.495501 -731.806213 -0.193196 0.926493 -0.322933 1.000000
36.837399 25.382500 -731.972778 -0.266592 0.910492 -0.316123 1.000000
36.721901 25.279499 -732.086426 -0.342697 0.924582 -0.166453 1.000000
47.830399 24.802700 -720.687683 0.618608 0.785423 -0.020852 1.000000
47.687500 24.868200 -720.841675 0.268697 0.932702 0.240561 1.000000
47.542999 24.909201 -720.995483 0.328241 0.935690 0.129389 1.000000
47.399700 24.966000 -721.149292 0.379127 0.890578 0.251265 1.000000
47.262501 25.109400 -721.302673 0.339615 0.890181 0.303709 1.000000
47.123901 25.229799 -721.455872 0.365353 0.908327 0.203615 1.000000
46.981800 25.296700 -721.609070 0.357093 0.918844 0.167961 1.000000
46.839802 25.362600 -721.762329 0.279762 0.947405 0.155423 1.000000
46.696499 25.410101 -721.915283 0.221814 0.962069 0.158814 1.000000
46.555599 25.489100 -722.068115 0.265537 0.938417 0.221049 1.000000
46.414501 25.562401 -722.220703 0.277047 0.936949 0.213006 1.000000
46.273399 25.635201 -722.373230 0.270335 0.952164 0.142492 1.000000
46.132198 25.703501 -722.525574 0.280439 0.948663 0.146258 1.000000
45.990002 25.758900 -722.678101 0.294167 0.952479 0.079049 1.000000
45.848400 25.820000 -722.830383 0.253348 0.960123 0.118229 1.000000
45.707199 25.884600 -722.982483 0.241864 0.960921 0.134660 1.000000
45.565601 25.942900 -723.134583 0.220245 0.973262 0.065212 1.000000
45.422600 25.983200 -723.286987 0.173380 0.980870 0.088509 1.000000
45.280102 26.029301 -723.439087 0.108515 0.986178 0.125210 1.000000
45.137299 26.070900 -723.591309 0.174870 0.974995 0.137128 1.000000
44.997398 26.145700 -723.742676 0.240322 0.957306 0.160657 1.000000
44.856701 26.209400 -723.894287 0.231023 0.952464 0.198599 1.000000
44.715698 26.269199 -724.045776 0.126692 0.974653 0.184394 1.000000
44.570499 26.281099 -724.198425 -0.062845 0.995603 0.069461 1.000000
44.426399 26.304300 -724.350830 0.149339 0.988375 0.028500 1.000000
44.281700 26.321301 -724.503174 0.050296 0.998734 0.001026 1.000000
44.135601 26.323999 -724.656128 -0.064918 0.995777 0.064918 1.000000
43.989201 26.323000 -724.809082 -0.168269 0.981772 0.088372 1.000000
43.845600 26.352600 -724.961304 0.001119 0.987835 0.155503 1.000000
43.701199 26.372999 -725.113708 -0.134091 0.980461 0.143932 1.000000
43.552799 26.352800 -725.267517 -0.083822 0.980349 0.178577 1.000000
43.406101 26.350500 -725.420715 -0.172020 0.984141 0.043298 1.000000
43.261398 26.368999 -725.573181 0.028458 0.998149 0.053755 1.000000
43.113201 26.352699 -725.727112 -0.055199 0.996826 0.057364 1.000000
42.967602 26.363001 -725.880005 0.070629 0.996408 -0.046724 1.000000
42.820400 26.358601 -726.033630 0.179780 0.980949 -0.073601 1.000000
42.674099 26.362499 -726.186829 0.312069 0.927734 -0.204751 1.000000
42.532700 26.413300 -726.338196 0.319582 0.930835 -0.177236 1.000000
42.388100 26.434200 -726.490723 0.148277 0.985747 -0.079477 1.000000
42.242699 26.447001 -726.643677 -0.032759 0.990686 -0.132167 1.000000
42.094101 26.430901 -726.797913 0.027094 0.995960 -0.085616 1.000000
41.949799 26.454599 -726.950378 0.056557 0.994741 -0.085390 1.000000
41.802399 26.450399 -727.104309 0.134583 0.983306 -0.122459 1.000000
41.655201 26.448900 -727.258118 0.098519 0.986375 -0.131754 1.000000
41.506302 26.433100 -727.412598 0.102546 0.983231 -0.150802 1.000000
41.359699 26.437201 -727.566223 0.069661 0.976470 -0.204093 1.000000
41.210400 26.418800 -727.721130 0.054267 0.978007 -0.201390 1.000000
41.056599 26.363501 -727.877991 -0.024017 0.986991 -0.158971 1.000000
40.906700 26.342699 -728.033203 -0.018589 0.993950 -0.108252 1.000000
40.755600 26.312401 -728.189087 -0.044013 0.991979 -0.118496 1.000000
40.605499 26.291000 -728.344604 -0.081699 0.986306 -0.143269 1.000000
40.453701 26.256800 -728.500916 0.017516 0.979705 -0.199678 1.000000
40.301201 26.218901 -728.657715 0.034905 0.973716 -0.225074 1.000000
40.150200 26.193399 -728.813782 -0.005765 0.981268 -0.192564 1.000000
39.998100 26.160500 -728.970520 -0.021928 0.984454 -0.174270 1.000000
39.843201 26.106400 -729.128723 -0.066434 0.979604 -0.189640 1.000000
39.692501 26.086300 -729.284912 0.003226 0.994762 -0.102165 1.000000
39.542400 26.072300 -729.440918 -0.039319 0.991970 -0.120205 1.000000
39.390598 26.045799 -729.597717 -0.087153 0.984953 -0.149235 1.000000
39.237598 26.010799 -729.755188 -0.077702 0.983828 -0.161381 1.000000
39.083599 25.969700 -729.913391 -0.123804 0.934651 -0.333318 1.000000
38.924000 25.887300 -730.074585 -0.022813 0.971355 -0.236535 1.000000
38.768299 25.836800 -730.233826 -0.062103 0.959428 -0.275028 1.000000
38.614700 25.802401 -730.392029 0.035738 0.964939 -0.260028 1.000000
38.458401 25.749500 -730.551819 0.037155 0.941699 -0.334399 1.000000
38.303101 25.705000 -730.711121 0.143967 0.957579 -0.249631 1.000000
38.151402 25.688000 -730.868530 0.102836 0.956769 -0.272061 1.000000
37.999699 25.671600 -731.025879 0.158505 0.962818 -0.218763 1.000000
37.847301 25.650499 -731.183899 0.158628 0.944987 -0.286072 1.000000
37.695801 25.637501 -731.341309 0.177773 0.948578 -0.261911 1.000000
37.543400 25.618299 -731.499329 0.016103 0.955037 -0.296049 1.000000
37.385201 25.559700 -731.660706 0.016829 0.922984 -0.384469 1.000000
37.230301 25.525801 -731.820313 0.072557 0.937969 -0.339041 1.000000
37.069401 25.451599 -731.983276 -0.116471 0.943821 -0.309252 1.000000
36.958599 25.379299 -732.094177 -0.273733 0.933500 -0.231620 1.000000
36.847000 25.302401 -732.205627 -0.302875 0.920108 -0.248329 1.000000
36.722500 25.141300 -732.324524 -0.388113 0.882620 -0.265236 1.000000
36.591499 24.988899 -732.450928 -0.867366 0.452344 -0.207511 1.000000
36.536201 24.851999 -732.636475 -0.965948 0.114169 0.232187 1.000000
47.830399 24.766500 -720.927795 0.828959 0.545329 0.124271 1.000000
47.688202 24.841600 -721.081726 0.366817 0.919134 0.143658 1.000000
47.547798 24.938700 -721.235474 0.409194 0.874256 0.261220 1.000000
47.410400 25.077801 -721.389099 0.455343 0.827180 0.329296 1.000000
47.270100 25.171499 -721.542480 0.185002 0.970939 0.151829 1.000000
47.128700 25.247900 -721.695679 0.313583 0.932385 0.179787 1.000000
46.989700 25.353399 -721.848572 0.328931 0.928005 0.174963 1.000000
46.848000 25.420500 -722.001587 0.309336 0.928008 0.207636 1.000000
46.707001 25.496300 -722.154419 0.200014 0.954430 0.221492 1.000000
46.565201 25.557899 -722.307129 0.244762 0.950650 0.190671 1.000000
46.422798 25.611300 -722.459778 0.283216 0.950701 0.126317 1.000000
46.283298 25.701200 -722.612122 0.260111 0.953741 0.150731 1.000000
46.139900 25.738501 -722.764709 0.201943 0.968552 0.145347 1.000000
45.998901 25.805500 -722.916992 0.232489 0.957853 0.168720 1.000000
45.857101 25.861401 -723.069214 0.269169 0.953360 0.136573 1.000000
45.717201 25.939800 -723.221130 0.198368 0.974374 0.106046 1.000000
45.574600 25.983900 -723.373413 0.207949 0.971687 0.112166 1.000000
45.430099 26.003799 -723.525879 0.219224 0.962222 0.161464 1.000000
45.288898 26.062599 -723.677917 0.094511 0.984589 0.147150 1.000000
45.147701 26.120800 -723.829590 0.186423 0.972696 0.138232 1.000000
45.007401 26.188700 -723.981079 0.284065 0.938106 0.198152 1.000000
44.868000 26.263599 -724.132324 0.225453 0.963060 0.147261 1.000000
44.724701 26.295601 -724.284424 0.061882 0.993491 0.095636 1.000000
44.579498 26.305599 -724.437012 -0.005296 0.996655 0.081554 1.000000
44.436501 26.340300 -724.588989 -0.104031 0.980338 0.167673 1.000000
44.292400 26.362801 -724.741272 -0.018629 0.993923 0.108488 1.000000
44.146999 26.371000 -724.893982 -0.017388 0.981833 0.188948 1.000000
44.003201 26.396000 -725.046204 -0.081965 0.977469 0.194515 1.000000
43.859798 26.424999 -725.198303 -0.097536 0.983784 0.150518 1.000000
43.712200 26.411400 -725.351685 -0.124178 0.979897 0.156144 1.000000
43.566200 26.415300 -725.504578 -0.201880 0.971311 0.125699 1.000000
43.421001 26.426901 -725.657288 -0.165522 0.984913 0.050478 1.000000
43.272598 26.407600 -725.811218 -0.155115 0.974827 0.160159 1.000000
43.125599 26.402399 -725.964600 -0.132164 0.988308 0.076024 1.000000
42.978500 26.396400 -726.118225 -0.148030 0.988750 0.021470 1.000000
42.827702 26.356300 -726.273071 -0.135733 0.990516 -0.021313 1.000000
42.679901 26.346399 -726.426880 0.147960 0.988993 0.001112 1.000000
42.537498 26.386499 -726.578674 0.198248 0.979369 -0.039175 1.000000
42.393501 26.412100 -726.731079 0.212465 0.967036 -0.140355 1.000000
42.245499 26.400999 -726.885193 0.052178 0.997774 -0.041530 1.000000
42.101299 26.424801 -727.037720 -0.048643 0.998726 -0.013454 1.000000
41.952801 26.410999 -727.192017 -0.083483 0.996509 0.001057 1.000000
41.806099 26.413200 -727.345581 -0.048709 0.996906 -0.061698 1.000000
41.659599 26.417400 -727.499207 0.025360 0.993456 -0.111364 1.000000
41.510502 26.400000 -727.653870 0.038374 0.984935 -0.168613 1.000000
41.358501 26.358500 -727.809875 0.046087 0.982001 -0.183165 1.000000
41.210499 26.351801 -727.964294 0.037283 0.990823 -0.129925 1.000000
41.062099 26.342800 -728.118896 0.018810 0.992522 -0.120607 1.000000
40.911800 26.318300 -728.274414 0.005648 0.986102 -0.166045 1.000000
40.759602 26.279200 -728.430786 0.024699 0.979735 -0.198770 1.000000
40.607899 26.245600 -728.587219 -0.049407 0.977291 -0.206063 1.000000
40.455700 26.209200 -728.743774 -0.047547 0.986889 -0.154238 1.000000
40.303799 26.175400 -728.900330 -0.022297 0.979883 -0.198324 1.000000
40.154400 26.163900 -729.055725 -0.026353 0.986512 -0.161554 1.000000
40.001099 26.122000 -729.213074 -0.065646 0.982297 -0.175453 1.000000
39.849098 26.090900 -729.369995 0.012020 0.993323 -0.114740 1.000000
39.699699 26.081400 -729.525574 0.005595 0.988161 -0.153316 1.000000
39.544399 26.027100 -729.684204 0.015319 0.976870 -0.213285 1.000000
39.396000 26.026899 -729.839417 0.010571 0.976049 -0.217291 1.000000
39.236000 25.939899 -730.000610 -0.131074 0.941841 -0.309443 1.000000
39.081501 25.895800 -730.159119 -0.099482 0.970898 -0.217854 1.000000
38.924198 25.832701 -730.319214 -0.079499 0.965341 -0.248591 1.000000
38.767200 25.773199 -730.479187 -0.064290 0.961831 -0.265985 1.000000
38.610600 25.717899 -730.639099 -0.008816 0.940819 -0.338795 1.000000
38.455898 25.677500 -730.797974 0.079389 0.948766 -0.305844 1.000000
38.300900 25.636400 -730.957275 0.142142 0.943552 -0.299175 1.000000
38.148499 25.614201 -731.115173 0.155142 0.948392 -0.276558 1.000000
37.995899 25.592199 -731.273315 0.141144 0.947681 -0.286321 1.000000
37.842999 25.568800 -731.431519 0.243573 0.933463 -0.263284 1.000000
37.690899 25.551500 -731.589417 0.137193 0.938621 -0.316496 1.000000
37.536201 25.517700 -731.748779 0.041107 0.913640 -0.404441 1.000000
37.377899 25.459900 -731.910278 0.074141 0.918004 -0.389579 1.000000
37.220600 25.410400 -732.071411 0.100633 0.935218 -0.339470 1.000000
37.059601 25.337400 -732.234619 -0.061576 0.936741 -0.344564 1.000000
36.946999 25.254700 -732.346619 -0.238619 0.890744 -0.386829 1.000000
36.828400 25.133400 -732.461975 -0.351089 0.896239 -0.271094 1.000000
36.709900 25.013901 -732.577576 -0.749852 0.568462 -0.338486 1.000000
36.434799 24.731400 -732.845276 0.952271 0.187222 0.241098 1.000000
47.889500 24.798500 -721.108521 0.580823 0.813152 -0.037788 1.000000
47.749699 24.905701 -721.262390 0.210520 0.928267 0.306597 1.000000
47.610100 25.014099 -721.416016 0.293773 0.910551 0.290850 1.000000
47.466499 25.062000 -721.569519 0.371929 0.916489 0.147368 1.000000
47.326698 25.161400 -721.722778 0.382835 0.916317 0.117477 1.000000
47.187099 25.260500 -721.875916 0.310258 0.933557 0.179477 1.000000
47.046600 25.346201 -722.028870 0.299665 0.940046 0.162832 1.000000
46.907001 25.440300 -722.181580 0.321546 0.924975 0.202560 1.000000
46.764999 25.501499 -722.334412 0.259517 0.939536 0.223435 1.000000
46.623901 25.571600 -722.487000 0.215631 0.963153 0.160743 1.000000
46.480400 25.611000 -722.639771 0.276815 0.952296 0.128474 1.000000
46.341499 25.706600 -722.791870 0.307409 0.943704 0.122158 1.000000
46.199402 25.760000 -722.944275 0.273596 0.951581 0.140135 1.000000
46.057999 25.820999 -723.096497 0.238933 0.967110 0.087230 1.000000
45.915100 25.863400 -723.248901 0.304103 0.948854 0.084836 1.000000
45.774601 25.932800 -723.400818 0.274546 0.957688 0.086359 1.000000
45.631001 25.964899 -723.553223 0.219229 0.969424 0.110248 1.000000
45.489700 26.022400 -723.705078 0.251114 0.958438 0.135417 1.000000
45.345901 26.051800 -723.857483 0.161381 0.983828 0.077702 1.000000
45.206200 26.126499 -724.008972 0.211746 0.957517 0.195765 1.000000
45.066200 26.195499 -724.160278 0.238314 0.949169 0.205631 1.000000
44.926300 26.264999 -724.311584 0.173391 0.973269 0.150610 1.000000
44.784100 26.308800 -724.463379 0.060713 0.990882 0.120280 1.000000
44.639599 26.326099 -724.615784 0.119769 0.991227 0.055892 1.000000
44.496201 26.356400 -724.767822 0.104364 0.993140 0.052743 1.000000
44.353802 26.395700 -724.919617 0.046630 0.996573 0.068318 1.000000
44.207802 26.397100 -725.072388 0.158648 0.984095 0.079920 1.000000
44.061798 26.400101 -725.225220 0.093964 0.992852 0.073587 1.000000
43.917500 26.419600 -725.377625 0.065585 0.994895 0.076701 1.000000
43.775600 26.463699 -725.529114 -0.005797 0.979662 0.200570 1.000000
43.629299 26.463800 -725.682129 -0.191444 0.972434 0.133123 1.000000
43.482399 26.457800 -725.835388 -0.292660 0.943317 0.156539 1.000000
43.336201 26.459499 -725.988403 -0.306995 0.937505 0.163823 1.000000
43.188499 26.446800 -726.142029 -0.197282 0.979237 -0.046630 1.000000
43.038300 26.412100 -726.296570 -0.133681 0.991009 -0.005524 1.000000
42.887402 26.370701 -726.451477 -0.005533 0.990372 -0.138320 1.000000
42.738800 26.353001 -726.605713 0.085581 0.996331 0.001057 1.000000
42.592800 26.360500 -726.758911 0.095039 0.966859 -0.236963 1.000000
42.445599 26.356100 -726.912598 0.180318 0.966452 -0.182912 1.000000
42.300301 26.370800 -727.065613 0.093769 0.993047 -0.071174 1.000000
42.152699 26.364300 -727.219482 0.273778 0.960116 -0.056774 1.000000
42.007198 26.376900 -727.372620 0.043753 0.992850 -0.111065 1.000000
41.861099 26.385401 -727.525879 0.001032 0.998386 -0.056785 1.000000
41.713699 26.382299 -727.679871 -0.077165 0.994199 -0.074928 1.000000
41.564201 26.361099 -727.834778 -0.192259 0.971481 -0.138783 1.000000
41.416801 26.359600 -727.988770 0.019669 0.998991 -0.040374 1.000000
41.268600 26.351400 -728.143311 0.119526 0.979621 -0.161422 1.000000
41.117599 26.320801 -728.299011 -0.003477 0.979215 -0.202796 1.000000
