ply
format ascii 1.0
element vertex 689
property float x
property float y
property float z
property float nx
property float ny
property float nz
property float label
element face 0
property list uchar int vertex_indices
end_header
46.604801 41.798599 -728.507629 0.204899 0.935289 -0.288532 1.000000
46.236900 41.826000 -728.417786 0.028228 0.990221 -0.136621 1.000000
45.877102 41.891102 -728.342529 0.056592 0.978916 -0.196265 1.000000
45.508099 41.916901 -728.251892 0.026363 0.986875 -0.159321 1.000000
45.146900 41.978699 -728.175171 0.097731 0.983345 -0.153233 1.000000
44.795200 42.082001 -728.114502 0.166387 0.968657 -0.184445 1.000000
44.432499 42.138802 -728.035706 0.163061 0.969381 -0.183605 1.000000
44.080002 42.238998 -727.973816 0.214081 0.967851 -0.132038 1.000000
43.730400 42.351501 -727.916687 0.268977 0.960991 0.064403 1.000000
43.382198 42.469101 -727.861572 0.388961 0.920672 -0.032741 1.000000
43.044800 42.630199 -727.823730 0.374113 0.926810 0.032588 1.000000
42.700001 42.759998 -727.773499 0.211774 0.961533 -0.174944 1.000000
42.345001 42.849602 -727.707520 0.217304 0.974834 0.049774 1.000000
41.987999 42.931499 -727.638428 0.167600 0.971059 0.170159 1.000000
52.737301 41.090099 -729.570313 0.047801 0.465721 -0.883640 1.000000
52.494301 41.387299 -729.602173 0.530293 0.834584 -0.149191 1.000000
52.146900 41.497101 -729.544922 0.099398 0.995047 0.001069 1.000000
51.796700 41.590801 -729.481812 0.115168 0.983168 -0.141838 1.000000
51.423100 41.553001 -729.369385 0.016149 0.995869 -0.089359 1.000000
51.066601 41.613300 -729.293579 0.282507 0.936586 -0.207357 1.000000
50.715900 41.705898 -729.229919 0.152612 0.985472 -0.074531 1.000000
50.358601 41.763599 -729.153015 0.164129 0.967973 -0.189976 1.000000
50.000000 41.815399 -729.073914 0.036462 0.982125 -0.184663 1.000000
49.636002 41.840801 -728.984619 -0.005765 0.981268 -0.192564 1.000000
49.266399 41.839500 -728.885193 -0.035405 0.968154 -0.247838 1.000000
48.902599 41.870201 -728.797791 0.083106 0.973706 -0.212107 1.000000
48.540798 41.912701 -728.714783 0.082004 0.977932 -0.192159 1.000000
48.167301 41.900101 -728.610718 -0.161943 0.975427 -0.149390 1.000000
47.853699 41.820801 -728.500671 -0.389712 0.912122 -0.127110 1.000000
47.525501 41.676498 -728.365723 -0.403501 0.875007 -0.267489 1.000000
47.166000 41.739799 -728.290100 0.252309 0.925133 -0.283670 1.000000
46.815201 41.844799 -728.230408 0.130936 0.963222 -0.234648 1.000000
46.451801 41.891899 -728.148376 0.060949 0.945352 -0.320304 1.000000
46.089500 41.945202 -728.068787 0.036109 0.959999 -0.277665 1.000000
45.727100 41.999401 -727.989380 0.010980 0.960120 -0.279374 1.000000
45.357601 42.024200 -727.898621 -0.035281 0.969610 -0.242098 1.000000
44.994301 42.077400 -727.818604 0.168932 0.928428 -0.330883 1.000000
44.642601 42.180801 -727.758179 0.153196 0.983111 -0.100120 1.000000
44.279800 42.238098 -727.679688 0.091376 0.958802 -0.268979 1.000000
43.925999 42.333599 -727.616089 0.181154 0.925428 -0.332817 1.000000
43.577900 42.452202 -727.561584 0.322089 0.910886 -0.257963 1.000000
43.236401 42.597698 -727.517578 0.436166 0.885374 -0.160845 1.000000
42.892200 42.730900 -727.468872 0.239831 0.960634 -0.140229 1.000000
42.543301 42.844799 -727.412720 0.314281 0.945474 -0.085474 1.000000
42.175499 42.885201 -727.327271 -0.003097 0.998382 -0.056785 1.000000
41.801399 42.902699 -727.232788 0.303548 0.943023 0.136259 1.000000
52.876801 41.193001 -729.226318 0.376455 0.926363 0.011563 1.000000
52.552101 41.440300 -729.220520 0.162131 0.896743 -0.411784 1.000000
52.196602 41.503700 -729.146423 0.197679 0.967721 -0.156334 1.000000
51.839100 41.556499 -729.068176 0.170198 0.977705 -0.122990 1.000000
51.484402 41.626099 -728.996277 0.153122 0.961921 -0.226411 1.000000
51.132900 41.713600 -728.931213 0.231023 0.952464 -0.198599 1.000000
50.779900 41.793800 -728.863220 0.085048 0.989124 -0.120000 1.000000
50.421101 41.842400 -728.783325 0.173309 0.959153 -0.223582 1.000000
50.063499 41.899300 -728.706482 -0.010078 0.988796 -0.148935 1.000000
49.699299 41.923100 -728.617126 0.089375 0.985505 -0.144191 1.000000
49.331001 41.928001 -728.520386 0.032089 0.978109 -0.205605 1.000000
48.968399 41.964001 -728.435486 0.101596 0.948669 -0.299510 1.000000
48.607800 42.011799 -728.354919 0.079548 0.965944 -0.246221 1.000000
48.230202 41.978600 -728.243286 -0.315920 0.939626 -0.131520 1.000000
47.908901 41.862000 -728.119385 -0.444469 0.895573 -0.019902 1.000000
47.592300 41.771801 -728.005371 -0.169357 0.984607 -0.043215 1.000000
47.237900 41.858898 -727.939270 0.274452 0.933138 -0.232229 1.000000
46.882599 41.942001 -727.871582 0.106899 0.948893 -0.296942 1.000000
46.520802 41.995701 -727.792725 0.132707 0.978560 -0.157512 1.000000
46.167500 42.088902 -727.728882 -0.062231 0.974951 -0.213537 1.000000
45.787300 42.063000 -727.619019 -0.038156 0.986263 -0.160716 1.000000
45.421501 42.103600 -727.534607 0.014401 0.991461 -0.129610 1.000000
45.061600 42.171299 -727.460815 0.057474 0.992831 -0.104805 1.000000
44.704300 42.250599 -727.391296 0.164704 0.966178 -0.198423 1.000000
44.337601 42.290901 -727.306580 0.026403 0.986081 -0.164156 1.000000
43.981602 42.377399 -727.239929 0.239111 0.969932 -0.045370 1.000000
43.637901 42.514599 -727.193115 0.280835 0.945613 -0.164159 1.000000
43.285301 42.614899 -727.131775 0.427438 0.859473 -0.280363 1.000000
42.940899 42.747898 -727.083374 0.118256 0.990824 -0.065443 1.000000
42.582500 42.825001 -727.012878 0.176570 0.980266 -0.088894 1.000000
42.213501 42.861301 -726.926270 -0.112558 0.992964 0.036776 1.000000
53.019100 41.055199 -728.806030 0.689048 0.679544 0.251859 1.000000
52.778198 41.369801 -728.844971 0.555041 0.805804 -0.206420 1.000000
52.432899 41.493900 -728.793884 0.204355 0.974713 -0.090412 1.000000
52.079498 41.570202 -728.724976 0.126009 0.991041 0.044273 1.000000
51.723099 41.629700 -728.649780 0.254374 0.954901 -0.153157 1.000000
51.373798 41.729801 -728.589783 0.223209 0.971395 -0.081053 1.000000
51.023800 41.825802 -728.528320 0.171283 0.976437 -0.131275 1.000000
50.663502 41.865898 -728.445679 0.093964 0.992852 -0.073587 1.000000
50.308399 41.935001 -728.373901 0.098320 0.995084 0.011885 1.000000
49.943401 41.953300 -728.283020 0.075559 0.993548 -0.084581 1.000000
49.586601 42.015999 -728.208679 0.108153 0.968288 -0.225213 1.000000
49.227798 42.069698 -728.130981 0.056378 0.980023 -0.190727 1.000000
48.864799 42.103298 -728.045471 0.001164 0.976541 -0.215328 1.000000
48.497601 42.118198 -727.952881 -0.130767 0.990421 -0.044347 1.000000
48.183601 42.033298 -727.841614 -0.401391 0.915795 -0.014289 1.000000
47.851002 41.862900 -727.697388 -0.150369 0.974241 -0.168060 1.000000
47.490898 41.921600 -727.620972 0.185884 0.965816 -0.180684 1.000000
47.134899 42.000000 -727.552124 0.265540 0.946411 -0.183835 1.000000
46.777901 42.074902 -727.481812 0.045669 0.984821 -0.167455 1.000000
46.415501 42.125599 -727.402222 0.097968 0.975959 -0.194696 1.000000
46.046600 42.148399 -727.311584 0.014654 0.988589 -0.149923 1.000000
45.670200 42.140499 -727.208984 -0.033014 0.989273 -0.142300 1.000000
45.306301 42.189602 -727.128418 0.186423 0.972696 -0.138232 1.000000
44.949001 42.268600 -727.059387 0.278032 0.943667 -0.179420 1.000000
44.589699 42.339199 -726.987000 0.132622 0.985701 -0.103947 1.000000
44.226299 42.394001 -726.908386 0.153428 0.968270 -0.197264 1.000000
43.871101 42.483501 -726.843323 0.303316 0.924187 -0.232115 1.000000
43.525700 42.613701 -726.794312 0.232976 0.957198 -0.171737 1.000000
43.185398 42.763199 -726.752686 0.155165 0.963591 -0.217753 1.000000
42.819698 42.810902 -726.671204 0.080884 0.988194 0.130118 1.000000
42.461201 42.888000 -726.601196 0.323601 0.928776 -0.180712 1.000000
42.133999 42.792702 -726.483093 -0.765018 0.630805 0.129740 1.000000
53.089500 41.337200 -728.612671 0.231798 0.934215 -0.271133 1.000000
50.910599 41.882401 -728.212524 0.109854 0.983861 -0.141241 1.000000
48.120899 41.978001 -727.502930 -0.331295 0.942321 -0.047696 1.000000
45.926300 42.178902 -726.985779 0.113725 0.985220 -0.128091 1.000000
43.057701 42.768002 -726.416687 0.103917 0.994321 0.022971 1.000000
42.689899 42.808300 -726.332214 -0.029433 0.995263 0.092659 1.000000
52.845600 41.459499 -728.376282 0.412791 0.872455 -0.261585 1.000000
52.500599 41.584099 -728.325378 0.119525 0.965194 -0.232623 1.000000
52.142502 41.632401 -728.245972 0.034607 0.977339 -0.208833 1.000000
51.792000 41.725201 -728.183289 0.387003 0.906814 -0.167082 1.000000
51.440498 41.812099 -728.118286 0.293523 0.909774 -0.293523 1.000000
50.661400 41.972301 -727.963684 0.201794 0.914513 -0.350635 1.000000
50.309898 42.059700 -727.898987 -0.080411 0.961108 -0.264209 1.000000
49.951302 42.110600 -727.820374 0.056164 0.936505 -0.346128 1.000000
49.591499 42.156502 -727.739807 0.197032 0.910375 -0.363862 1.000000
49.236099 42.225700 -727.668030 0.040544 0.966913 -0.251864 1.000000
48.865700 42.221901 -727.568420 -0.089763 0.977557 -0.190593 1.000000
48.480701 42.148998 -727.442383 -0.307792 0.951015 -0.028895 1.000000
47.858101 42.011200 -727.232117 0.013844 0.942644 -0.333512 1.000000
47.500401 42.079700 -727.159485 0.240094 0.945285 -0.220887 1.000000
47.142300 42.147499 -727.086487 0.032734 0.971102 -0.236411 1.000000
46.780102 42.196999 -727.006592 0.023133 0.965510 -0.259336 1.000000
46.408199 42.204201 -726.910217 -0.068680 0.988298 -0.136197 1.000000
45.669899 42.249802 -726.729004 0.045207 0.971338 -0.233365 1.000000
45.307800 42.306301 -726.651306 0.146373 0.958677 -0.243955 1.000000
44.944801 42.360199 -726.572510 0.034716 0.975627 -0.216673 1.000000
44.584099 42.424999 -726.497925 0.062263 0.975456 -0.211206 1.000000
44.230701 42.521000 -726.435425 0.060803 0.906635 -0.417512 1.000000
43.865299 42.567902 -726.353699 0.168724 0.939642 -0.297668 1.000000
43.522400 42.707401 -726.308228 0.271531 0.913331 -0.303476 1.000000
42.475700 42.753399 -726.045227 -0.076941 0.991049 0.109096 1.000000
53.267502 41.199699 -728.208496 0.784369 0.449835 -0.427099 1.000000
51.190300 41.911598 -727.888428 0.189409 0.974640 -0.119165 1.000000
48.259701 42.037102 -727.151184 -0.380410 0.918752 -0.105746 1.000000
46.142399 42.246601 -726.657104 0.073354 0.971006 -0.227521 1.000000
43.257702 42.763699 -726.059387 0.127080 0.990305 -0.056098 1.000000
42.891499 42.810299 -725.977417 0.180184 0.983552 0.012624 1.000000
53.113098 41.465401 -727.982422 0.419740 0.876824 -0.234517 1.000000
52.769501 41.598999 -727.934326 0.137926 0.984674 -0.106743 1.000000
52.412998 41.656200 -727.857971 0.125993 0.976760 -0.173397 1.000000
52.060902 41.739799 -727.791504 0.249094 0.958157 -0.141022 1.000000
51.715698 41.861301 -727.739075 0.220266 0.952686 -0.209456 1.000000
51.009300 42.016201 -727.601501 0.228081 0.956341 -0.182732 1.000000
50.659801 42.113499 -727.540222 0.226886 0.949663 -0.216018 1.000000
50.305801 42.187000 -727.469788 0.043976 0.980536 -0.191353 1.000000
49.952301 42.264099 -727.400818 0.207999 0.926797 -0.312705 1.000000
49.597301 42.334000 -727.329102 0.059083 0.961672 -0.267760 1.000000
49.225300 42.320202 -727.225708 -0.046620 0.956333 -0.288538 1.000000
48.850399 42.294800 -727.117798 -0.254337 0.951408 -0.173595 1.000000
48.067200 42.097099 -726.845520 0.237506 0.945905 -0.221031 1.000000
47.711899 42.176300 -726.776611 0.154171 0.909468 -0.386135 1.000000
47.354000 42.243698 -726.703308 0.033855 0.954222 -0.297176 1.000000
46.989201 42.280899 -726.618286 -0.079184 0.951506 -0.297264 1.000000
46.618999 42.295502 -726.524719 0.073082 0.972367 -0.221724 1.000000
45.951099 42.320900 -726.355286 0.057018 0.976583 -0.207448 1.000000
45.587101 42.368500 -726.273987 0.141973 0.954005 -0.264043 1.000000
45.226898 42.433498 -726.199280 0.137068 0.974564 -0.177308 1.000000
44.860199 42.472301 -726.114319 -0.028544 0.987637 -0.154140 1.000000
44.493500 42.512501 -726.029785 0.167522 0.985757 -0.014815 1.000000
44.133400 42.581600 -725.956482 0.155256 0.983288 -0.095079 1.000000
43.781898 42.686100 -725.896912 0.305472 0.949929 -0.065735 1.000000
42.746300 42.777500 -725.651184 -0.133913 0.970554 0.200232 1.000000
53.505001 41.263302 -727.594604 0.286003 0.306536 -0.907875 1.000000
53.181198 41.517399 -727.590515 0.364251 0.919700 -0.146538 1.000000
52.835499 41.638599 -727.537598 0.346646 0.931185 -0.112830 1.000000
52.485802 41.735802 -727.475830 0.151899 0.987915 0.030837 1.000000
52.131599 41.808102 -727.404785 0.284458 0.949528 -0.132213 1.000000
51.784801 41.920799 -727.348877 0.380050 0.896566 -0.227443 1.000000
51.435799 42.021900 -727.288574 0.084079 0.986444 -0.140921 1.000000
51.083900 42.106602 -727.222229 0.206163 0.922759 -0.325596 1.000000
50.736500 42.214901 -727.164612 0.181625 0.925023 -0.333684 1.000000
50.383598 42.294601 -727.096375 -0.003635 0.960737 -0.277438 1.000000
50.032299 42.382801 -727.031311 0.186352 0.965641 -0.181139 1.000000
49.673100 42.431301 -726.951172 0.051190 0.962629 -0.265940 1.000000
49.305401 42.439499 -726.855774 -0.040569 0.967509 -0.249561 1.000000
48.925499 42.390701 -726.738708 -0.266226 0.946126 -0.184310 1.000000
48.598202 42.242802 -726.603577 -0.398226 0.903501 -0.158434 1.000000
48.215801 42.191299 -726.484985 -0.061093 0.942399 -0.328865 1.000000
47.863701 42.285400 -726.421570 0.154835 0.938604 -0.308300 1.000000
47.502499 42.337700 -726.342224 0.070092 0.891952 -0.446663 1.000000
47.138401 42.378101 -726.258179 0.021995 0.925096 -0.379095 1.000000
46.767700 42.390701 -726.163513 -0.057841 0.949885 -0.307202 1.000000
46.392300 42.384701 -726.061523 -0.001177 0.973308 -0.229498 1.000000
46.028301 42.431198 -725.979370 -0.001175 0.973953 -0.226747 1.000000
45.660400 42.462200 -725.891418 0.122415 0.973011 -0.195612 1.000000
45.293098 42.497501 -725.804871 0.220878 0.963239 -0.152916 1.000000
44.919601 42.508801 -725.708984 0.037008 0.977740 -0.206531 1.000000
44.554901 42.558498 -725.627930 0.123642 0.987957 -0.093026 1.000000
44.197399 42.639301 -725.558716 0.235981 0.969870 -0.060540 1.000000
43.835499 42.702499 -725.482727 0.165864 0.984598 0.055288 1.000000
43.478901 42.787800 -725.415222 0.133100 0.991097 -0.003300 1.000000
43.104099 42.801899 -725.319885 -0.013562 0.998378 0.055292 1.000000
42.785301 42.741001 -725.215088 -0.003032 0.999439 -0.033348 1.000000
53.621300 41.341801 -727.093872 0.869012 0.490818 0.062569 1.000000
53.374199 41.615700 -727.116699 0.510480 0.825096 -0.242131 1.000000
53.025501 41.719799 -727.057373 0.260006 0.953355 -0.153337 1.000000
52.672501 41.799198 -726.988892 0.185571 0.973303 -0.135076 1.000000
52.322300 41.894199 -726.926208 0.405546 0.905111 -0.127698 1.000000
51.974300 42.001202 -726.867981 0.089573 0.967636 -0.235917 1.000000
51.625999 42.106098 -726.809021 0.237076 0.918131 -0.317538 1.000000
51.272999 42.185699 -726.740601 0.146333 0.976803 -0.156339 1.000000
50.924301 42.287498 -726.680481 0.362158 0.901730 -0.236063 1.000000
50.572701 42.374802 -726.614990 0.030837 0.987915 -0.151899 1.000000
50.218601 42.448898 -726.544495 0.118525 0.959919 -0.253981 1.000000
49.868198 42.542500 -726.481323 0.168650 0.929663 -0.327542 1.000000
49.507999 42.587898 -726.399902 -0.049086 0.957807 -0.283189 1.000000
49.128601 42.541302 -726.283508 -0.237615 0.969119 -0.065935 1.000000
48.797298 42.373901 -726.140930 -0.396056 0.918071 -0.016881 1.000000
48.482601 42.291100 -726.030029 -0.077549 0.984280 -0.158678 1.000000
48.123001 42.349800 -725.953125 0.269816 0.919106 0.287130 1.000000
47.772999 42.454399 -725.893616 0.201103 0.957572 -0.206431 1.000000
47.413101 42.513500 -725.816711 0.015311 0.976376 -0.215533 1.000000
47.047401 42.547798 -725.730225 0.037719 0.988689 -0.145160 1.000000
46.663601 42.503700 -725.613525 -0.034416 0.979076 -0.200562 1.000000
46.290798 42.511200 -725.516418 -0.135076 0.973303 -0.185571 1.000000
45.918598 42.524101 -725.421204 0.007824 0.989191 -0.146423 1.000000
45.551998 42.562801 -725.335876 -0.080267 0.983565 -0.161731 1.000000
45.178501 42.574402 -725.240112 -0.044937 0.972831 -0.227115 1.000000
44.808300 42.601601 -725.150024 0.127986 0.977910 -0.165263 1.000000
44.445702 42.662201 -725.072876 -0.125390 0.971454 -0.201383 1.000000
44.077499 42.700901 -724.987183 0.236863 0.951514 -0.196258 1.000000
43.717098 42.772202 -724.914124 0.083593 0.958110 -0.273929 1.000000
43.344799 42.797600 -724.822876 -0.168415 0.983020 -0.072861 1.000000
42.957901 42.767601 -724.710022 -0.100519 0.987451 -0.121805 1.000000
53.732899 41.456699 -726.666321 0.410229 0.223627 -0.884140 1.000000
53.481899 41.706699 -726.680176 0.467190 0.801126 -0.374073 1.000000
53.135899 41.826199 -726.626526 0.180865 0.912869 -0.366002 1.000000
52.780602 41.892700 -726.553223 0.114875 0.936573 -0.331112 1.000000
52.434502 42.011200 -726.499084 0.241844 0.901420 -0.359102 1.000000
52.083401 42.100899 -726.434387 0.177972 0.926295 -0.332121 1.000000
51.735699 42.209000 -726.376587 0.148477 0.925551 -0.348296 1.000000
51.384602 42.298401 -726.311829 0.101259 0.903008 -0.417520 1.000000
51.032001 42.380299 -726.244080 0.132809 0.945762 -0.296473 1.000000
50.677799 42.454601 -726.173584 0.114308 0.940016 -0.321408 1.000000
50.331799 42.570400 -726.118713 0.243848 0.931697 -0.269220 1.000000
49.980701 42.660400 -726.054077 0.057509 0.952101 -0.300327 1.000000
49.614101 42.674400 -725.960571 -0.045303 0.986216 -0.159142 1.000000
49.224602 42.580200 -725.826111 -0.299009 0.951394 -0.073782 1.000000
48.896900 42.432098 -725.690613 -0.376017 0.923195 -0.079516 1.000000
48.529499 42.452599 -725.599121 0.265664 0.913131 -0.309216 1.000000
48.172501 42.523399 -725.526672 0.057959 0.996232 -0.064520 1.000000
47.813099 42.584202 -725.450378 0.030425 0.990501 -0.134095 1.000000
47.448502 42.622700 -725.365479 0.118231 0.992015 -0.043914 1.000000
47.076801 42.630699 -725.268677 -0.046552 0.991220 -0.123761 1.000000
46.696301 42.602798 -725.158081 0.035288 0.989196 -0.142289 1.000000
46.320499 42.598701 -725.056396 -0.070034 0.994924 -0.072257 1.000000
45.951302 42.625900 -724.966614 0.082279 0.976300 -0.200172 1.000000
45.585999 42.671001 -724.883728 0.048626 0.991734 -0.118737 1.000000
45.205299 42.653198 -724.776184 -0.082242 0.996516 -0.013885 1.000000
44.825401 42.641899 -724.671021 0.096527 0.989688 0.105830 1.000000
44.454498 42.670200 -724.581116 0.123583 0.992004 -0.025607 1.000000
44.099499 42.763500 -724.516479 0.234953 0.970566 0.052895 1.000000
43.742100 42.847900 -724.448425 0.125187 0.991348 -0.039473 1.000000
43.350101 42.797401 -724.327271 -0.290031 0.929515 0.227781 1.000000
43.023399 42.738800 -724.221130 0.586626 0.650499 0.482412 1.000000
53.744999 41.653599 -726.382385 0.656706 0.640165 -0.398655 1.000000
53.410500 41.841301 -726.353699 0.270932 0.898666 -0.344957 1.000000
53.060699 41.938499 -726.291626 0.054524 0.921586 -0.384327 1.000000
52.714699 42.056599 -726.237183 0.068880 0.850455 -0.521519 1.000000
52.363998 42.148300 -726.173096 -0.022820 0.884600 -0.465791 1.000000
52.013901 42.243000 -726.109985 0.173213 0.945168 -0.276867 1.000000
51.658401 42.308399 -726.036072 0.066867 0.940078 -0.334337 1.000000
51.308800 42.405998 -725.974182 0.221275 0.909686 -0.351437 1.000000
50.956001 42.487000 -725.906006 0.206215 0.952900 -0.222388 1.000000
50.603100 42.567799 -725.837708 0.127418 0.978521 -0.162056 1.000000
50.252998 42.662899 -725.774780 0.317365 0.923633 -0.214898 1.000000
49.897598 42.731602 -725.702026 0.019357 0.987206 -0.158272 1.000000
49.525700 42.721401 -725.599182 -0.103913 0.985386 -0.134968 1.000000
49.192699 42.545898 -725.453430 -0.466325 0.873458 -0.140042 1.000000
48.810799 42.496700 -725.335388 -0.186162 0.969324 -0.160484 1.000000
48.455399 42.574402 -725.265381 0.216847 0.971423 0.096516 1.000000
48.094101 42.625801 -725.185425 0.037804 0.988637 -0.145489 1.000000
47.722198 42.630699 -725.087524 0.069327 0.997238 -0.026664 1.000000
47.354198 42.655300 -724.997009 0.095628 0.994756 0.036273 1.000000
46.983898 42.672100 -724.903503 -0.166227 0.984394 -0.057767 1.000000
46.606602 42.660500 -724.798828 -0.003032 0.999505 -0.031329 1.000000
46.227100 42.642300 -724.691406 -0.050504 0.993255 -0.104376 1.000000
45.865398 42.702202 -724.614014 0.238268 0.971033 -0.017960 1.000000
45.492699 42.717499 -724.519287 -0.290546 0.956431 0.028680 1.000000
45.102001 42.660999 -724.396484 -0.039643 0.999213 -0.001016 1.000000
44.730499 42.686401 -724.305420 0.086511 0.995427 -0.040518 1.000000
44.360500 42.719799 -724.217224 0.167679 0.977506 -0.127933 1.000000
44.005600 42.814400 -724.152893 0.375527 0.924886 0.059713 1.000000
43.646198 42.891701 -724.081726 -0.106959 0.988494 0.106959 1.000000
43.226200 42.765999 -723.928772 -0.277548 0.956573 0.089074 1.000000
53.928200 41.663502 -726.000000 0.142504 0.622518 -0.769522 1.000000
53.606701 41.923199 -725.997498 0.378448 0.809591 -0.448708 1.000000
53.265301 42.066200 -725.952209 0.223624 0.901805 -0.369784 1.000000
52.911800 42.140999 -725.881775 0.260580 0.902460 -0.343023 1.000000
52.562099 42.236301 -725.818970 0.176762 0.903927 -0.389450 1.000000
52.209499 42.316502 -725.750488 0.053940 0.962133 -0.267190 1.000000
51.852200 42.372002 -725.672913 0.214263 0.948488 -0.233369 1.000000
51.499500 42.452301 -725.604370 0.167867 0.899597 -0.403169 1.000000
51.147701 42.537899 -725.538025 0.194313 0.920506 -0.338985 1.000000
50.796200 42.625198 -725.472107 0.051897 0.955660 -0.289863 1.000000
50.439400 42.686199 -725.396423 0.259157 0.930417 -0.259157 1.000000
50.085098 42.760799 -725.325684 0.025218 0.994468 -0.101969 1.000000
49.720200 42.784599 -725.235779 -0.081564 0.991410 -0.102243 1.000000
49.396000 42.652500 -725.106812 -0.322050 0.942296 0.091446 1.000000
49.078800 42.558102 -724.991699 -0.013775 0.997071 -0.075231 1.000000
48.728600 42.659302 -724.930725 0.277825 0.904034 -0.324864 1.000000
48.365700 42.702000 -724.847412 0.179050 0.751398 0.635092 1.000000
47.998299 42.726299 -724.757080 -0.052973 0.944470 -0.324298 1.000000
47.630600 42.751202 -724.666809 -0.023622 0.956075 -0.292169 1.000000
47.264000 42.783298 -724.579224 0.223220 0.968135 -0.113523 1.000000
46.882301 42.751499 -724.466980 -0.283630 0.947674 -0.146520 1.000000
46.501598 42.727600 -724.357605 -0.067787 0.983508 -0.167684 1.000000
46.126499 42.730400 -724.258301 0.056209 0.989969 -0.129625 1.000000
45.752602 42.740601 -724.161682 -0.150135 0.988665 -0.001112 1.000000
45.370899 42.721100 -724.053528 -0.081130 0.996276 -0.029207 1.000000
44.989201 42.704700 -723.946228 -0.017355 0.999469 0.027565 1.000000
44.623600 42.755798 -723.864929 0.282616 0.953008 -0.109103 1.000000
44.261902 42.823002 -723.789917 -0.103100 0.990452 -0.091515 1.000000
43.887100 42.840000 -723.695313 -0.069386 0.986699 0.147005 1.000000
43.566299 42.774300 -723.588379 -0.281153 0.918433 0.278269 1.000000
54.025398 41.832100 -725.589600 0.635026 0.638359 -0.435018 1.000000
53.692799 42.025101 -725.562805 0.369423 0.911434 -0.181146 1.000000
53.349499 42.155800 -725.513184 0.188352 0.921935 -0.338468 1.000000
53.002102 42.262699 -725.455017 0.262500 0.915124 -0.306008 1.000000
52.647400 42.329601 -725.382019 0.203230 0.954238 -0.219380 1.000000
52.292801 42.397999 -725.309387 0.037126 0.976047 -0.214371 1.000000
51.937801 42.465099 -725.236511 0.106744 0.933672 -0.341851 1.000000
51.586899 42.553501 -725.171326 0.200107 0.908401 -0.367103 1.000000
51.230598 42.615398 -725.096313 0.051910 0.917078 -0.395315 1.000000
50.874001 42.676201 -725.020813 0.038357 0.963882 -0.263552 1.000000
50.525700 42.778500 -724.960815 0.129749 0.958045 -0.255566 1.000000
50.161201 42.803101 -724.871704 -0.038301 0.985386 -0.165972 1.000000
49.788799 42.791500 -724.768921 -0.185899 0.981592 -0.043810 1.000000
49.467098 42.673199 -724.645386 -0.387873 0.909737 -0.148097 1.000000
49.104900 42.715900 -724.562683 0.052674 0.971403 -0.231520 1.000000
48.753399 42.809399 -724.499084 0.110956 0.921891 -0.371222 1.000000
48.384701 42.825001 -724.405884 -0.241014 0.949078 -0.202888 1.000000
48.016800 42.846699 -724.314880 0.019362 0.925517 -0.378210 1.000000
47.651199 42.880600 -724.228516 -0.013940 0.939071 -0.343439 1.000000
47.276501 42.876701 -724.127502 -0.258187 0.918800 -0.298574 1.000000
46.889702 42.824100 -724.007813 -0.111150 0.967134 -0.228688 1.000000
46.509899 42.804699 -723.900513 -0.123819 0.960571 -0.248941 1.000000
46.136501 42.814602 -723.804321 -0.098870 0.961735 -0.255521 1.000000
45.757702 42.805000 -723.700378 0.365450 0.926436 -0.090351 1.000000
45.380798 42.806099 -723.600403 -0.375527 0.924886 -0.059713 1.000000
44.991299 42.758801 -723.481628 -0.049878 0.987128 -0.151955 1.000000
44.628101 42.819199 -723.404297 0.305658 0.951905 0.021209 1.000000
44.265800 42.883999 -723.328613 -0.052933 0.997077 -0.055093 1.000000
43.870300 42.821701 -723.203430 -0.182211 0.983012 -0.022051 1.000000
43.704601 42.730801 -722.895813 0.904749 0.092547 0.415770 1.000000
53.960098 41.958801 -725.112000 0.826252 0.563166 -0.012332 1.000000
53.710098 42.201401 -725.122925 0.492118 0.823322 -0.282773 1.000000
53.372299 42.359798 -725.083679 0.051135 0.981085 -0.186703 1.000000
53.016602 42.418301 -725.007874 0.159052 0.952974 -0.257958 1.000000
52.658901 42.467201 -724.928406 0.087195 0.993122 -0.078136 1.000000
52.310799 42.567600 -724.867920 0.057728 0.971552 -0.229684 1.000000
51.956402 42.635502 -724.795410 0.166988 0.955170 -0.244470 1.000000
51.601601 42.701801 -724.722290 0.158934 0.967817 -0.195114 1.000000
51.243698 42.753300 -724.643616 0.008708 0.949144 -0.314723 1.000000
50.888401 42.819099 -724.570129 -0.111301 0.974198 -0.196340 1.000000
50.532101 42.880798 -724.495178 0.169737 0.971205 -0.167185 1.000000
50.158600 42.860901 -724.389587 -0.191083 0.981204 -0.026963 1.000000
49.766602 42.757099 -724.252319 -0.260233 0.911542 -0.318386 1.000000
49.397701 42.766300 -724.157227 0.045844 0.928670 -0.368062 1.000000
49.049801 42.874401 -724.099182 0.317863 0.900365 -0.297165 1.000000
48.690899 42.932499 -724.022400 0.037213 0.940595 -0.337485 1.000000
48.321400 42.943901 -723.927917 -0.013834 0.944491 -0.328245 1.000000
47.954800 42.971100 -723.839111 0.186863 0.953133 0.237947 1.000000
47.582100 42.973202 -723.740784 -0.125003 0.927223 -0.353032 1.000000
47.208801 42.974998 -723.642212 -0.187777 0.944368 -0.270015 1.000000
46.822498 42.924599 -723.523376 -0.106251 0.973760 -0.201252 1.000000
46.442501 42.904301 -723.416016 -0.106875 0.979069 -0.173210 1.000000
46.063999 42.893398 -723.312012 -0.141713 0.954905 -0.260910 1.000000
45.676800 42.849499 -723.195007 -0.093675 0.972970 -0.211081 1.000000
45.298801 42.846298 -723.093628 -0.066161 0.843201 -0.533511 1.000000
44.922501 42.852299 -722.995483 0.011185 0.999503 -0.029487 1.000000
44.547600 42.866600 -722.900513 -0.060229 0.992079 -0.110231 1.000000
44.178001 42.903301 -722.813904 0.366428 0.849802 -0.378902 1.000000
43.989300 42.776001 -722.498901 -0.956630 0.261856 0.127638 1.000000
53.922699 42.159599 -724.815491 0.753113 0.572495 -0.324145 1.000000
53.594700 42.372799 -724.796814 0.358934 0.913780 -0.190192 1.000000
53.249100 42.484699 -724.741211 0.167821 0.951882 -0.256431 1.000000
52.897301 42.562401 -724.673218 0.063325 0.947295 -0.314042 1.000000
52.546501 42.645500 -724.607117 0.154598 0.885687 -0.437787 1.000000
52.194401 42.722198 -724.538696 0.131305 0.902194 -0.410858 1.000000
51.842999 42.803001 -724.471680 0.096941 0.941526 -0.322695 1.000000
51.483002 42.840199 -724.388672 0.055010 0.950520 -0.305753 1.000000
51.120201 42.865002 -724.300903 -0.134606 0.899738 -0.415155 1.000000
50.760700 42.908100 -724.219788 0.124689 0.945225 -0.301667 1.000000
50.397301 42.933498 -724.132080 -0.044798 0.974663 -0.219148 1.000000
50.026600 42.926498 -724.032227 -0.232766 0.948761 -0.213710 1.000000
49.652401 42.905102 -723.926697 0.163219 0.891206 -0.423215 1.000000
49.308399 43.028301 -723.875183 -0.247399 0.959487 -0.134826 1.000000
48.939602 43.036499 -723.780579 0.085330 0.919670 -0.383309 1.000000
48.570999 43.047798 -723.687012 -0.053657 0.964573 -0.258301 1.000000
48.201599 43.058201 -723.593018 0.001285 0.918878 -0.394539 1.000000
47.832500 43.071999 -723.500000 -0.093816 0.920487 -0.379344 1.000000
47.460300 43.074699 -723.402710 -0.212967 0.874206 -0.436358 1.000000
47.078201 43.037701 -723.290222 -0.160511 0.907668 -0.387783 1.000000
46.703701 43.035999 -723.190979 -0.242869 0.899351 -0.363568 1.000000
46.316002 42.981602 -723.071472 0.036805 0.948041 -0.316014 1.000000
45.938400 42.973099 -722.969177 -0.188588 0.956317 -0.223364 1.000000
45.547798 42.914200 -722.847473 -0.085289 0.975259 -0.203951 1.000000
45.166401 42.896301 -722.741272 -0.164774 0.982628 -0.085394 1.000000
44.788300 42.894600 -722.641113 -0.097468 0.993724 -0.054896 1.000000
44.395802 42.838799 -722.519897 -0.050151 0.997687 -0.045883 1.000000
54.082001 42.139198 -724.480225 0.187779 0.459836 0.867923 1.000000
53.834702 42.400200 -724.496216 0.524721 0.850788 -0.028771 1.000000
53.489601 42.518200 -724.442688 0.191162 0.950389 -0.245393 1.000000
53.145100 42.639500 -724.390625 0.258839 0.965433 -0.030668 1.000000
52.794399 42.725800 -724.325928 0.136446 0.990617 -0.007765 1.000000
52.441299 42.799400 -724.256714 0.134356 0.951132 -0.278023 1.000000
52.082699 42.844799 -724.177429 0.116362 0.984878 -0.128358 1.000000
51.727200 42.907799 -724.104309 0.137997 0.958094 -0.251023 1.000000
51.386002 43.043598 -724.057373 0.440002 0.889908 -0.120258 1.000000
51.005402 42.981998 -723.939392 -0.001191 0.968509 -0.248977 1.000000
50.647202 43.034801 -723.862488 0.156963 0.940412 -0.301642 1.000000
50.279598 43.043201 -723.769470 -0.230649 0.929671 -0.287250 1.000000
49.962002 42.938900 -723.654724 -0.172003 0.972137 -0.159262 1.000000
49.602402 42.991402 -723.577271 0.196497 0.980131 -0.027062 1.000000
49.257702 43.113998 -723.525391 -0.055681 0.968855 -0.241286 1.000000
48.895100 43.154099 -723.443420 0.024415 0.934189 -0.355943 1.000000
48.521500 43.145901 -723.343811 -0.042543 0.939805 -0.339052 1.000000
48.159000 43.189800 -723.262878 0.014821 0.869058 -0.494487 1.000000
47.783298 43.177299 -723.161316 -0.036292 0.957367 -0.286584 1.000000
47.406898 43.164600 -723.059509 -0.261582 0.897063 -0.356165 1.000000
47.026600 43.138199 -722.952515 -0.144069 0.964357 -0.221945 1.000000
46.643902 43.104698 -722.842529 -0.310306 0.922337 -0.230227 1.000000
46.265701 43.093700 -722.740784 -0.001220 0.957321 -0.289025 1.000000
45.874001 43.029598 -722.619080 -0.178928 0.979842 -0.088855 1.000000
45.478100 42.952301 -722.492310 -0.149450 0.975820 -0.159497 1.000000
45.096699 42.938000 -722.388672 -0.151244 0.984874 -0.084554 1.000000
44.777901 42.874199 -722.286072 -0.222274 0.974949 -0.008232 1.000000
44.392799 42.851200 -722.178772 -0.025200 0.903235 0.428406 1.000000
53.736500 42.524799 -724.185303 0.309607 0.934374 -0.176323 1.000000
53.392300 42.650200 -724.134521 0.099494 0.978968 -0.178106 1.000000
53.044399 42.755001 -724.076172 0.125699 0.971311 -0.201880 1.000000
52.690399 42.827099 -724.006470 0.179584 0.967688 -0.177000 1.000000
52.337200 42.903400 -723.938110 0.103193 0.966953 -0.233139 1.000000
51.979599 42.958500 -723.862122 0.125945 0.970663 -0.204819 1.000000
51.617901 42.993198 -723.778809 0.005919 0.971841 -0.235562 1.000000
51.258400 43.041000 -723.700073 0.083740 0.957218 -0.276988 1.000000
50.901600 43.103298 -723.626526 0.032273 0.933324 -0.357581 1.000000
50.535599 43.122002 -723.537170 -0.030186 0.971999 -0.233038 1.000000
49.845600 43.014000 -723.324585 0.080411 0.961108 -0.264209 1.000000
49.500401 43.137402 -723.272888 0.148714 0.924251 -0.351632 1.000000
49.147301 43.223701 -723.207703 0.220775 0.913403 -0.341985 1.000000
48.785400 43.270599 -723.128113 -0.065516 0.951902 -0.299316 1.000000
48.416901 43.289398 -723.038086 0.037800 0.969377 -0.242649 1.000000
48.051201 43.322498 -722.953186 -0.024017 0.986991 -0.158971 1.000000
47.668098 43.282200 -722.841309 -0.024500 0.929702 -0.367497 1.000000
47.292198 43.276199 -722.741821 -0.158815 0.917755 -0.364010 1.000000
46.911301 43.251900 -722.635315 -0.224280 0.954870 -0.194734 1.000000
46.520302 43.188900 -722.514282 -0.152942 0.899068 -0.410227 1.000000
46.132599 43.143398 -722.399597 -0.101975 0.970652 -0.217799 1.000000
45.737499 43.071499 -722.274780 -0.289299 0.943956 -0.158911 1.000000
45.344700 43.012798 -722.154724 -0.072667 0.997329 -0.007372 1.000000
44.705399 42.885101 -721.949280 -0.202389 0.979187 0.015208 1.000000
54.294399 42.163799 -724.212585 0.006403 0.377777 0.925874 1.000000
45.021500 42.961899 -722.050781 -0.199203 0.979515 -0.029468 1.000000
50.240299 43.073601 -723.370789 -0.335845 0.934111 -0.121013 1.000000
54.082600 42.389801 -723.987915 0.546272 0.833029 -0.087461 1.000000
54.407600 42.259300 -723.777222 0.776002 0.460395 -0.431112 1.000000
53.887501 42.591099 -723.743713 0.182356 0.982370 -0.041177 1.000000
53.536800 42.686501 -723.681824 0.168613 0.984935 0.038374 1.000000
53.188801 42.796001 -723.624878 0.171279 0.984560 0.036120 1.000000
52.838402 42.891899 -723.563171 0.217048 0.957409 0.190416 1.000000
52.480900 42.951801 -723.488586 0.171559 0.978751 -0.112316 1.000000
52.125000 43.021000 -723.417419 0.136797 0.986131 0.093974 1.000000
51.765099 43.070499 -723.339111 0.143285 0.989666 0.005554 1.000000
51.410400 43.146999 -723.270325 0.261362 0.949301 -0.174693 1.000000
51.061298 43.250500 -723.211304 0.049682 0.975464 -0.214481 1.000000
50.686600 43.232800 -723.108521 0.038782 0.993920 -0.103049 1.000000
50.370499 43.143902 -722.999084 -0.366118 0.930172 0.027168 1.000000
49.991798 43.113998 -722.891479 -0.096974 0.978337 -0.182901 1.000000
49.644100 43.229500 -722.836487 0.182069 0.943200 -0.277895 1.000000
49.293999 43.333302 -722.777283 0.298834 0.905333 -0.301778 1.000000
48.935902 43.401901 -722.705383 0.076343 0.925490 -0.370999 1.000000
48.573200 43.450802 -722.626099 0.143063 0.874275 -0.463871 1.000000
48.206600 43.484200 -722.541077 -0.206057 0.909245 -0.361681 1.000000
47.823700 43.449200 -722.430786 -0.051470 0.925138 -0.376126 1.000000
47.452999 43.469898 -722.340881 -0.215428 0.938156 -0.271023 1.000000
47.066700 43.426998 -722.227295 -0.155948 0.897060 -0.413477 1.000000
46.681599 43.393398 -722.116882 -0.163041 0.926688 -0.338624 1.000000
46.362999 43.325802 -722.013428 -0.346578 0.893962 -0.284104 1.000000
46.040798 43.246498 -721.905396 -0.224249 0.880661 -0.417311 1.000000
45.648399 43.193298 -721.787170 -0.289446 0.886334 -0.361432 1.000000
45.326698 43.122398 -721.681824 -0.349919 0.915502 -0.198525 1.000000
44.863998 43.031700 -721.533813 -0.465163 0.115224 -0.877694 1.000000
54.290298 42.488400 -723.546814 0.181538 0.268894 -0.945907 1.000000
54.020100 42.610199 -723.306396 0.055951 0.982119 -0.179757 1.000000
53.664799 42.684799 -723.236511 0.150063 0.974778 -0.165195 1.000000
53.317501 42.802200 -723.181885 0.081996 0.985139 -0.150920 1.000000
52.964600 42.889900 -723.116699 0.200407 0.953616 -0.224618 1.000000
52.610699 42.972500 -723.049683 0.170764 0.982790 -0.070455 1.000000
52.251900 43.030899 -722.973877 0.366817 0.919134 -0.143658 1.000000
51.902302 43.135799 -722.914917 -0.005224 0.997818 -0.065825 1.000000
51.551300 43.233200 -722.853088 0.178191 0.970434 -0.162807 1.000000
51.187500 43.269299 -722.769226 0.018020 0.997461 -0.068900 1.000000
50.820999 43.294498 -722.681274 0.009589 0.996223 -0.086304 1.000000
50.433701 43.224499 -722.558716 -0.315934 0.945180 -0.082589 1.000000
50.067402 43.255501 -722.472473 0.177271 0.941322 -0.287206 1.000000
49.714500 43.349499 -722.409302 0.100229 0.976304 -0.191796 1.000000
49.363499 43.451801 -722.349121 0.322054 0.920358 -0.221859 1.000000
49.003101 43.512600 -722.273621 0.059577 0.976332 -0.207911 1.000000
48.636002 43.545399 -722.187927 -0.019174 0.989172 -0.145500 1.000000
48.260700 43.544399 -722.089478 -0.014346 0.992091 -0.124701 1.000000
47.888401 43.558899 -721.996826 -0.062808 0.971673 -0.227832 1.000000
47.513401 43.564201 -721.900574 -0.039465 0.977058 -0.209284 1.000000
47.131599 43.543800 -721.794617 -0.131848 0.979615 -0.151563 1.000000
46.742500 43.496201 -721.678528 -0.161239 0.985088 -0.060023 1.000000
46.356899 43.467201 -721.568909 -0.178137 0.927154 -0.329624 1.000000
46.030701 43.375099 -721.455505 -0.307662 0.896232 -0.319552 1.000000
45.706699 43.295200 -721.346375 -0.379606 0.914696 -0.138675 1.000000
45.374199 43.185299 -721.225891 -0.426174 0.904126 -0.030536 1.000000
54.481400 42.373199 -723.232971 0.773746 0.630194 -0.064598 1.000000
54.300201 42.594799 -723.035522 0.058530 0.990417 -0.125093 1.000000
53.942902 42.663200 -722.962891 0.118415 0.992692 -0.023240 1.000000
53.589401 42.752399 -722.897583 0.183571 0.981807 0.048557 1.000000
53.235901 42.841999 -722.832581 0.205268 0.934180 -0.291844 1.000000
52.883701 42.937599 -722.769592 0.027071 0.999633 0.001003 1.000000
52.529999 43.026199 -722.704102 0.212604 0.956051 -0.201907 1.000000
52.177200 43.119202 -722.640198 0.097500 0.983425 -0.152870 1.000000
51.823601 43.208099 -722.574829 0.206122 0.962341 -0.177239 1.000000
51.466000 43.277802 -722.502625 -0.012960 0.999876 0.008972 1.000000
51.100899 43.312901 -722.417725 0.118460 0.976359 -0.180807 1.000000
50.737598 43.357700 -722.336426 -0.127290 0.986198 -0.105877 1.000000
50.351200 43.297001 -722.216614 -0.003444 0.981448 -0.191698 1.000000
49.996101 43.384102 -722.150330 0.185553 0.949433 -0.253272 1.000000
49.643700 43.483299 -722.088379 0.027523 0.994135 -0.104588 1.000000
49.286900 43.562901 -722.019287 0.164582 0.945325 -0.281557 1.000000
48.920101 43.599098 -721.934387 0.005627 0.986950 -0.160928 1.000000
48.542000 43.587898 -721.831970 -0.016972 0.987767 -0.155010 1.000000
48.169998 43.605999 -721.740173 -0.067883 0.990630 -0.118507 1.000000
47.794601 43.611698 -721.643616 -0.030906 0.987860 -0.152243 1.000000
47.426399 43.650101 -721.559021 0.109372 0.984344 -0.138217 1.000000
47.050499 43.657902 -721.463013 -0.377639 0.921764 -0.087980 1.000000
46.714802 43.523800 -721.333984 -0.088992 0.990464 -0.105172 1.000000
46.332001 43.510201 -721.229675 -0.230242 0.956900 -0.177007 1.000000
46.003899 43.414101 -721.114380 -0.337271 0.937161 -0.089317 1.000000
45.670601 43.301300 -720.992615 -0.355507 0.915181 -0.189889 1.000000
54.655800 42.391998 -722.798584 0.498873 0.465725 -0.730907 1.000000
54.434700 42.605499 -722.594788 0.341711 0.886643 0.311605 1.000000
54.083500 42.711300 -722.534729 0.160096 0.974443 -0.157575 1.000000
53.728600 42.796600 -722.467285 0.218352 0.973333 -0.070317 1.000000
53.374100 42.883999 -722.400818 0.245522 0.968651 -0.037867 1.000000
53.024399 42.996498 -722.343079 0.221266 0.975207 -0.003512 1.000000
52.674400 43.107201 -722.284912 0.283807 0.941910 -0.179607 1.000000
52.324001 43.215000 -722.225586 0.178031 0.954408 -0.239606 1.000000
51.961399 43.262402 -722.144714 0.053099 0.998467 0.015617 1.000000
51.604698 43.339600 -722.074402 0.110311 0.959055 0.260853 1.000000
51.245701 43.406300 -722.000183 0.144532 0.979604 -0.139591 1.000000
50.872002 43.404499 -721.901428 0.018269 0.996222 -0.084899 1.000000
50.493301 43.382000 -721.794800 0.106996 0.984600 -0.138253 1.000000
50.144001 43.498001 -721.738281 0.302628 0.861798 -0.407088 1.000000
49.782299 43.557201 -721.661316 0.062803 0.952299 -0.298635 1.000000
49.427502 43.648399 -721.595825 0.052589 0.947882 -0.314251 1.000000
49.064899 43.705101 -721.517578 0.044148 0.998982 -0.009240 1.000000
48.693001 43.722599 -721.425110 -0.110248 0.969424 0.219229 1.000000
48.299198 43.648399 -721.298828 0.015741 0.997957 -0.061913 1.000000
47.931599 43.689999 -721.214783 -0.039794 0.990313 -0.133027 1.000000
47.546001 43.657200 -721.103271 0.003425 0.982957 -0.183805 1.000000
47.158001 43.618000 -720.989197 -0.300735 0.951251 -0.068407 1.000000
46.766201 43.567001 -720.870483 -0.143284 0.989449 -0.021436 1.000000
46.389198 43.579300 -720.775024 -0.112316 0.978751 -0.171559 1.000000
46.001202 43.549999 -720.664001 -0.684247 0.729024 -0.018191 1.000000
54.800598 42.484699 -722.427795 0.308134 0.833681 -0.458290 1.000000
45.898602 43.344101 -720.340881 -0.337877 0.869918 0.359281 1.000000
54.520401 42.688400 -722.219299 0.193129 0.963018 -0.187874 1.000000
54.170700 42.804501 -722.162415 0.232421 0.939427 -0.251906 1.000000
53.817600 42.901501 -722.098816 0.125879 0.970155 -0.207255 1.000000
53.461102 42.980000 -722.028625 0.213630 0.959346 -0.184439 1.000000
53.119400 43.136398 -721.986206 0.204565 0.903857 -0.375761 1.000000
52.767101 43.235901 -721.923523 0.118525 0.959919 -0.253981 1.000000
52.411598 43.319500 -721.855225 0.050955 0.965657 -0.254774 1.000000
52.042198 43.333900 -721.762024 0.040997 0.962797 -0.267098 1.000000
51.685299 43.412399 -721.691711 0.094895 0.955449 -0.279485 1.000000
51.324402 43.471802 -721.614502 0.012956 0.976409 -0.215540 1.000000
50.941601 43.427898 -721.499878 -0.149634 0.970703 -0.188002 1.000000
50.580399 43.489601 -721.423279 0.328570 0.879719 -0.343711 1.000000
50.229401 43.599300 -721.364197 0.153480 0.913839 -0.375955 1.000000
49.874500 43.690800 -721.298401 0.074887 0.942004 -0.327139 1.000000
49.513401 43.754501 -721.222473 0.086908 0.968582 -0.233014 1.000000
49.135700 43.745602 -721.119995 -0.193544 0.934302 -0.299367 1.000000
48.757401 43.737099 -721.017395 -0.027440 0.921215 -0.388086 1.000000
48.382702 43.746601 -720.921326 -0.106604 0.871313 -0.479009 1.000000
47.995701 43.706200 -720.806702 0.007763 0.990315 -0.138622 1.000000
47.612099 43.683701 -720.698486 -0.003381 0.986174 -0.165677 1.000000
47.221001 43.633400 -720.579773 -0.226077 0.970508 -0.083686 1.000000
46.827801 43.578499 -720.459106 -0.120480 0.982096 -0.144820 1.000000
46.448898 43.584900 -720.361023 -0.199331 0.977089 -0.074596 1.000000
46.214199 43.482300 -720.120300 -0.367875 0.921754 0.122625 1.000000
54.870300 42.554401 -722.005310 0.445320 0.886372 0.126625 1.000000
54.587898 42.773899 -721.818420 0.089109 0.720179 -0.688042 1.000000
54.241402 42.909401 -721.768127 0.239377 0.921674 -0.305313 1.000000
53.886200 42.995602 -721.700378 0.097591 0.911310 -0.399987 1.000000
53.536900 43.113400 -721.643982 0.269516 0.877810 -0.395993 1.000000
53.189800 43.242199 -721.591370 0.241260 0.938544 -0.246838 1.000000
52.838600 43.348801 -721.531128 0.227501 0.920019 -0.319074 1.000000
52.482800 43.431099 -721.461975 0.087390 0.966356 -0.241906 1.000000
52.119301 43.475700 -721.379517 0.096702 0.944502 -0.313951 1.000000
51.755600 43.520100 -721.296814 -0.041972 0.977343 -0.207460 1.000000
51.392200 43.568100 -721.215271 0.069923 0.975247 -0.209770 1.000000
51.007702 43.515598 -721.097595 -0.003444 0.981448 -0.191698 1.000000
50.649502 43.592098 -721.026184 0.367101 0.921216 -0.128832 1.000000
50.299702 43.708099 -720.968994 0.205750 0.973883 0.096017 1.000000
49.938400 43.770802 -720.892578 0.089251 0.994984 -0.045176 1.000000
49.569901 43.801899 -720.804626 0.134147 0.986514 -0.093784 1.000000
49.203098 43.842300 -720.719788 0.054668 0.987517 -0.147720 1.000000
48.825500 43.836800 -720.618286 -0.004984 0.999844 -0.016947 1.000000
48.444302 43.818100 -720.511719 -0.217277 0.974713 0.052195 1.000000
48.055302 43.769199 -720.393921 -0.193849 0.976651 -0.092603 1.000000
47.670799 43.743500 -720.284424 -0.058551 0.995370 -0.076227 1.000000
47.280300 43.695499 -720.166382 -0.182356 0.982370 -0.041177 1.000000
46.892200 43.661400 -720.053284 -0.170118 0.985312 -0.014842 1.000000
46.571899 43.596199 -719.948730 -0.073428 0.997136 -0.018091 1.000000
55.005600 42.594002 -721.600525 0.761078 0.547782 0.347413 1.000000
46.412998 43.578701 -719.619080 0.143906 0.553369 0.820411 1.000000
54.886002 42.809898 -721.340576 0.464113 0.801358 -0.377393 1.000000
54.543598 42.969799 -721.298218 0.203567 0.940285 -0.272807 1.000000
54.188202 43.056198 -721.229919 0.031720 0.980981 -0.191497 1.000000
53.837502 43.167400 -721.170288 0.245195 0.921992 -0.299683 1.000000
53.494400 43.318802 -721.125122 0.006525 0.904355 -0.426730 1.000000
53.147800 43.449902 -721.072693 -0.021960 0.983577 -0.179147 1.000000
52.790699 43.526100 -721.000793 0.124962 0.956285 -0.264392 1.000000
52.428101 43.574799 -720.919006 0.192781 0.953122 -0.233225 1.000000
52.065800 43.626301 -720.838074 -0.186924 0.926188 -0.327469 1.000000
51.703602 43.679501 -720.757874 -0.053244 0.967068 -0.248887 1.000000
51.320702 43.633400 -720.641724 -0.039971 0.972623 -0.228924 1.000000
50.960400 43.699699 -720.565918 -0.047011 0.989531 -0.136448 1.000000
50.607300 43.800098 -720.502380 -0.021017 0.958124 -0.285583 1.000000
50.241901 43.844101 -720.418518 -0.033348 0.962146 -0.270488 1.000000
49.873901 43.877499 -720.330627 0.005880 0.974966 -0.222278 1.000000
49.513000 43.944599 -720.254822 0.146800 0.899329 -0.411895 1.000000
49.139702 43.957199 -720.159180 -0.097249 0.991940 0.081231 1.000000
48.749199 43.896500 -720.036499 -0.064023 0.988288 -0.138523 1.000000
48.373402 43.903999 -719.938599 0.132368 0.991095 0.014460 1.000000
48.054199 43.832199 -719.831604 -0.241778 0.960579 -0.137226 1.000000
47.662998 43.779701 -719.711182 -0.107725 0.990378 -0.086875 1.000000
47.262798 43.693699 -719.578308 -0.251996 0.963213 -0.093379 1.000000
46.876202 43.668800 -719.467712 0.061915 0.997988 0.013642 1.000000
55.154900 42.701401 -721.089417 0.816965 0.159809 -0.554102 1.000000
46.775002 43.628700 -719.131470 -0.825143 0.507424 -0.248314 1.000000
54.949299 42.937801 -720.870117 0.416967 0.890594 -0.181606 1.000000
54.599899 43.058800 -720.813416 0.129807 0.914231 -0.383838 1.000000
54.248798 43.169601 -720.753174 0.190493 0.912361 -0.362366 1.000000
53.905102 43.319698 -720.706970 0.198114 0.928749 -0.313330 1.000000
53.557701 43.448002 -720.653076 0.030116 0.972132 -0.232492 1.000000
53.207600 43.561298 -720.593872 0.158662 0.901941 -0.401657 1.000000
52.855202 43.661900 -720.530273 0.213402 0.928512 -0.303851 1.000000
52.494499 43.720299 -720.451477 0.123976 0.975530 -0.181581 1.000000
52.129101 43.755798 -720.364380 -0.037058 0.976656 -0.211589 1.000000
51.758202 43.766499 -720.268188 -0.108618 0.975066 -0.193515 1.000000
51.373402 43.712200 -720.148621 0.171578 0.972277 -0.158869 1.000000
51.026501 43.843102 -720.095581 -0.003281 0.992052 -0.125784 1.000000
50.670502 43.930401 -720.026917 0.103878 0.932203 -0.346709 1.000000
50.309101 43.993099 -719.949219 -0.118794 0.929867 -0.348188 1.000000
49.939301 44.017601 -719.857483 0.018966 0.942001 -0.335074 1.000000
49.575600 44.072300 -719.776794 0.190448 0.924026 -0.331521 1.000000
49.204399 44.094601 -719.684082 -0.314917 0.933654 -0.170638 1.000000
48.816601 44.045799 -719.565308 0.046261 0.980964 -0.188601 1.000000
48.422699 43.974800 -719.437988 -0.165129 0.982339 -0.087989 1.000000
48.036900 43.942501 -719.324829 -0.089548 0.977665 -0.190136 1.000000
47.716099 43.867802 -719.215881 -0.301770 0.940812 -0.154299 1.000000
47.388699 43.768501 -719.097778 -0.222247 0.968996 -0.107948 1.000000
47.101700 43.702202 -718.913513 -0.282430 0.955618 0.083826 1.000000
55.275101 42.611900 -720.770813 0.856809 0.460894 -0.231203 1.000000
55.145302 42.892799 -720.522217 0.446799 0.624180 -0.640914 1.000000
54.804901 43.066299 -720.482788 0.341642 0.939829 0.001251 1.000000
54.457802 43.199902 -720.429626 0.310622 0.942624 -0.122366 1.000000
54.118500 43.375000 -720.390930 0.221850 0.928378 -0.298155 1.000000
53.767200 43.482399 -720.328613 0.418568 0.902494 -0.101513 1.000000
53.421501 43.618999 -720.276489 -0.031912 0.979808 -0.197380 1.000000
53.063000 43.686901 -720.200195 0.176626 0.964248 -0.197560 1.000000
52.704800 43.757301 -720.124695 0.066843 0.996072 -0.058077 1.000000
52.340900 43.799198 -720.039001 0.204033 0.952603 -0.225652 1.000000
51.971401 43.814701 -719.943787 -0.196032 0.972571 -0.125207 1.000000
51.593201 43.789299 -719.833801 -0.058414 0.990741 -0.122554 1.000000
51.240101 43.889900 -719.768921 0.066223 0.946601 -0.315534 1.000000
50.883999 43.976200 -719.698792 0.253575 0.957803 -0.135327 1.000000
50.522800 44.037998 -719.619873 0.065164 0.991172 -0.115465 1.000000
50.162998 44.108200 -719.543884 0.064849 0.975186 -0.211678 1.000000
49.795799 44.144699 -719.455688 -0.030024 0.973992 -0.224583 1.000000
49.422501 44.154999 -719.357788 0.084218 0.985708 -0.145899 1.000000
49.051201 44.176899 -719.264099 -0.178473 0.829374 -0.529420 1.000000
