ply
format ascii 1.0
element vertex 690
property float x
property float y
property float z
property float nx
property float ny
property float nz
property float label
element face 0
property list uchar int vertex_indices
end_header
19.209600 75.807297 -754.614319 0.093913 0.377012 0.921435 0.000000
48.912601 84.501900 -769.221375 -0.401405 0.174086 0.899204 0.000000
50.319401 85.321098 -769.891907 0.499116 0.216941 0.838940 0.000000
19.513100 76.191597 -756.341980 0.369527 0.925832 -0.079280 0.000000
52.967899 84.905098 -775.226685 0.825025 0.029119 0.564345 0.000000
45.465801 84.370399 -768.146484 -0.398800 0.690039 -0.603991 0.000000
50.673599 85.743797 -771.559326 0.939642 0.297668 -0.168724 0.000000
47.270802 85.323402 -768.708374 0.704864 0.498237 -0.504903 0.000000
50.762402 85.487999 -773.408875 -0.602667 0.541893 0.585785 0.000000
54.064499 86.212601 -775.671570 0.064919 0.992007 0.108198 0.000000
52.246399 84.997803 -776.825378 -0.335524 0.932619 -0.132840 0.000000
17.897400 76.878502 -756.772095 0.049378 0.811213 -0.582662 0.000000
48.477798 86.100601 -770.263672 -0.566867 0.084671 -0.819446 0.000000
52.067902 86.300301 -774.453125 -0.262787 0.938526 -0.223856 0.000000
50.838299 85.623497 -775.607788 0.319062 0.947017 -0.036864 0.000000
49.756001 87.208298 -770.902100 0.206964 0.493994 0.844473 0.000000
47.209702 87.793198 -766.517883 0.646880 0.710769 -0.276322 0.000000
50.518902 87.265800 -772.525818 0.993794 0.050192 -0.099268 0.000000
49.973900 87.027496 -774.265198 0.545183 0.541807 -0.639704 0.000000
50.408298 86.210999 -777.291382 -0.390491 0.873667 -0.290210 0.000000
46.758999 87.238403 -770.283875 0.498010 0.714537 -0.491348 0.000000
52.378700 87.705902 -776.438721 -0.280931 0.930321 -0.235757 0.000000
48.087502 87.751801 -771.464600 -0.548532 0.785650 -0.286122 0.000000
46.153000 88.101303 -768.643005 -0.626037 0.719380 -0.300949 0.000000
49.030300 87.020401 -775.767212 0.432702 0.887111 0.160635 0.000000
51.644901 88.486603 -774.872681 -0.390491 0.873667 -0.290210 0.000000
49.472900 88.764900 -771.836182 -0.042047 0.457097 0.888422 0.000000
50.227699 88.798302 -773.554382 0.982531 0.175069 -0.063120 0.000000
43.216702 88.091698 -768.560913 -0.185421 0.956450 -0.225439 0.000000
46.958199 89.277496 -770.015076 -0.647124 0.185990 -0.739350 0.000000
46.882301 88.623001 -772.563171 -0.277755 0.015907 0.960520 0.000000
49.979301 89.097504 -775.309692 -0.451885 0.859942 -0.237277 0.000000
45.694199 88.941902 -771.194275 0.897438 0.295190 0.327824 0.000000
49.509399 90.313400 -772.694214 0.227832 0.575005 0.785788 0.000000
52.871799 91.613701 -774.314880 0.804794 0.438540 -0.399987 0.000000
50.340500 90.601196 -774.244629 0.976571 0.214254 -0.020123 0.000000
49.281502 89.219200 -777.057617 0.068826 0.967324 -0.244021 0.000000
50.184700 91.074600 -775.931396 -0.874848 0.036735 0.483003 0.000000
48.409302 91.681999 -772.791016 -0.365917 0.667839 0.648148 0.000000
50.034302 92.165298 -773.513184 -0.837807 0.028985 -0.545196 0.000000
48.559700 89.889099 -778.580322 -0.637810 0.509911 -0.577226 0.000000
48.385899 89.090599 -780.828796 -0.616662 0.682792 -0.391820 0.000000
44.368099 90.409103 -772.303528 0.694528 0.330185 0.639226 0.000000
46.138901 91.001503 -772.883423 -0.366570 0.783201 -0.502218 0.000000
43.973099 91.430298 -770.645325 0.717645 0.668258 0.196002 0.000000
50.368900 92.805801 -775.117126 0.154342 0.966256 -0.206221 0.000000
47.361801 93.067497 -772.034485 0.291524 0.865413 0.407522 0.000000
47.591499 90.624298 -780.045105 0.989344 0.144864 0.014599 0.000000
48.538300 93.559998 -773.411194 0.354818 0.921406 -0.158476 0.000000
50.344200 93.196899 -777.042419 0.543216 0.796821 -0.264563 0.000000
50.116402 94.284302 -773.980225 0.405757 0.035685 0.913284 0.000000
51.331600 94.342003 -776.110718 -0.339124 0.828093 -0.446382 0.000000
47.220100 94.973198 -772.284180 -0.597877 0.742137 -0.302946 0.000000
50.740700 95.656197 -774.903320 0.938269 0.339877 -0.064301 0.000000
46.802898 92.432297 -779.709595 -0.070670 0.954686 -0.289104 0.000000
47.138802 92.012199 -781.485229 -0.682199 0.666071 -0.301587 0.000000
50.973301 94.061401 -780.232788 0.637471 0.726052 0.257836 0.000000
48.586601 95.515297 -773.351990 -0.347562 0.897745 -0.270655 0.000000
50.738800 95.712601 -777.092224 0.992886 0.117912 0.016530 0.000000
46.405602 92.133499 -783.125916 0.768795 0.391712 0.505487 0.000000
49.596802 96.929298 -773.668518 -0.264764 0.869940 0.416058 0.000000
51.076801 97.522102 -774.555420 -0.816794 0.118780 -0.564570 0.000000
50.766899 97.389099 -776.379822 0.946832 0.244564 -0.209041 0.000000
51.268700 97.054901 -778.118530 -0.294963 0.950437 0.098321 0.000000
49.894699 98.739601 -773.814819 -0.056478 0.264821 0.962642 0.000000
51.333199 99.246597 -774.787598 -0.905228 0.163939 -0.392028 0.000000
51.260700 98.362099 -779.311401 0.711344 0.606686 0.354854 0.000000
50.234798 98.661797 -777.530029 -0.849273 0.020448 -0.527558 0.000000
50.244499 100.577599 -773.825012 -0.337753 0.106305 -0.935212 0.000000
51.561199 101.121498 -774.902283 -0.795095 0.525302 -0.303120 0.000000
51.719601 99.423500 -780.625122 -0.532697 0.730602 -0.427147 0.000000
50.741901 99.967903 -778.582397 0.838144 0.270120 0.473868 0.000000
50.502998 102.354698 -773.827271 -0.375759 0.165901 -0.911747 0.000000
52.120098 100.508202 -782.093018 -0.814902 0.100229 -0.570867 0.000000
51.514999 102.389099 -776.111328 0.439545 0.843368 -0.309080 0.000000
49.199902 100.783600 -778.195313 0.450625 0.885711 -0.111597 0.000000
50.830002 101.133797 -779.965027 -0.994302 0.098435 0.040922 0.000000
51.610600 103.536797 -774.562500 -0.836166 0.043130 -0.546778 0.000000
50.902302 102.220596 -777.923828 -0.849849 0.507569 -0.141885 0.000000
52.097599 102.343002 -779.895813 0.504186 0.710520 0.490874 0.000000
54.047699 102.571404 -781.823120 -0.371689 0.888171 -0.270183 0.000000
52.440300 101.684998 -783.427612 0.516292 0.556653 0.650830 0.000000
53.099899 101.307297 -785.582275 -0.539354 0.660331 -0.522552 0.000000
51.974602 102.307297 -781.718079 -0.268878 0.933330 -0.237908 0.000000
51.961498 104.249001 -776.226196 -0.518557 0.818855 -0.246121 0.000000
49.107101 102.525703 -778.898071 -0.455109 0.014595 -0.890316 0.000000
53.086498 103.755699 -780.270203 -0.838625 0.337018 -0.427934 0.000000
51.021801 105.060600 -773.921387 -0.307882 0.110624 -0.944971 0.000000
55.739700 104.041298 -783.749207 -0.845931 0.454553 -0.278895 0.000000
51.643799 104.336502 -778.522278 -0.368133 0.889778 -0.269765 0.000000
52.628101 102.878998 -784.693970 -0.828490 0.331711 -0.451189 0.000000
52.832901 103.797302 -782.342590 -0.405680 0.903239 -0.139938 0.000000
54.211800 104.633400 -781.448975 0.859237 0.491618 0.141504 0.000000
52.087399 105.801804 -775.171387 -0.994748 0.093844 -0.040850 0.000000
50.331799 103.703300 -779.738586 0.182021 0.221879 -0.957934 0.000000
51.545601 104.810501 -780.352722 0.310887 0.543654 0.779609 0.000000
53.055199 103.662697 -786.224792 0.234528 0.787454 0.570011 0.000000
51.082298 106.820801 -773.763916 0.197062 0.176182 0.964431 0.000000
48.599201 104.070396 -779.555786 -0.040557 0.815326 0.577581 0.000000
53.725498 103.348900 -788.935974 0.061247 0.994433 -0.085746 0.000000
52.830101 105.732903 -781.176697 0.321353 0.492319 0.808922 0.000000
54.265099 105.829201 -782.808105 0.497051 0.850179 0.173597 0.000000
52.104900 104.654999 -784.424011 -0.151842 0.783266 -0.602859 0.000000
52.295101 107.829102 -774.613220 -0.840893 0.339802 -0.421229 0.000000
49.740398 105.365898 -780.034485 -0.268623 0.646920 -0.713678 0.000000
53.094799 104.720802 -787.637207 -0.859981 0.454928 -0.231243 0.000000
51.009899 106.522697 -780.517273 0.569803 0.075688 0.818288 0.000000
52.896999 105.813599 -785.480225 -0.990798 0.131881 -0.030434 0.000000
50.636002 108.733398 -773.411987 -0.246330 0.960558 0.129030 0.000000
53.048100 107.053200 -782.384888 0.305449 0.378392 0.873797 0.000000
52.422901 108.955902 -775.949219 -0.703652 0.149810 -0.694573 0.000000
54.335602 107.497902 -783.506897 0.933244 0.158997 0.322142 0.000000
53.500099 105.487900 -789.178223 0.843789 0.213598 0.492337 0.000000
52.097900 109.601501 -774.046021 -0.793684 0.064353 -0.604916 0.000000
48.033901 106.352898 -780.005981 -0.802957 0.157590 -0.574827 0.000000
55.852200 109.391296 -780.385925 0.524257 0.801342 0.288105 0.000000
52.273201 106.201500 -787.072815 -0.840438 0.473421 -0.263697 0.000000
53.865898 108.631302 -781.711121 -0.374396 0.861266 -0.343582 0.000000
49.397598 107.216301 -780.868774 -0.095169 0.663255 0.742318 0.000000
51.375599 110.966003 -773.219299 0.801647 0.435363 0.409659 0.000000
52.614498 110.915703 -775.089111 0.979093 0.008130 -0.203252 0.000000
54.084801 109.390503 -783.654907 -0.359693 0.895532 -0.261999 0.000000
49.917999 108.772903 -781.551514 -0.423420 0.532158 -0.733159 0.000000
54.156898 107.494301 -794.461487 0.065862 0.853397 0.517083 0.000000
48.716000 109.873802 -780.724670 -0.123402 0.762715 0.634852 0.000000
50.321701 110.633698 -781.120728 -0.409893 0.194006 -0.891263 0.000000
54.472500 108.780296 -795.647400 0.657145 0.736064 0.162389 0.000000
49.624901 112.314102 -780.343018 -0.274399 0.373363 -0.886174 0.000000
51.226101 113.170097 -780.158813 -0.596822 0.205109 -0.775715 0.000000
47.470699 111.372597 -781.838684 -0.932145 0.037702 -0.360117 0.000000
49.266998 114.383202 -779.987183 0.267554 0.748835 -0.606351 0.000000
47.341599 114.450302 -781.243225 0.427054 0.820768 0.379427 0.000000
53.756199 119.268204 -773.681213 -0.975941 0.102926 -0.192212 0.000000
54.480000 119.423798 -776.460388 0.223880 0.563560 0.795159 0.000000
55.555199 119.457802 -777.873413 0.387870 0.913372 0.123729 0.000000
53.196701 120.610802 -772.455627 -0.507110 0.719930 -0.473857 0.000000
54.063000 120.471603 -777.941589 0.794496 0.183813 0.578782 0.000000
51.491199 120.422302 -776.474182 -0.346055 0.906753 -0.240925 0.000000
53.306499 123.081398 -771.453979 -0.343238 0.907024 -0.243918 0.000000
54.613602 121.462303 -779.312073 -0.691598 0.287230 -0.662715 0.000000
55.723202 121.507896 -780.709106 -0.345811 0.906112 -0.243673 0.000000
52.586399 118.916199 -772.230713 -0.350899 0.902942 -0.248125 0.000000
52.105701 117.109398 -772.530212 -0.223688 0.932739 -0.282776 0.000000
53.447498 117.310799 -773.707825 -0.354408 0.901460 -0.248526 0.000000
52.960999 116.625702 -775.494080 -0.412386 0.887877 -0.203992 0.000000
56.800999 110.689499 -802.414917 -0.398846 0.890412 -0.219292 0.000000
51.450802 114.425598 -777.695679 0.173628 0.978967 0.107132 0.000000
51.930500 115.262802 -772.589111 -0.341552 0.508319 -0.790540 0.000000
53.138901 115.361504 -773.961914 -0.356975 0.900518 -0.248267 0.000000
52.771099 114.395203 -775.475830 -0.357922 0.899960 -0.248925 0.000000
50.310699 112.893303 -777.351379 0.267635 0.930350 -0.250642 0.000000
56.265701 108.193604 -802.815125 -0.972759 0.173752 -0.153460 0.000000
53.266201 113.725098 -777.026672 -0.361442 0.898442 -0.249321 0.000000
52.956501 110.003601 -789.975586 0.724464 0.283069 0.628509 0.000000
38.660301 100.952599 -800.116089 0.648454 0.049881 -0.759618 0.000000
51.504002 113.169502 -773.007813 0.981973 0.161437 -0.098319 0.000000
48.816101 110.413399 -779.005188 0.547400 0.806451 0.223586 0.000000
54.671398 109.630402 -790.281494 -0.361442 0.898442 -0.249321 0.000000
52.866798 113.013496 -774.134521 -0.364698 0.896241 -0.252483 0.000000
54.729000 110.951797 -784.211182 -0.301435 0.934864 -0.187528 0.000000
53.789200 108.546402 -791.462585 -0.215721 0.963555 -0.158196 0.000000
52.692799 108.440598 -789.100281 -0.364003 0.897482 -0.249055 0.000000
55.174301 109.333504 -787.311401 -0.364968 0.896906 -0.249715 0.000000
54.271099 107.309799 -792.687927 0.896956 0.351370 0.268346 0.000000
53.883701 107.412804 -789.994080 -0.969615 0.243312 -0.025421 0.000000
53.825500 105.770798 -790.998413 -0.316568 0.915012 -0.250074 0.000000
55.359699 105.918503 -784.265930 -0.467309 0.829903 -0.304767 0.000000
53.444599 102.542900 -777.261108 0.290524 0.956360 0.031172 0.000000
48.889702 100.743401 -772.329529 -0.464170 0.798244 -0.383864 0.000000
51.325802 97.696503 -781.205017 -0.335384 0.730716 -0.594618 0.000000
45.681000 94.151604 -782.688171 -0.386671 0.885312 -0.258278 0.000000
45.864899 97.053802 -770.740112 0.835112 0.214482 0.506543 0.000000
54.758202 97.035004 -775.970276 -0.985996 0.147959 0.076938 0.000000
51.048500 91.838997 -777.896484 -0.391998 0.881621 -0.262834 0.000000
45.575199 91.765404 -768.723572 0.688446 0.287254 0.665979 0.000000
47.296799 90.091599 -771.591919 0.372084 0.926923 -0.048647 0.000000
51.245701 89.614799 -776.924316 -0.398114 0.878855 -0.262905 0.000000
51.297600 87.849503 -777.837402 -0.540346 0.787542 -0.296319 0.000000
46.216999 86.336601 -767.100586 0.612795 0.562151 0.555399 0.000000
49.710701 84.649101 -774.544983 -0.443343 0.867150 -0.226932 0.000000
45.655998 84.589500 -764.884277 -0.405601 0.876039 -0.260851 0.000000
46.189499 81.672501 -763.630310 -0.339310 0.885222 -0.318198 0.000000
55.533298 79.960403 -771.704407 0.332896 0.904833 0.265437 0.000000
50.412399 78.167000 -761.989380 -0.748530 0.292070 -0.595313 0.000000
51.274799 77.451599 -760.558777 0.808647 0.523978 -0.267464 0.000000
48.096199 74.510696 -759.520325 -0.184863 0.909982 -0.371158 0.000000
45.374599 72.340302 -758.579529 -0.833585 0.194453 -0.517034 0.000000
36.732201 67.402496 -757.865173 0.549027 0.786358 0.283215 0.000000
46.566700 70.929604 -757.542419 -0.947427 0.269725 0.172136 0.000000
45.986301 69.283798 -758.955200 -0.411591 0.886617 -0.210959 0.000000
44.124599 64.221802 -754.345215 0.512143 0.785072 0.348386 0.000000
50.076599 52.780602 -761.293091 -0.460759 0.853089 -0.244826 0.000000
46.098801 47.538300 -758.918884 -0.175544 0.973700 0.145234 0.000000
43.954601 46.153999 -738.522827 -0.316183 0.916785 -0.243995 0.000000
48.055401 32.111801 -754.173401 -0.491636 0.833778 -0.251212 0.000000
48.382000 30.004299 -755.007385 -0.405524 0.883834 -0.233213 0.000000
47.427898 29.612801 -752.716980 0.818204 0.354290 0.452792 0.000000
44.636902 29.078600 -746.089111 -0.448306 0.861894 -0.236983 0.000000
45.673698 14.406900 -736.638794 0.922170 0.372966 -0.102463 0.000000
44.911999 11.409300 -738.465271 0.564885 0.752641 0.338284 0.000000
43.975101 10.980800 -736.746277 0.906249 0.121860 0.404800 0.000000
48.952900 10.586600 -748.790283 -0.519539 0.832768 -0.191251 0.000000
46.825199 1.645100 -746.648376 0.684990 0.451660 0.571658 0.000000
48.296299 -0.128400 -736.833923 -0.546932 0.810440 -0.209887 0.000000
52.481701 1.265200 -742.210815 0.241268 0.704880 0.667034 0.000000
49.563900 -2.029300 -744.119873 -0.703628 0.605218 -0.372316 0.000000
45.941002 -3.952400 -737.344604 -0.596691 0.777692 -0.197874 0.000000
47.427200 -3.032700 -737.872925 -0.507452 0.308265 0.804652 0.000000
48.601101 -2.553300 -739.147217 0.347593 0.426234 0.835167 0.000000
49.311501 -2.527700 -740.836182 -0.857822 0.508496 0.074654 0.000000
47.985199 -4.111900 -743.013794 -0.794526 0.582652 0.171012 0.000000
49.133099 -4.171800 -741.479187 -0.575005 0.785788 -0.227832 0.000000
47.327301 -4.974800 -737.662415 -0.332120 0.037187 -0.942504 0.000000
48.558300 -4.425900 -738.909180 0.571775 0.249075 0.781687 0.000000
49.042599 -5.529800 -740.188904 0.953464 0.181548 0.240719 0.000000
47.067299 76.395401 -763.601318 -0.990568 0.132453 0.035094 0.000000
45.573399 73.261902 -763.566223 -0.803009 0.545176 0.240747 0.000000
47.435799 78.816399 -765.714417 0.802915 0.456748 0.383027 0.000000
37.993999 63.319901 -757.119080 0.852377 0.258621 -0.454499 0.000000
44.536400 70.236000 -760.017395 0.520178 0.687438 0.506797 0.000000
44.141899 65.859596 -759.579590 -0.878524 0.428151 0.211853 0.000000
48.137100 76.294701 -765.029907 0.996392 0.070782 -0.046825 0.000000
48.820801 -7.097000 -738.684570 -0.293800 0.720853 0.627736 0.000000
48.069199 -6.377800 -736.596985 0.879767 0.291244 -0.375749 0.000000
80.298897 89.325798 -784.596619 -0.190655 0.403140 0.895058 0.000000
78.194298 88.409203 -781.204224 -0.092366 0.681749 0.725732 0.000000
76.968399 87.145103 -781.078186 -0.099665 0.447792 0.888566 0.000000
74.978798 86.652802 -779.906799 -0.788570 0.194463 0.583388 0.000000
46.363800 5.227300 -736.862793 -0.859824 0.442847 0.254143 0.000000
72.196404 85.704597 -780.578430 -0.727870 0.143163 0.670604 0.000000
72.457802 86.553497 -778.016418 -0.863205 0.438429 0.250314 0.000000
44.801899 10.889700 -740.508728 -0.172733 0.308156 0.935523 0.000000
43.626701 9.298700 -740.677429 -0.228427 0.035050 -0.972930 0.000000
48.256599 31.308901 -757.250671 -0.714955 0.694569 0.080087 0.000000
48.656399 36.091599 -760.804993 0.875882 0.473792 0.091384 0.000000
49.498501 43.446201 -767.361572 -0.765165 0.535454 0.357508 0.000000
65.623001 83.289902 -775.168823 -0.751138 0.468434 0.465147 0.000000
45.667702 27.293501 -745.098816 -0.644455 0.745009 0.172160 0.000000
48.307598 33.415600 -759.158325 0.918203 0.328032 0.222030 0.000000
43.252499 11.139000 -741.350220 -0.383961 0.923305 -0.008989 0.000000
43.350700 3.938400 -738.649109 -0.716682 0.657089 0.233667 0.000000
45.083900 1.710400 -736.989075 -0.173777 0.848093 0.500539 0.000000
49.198399 -3.873500 -744.279785 -0.943965 0.277315 0.178957 0.000000
81.312798 87.651802 -785.494324 -0.882342 0.404593 0.240367 0.000000
-50.781101 107.214500 -757.402100 -0.938604 0.154835 -0.308300 0.000000
-32.482601 99.297401 -758.786987 0.248401 0.910803 -0.329749 0.000000
45.371399 -0.153000 -742.647888 -0.843341 0.504806 0.184247 0.000000
44.962898 0.824000 -741.103210 -0.983173 0.029088 -0.180345 0.000000
44.582600 -0.289600 -744.523926 0.338297 0.832367 -0.438999 0.000000
45.215900 -0.272700 -746.498230 0.336991 0.835424 -0.434170 0.000000
45.023701 1.523900 -743.197021 0.581141 0.770130 -0.263010 0.000000
44.929901 2.643900 -741.119019 -0.998660 0.036600 0.036600 0.000000
49.291199 2.453700 -738.098999 -0.207706 0.001160 -0.978191 0.000000
50.361900 3.740800 -736.590515 -0.641648 0.550706 0.533864 0.000000
46.241199 1.848000 -744.506226 0.684551 0.615271 -0.390936 0.000000
45.099201 3.364100 -742.928406 0.930973 0.361097 -0.053836 0.000000
45.301998 4.637700 -740.677429 0.465791 0.884600 0.022820 0.000000
50.443501 3.470400 -739.345825 -0.317869 0.945823 0.066169 0.000000
48.607498 4.901400 -738.364807 0.333355 0.840431 -0.427258 0.000000
44.351700 3.477300 -744.834717 0.434960 0.648273 -0.624942 0.000000
44.966900 5.055100 -742.370117 0.909774 0.293523 0.293523 0.000000
44.659302 3.932400 -747.101074 0.332480 0.841347 -0.426137 0.000000
45.705299 4.951400 -744.278381 0.524775 0.448624 -0.723428 0.000000
44.926102 6.792300 -742.584106 -0.932410 0.324617 -0.158855 0.000000
45.972500 5.081600 -746.486328 0.329269 0.844238 -0.422899 0.000000
44.067501 6.662800 -744.819885 0.329269 0.844238 -0.422899 0.000000
49.052700 7.511100 -739.236572 -0.028407 0.482918 0.875205 0.000000
49.894501 8.464500 -737.688171 0.329269 0.844238 -0.422899 0.000000
45.403400 8.686500 -741.448608 0.056320 0.989624 -0.132180 0.000000
45.829700 7.206500 -744.967773 0.515646 0.342158 -0.785517 0.000000
44.860199 7.381700 -746.426575 0.328833 0.846239 -0.419223 0.000000
44.824902 8.530600 -744.135620 -0.667846 0.399382 -0.628073 0.000000
44.972599 9.944400 -743.015686 -0.895431 0.416913 -0.156163 0.000000
49.592201 10.283500 -739.632507 0.305103 0.921038 -0.242077 0.000000
44.517300 9.420900 -746.082092 0.667673 0.683761 -0.294420 0.000000
45.177200 10.604700 -744.835083 0.915429 0.348121 0.201996 0.000000
46.670399 9.751700 -746.301514 0.272325 0.702312 -0.657721 0.000000
44.967999 11.791200 -743.481201 -0.979799 0.156521 -0.124478 0.000000
45.235600 11.187300 -746.730103 -0.842374 0.411028 0.348514 0.000000
45.298698 12.447200 -745.287170 -0.935843 0.006315 -0.352362 0.000000
49.408199 13.175900 -740.669922 0.317920 0.851406 -0.417174 0.000000
45.045601 13.519200 -743.920227 -0.959413 0.210991 0.187106 0.000000
45.468399 12.069000 -748.352295 -0.296835 0.950657 0.090227 0.000000
46.342999 13.029600 -746.797607 0.167791 0.359552 -0.917915 0.000000
45.434898 14.343200 -745.864014 0.529493 0.769141 -0.357853 0.000000
45.174801 15.254400 -744.191711 -0.991491 0.099722 -0.083675 0.000000
45.341000 16.099701 -745.911377 0.980516 0.194220 -0.029427 0.000000
45.193298 17.058201 -744.065613 -0.932193 0.301386 -0.200457 0.000000
44.123199 16.069500 -748.026917 0.018835 0.948012 -0.317678 0.000000
45.112000 17.907000 -745.918030 0.839487 0.099356 0.534219 0.000000
45.243198 19.078100 -744.497498 0.859635 0.312175 -0.404444 0.000000
45.857700 18.140600 -747.957397 -0.783401 0.590233 -0.194700 0.000000
45.412899 19.587700 -746.888672 0.730955 0.067761 -0.679053 0.000000
45.161800 20.770100 -745.524475 -0.949319 0.303418 -0.082040 0.000000
45.768101 22.240700 -744.720581 0.130117 0.929991 -0.343782 0.000000
45.439098 21.070200 -748.329102 0.599149 0.759551 -0.253184 0.000000
45.285198 22.236401 -746.921875 0.957256 0.275163 0.089137 0.000000
45.456299 23.743601 -745.960388 -0.931140 0.353376 0.090024 0.000000
45.343601 23.174299 -748.632629 0.285984 0.861010 -0.420565 0.000000
46.066898 25.206100 -745.200989 -0.491810 0.163937 0.855130 0.000000
45.369801 24.756901 -747.691284 -0.747891 0.438872 -0.498046 0.000000
46.199902 24.303801 -749.822876 -0.380053 0.871526 -0.309842 0.000000
45.443100 26.180799 -746.601379 -0.897736 0.187089 0.398833 0.000000
45.306198 25.751499 -749.164490 0.757442 0.274712 -0.592297 0.000000
46.595100 25.193600 -751.618713 0.542523 0.809942 -0.222849 0.000000
45.155701 27.306900 -748.186829 0.998384 0.024146 0.051441 0.000000
46.064899 27.068701 -750.235229 -0.780627 0.462534 -0.420338 0.000000
45.148399 29.086700 -748.051514 0.958658 0.168395 -0.229388 0.000000
45.598301 28.815701 -750.216125 0.801148 0.598464 0.001369 0.000000
46.707500 32.245800 -743.277710 0.347223 0.598267 -0.722159 0.000000
44.974098 30.328899 -749.431702 0.986157 0.145615 0.079319 0.000000
45.882599 30.336700 -751.139282 -0.498835 0.251734 -0.829333 0.000000
45.118301 31.845900 -748.494385 0.287149 0.870564 -0.399578 0.000000
45.063900 31.794201 -750.480225 0.962767 0.128629 0.237768 0.000000
49.717098 32.622700 -745.787781 0.265463 0.869201 -0.417156 0.000000
48.494099 34.110901 -745.599670 0.054961 0.952238 -0.300370 0.000000
44.832199 33.260300 -749.540100 0.999343 0.031774 -0.017424 0.000000
45.822498 32.017899 -752.049683 0.107055 0.781647 -0.614465 0.000000
44.418400 40.292900 -739.702209 0.392095 0.630329 -0.670035 0.000000
45.079399 33.713200 -751.314697 -0.917618 0.396984 -0.019524 0.000000
44.996101 35.013000 -749.232178 -0.835542 0.297185 0.462115 0.000000
44.676102 35.411800 -751.127991 0.975599 0.100667 0.195120 0.000000
44.678200 36.727299 -749.972717 0.738813 0.349109 -0.576436 0.000000
43.500999 35.731098 -753.424011 0.171746 0.837822 -0.518225 0.000000
44.643200 36.939201 -752.285828 0.398137 0.771899 -0.495640 0.000000
44.447201 38.453800 -751.206604 0.996906 0.061698 0.048709 0.000000
44.859299 38.243999 -753.465576 -0.217833 0.939319 -0.265007 0.000000
44.750599 40.061699 -750.506470 0.631400 0.219821 -0.743649 0.000000
44.483799 39.993099 -752.800171 0.789380 0.379355 0.482668 0.000000
44.205399 41.542702 -751.753723 0.970984 0.062923 -0.230717 0.000000
44.531898 41.609299 -754.260925 -0.613142 0.076462 0.786264 0.000000
45.476101 39.966999 -757.793701 0.173956 0.845989 -0.504025 0.000000
45.075600 41.172199 -755.908508 0.234192 0.265043 -0.935364 0.000000
44.162498 43.013199 -753.132080 0.956064 0.041459 0.290211 0.000000
44.364700 44.228199 -751.866882 0.719980 0.061795 -0.691238 0.000000
44.202999 43.496101 -754.834290 0.911266 0.376733 0.166331 0.000000
44.001801 44.834499 -753.632202 -0.703572 0.591528 -0.393803 0.000000
44.065899 46.326099 -752.644409 0.216809 0.844495 -0.489716 0.000000
44.132900 45.614799 -755.222229 -0.569967 0.370724 0.733281 0.000000
43.926601 47.324100 -754.472412 -0.777586 0.407462 -0.478889 0.000000
44.181801 48.594799 -756.007629 -0.869253 0.354140 -0.344942 0.000000
43.694801 49.582298 -754.483093 0.869596 0.459158 0.181596 0.000000
51.049198 51.143299 -751.091675 -0.821852 0.486849 0.295867 0.000000
44.090599 50.637501 -756.354614 -0.793346 0.292952 -0.533648 0.000000
43.593800 51.618599 -754.833679 -0.962216 0.013415 -0.271957 0.000000
42.173901 51.607601 -758.026917 0.183012 0.852570 -0.489521 0.000000
44.068501 52.585701 -756.889282 0.715443 0.542807 -0.439889 0.000000
43.562901 53.563400 -755.373779 0.973898 0.022704 0.225849 0.000000
45.739799 52.377800 -759.319214 0.245923 0.397948 -0.883832 0.000000
43.299301 55.197399 -756.792114 0.650396 0.686078 -0.326009 0.000000
44.133701 54.288799 -759.542419 -0.334740 0.252882 0.907744 0.000000
41.907398 57.049198 -756.894287 -0.334337 0.066867 0.940078 0.000000
49.644600 57.302601 -754.660706 0.186219 0.856608 -0.481191 0.000000
40.532200 58.658100 -756.749573 0.207689 0.915263 -0.345193 0.000000
39.459801 59.791599 -755.800720 0.673896 0.705167 -0.220462 0.000000
37.913898 60.532398 -756.490417 -0.091079 0.884171 0.458199 0.000000
36.522400 61.745800 -756.524414 0.441603 0.777286 -0.448121 0.000000
49.816799 59.086102 -755.302429 0.214288 0.861649 -0.460046 0.000000
50.555500 59.737499 -753.736328 0.214843 0.860874 -0.461236 0.000000
26.089899 69.273102 -755.966919 0.198577 0.861494 -0.467327 0.000000
45.420799 63.606998 -760.135315 0.412350 0.767656 -0.490583 0.000000
45.862900 64.446999 -761.692871 -0.774364 0.614981 0.148858 0.000000
46.247601 65.629898 -760.458313 -0.904471 0.330904 0.269135 0.000000
17.298599 76.736801 -754.400085 0.632735 0.757157 0.162356 0.000000
47.011902 65.409798 -763.032288 0.667067 0.556169 -0.495679 0.000000
50.849899 66.967201 -757.957581 0.222917 0.872220 -0.435362 0.000000
46.430801 66.680199 -761.870789 0.910803 0.248401 -0.329749 0.000000
52.428799 69.269699 -759.814514 0.659730 0.751398 -0.012500 0.000000
53.336800 71.431000 -761.849487 0.219208 0.875341 -0.430960 0.000000
46.824001 71.201103 -766.536072 0.303184 0.952326 0.033967 0.000000
48.787899 70.949501 -766.043579 0.978335 0.079193 0.191281 0.000000
47.989300 71.842697 -764.636292 0.981003 0.138394 0.135944 0.000000
48.344101 73.605598 -765.117981 -0.971634 0.127947 -0.198887 0.000000
-20.946501 95.144302 -756.732300 0.182168 0.933087 -0.310102 0.000000
-22.641001 95.831001 -756.942810 0.453709 0.716296 -0.530159 0.000000
-24.943800 96.746696 -756.433716 -0.220047 0.960566 0.169977 0.000000
52.272701 76.369598 -759.495422 0.376196 0.714608 -0.589757 0.000000
-26.813000 97.488899 -756.957825 -0.241522 0.942627 -0.230481 0.000000
-29.170500 98.491302 -757.031982 0.109817 0.983523 0.143606 0.000000
48.258701 74.500397 -766.881592 0.207460 0.977343 -0.041972 0.000000
-42.814499 102.691101 -755.749329 -0.478952 0.839321 -0.257186 0.000000
53.249199 75.275703 -763.120483 0.623563 0.740382 0.251004 0.000000
-16.403700 96.874802 -754.697510 0.371263 0.773329 0.513932 0.000000
49.407001 73.854500 -768.384705 0.218637 0.876035 -0.429837 0.000000
47.263000 74.304100 -769.176514 0.218637 0.876035 -0.429837 0.000000
-16.701000 98.166702 -753.065796 0.199980 0.875469 -0.439957 0.000000
-15.605500 96.496803 -756.238708 -0.679085 0.455505 0.575638 0.000000
48.560101 76.221802 -767.012512 0.993712 0.070899 0.086654 0.000000
55.971901 75.833000 -764.091370 -0.315432 0.766964 0.558811 0.000000
49.189602 76.358299 -768.933716 0.064935 0.928964 -0.364430 0.000000
-40.122200 104.757698 -756.685730 0.290670 0.701783 -0.650394 0.000000
-24.501801 100.719299 -757.178223 -0.704484 0.086055 0.704484 0.000000
47.045898 76.781197 -770.613525 0.324857 0.812936 -0.483325 0.000000
48.612202 77.926399 -767.477600 0.989028 0.145811 0.023737 0.000000
53.021099 78.367104 -764.744629 0.389101 0.824259 -0.411336 0.000000
-31.014400 102.800201 -756.755188 -0.377077 0.312959 0.871705 0.000000
-44.054298 106.073700 -756.895386 -0.793345 0.279169 0.540989 0.000000
-42.059101 105.507896 -757.066284 0.604101 0.566873 -0.560105 0.000000
-27.402300 101.323700 -759.122620 -0.514913 0.616207 0.595948 0.000000
48.645199 77.739304 -770.001282 0.327387 0.929223 -0.171356 0.000000
-47.899101 107.622902 -756.628784 -0.925428 0.332817 0.181154 0.000000
48.568199 79.059303 -768.826782 0.943847 0.127547 0.304770 0.000000
53.470200 79.286598 -767.243103 0.236893 0.842115 -0.484484 0.000000
53.071899 80.328903 -765.843018 0.279509 0.900640 -0.332749 0.000000
47.938301 80.225998 -770.354126 0.269102 0.286371 0.919552 0.000000
48.400101 81.595497 -769.343201 -0.854899 0.512940 0.077718 0.000000
52.691601 81.797600 -767.692993 0.205111 0.880946 -0.426455 0.000000
54.853100 81.615196 -767.027588 0.400455 0.802517 -0.442269 0.000000
46.963699 80.964500 -773.102112 0.205111 0.880946 -0.426455 0.000000
48.229599 81.275299 -771.851013 0.205111 0.880946 -0.426455 0.000000
53.401901 83.150299 -766.380981 0.205111 0.880946 -0.426455 0.000000
48.192501 82.848801 -771.020020 -0.717205 0.657568 -0.230698 0.000000
51.901299 83.996902 -767.911499 -0.172880 0.936317 -0.305652 0.000000
47.683701 83.715797 -772.830383 -0.770626 0.145713 0.620406 0.000000
48.057301 84.706802 -771.417419 0.751782 0.398002 -0.525756 0.000000
46.473999 84.173897 -776.824890 0.192513 0.883210 -0.427644 0.000000
47.688202 85.359100 -773.831299 0.384250 0.608534 0.694290 0.000000
51.503399 86.653397 -769.442322 0.140714 0.896876 -0.419300 0.000000
46.034500 85.530098 -775.715515 0.192015 0.883854 -0.426536 0.000000
47.829102 85.157402 -776.305786 -0.856674 0.412130 0.310255 0.000000
47.474899 87.028603 -773.256470 0.973381 0.095967 -0.208136 0.000000
46.837002 87.246696 -775.424622 -0.211134 0.861007 0.462698 0.000000
51.824402 90.838699 -768.933105 -0.798508 0.473964 0.371138 0.000000
50.313999 91.704201 -771.787903 0.182573 0.886576 -0.425030 0.000000
52.117699 91.773499 -771.784790 0.182346 0.885473 -0.427419 0.000000
48.391499 92.157799 -774.712097 0.975305 0.211174 0.064695 0.000000
51.876202 94.391602 -772.467224 0.209847 0.873617 -0.439041 0.000000
48.794800 93.474403 -776.130981 0.943177 0.317046 0.099491 0.000000
48.812099 94.890099 -774.983276 -0.933019 0.001263 0.359825 0.000000
47.785198 94.550301 -778.561584 -0.716270 0.286828 -0.636150 0.000000
48.843300 95.016602 -777.200928 0.424373 0.266184 -0.865479 0.000000
52.877102 97.112503 -771.370728 0.586977 0.542996 -0.600510 0.000000
51.804199 96.687103 -773.177979 0.112423 0.909103 -0.401115 0.000000
49.025200 96.312103 -775.987671 -0.993153 0.087000 -0.077961 0.000000
43.652000 94.213097 -782.932983 -0.406713 0.913481 0.011695 0.000000
42.912300 94.079803 -784.703186 -0.763119 0.593188 0.256471 0.000000
49.558102 96.649300 -778.294678 -0.980051 0.178966 0.086439 0.000000
49.287498 98.065697 -775.623718 -0.883372 0.106005 -0.456527 0.000000
42.156502 94.253403 -787.007629 -0.295826 0.954882 0.026212 0.000000
44.709400 95.552399 -783.521423 0.167552 0.878554 -0.447290 0.000000
48.768200 96.578003 -780.010925 0.178280 0.870774 -0.458224 0.000000
42.401600 95.491699 -785.695129 0.171257 0.876778 -0.449367 0.000000
48.572201 98.151703 -779.151672 -0.401345 0.823313 0.401345 0.000000
49.422501 99.865303 -775.509583 0.977871 0.207427 -0.027262 0.000000
43.729698 96.329399 -784.842285 -0.153697 0.810268 0.565546 0.000000
41.349899 95.073997 -788.602112 0.135257 0.789247 0.598995 0.000000
45.808899 96.947403 -783.560425 -0.771065 0.249693 0.585758 0.000000
49.676300 101.637604 -775.288513 -0.995158 0.049593 -0.084858 0.000000
41.090698 94.646797 -791.368530 0.036446 0.981696 0.186934 0.000000
49.605202 99.047997 -780.395386 -0.946931 0.321435 0.001241 0.000000
40.909801 95.874802 -790.109802 0.136883 0.877493 -0.459639 0.000000
49.903599 103.400803 -775.374817 -0.857097 0.453579 -0.244235 0.000000
40.251598 96.508904 -791.655212 0.170819 0.877453 -0.448216 0.000000
47.910198 100.556702 -781.999329 0.163760 0.857157 -0.488329 0.000000
49.091202 101.336601 -780.867798 0.163760 0.857157 -0.488329 0.000000
50.385201 100.853401 -781.966125 0.517524 0.835539 -0.184509 0.000000
49.077301 98.740997 -786.396179 -0.223859 0.951061 -0.213005 0.000000
50.172699 105.139999 -775.531982 0.999641 0.009078 0.025218 0.000000
39.405602 97.332001 -793.305420 -0.494273 0.738930 0.457905 0.000000
42.867199 99.388000 -789.477722 -0.809358 0.402275 -0.427918 0.000000
48.110699 101.735703 -783.672974 0.091738 0.985293 -0.144160 0.000000
38.787998 98.034698 -794.790405 0.319138 0.500142 -0.804990 0.000000
48.997501 103.896301 -781.343384 0.562613 0.586267 0.582888 0.000000
48.553501 101.329002 -786.710510 0.167162 0.850604 -0.498528 0.000000
50.108200 101.754204 -785.466919 0.164284 0.851021 -0.498772 0.000000
50.648102 102.831398 -783.445679 0.170286 0.851431 -0.496051 0.000000
47.365101 104.028503 -783.414917 0.164284 0.851021 -0.498772 0.000000
48.811401 105.835999 -781.830383 -0.450449 0.634647 -0.627949 0.000000
50.743401 109.269501 -775.347473 -0.886555 0.308563 -0.344688 0.000000
49.607700 105.123703 -785.453674 -0.756781 0.253309 0.602592 0.000000
47.086601 107.229103 -783.231689 -0.041587 0.902847 0.427947 0.000000
47.907398 107.899300 -781.833679 0.196939 0.804548 -0.560283 0.000000
48.861500 104.122902 -789.356812 0.047579 0.890404 -0.452678 0.000000
45.898998 108.432503 -783.917419 0.151670 0.849645 -0.505075 0.000000
50.701801 110.687103 -779.342102 0.151444 0.848380 -0.507264 0.000000
50.251400 104.357101 -790.906616 -0.925452 0.354458 0.133784 0.000000
48.406700 109.379997 -783.037170 -0.946126 0.266226 -0.184310 0.000000
51.238602 113.824203 -774.754028 0.151444 0.848380 -0.507264 0.000000
39.657200 104.506401 -794.510315 -0.144233 0.895390 -0.421276 0.000000
50.710999 105.547203 -789.528015 0.098661 0.850776 -0.516185 0.000000
47.139900 110.485603 -783.560730 0.154701 0.847170 -0.508302 0.000000
51.896400 106.731300 -788.781921 0.738360 0.254552 -0.624523 0.000000
49.193901 112.082397 -782.346375 0.080057 0.682665 0.726333 0.000000
50.618301 107.789299 -789.859924 0.637988 0.726642 0.254879 0.000000
49.319000 107.384903 -791.606812 -0.818399 0.066895 0.570744 0.000000
33.831402 101.847504 -805.754395 -0.093039 0.245979 0.964799 0.000000
38.378201 104.922401 -800.139404 -0.889428 0.445417 -0.102572 0.000000
49.959301 109.274101 -790.614685 0.202162 0.819286 -0.536564 0.000000
51.366901 109.915100 -789.177917 -0.111194 0.097148 0.989039 0.000000
47.125801 110.916496 -792.095886 -0.827733 0.274876 -0.489185 0.000000
33.740799 106.910698 -809.021790 -0.058140 0.812549 -0.579987 0.000000
5.467700 100.358200 -852.918030 -0.339041 0.937969 -0.072557 0.000000
7.456400 100.525398 -852.754272 0.003740 0.330404 -0.943832 0.000000
5.881500 100.757599 -851.256775 -0.812144 0.338526 0.475208 0.000000
8.616000 101.335899 -851.382813 0.646541 0.716437 -0.262111 0.000000
5.312700 102.505203 -851.796204 -0.236223 0.599161 -0.764987 0.000000
7.102400 102.138298 -850.817322 -0.406879 0.442260 -0.799284 0.000000
8.527600 103.164497 -850.510986 0.106242 0.876849 0.468880 0.000000
13.859400 106.468201 -845.779907 -0.804110 0.578186 0.138230 0.000000
47.222401 11.604400 -745.918396 -0.095115 0.152906 0.983653 0.000000
47.334999 14.703500 -746.627930 0.290850 0.682935 0.670080 0.000000
51.535599 9.315600 -747.450989 -0.905878 0.327408 -0.268680 0.000000
46.113201 6.983600 -737.030273 0.857831 0.491237 -0.151037 0.000000
47.716202 7.239500 -744.741516 0.260030 0.594130 -0.761179 0.000000
43.021500 8.070300 -737.269470 0.429078 0.874602 0.225752 0.000000
46.847099 3.616800 -744.112183 0.060629 0.073858 0.995424 0.000000
42.421600 3.813500 -742.215576 0.012518 0.732984 -0.680131 0.000000
47.037998 0.874800 -743.282288 0.255884 0.579271 -0.773931 0.000000
53.251598 -0.739300 -741.367371 0.331847 0.935944 0.117840 0.000000
43.974499 3.480700 -736.859680 0.621554 0.651548 -0.434921 0.000000
50.609901 2.589100 -747.337830 0.403565 0.908368 0.109559 0.000000
50.215199 3.634800 -744.464478 -0.327654 0.923388 -0.199996 0.000000
43.177399 7.999700 -739.380920 0.395134 0.912802 0.103258 0.000000
47.109901 16.437201 -747.028687 0.084682 0.047290 0.995285 0.000000
47.598000 18.747000 -747.793518 0.315342 0.348536 0.882656 0.000000
47.718399 20.490000 -748.594421 0.376760 0.912973 0.156631 0.000000
46.973000 22.102600 -748.476990 0.134748 0.078506 0.987765 0.000000
44.252399 22.842899 -743.758484 -0.449960 0.890287 0.070177 0.000000
47.550800 28.611900 -751.135925 0.307907 0.949488 -0.060551 0.000000
47.471100 31.386400 -751.867493 0.454843 0.393769 0.798789 0.000000
50.774300 30.548500 -752.960815 -0.260713 0.938288 -0.227253 0.000000
46.334599 31.838200 -740.921814 0.295180 0.946979 -0.126887 0.000000
47.228199 33.125801 -752.393616 0.161369 0.352205 0.921907 0.000000
46.457100 34.717201 -752.459717 0.544957 0.285905 0.788213 0.000000
47.284199 36.094002 -753.298218 0.664974 0.216467 0.714808 0.000000
46.561199 37.698898 -753.587830 0.481320 0.256807 0.838082 0.000000
46.210999 39.401402 -753.862122 0.442535 0.183777 0.877718 0.000000
47.079601 40.856998 -754.729980 0.192847 0.069134 0.978790 0.000000
46.224602 42.385502 -754.785522 0.409893 0.194006 0.891263 0.000000
46.939899 43.932201 -755.664490 -0.180735 0.264988 -0.947162 0.000000
46.384300 45.632900 -755.845215 0.372600 0.068110 0.925489 0.000000
45.390499 47.135300 -755.674500 0.517100 0.781288 0.349566 0.000000
47.169300 47.229698 -756.656677 -0.347919 0.008856 -0.937483 0.000000
46.431801 48.836102 -756.786987 0.367840 0.444275 0.816893 0.000000
47.668900 48.871899 -748.698181 0.474195 0.655160 0.588136 0.000000
45.750198 50.521198 -756.980530 0.399490 0.500585 0.767999 0.000000
44.505600 50.830101 -736.345825 0.339557 0.589756 -0.732727 0.000000
46.604401 51.980598 -757.765076 0.405555 0.454028 0.793337 0.000000
45.608799 53.476501 -757.739990 0.346596 0.850172 -0.396332 0.000000
46.926899 54.518200 -758.529114 0.429398 0.812503 0.394280 0.000000
45.140900 55.165699 -757.626099 0.538456 0.595846 0.595846 0.000000
44.301998 56.737801 -757.428772 0.258187 0.918800 -0.298574 0.000000
46.960201 56.195702 -759.088013 0.370664 0.819280 0.437480 0.000000
45.473801 57.067200 -758.736816 0.591778 0.756778 0.277644 0.000000
43.143700 58.131199 -757.573914 0.094585 0.113268 -0.989052 0.000000
44.721401 58.571800 -758.227905 0.855332 0.189576 0.482150 0.000000
42.028198 59.582199 -757.651672 0.397315 0.902207 -0.167819 0.000000
40.244801 60.252201 -757.439575 0.351535 0.936167 0.003780 0.000000
48.392700 57.850700 -760.357300 0.006866 0.797834 -0.602838 0.000000
46.804699 58.445202 -759.789490 0.316255 0.946163 -0.068978 0.000000
45.491100 59.613899 -759.463196 0.330556 0.943541 -0.021530 0.000000
39.418999 61.883701 -757.531921 0.232659 0.932045 -0.277780 0.000000
35.025799 63.528702 -756.911682 0.415155 0.899738 0.134606 0.000000
33.577900 64.068497 -756.053589 0.351535 0.936167 0.003780 0.000000
44.830898 60.424000 -757.935120 -0.037646 0.989064 -0.142599 0.000000
32.217999 65.132301 -755.695129 -0.492541 0.401510 -0.772135 0.000000
47.938702 59.650101 -760.747986 0.242751 0.772106 0.587302 0.000000
40.949200 62.246799 -756.720520 -0.101122 0.414185 0.904558 0.000000
30.713600 66.065399 -755.457581 0.535470 0.808637 0.243677 0.000000
46.577400 60.752998 -760.452209 0.485673 0.189786 0.853290 0.000000
45.355400 61.447201 -759.287109 -0.854961 0.468947 -0.221656 0.000000
28.260201 67.828400 -756.340576 0.330145 0.891841 0.309231 0.000000
48.429699 61.350498 -761.510681 0.086191 0.726047 0.682222 0.000000
24.562201 70.281799 -756.060974 0.350710 0.936483 0.001257 0.000000
46.911098 62.305199 -761.282715 0.629859 0.485411 0.606344 0.000000
22.891001 71.298302 -755.929871 0.362064 0.929696 -0.067638 0.000000
20.822201 72.330200 -755.718384 -0.100083 0.819523 -0.564238 0.000000
18.012501 73.901497 -755.803711 0.541853 0.669347 -0.508301 0.000000
43.345501 64.687202 -756.753784 0.413781 0.323896 0.850809 0.000000
16.511299 74.812599 -755.570679 0.353743 0.935342 -0.001259 0.000000
48.844700 62.920399 -763.385620 -0.666256 0.029580 0.745136 0.000000
47.663700 63.700401 -762.187500 0.371818 0.284509 0.883632 0.000000
19.400400 74.408600 -757.143616 0.200579 0.159169 0.966661 0.000000
15.599800 75.847801 -756.666870 -0.274655 0.446507 -0.851585 0.000000
14.247100 76.363800 -755.534485 0.278945 0.959420 -0.041279 0.000000
12.776000 77.281998 -755.909485 0.354576 0.935020 -0.003786 0.000000
10.724800 78.059196 -755.544617 -0.034181 0.862728 -0.504511 0.000000
42.181801 66.698303 -754.692871 -0.536254 0.529530 -0.657290 0.000000
29.381100 71.534798 -757.642822 -0.304249 0.940034 -0.154171 0.000000
9.230600 79.189400 -755.504517 0.530485 0.740708 0.412234 0.000000
6.781200 80.114098 -756.195374 -0.159262 0.832034 -0.531371 0.000000
4.953500 81.222702 -755.526489 0.258296 0.830570 0.493393 0.000000
48.881302 64.707397 -763.275879 0.236891 0.946193 0.220459 0.000000
2.101300 82.614197 -755.375977 -0.438212 0.520893 -0.732558 0.000000
46.857498 65.804802 -756.068420 -0.357880 0.812785 -0.459677 0.000000
16.146601 77.502502 -757.289917 0.380341 0.132353 0.915327 0.000000
46.194199 66.440804 -757.711914 -0.006220 0.946656 -0.322186 0.000000
0.725800 83.765900 -755.773376 0.389655 0.918184 0.071459 0.000000
48.580101 66.431396 -763.485413 0.276874 0.317893 0.906799 0.000000
47.387699 67.748199 -763.004272 0.725540 0.136696 0.674467 0.000000
50.252399 67.567902 -765.080017 -0.799272 0.210173 -0.563019 0.000000
48.792599 68.132202 -764.270508 0.285462 0.155584 0.945677 0.000000
11.222500 82.504601 -755.900879 0.277368 0.958757 -0.062060 0.000000
47.264500 69.476799 -762.687927 -0.964608 0.114314 -0.237620 0.000000
15.125000 82.090202 -756.631287 0.594196 0.637961 0.489833 0.000000
1.518200 87.273102 -757.116699 -0.376115 0.698029 -0.609338 0.000000
48.063999 69.784500 -764.272827 -0.684397 0.012545 -0.729001 0.000000
50.425201 69.353104 -765.225830 -0.048158 0.250671 0.966874 0.000000
47.906300 70.439003 -758.722229 0.599639 0.708067 0.372926 0.000000
51.065601 70.830902 -766.042786 -0.152969 0.074706 -0.985403 0.000000
-29.266701 102.926300 -763.761597 0.202949 0.959035 -0.197644 0.000000
50.192600 72.012901 -767.063416 0.234967 0.824688 0.514470 0.000000
51.876301 73.117104 -768.533081 -0.274187 0.803760 0.528006 0.000000
50.902100 74.250999 -767.559082 -0.116792 0.500333 0.857920 0.000000
54.089500 74.106598 -769.157776 0.158013 0.983059 0.092878 0.000000
52.435398 74.778603 -768.435974 0.777049 0.165104 0.607401 0.000000
50.976898 75.788498 -768.613220 -0.206673 0.669743 -0.713253 0.000000
53.846699 75.854500 -769.284607 0.519403 0.787895 0.330820 0.000000
56.812401 75.057198 -770.079712 0.786447 0.389186 0.479620 0.000000
55.602001 76.435204 -770.303772 0.346709 0.932203 0.103878 0.000000
52.874401 77.399200 -772.633728 0.406444 0.913518 0.016990 0.000000
58.293301 75.859001 -770.841003 0.189547 0.901431 0.389222 0.000000
56.640499 78.041603 -770.273315 0.075305 0.974021 -0.213569 0.000000
59.967300 77.385399 -772.349426 0.204216 0.928126 -0.311253 0.000000
62.585899 77.988297 -773.413330 -0.341932 0.934613 0.097886 0.000000
64.205803 78.928200 -774.369629 0.257724 0.920032 0.295159 0.000000
47.949402 85.714798 -766.943420 0.353001 0.934871 -0.037498 0.000000
67.576401 80.101402 -776.181213 0.396611 0.801250 0.447994 0.000000
47.721500 87.931297 -776.982971 0.626216 0.639575 0.445866 0.000000
46.378101 88.866402 -776.212524 -0.997353 0.005255 -0.072516 0.000000
46.822300 88.948997 -778.383972 0.408613 0.770016 0.490010 0.000000
46.789299 89.120697 -774.342896 0.855019 0.211876 -0.473341 0.000000
45.811798 90.055397 -779.301270 0.415559 0.902478 0.113334 0.000000
45.640099 90.188499 -777.531616 0.411062 0.911599 0.003890 0.000000
46.443802 90.460503 -775.463928 0.779536 0.428012 0.457306 0.000000
45.549900 90.981903 -781.529419 0.498744 0.265686 -0.825025 0.000000
44.675800 92.127197 -783.407593 0.343706 0.938434 -0.034757 0.000000
68.072403 84.486000 -774.141113 -0.651389 0.315188 -0.690181 0.000000
45.289501 92.740997 -775.981079 0.587113 0.807811 0.052345 0.000000
43.768398 93.506401 -786.216187 0.342878 0.938740 -0.034673 0.000000
37.692902 99.546700 -799.636475 0.337516 0.940682 -0.034650 0.000000
36.966000 100.159302 -801.264771 0.521808 0.623130 0.582602 0.000000
34.998001 101.449203 -801.992981 0.335922 0.941348 -0.031932 0.000000
14.480900 107.689796 -842.718384 -0.721707 0.230132 -0.652824 0.000000
51.942799 107.382401 -802.049683 -0.830330 0.328051 -0.450482 0.000000
57.027802 106.720398 -800.133423 0.685691 0.511334 0.518040 0.000000
45.265999 117.478104 -781.934570 -0.005133 0.998919 -0.046199 0.000000
58.210602 122.593102 -786.634888 0.170741 0.959590 0.223684 0.000000
93.101799 87.829399 -789.635681 0.119349 0.800079 -0.587903 0.000000
77.189903 83.066002 -781.056274 0.271826 0.881557 0.385963 0.000000
75.109703 82.588997 -780.349487 0.361401 0.427684 0.828539 0.000000
44.496799 91.787697 -780.144226 0.665855 0.743514 -0.061840 0.000000
72.599701 81.444199 -778.662476 -0.107976 0.922576 0.370397 0.000000
70.902496 81.352097 -778.063477 0.299952 0.785589 0.541183 0.000000
68.966103 82.016998 -777.787109 0.467121 0.185365 0.864545 0.000000
52.664700 87.610901 -778.939209 0.096610 0.921196 -0.376915 0.000000
54.019199 85.269501 -773.190308 0.575880 0.781886 0.238780 0.000000
48.974499 76.945702 -763.328979 0.335178 0.940325 0.058689 0.000000
-33.037899 103.451698 -756.789673 0.609231 0.154940 0.777709 0.000000
-35.747002 104.480598 -757.698425 0.780479 0.394296 0.485163 0.000000
-35.273998 103.276703 -755.728821 -0.275098 0.920353 -0.277978 0.000000
52.088699 72.042397 -767.094421 -0.727687 0.560138 0.395875 0.000000
-31.552200 98.861298 -757.102417 -0.325621 0.845993 -0.422217 0.000000
-34.308102 99.846603 -756.694275 0.344564 0.936741 0.061576 0.000000
-35.960098 100.448601 -756.620728 0.344564 0.936741 0.061576 0.000000
-3.588500 86.536400 -755.597900 0.345354 0.936264 0.064344 0.000000
-5.527200 87.259697 -755.740173 -0.582725 0.404441 0.704883 0.000000
21.973200 76.765297 -756.753784 -0.164718 0.447507 -0.878980 0.000000
-1.129700 85.222801 -755.986511 0.346205 0.935939 0.064502 0.000000
45.295399 63.715900 -755.694214 -0.551743 0.381472 -0.741660 0.000000
44.492001 51.072601 -749.220520 0.201472 0.979410 0.012810 0.000000
50.255901 46.823002 -757.984497 0.362151 0.925192 0.113428 0.000000
50.686600 42.691399 -757.421814 -0.759572 0.570081 -0.313143 0.000000
47.383801 25.896200 -750.138184 -0.564955 0.241234 -0.789070 0.000000
42.910400 22.586700 -745.283325 0.156928 0.975463 0.154417 0.000000
41.137501 18.383600 -742.112183 -0.017423 0.999276 -0.033822 0.000000
50.321301 1.142600 -746.296387 0.376167 0.917515 0.129091 0.000000
57.999599 44.183899 -803.549622 0.347230 0.621102 0.702612 1.000000
59.700500 44.350601 -804.312073 -0.028882 0.985447 -0.167514 1.000000
55.807301 43.902802 -801.893188 -0.283458 0.897864 -0.336885 1.000000
54.155998 43.957401 -800.518921 0.008902 0.999956 0.002967 1.000000
50.755798 44.374500 -797.956116 -0.501791 0.727018 -0.468670 1.000000
52.439899 44.198101 -798.706970 0.205943 0.911620 -0.355719 1.000000
57.210499 44.188702 -800.844421 0.371479 0.172218 0.912329 1.000000
58.908901 44.166599 -801.604980 -0.106707 0.979989 -0.168033 1.000000
60.511700 44.356998 -802.327209 -0.226642 0.902183 -0.367014 1.000000
55.672501 44.379902 -799.706787 -0.077273 0.990713 -0.111873 1.000000
53.435001 47.111198 -770.956970 -0.337181 0.916845 -0.213787 1.000000
54.544998 48.157600 -771.856018 0.253155 0.438095 0.862546 1.000000
56.262901 48.744598 -772.867371 0.495510 0.786037 0.369615 1.000000
57.296398 49.236000 -774.196472 -0.117680 0.950696 0.286928 1.000000
51.050400 47.124901 -771.372192 -0.345574 0.522379 0.779550 1.000000
56.712101 48.571602 -776.502625 -0.584488 0.759675 -0.285077 1.000000
58.005299 49.763401 -776.218384 0.207519 0.937320 0.279942 1.000000
59.960800 46.068802 -789.619385 -0.494888 0.704840 -0.508218 1.000000
60.563999 45.317902 -792.660522 0.148354 0.988648 -0.023782 1.000000
58.440899 49.606602 -777.947327 -0.797017 0.524479 -0.299476 1.000000
60.206402 47.118698 -787.666016 0.282031 0.928292 0.242348 1.000000
61.390800 46.801800 -790.382507 -0.718903 0.608552 -0.335921 1.000000
61.843300 46.444099 -792.086121 -0.168128 0.941789 -0.291148 1.000000
