ply
format ascii 1.0
element vertex 688
property float x
property float y
property float z
property float nx
property float ny
property float nz
property float label
element face 0
property list uchar int vertex_indices
end_header
-3.123300 31.224899 -750.812622 -0.549669 0.798811 -0.244470 1.000000
-3.575100 30.886200 -750.669373 -0.757017 0.606554 -0.242935 1.000000
-4.793400 30.254801 -750.397400 0.261782 0.951813 0.159754 1.000000
-5.096300 28.998100 -749.884277 0.956918 0.289185 0.026064 1.000000
-6.186900 27.890499 -749.421082 -0.870296 0.115754 -0.478734 1.000000
-6.580600 27.539600 -749.273682 -0.761729 0.613401 -0.208587 1.000000
-6.898300 27.139700 -749.107422 -0.987694 0.085938 -0.130672 1.000000
-8.023100 25.873100 -748.579285 -0.910956 0.301709 0.281303 1.000000
-8.350900 25.394600 -748.381226 0.079917 0.318359 -0.944596 1.000000
-8.442800 24.836800 -748.153992 0.969224 0.201015 -0.142119 1.000000
-9.575200 24.453501 -747.983582 0.600565 0.768164 0.221914 1.000000
-10.094000 24.609600 -748.039917 0.085510 0.789882 0.607267 1.000000
-10.515700 22.910601 -747.346130 -0.278795 0.954186 0.108638 1.000000
-11.083900 22.929399 -747.346130 -0.037050 0.503610 0.863136 1.000000
-12.308100 21.199499 -746.629028 -0.101447 0.973141 -0.206652 1.000000
15.168500 38.754299 -753.928406 -0.963208 0.192642 -0.187400 1.000000
7.364800 37.049500 -753.130676 -0.294985 0.937580 -0.184192 1.000000
6.238400 36.558701 -752.916382 -0.315147 0.947992 -0.044656 1.000000
4.601300 35.906601 -752.629822 -0.238465 0.938522 -0.249622 1.000000
3.748600 35.469898 -752.441223 -0.451033 0.861337 -0.233813 1.000000
1.731200 34.558601 -752.044373 -0.454206 0.804088 -0.383587 1.000000
-0.300500 33.343300 -751.524414 -0.328704 0.913711 -0.238926 1.000000
-1.251900 32.634602 -751.224182 -0.389793 0.712153 0.583867 1.000000
-4.017400 30.588600 -750.357605 -0.818777 0.573832 -0.017889 1.000000
-4.779000 29.866199 -750.054626 0.011487 0.366299 0.930426 1.000000
-5.471600 28.746000 -749.591370 -0.339517 0.260149 -0.903908 1.000000
-7.359500 27.084200 -748.892517 -0.060227 0.916783 0.394819 1.000000
-8.837200 24.624901 -747.876221 -0.379032 0.846972 -0.372792 1.000000
-10.683300 22.500601 -746.990601 -0.885638 0.461298 0.053385 1.000000
-11.107500 22.104799 -746.824524 0.012372 0.149594 0.988670 1.000000
14.409100 38.981998 -753.857971 0.013919 0.940182 -0.340389 1.000000
13.882000 39.083801 -753.891602 -0.114020 0.940328 -0.320597 1.000000
13.391800 38.955399 -753.832581 -0.121776 0.987213 -0.102859 1.000000
12.916300 38.724701 -753.732422 -0.361297 0.930374 0.062201 1.000000
12.434400 38.526798 -753.645386 -0.123287 0.936171 -0.329218 1.000000
11.942000 38.394901 -753.585022 -0.142123 0.974736 -0.172308 1.000000
11.450100 38.253201 -753.520630 0.080094 0.916332 -0.392326 1.000000
10.949300 38.172401 -753.480713 -0.058357 0.967235 -0.247086 1.000000
10.451300 38.068001 -753.431274 -0.209813 0.890605 -0.403487 1.000000
9.947400 38.006699 -753.399292 -0.139426 0.843894 -0.518077 1.000000
8.957200 37.730202 -753.273193 -0.238101 0.925314 -0.295131 1.000000
5.791700 36.416100 -752.695923 -0.306907 0.923575 -0.229823 1.000000
3.293600 35.342300 -752.225586 -0.266022 0.785474 -0.558804 1.000000
1.273400 34.375198 -751.805176 -0.485564 0.274584 -0.829958 1.000000
-0.691500 33.165401 -751.287415 -0.481191 0.856608 -0.186219 1.000000
-1.644600 32.385101 -750.957886 -0.976675 0.138810 -0.163821 1.000000
-2.089700 32.071499 -750.824585 -0.784496 0.572385 -0.238624 1.000000
-4.269100 30.279699 -750.068115 -0.923739 0.343423 -0.169609 1.000000
-5.809100 28.454500 -749.307312 -0.975839 0.156988 -0.151965 1.000000
-7.627600 26.784700 -748.605530 -0.900302 0.320797 0.294187 1.000000
-7.872200 26.344801 -748.423889 -0.961884 0.242743 -0.125915 1.000000
-9.275300 24.316500 -747.582886 -0.909825 0.398656 -0.115291 1.000000
-9.610300 23.884199 -747.403076 -0.233610 0.970285 0.063038 1.000000
-9.947100 23.458599 -747.226013 -0.991608 0.007721 -0.129052 1.000000
-11.557900 21.845699 -746.550110 -0.222989 0.480867 -0.847964 1.000000
-11.981700 21.560400 -746.428589 -0.274399 0.886174 0.373363 1.000000
-12.658700 21.195400 -746.271118 0.234115 0.961308 -0.145177 1.000000
9.418100 38.025299 -753.231018 -0.209700 0.806657 -0.552567 1.000000
8.522400 37.553001 -753.026794 -0.488005 0.843747 -0.223479 1.000000
8.028000 37.386398 -752.952209 -0.183977 0.981605 -0.051039 1.000000
7.045500 36.960800 -752.765625 -0.427429 0.890837 -0.153990 1.000000
5.344200 36.272900 -752.462524 -0.360280 0.741752 -0.565688 1.000000
4.198500 35.846901 -752.273376 -0.314999 0.772308 -0.551648 1.000000
2.620600 35.131302 -751.960815 -0.314319 0.341390 -0.885808 1.000000
0.816400 34.147099 -751.536316 -0.649807 0.254547 -0.716210 1.000000
0.461600 33.757599 -751.373596 -0.830662 0.485976 -0.271712 1.000000
-2.410000 31.807899 -750.542908 -0.567225 0.516730 -0.641284 1.000000
-2.860100 31.537901 -750.427124 -0.461989 0.824643 -0.326388 1.000000
-3.235400 31.241100 -750.301514 -0.808191 0.476626 -0.345912 1.000000
-3.688400 30.914000 -750.162598 -0.812361 0.565831 -0.141086 1.000000
-4.982300 29.483700 -749.565125 -0.891825 0.285324 -0.351053 1.000000
-6.226300 28.215099 -749.033691 -0.829656 0.247819 -0.500256 1.000000
-6.699800 27.653000 -748.799377 -0.961109 0.234705 -0.145543 1.000000
-8.223500 26.010300 -748.112488 -0.472501 0.849286 -0.235491 1.000000
-8.476600 25.335600 -747.835876 -0.981807 0.048557 -0.183571 1.000000
-10.310900 23.159500 -746.928772 -0.633999 0.402250 -0.660485 1.000000
-12.937100 20.913700 -745.981873 -0.644811 0.547164 0.533695 1.000000
15.244600 38.981098 -753.438599 0.449025 0.891185 0.064539 1.000000
11.183100 38.523499 -753.193176 -0.127095 0.881095 -0.455542 1.000000
7.677300 37.241299 -752.622375 -0.427396 0.895697 -0.122718 1.000000
6.612700 36.872799 -752.457520 -0.507511 0.843867 -0.174131 1.000000
6.114100 36.700901 -752.380615 -0.228853 0.971080 -0.068037 1.000000
4.904500 36.213100 -752.165222 -0.229406 0.889502 -0.395170 1.000000
3.751500 35.850201 -752.001282 -0.215359 0.529997 -0.820197 1.000000
2.962800 35.494900 -751.845825 -0.465545 0.815100 -0.344789 1.000000
2.171900 35.108898 -751.677917 -0.404068 0.796868 -0.449144 1.000000
1.666200 34.865700 -751.572021 -0.328812 0.859852 -0.390561 1.000000
0.085100 33.648300 -751.055786 -0.705167 0.673896 -0.220462 1.000000
-0.354100 33.384102 -750.942383 -0.207300 0.889480 -0.407249 1.000000
-0.946600 33.141701 -750.835510 -0.456133 0.842686 -0.286049 1.000000
-1.311700 32.806400 -750.694397 -0.527085 0.849116 -0.034405 1.000000
-3.925400 30.682899 -749.796326 -0.602596 0.731839 -0.318261 1.000000
-4.535000 30.187599 -749.586914 0.844497 0.020531 0.535167 1.000000
-5.302900 29.211100 -749.180298 -0.909842 0.409632 -0.066244 1.000000
-5.691100 28.843100 -749.025574 -0.941196 0.134070 -0.310121 1.000000
-7.106500 27.556400 -748.483887 -0.666960 0.627240 -0.402162 1.000000
-7.904400 26.881001 -748.198792 0.009288 0.887656 -0.460413 1.000000
-8.821000 24.925400 -747.393799 -0.169722 0.430834 0.886328 1.000000
-9.481200 24.288900 -747.126526 -0.950956 0.125998 -0.282502 1.000000
-10.658100 23.007999 -746.590576 -0.064420 0.611277 0.788791 1.000000
-11.078500 22.681101 -746.452087 0.159298 0.681189 0.714566 1.000000
-11.501400 22.343599 -746.309326 -0.205922 0.535398 0.819113 1.000000
-11.924300 22.054800 -746.186096 -0.003717 0.318455 0.947931 1.000000
-12.454300 21.823900 -746.084778 -0.542807 0.439889 0.715443 1.000000
15.542300 39.326900 -753.248474 -0.416751 0.659164 0.625957 1.000000
14.856600 39.167500 -753.173584 0.206192 0.876686 -0.434634 1.000000
14.331400 39.250099 -753.199219 0.023150 0.993263 0.113547 1.000000
13.835800 39.152599 -753.152222 -0.267082 0.957587 -0.108136 1.000000
13.353300 38.966499 -753.069580 -0.281971 0.959194 0.020932 1.000000
12.850900 38.905998 -753.037476 -0.006367 0.930810 -0.365448 1.000000
12.335800 38.931801 -753.040222 -0.115696 0.929649 -0.349809 1.000000
11.850000 38.755100 -752.961426 -0.285940 0.926104 -0.246108 1.000000
10.783900 38.537300 -752.857117 -0.359863 0.868266 -0.341487 1.000000
10.289500 38.406502 -752.796692 -0.060905 0.968268 -0.242378 1.000000
9.799200 38.235802 -752.720215 -0.191121 0.941856 -0.276369 1.000000
9.305600 38.084801 -752.651611 -0.441842 0.895845 -0.047292 1.000000
8.822800 37.833500 -752.542480 -0.487167 0.841470 -0.233657 1.000000
8.414200 37.560501 -752.425720 -0.451504 0.887631 -0.090860 1.000000
7.277400 37.205502 -752.264893 -0.263311 0.919430 -0.292088 1.000000
5.711700 36.657200 -752.019226 -0.348477 0.830983 -0.433625 1.000000
4.491700 36.261902 -751.840698 -0.162162 0.831636 -0.531117 1.000000
3.337900 35.887901 -751.671875 -0.340942 0.696565 -0.631313 1.000000
2.551300 35.476002 -751.493225 -0.439871 0.827714 -0.348428 1.000000
1.326600 34.830601 -751.213318 -0.887065 0.405895 -0.219921 1.000000
0.899000 34.459400 -751.056519 -0.787087 0.568884 -0.238464 1.000000
0.466700 34.132702 -750.917603 -0.430470 0.890972 -0.144443 1.000000
-1.658200 32.686501 -750.299683 -0.530824 0.785874 -0.317219 1.000000
-2.103700 32.384399 -750.170715 -0.825648 0.460790 -0.325541 1.000000
-2.472400 31.960800 -749.993530 -0.611890 0.635360 -0.471072 1.000000
-2.846400 31.668900 -749.869629 -0.331080 0.860808 -0.386517 1.000000
-3.298800 31.395100 -749.751892 -0.487299 0.822610 -0.293006 1.000000
-4.206200 30.548100 -749.395081 -0.619870 0.774465 -0.126352 1.000000
-4.744700 30.612101 -749.412903 0.329418 0.885969 0.326410 1.000000
-5.048500 29.742800 -749.056213 -0.890628 0.406432 -0.203949 1.000000
-6.058100 28.638700 -748.593689 -0.895553 0.203070 -0.395913 1.000000
-6.450900 28.226299 -748.420715 0.044040 0.683325 0.728785 1.000000
-7.402600 27.335100 -748.045288 -0.795787 0.598652 -0.091320 1.000000
-8.045500 26.677500 -747.769226 -0.740788 0.335543 0.581932 1.000000
-8.525200 26.479799 -747.681885 -0.132446 0.078530 -0.988074 1.000000
-8.775400 25.976999 -747.474487 -0.273704 0.520819 0.808600 1.000000
-9.204600 24.839399 -747.007080 -0.678323 0.114291 0.725821 1.000000
-9.869300 24.158701 -746.721313 -0.958705 0.067479 0.276280 1.000000
-10.204300 23.816500 -746.577576 -0.754260 0.654453 0.052755 1.000000
11.442100 38.793499 -752.656799 -0.170865 0.951195 -0.256971 1.000000
8.005100 37.568600 -752.107422 -0.196853 0.942969 -0.268436 1.000000
6.951700 37.099602 -751.901123 -0.032416 0.929678 -0.366944 1.000000
6.445600 37.006802 -751.855713 -0.310521 0.744929 -0.590473 1.000000
5.296900 36.681499 -751.706177 -0.197167 0.844356 -0.498185 1.000000
4.071800 36.329498 -751.544617 -0.328403 0.845131 -0.421787 1.000000
2.924000 35.846298 -751.331116 -0.582849 0.749836 -0.313101 1.000000
2.213200 35.372799 -751.128174 -0.455979 0.815043 -0.357475 1.000000
1.708500 35.111000 -751.014282 -0.500949 0.784445 -0.365645 1.000000
0.121300 34.025902 -750.549927 -0.568598 0.738037 -0.363316 1.000000
-0.236000 33.608002 -750.375000 -0.785521 0.555689 -0.272335 1.000000
-0.676900 33.339699 -750.259399 -0.328135 0.921902 -0.205972 1.000000
-1.197300 33.137402 -750.169373 -0.608071 0.793678 0.018007 1.000000
-3.658800 31.266399 -749.372925 -0.741276 0.665248 -0.089187 1.000000
-4.493100 30.362801 -748.993713 0.051063 0.354823 0.933538 1.000000
-5.417000 29.612301 -748.675171 -0.549930 0.805639 -0.220280 1.000000
-5.727700 29.187201 -748.497986 -0.996733 0.076177 0.026823 1.000000
-6.826900 28.113701 -748.045898 -0.899024 0.239838 -0.366378 1.000000
-7.145100 27.744600 -747.891418 0.012023 0.474225 0.880322 1.000000
-7.705000 27.172899 -747.650879 -0.640632 0.380427 -0.666982 1.000000
-8.927900 25.689301 -747.030518 -0.262234 0.507400 0.820840 1.000000
-9.600500 24.597099 -746.577271 -0.812017 0.564687 0.147504 1.000000
-10.522600 23.638399 -746.174377 -0.292400 0.016039 -0.956161 1.000000
-10.861900 23.272301 -746.020813 -0.543491 0.486634 -0.683963 1.000000
-11.361300 23.023600 -745.912170 -0.328027 0.486494 -0.809767 1.000000
-11.856500 22.906300 -745.857117 0.008694 0.311741 0.950127 1.000000
15.407800 39.172798 -752.621582 -0.621683 0.776738 -0.100932 1.000000
14.688300 39.279598 -752.653625 -0.098690 0.962552 -0.252494 1.000000
14.178200 39.268398 -752.640930 -0.085058 0.983554 -0.159333 1.000000
13.690100 39.117500 -752.572021 -0.290170 0.950007 0.115273 1.000000
13.178900 39.113499 -752.562317 0.082399 0.989954 -0.114895 1.000000
12.668200 39.108601 -752.552185 0.005929 0.971163 -0.238344 1.000000
12.174600 38.986599 -752.494995 -0.342151 0.936623 -0.075300 1.000000
10.966900 38.737701 -752.374878 -0.279894 0.957263 -0.072849 1.000000
10.481300 38.539398 -752.286804 -0.370227 0.926236 -0.070838 1.000000
9.987100 38.398701 -752.221924 -0.306427 0.945811 -0.107448 1.000000
9.495300 38.232300 -752.146606 -0.391707 0.915803 -0.088714 1.000000
9.006100 38.034801 -752.058777 -0.427589 0.903857 0.014472 1.000000
8.521900 37.782001 -751.948608 -0.363012 0.925885 -0.104689 1.000000
7.604200 37.443699 -751.796875 -0.393407 0.873393 -0.287081 1.000000
5.953400 37.031700 -751.603577 -0.352568 0.808833 -0.470623 1.000000
4.802900 36.714298 -751.456787 -0.311177 0.875849 -0.368859 1.000000
3.656100 36.283298 -751.263794 -0.410716 0.800494 -0.436487 1.000000
1.290400 34.997299 -750.704773 -0.552467 0.778549 -0.297727 1.000000
0.856500 34.741699 -750.594177 -0.432962 0.832862 -0.344796 1.000000
-1.547100 32.889599 -749.805115 -0.583384 0.801968 -0.128492 1.000000
-1.993200 32.609299 -749.684326 -0.482892 0.871459 -0.085879 1.000000
-2.520200 32.463402 -749.616821 -0.172007 0.975543 0.136852 1.000000
-2.814500 32.025700 -749.434570 -0.772394 0.455598 -0.442535 1.000000
-3.187800 31.614901 -749.262085 -0.893394 0.206168 -0.399176 1.000000
-4.020800 31.006001 -749.001892 -0.840431 0.333355 -0.427258 1.000000
-4.783300 30.144199 -748.640320 -0.441428 0.840741 -0.313523 1.000000
-6.102100 28.934500 -748.128784 -0.931101 0.361147 -0.051217 1.000000
-6.494500 28.589701 -747.982788 -0.392527 0.860482 -0.324797 1.000000
-8.089200 27.024401 -747.322693 -0.762071 0.598658 -0.246691 1.000000
-8.491400 26.740400 -747.201111 -0.817521 0.575700 -0.015114 1.000000
-8.743500 26.167900 -746.965027 -0.698208 0.712664 -0.067942 1.000000
-9.305500 26.022900 -746.897217 -0.074519 0.963695 -0.256396 1.000000
-9.996400 24.462299 -746.253296 -0.233578 0.198474 0.951866 1.000000
11.690600 38.955299 -752.256470 -0.120348 0.992594 -0.016562 1.000000
6.753700 37.342400 -751.523315 -0.011664 0.916244 -0.400452 1.000000
4.310100 36.679298 -751.215271 -0.376078 0.880537 -0.288478 1.000000
3.242300 36.147800 -750.982727 -0.508448 0.832144 -0.221396 1.000000
2.740100 35.913898 -750.879822 -0.500346 0.858760 -0.110391 1.000000
1.955100 35.418701 -750.666382 -0.389918 0.861520 -0.325189 1.000000
0.435300 34.573200 -750.299072 -0.619451 0.785005 0.006898 1.000000
-0.063700 34.008900 -750.062317 -0.858807 0.473464 -0.195659 1.000000
-0.425100 33.662899 -749.916077 -0.869426 0.484899 -0.094718 1.000000
-0.863300 33.297501 -749.760986 -0.419441 0.852811 -0.311098 1.000000
-4.231500 30.674400 -748.643188 -0.522463 0.833844 -0.178146 1.000000
-5.153200 29.946800 -748.333374 -0.480540 0.847387 -0.225869 1.000000
-5.540400 29.590401 -748.182617 -0.500986 0.855307 -0.132144 1.000000
-7.031900 28.182199 -747.587585 -0.973898 0.225849 -0.022704 1.000000
-7.350700 27.838301 -747.443115 -0.720124 0.671198 -0.175826 1.000000
-9.142000 25.676901 -746.537903 -0.688446 0.665979 0.287254 1.000000
-9.473200 25.310301 -746.383911 -0.244283 0.672960 0.698176 1.000000
-9.805600 24.961000 -746.236877 -0.032379 0.640541 0.767241 1.000000
-10.471700 24.364901 -745.984497 -0.379080 0.001276 -0.925363 1.000000
-10.890300 24.013300 -745.835205 0.185989 0.201818 0.961602 1.000000
-11.390900 23.694099 -745.697815 0.070051 0.113689 0.991044 1.000000
15.768500 39.173401 -752.234924 -0.387427 0.621531 -0.680882 1.000000
8.174500 37.789501 -751.549011 -0.178435 0.946657 -0.268333 1.000000
7.250500 37.503601 -751.417908 -0.277335 0.871409 -0.404637 1.000000
6.238600 37.336102 -751.333313 -0.362331 0.850624 -0.380992 1.000000
5.598100 37.106899 -751.229919 -0.339306 0.853687 -0.395082 1.000000
-2.203300 32.519901 -749.242310 -0.478375 0.878131 0.006663 1.000000
-3.257100 32.042198 -749.031372 0.101271 0.930345 0.352424 1.000000
-3.629600 31.457100 -748.788086 -0.814385 0.578900 -0.040649 1.000000
-5.932300 29.343399 -747.893372 -0.748467 0.642194 -0.165483 1.000000
-7.753000 27.529301 -747.128174 -0.868001 0.478051 -0.134316 1.000000
14.817400 39.335999 -752.177673 -0.147707 0.988845 -0.019168 1.000000
14.317700 39.260700 -752.138916 -0.058658 0.980426 -0.187945 1.000000
13.820200 39.169300 -752.093689 -0.162435 0.980714 -0.108697 1.000000
13.009000 39.215801 -752.099121 -0.202314 0.970852 -0.128514 1.000000
12.509300 39.138599 -752.059509 -0.171576 0.985139 0.007954 1.000000
11.300400 38.909100 -751.946472 -0.205090 0.972602 -0.109465 1.000000
10.803500 38.802898 -751.895325 -0.239370 0.970713 0.020449 1.000000
10.320400 38.584400 -751.798828 -0.342918 0.935353 0.086730 1.000000
9.832900 38.390301 -751.712219 -0.276727 0.921946 -0.270992 1.000000
9.338300 38.245499 -751.645325 -0.304450 0.904526 -0.298567 1.000000
8.853800 38.006599 -751.540588 -0.569269 0.738908 -0.360483 1.000000
5.138900 36.982300 -751.064270 -0.238299 0.937865 -0.252234 1.000000
3.917800 36.602200 -750.890076 -0.387839 0.892176 -0.231523 1.000000
2.350600 35.753300 -750.520508 -0.488923 0.842288 -0.226946 1.000000
1.563000 35.267601 -750.310913 -0.466627 0.842393 -0.269504 1.000000
1.128200 35.052700 -750.216614 -0.409449 0.854434 -0.319834 1.000000
-1.263100 33.116402 -749.393127 -0.374863 0.893449 -0.247439 1.000000
-1.710000 32.908401 -749.301514 -0.549159 0.816968 -0.176032 1.000000
-2.604000 32.311798 -749.045227 -0.713859 0.699779 -0.026752 1.000000
-4.565900 30.464199 -748.264709 -0.415057 0.908854 0.041372 1.000000
-6.269900 29.045500 -747.662170 -0.603632 0.774788 -0.187966 1.000000
-6.663000 28.656099 -747.497986 -0.693098 0.552808 -0.462622 1.000000
-8.259800 27.080299 -746.833618 -0.670082 0.742223 -0.009711 1.000000
-8.666200 26.635401 -746.646790 -0.866725 0.454993 -0.204374 1.000000
-9.073100 26.275000 -746.494080 -0.286682 0.944284 -0.161683 1.000000
-10.238400 24.870300 -745.906189 -0.276369 0.191121 -0.941856 1.000000
0.160700 34.419998 -749.875427 -0.533170 0.779741 -0.328228 1.000000
-3.983300 31.231600 -748.517822 -0.443583 0.835441 0.324458 1.000000
-10.742000 24.802099 -745.806824 -0.830491 0.490252 0.264458 1.000000
15.320100 39.422699 -752.073425 0.008972 0.999900 0.010966 1.000000
12.019400 39.062801 -751.871216 -0.230719 0.956218 -0.180041 1.000000
7.726300 37.719898 -751.255127 -0.218003 0.896886 -0.384798 1.000000
4.645400 36.919498 -750.879028 -0.354913 0.904079 -0.238069 1.000000
3.504700 36.443100 -750.666870 -0.411475 0.843289 -0.345764 1.000000
-0.730400 33.684502 -749.480530 -0.759572 0.570081 -0.313143 1.000000
-9.435200 25.888901 -746.184021 -0.985965 0.115645 -0.120414 1.000000
-9.767400 25.466801 -746.007874 -0.892751 0.344283 -0.290628 1.000000
-11.185600 24.084600 -745.425598 -0.022634 0.443367 0.896054 1.000000
16.222601 38.845901 -751.721313 0.036854 0.978424 -0.203293 1.000000
6.922200 37.603001 -751.052124 -0.268986 0.825615 -0.495991 1.000000
5.916700 37.384102 -750.945618 -0.295091 0.863867 -0.408234 1.000000
3.065200 36.272900 -750.445923 -0.464199 0.836800 -0.290318 1.000000
1.997300 35.651299 -750.175781 -0.598078 0.759039 -0.257221 1.000000
0.697200 35.007900 -749.892883 -0.645634 0.763276 0.023809 1.000000
-0.160100 34.215801 -749.557922 -0.752641 0.564885 -0.338284 1.000000
-2.878500 32.051498 -748.635681 -0.641241 0.708740 -0.294103 1.000000
-3.329000 31.748699 -748.505371 -0.566819 0.807378 -0.163881 1.000000
-4.156800 30.920700 -748.156372 -0.785701 0.582741 -0.207573 1.000000
-4.919800 30.301701 -747.892883 -0.508544 0.768502 -0.388313 1.000000
-5.381700 30.103201 -747.804626 -0.314732 0.930206 -0.188839 1.000000
-5.845000 29.818600 -747.681274 0.720824 0.631320 0.286092 1.000000
-6.939900 28.470699 -747.117798 -0.760614 0.489083 -0.426925 1.000000
-7.334800 28.138300 -746.976624 -0.600662 0.155058 -0.784323 1.000000
16.129000 39.399200 -751.748291 0.135693 0.977237 -0.163080 1.000000
14.608900 39.363098 -751.705994 -0.051516 0.990258 -0.129363 1.000000
14.107900 39.296299 -751.669922 -0.078161 0.982418 -0.169548 1.000000
13.598400 39.280998 -751.654480 0.061448 0.979553 -0.191573 1.000000
12.796900 39.266899 -751.634216 -0.126260 0.984828 -0.119045 1.000000
11.665700 39.015202 -751.511902 -0.183835 0.946411 -0.265540 1.000000
11.174000 38.876202 -751.446777 -0.208643 0.973249 -0.096200 1.000000
10.684600 38.714001 -751.372498 -0.060805 0.827233 -0.558559 1.000000
10.114200 38.604500 -751.317871 -0.272489 0.910724 -0.310375 1.000000
9.617000 38.490299 -751.262817 -0.334422 0.931702 -0.141751 1.000000
9.118200 38.384602 -751.210999 -0.174764 0.233463 -0.956532 1.000000
8.633800 38.153301 -751.108826 -0.542798 0.573235 -0.613818 1.000000
8.135400 38.030998 -751.050415 -0.190105 0.898280 -0.396172 1.000000
7.353500 37.813202 -750.948181 -0.220194 0.913879 -0.341086 1.000000
6.421900 37.606300 -750.847717 -0.140347 0.921286 -0.362678 1.000000
5.425400 37.284302 -750.699585 -0.374471 0.798764 -0.470901 1.000000
4.283600 36.890202 -750.519775 -0.403425 0.888126 -0.220184 1.000000
2.647400 36.098301 -750.170288 -0.403781 0.878110 -0.256678 1.000000
1.362700 35.322800 -749.833923 -0.656391 0.694908 -0.293691 1.000000
0.427800 34.718399 -749.572998 -0.415621 0.872048 -0.258441 1.000000
-1.095100 33.589199 -749.089478 -0.647068 0.704871 -0.290619 1.000000
-1.532200 33.182201 -748.917175 -0.713521 0.581692 0.390541 1.000000
-1.899800 32.881699 -748.789185 -0.435309 0.834474 -0.337875 1.000000
-2.268900 32.570400 -748.656921 -0.415120 0.884900 -0.211253 1.000000
-3.691000 31.564699 -748.225098 -0.621746 0.757511 -0.199020 1.000000
-5.982300 29.478201 -747.341309 -0.832138 0.501122 -0.237535 1.000000
-6.449600 29.044600 -747.157776 -0.718937 0.486486 -0.496448 1.000000
-7.712200 27.803801 -746.633972 0.118502 0.299583 0.946682 1.000000
-8.111000 27.459900 -746.487976 -0.388953 0.919947 -0.049117 1.000000
-8.512800 27.070200 -746.323425 -0.727687 0.560138 -0.395875 1.000000
-8.917100 26.680201 -746.158630 0.417180 0.066586 0.906381 1.000000
-10.147800 25.389799 -745.615417 0.264028 0.444116 -0.856183 1.000000
-10.894800 24.698000 -745.322571 -0.107538 0.631969 0.767496 1.000000
16.576200 39.363300 -751.513306 0.410299 0.837890 -0.359994 1.000000
15.625300 39.452099 -751.531921 -0.114341 0.979891 -0.163520 1.000000
15.097900 39.438000 -751.516724 0.054135 0.989398 -0.134761 1.000000
12.326700 39.170399 -751.358521 -0.178964 0.981300 -0.070865 1.000000
4.939900 37.231201 -750.441284 -0.324327 0.862311 -0.388885 1.000000
3.871800 36.814899 -750.253906 -0.330719 0.890396 -0.312761 1.000000
3.375400 36.567402 -750.145020 -0.485410 0.865672 -0.122433 1.000000
0.087600 34.541901 -749.267273 -0.433548 0.880324 -0.192525 1.000000
-0.420300 34.203300 -749.121277 -0.524195 0.713903 -0.464287 1.000000
-2.616300 32.352299 -748.333984 -0.486231 0.870172 -0.079871 1.000000
-4.342000 30.821600 -747.684387 -0.521967 0.826321 0.211526 1.000000
-5.490800 30.004700 -747.333679 -0.540389 0.840450 -0.040286 1.000000
-6.811500 28.869499 -746.851318 -0.544208 0.838816 -0.015003 1.000000
-9.367200 26.491600 -745.844604 -0.120720 0.044001 -0.991711 1.000000
-9.696500 26.074100 -745.669983 -0.250122 0.477226 0.842434 1.000000
-10.664000 25.283600 -745.333191 -0.359901 0.209581 -0.909147 1.000000
13.250100 39.363098 -751.262329 0.022853 0.970662 -0.239358 1.000000
9.314800 38.777000 -750.955017 -0.228587 0.874008 -0.428787 1.000000
8.820900 38.637600 -750.889893 -0.344185 0.554251 -0.757854 1.000000
7.786000 38.109100 -750.657776 -0.271860 0.903752 -0.330641 1.000000
7.003600 37.894100 -750.556885 -0.349340 0.826718 -0.441021 1.000000
6.069400 37.710899 -750.466187 -0.276071 0.930148 -0.242093 1.000000
2.944100 36.415001 -749.886597 -0.460108 0.882225 -0.099901 1.000000
2.378700 36.051201 -749.729492 -0.580658 0.789021 -0.200702 1.000000
1.950400 35.812000 -749.625183 -0.514058 0.822802 -0.242364 1.000000
1.088800 35.337700 -749.418213 -0.458108 0.840124 -0.290394 1.000000
0.658200 35.056198 -749.296692 -0.494655 0.846477 -0.196960 1.000000
-0.786200 34.014500 -748.849976 -0.755093 0.607528 -0.246465 1.000000
-2.987700 32.091000 -748.033386 -0.601072 0.799137 -0.009628 1.000000
-3.811700 31.386900 -747.734192 -0.805577 0.589620 0.058252 1.000000
-4.797900 30.604000 -747.400330 -0.483055 0.850238 -0.209174 1.000000
-6.183300 29.415600 -746.895325 -0.849547 0.481360 -0.215782 1.000000
-7.199500 28.603100 -746.548828 -0.420142 0.851136 -0.314719 1.000000
-7.593300 28.335100 -746.433472 -0.416339 0.909201 -0.003891 1.000000
-8.141100 28.411800 -746.454712 -0.337114 0.331067 0.881334 1.000000
-8.391100 27.473900 -746.071289 -0.597929 0.631615 -0.493502 1.000000
-9.834000 26.657301 -745.715576 -0.082906 0.973835 0.211596 1.000000
-10.171000 25.998899 -745.443481 -0.457321 0.230924 -0.858797 1.000000
16.188000 39.499901 -751.216919 0.095156 0.906047 -0.412341 1.000000
14.695500 39.515301 -751.196106 -0.111569 0.965649 -0.234680 1.000000
14.165700 39.469898 -751.168213 -0.062426 0.997753 -0.024335 1.000000
12.730400 39.296501 -751.072083 -0.192032 0.954787 -0.226947 1.000000
11.944500 39.175499 -751.008972 -0.046023 0.927039 -0.372130 1.000000
11.446400 39.082298 -750.962402 -0.105746 0.886860 -0.449775 1.000000
10.943000 39.023701 -750.929626 -0.139558 0.841756 -0.521507 1.000000
10.438200 38.974602 -750.900574 -0.043504 0.809727 -0.585192 1.000000
9.931200 38.941399 -750.878113 0.039806 0.866115 -0.498257 1.000000
8.377700 38.511600 -750.676270 -0.944766 0.264644 -0.193341 1.000000
5.616600 37.630699 -750.270630 -0.246674 0.896593 -0.367795 1.000000
4.551200 37.237900 -750.092712 -0.403476 0.854875 -0.326182 1.000000
-1.247400 33.783401 -748.592285 -0.517177 0.761898 -0.389922 1.000000
-1.606300 33.330601 -748.403015 -0.124983 0.162106 0.978826 1.000000
-1.972200 33.004002 -748.264526 -0.950355 0.291302 -0.109403 1.000000
-3.380000 31.762600 -747.737488 -0.646935 0.753524 -0.116952 1.000000
-5.199200 30.347799 -747.133179 -0.551572 0.814513 -0.179827 1.000000
-5.814100 29.792601 -746.897827 -0.885746 0.460039 -0.061796 1.000000
-8.806600 27.243299 -745.814026 -0.737480 0.523000 -0.427310 1.000000
-9.129900 26.902901 -745.670715 -0.900092 0.412483 -0.140329 1.000000
15.420300 39.636200 -751.099915 0.185624 0.887197 -0.422405 1.000000
13.692600 39.468498 -750.999573 -0.162234 0.930421 -0.328629 1.000000
6.574300 37.948299 -750.251282 -0.216650 0.871082 0.440771 1.000000
5.147700 37.538601 -750.058899 -0.304419 0.832078 -0.463653 1.000000
4.082900 37.116600 -749.868408 -0.390530 0.756549 -0.524519 1.000000
3.663200 36.852100 -749.753723 -0.506160 0.743578 -0.436914 1.000000
1.600100 35.733799 -749.263123 -0.319803 0.793939 -0.517095 1.000000
0.309300 34.910599 -748.906311 -0.676821 0.430704 -0.596999 1.000000
-0.125700 34.656200 -748.795288 -0.510447 0.816404 -0.270053 1.000000
-2.227100 32.699799 -747.965576 -0.798764 0.470901 -0.374471 1.000000
-2.596900 32.389000 -747.833130 -0.331884 0.940557 0.072149 1.000000
-4.094600 31.182400 -747.317627 -0.444448 0.850448 -0.281432 1.000000
-6.705900 29.262800 -746.493103 -0.681848 0.629272 -0.372963 1.000000
-7.885200 28.194799 -746.039612 -0.363826 0.856153 0.366923 1.000000
13.204100 39.467602 -750.778687 0.076854 0.752592 0.653987 1.000000
12.391200 39.522301 -750.784912 -0.165865 0.674113 -0.719764 1.000000
9.532200 39.090199 -750.554199 -0.204835 0.882706 -0.422933 1.000000
9.035300 38.980701 -750.500183 -0.195626 0.899880 -0.389803 1.000000
8.076000 38.460201 -750.271118 -0.628126 0.754059 -0.191970 1.000000
7.586100 38.265800 -750.182922 -0.222216 0.907745 -0.355836 1.000000
7.084500 38.165199 -750.132385 -0.264454 0.899736 -0.347189 1.000000
6.086300 37.900600 -750.005920 -0.152120 0.902766 -0.402335 1.000000
3.254300 36.675598 -749.455383 -0.766157 0.628757 -0.132920 1.000000
2.828800 36.446899 -749.354614 -0.405353 0.906820 -0.115616 1.000000
2.326100 36.240002 -749.261230 -0.528261 0.845501 -0.077894 1.000000
1.181500 35.610500 -748.984375 -0.497119 0.861004 -0.107446 1.000000
0.752200 35.327499 -748.861572 -0.642801 0.531450 -0.551695 1.000000
-0.549000 34.522400 -748.510803 -0.442391 0.880403 0.170824 1.000000
-0.909000 34.205200 -748.375488 -0.761800 0.594614 -0.257088 1.000000
-2.952200 32.196098 -747.523682 -0.339256 0.903214 -0.262887 1.000000
-3.704700 31.786600 -747.343628 -0.273924 0.961751 0.001207 1.000000
-4.533400 31.049500 -747.029480 -0.571089 0.813546 -0.109544 1.000000
-4.912500 30.657900 -746.863770 -0.800879 0.237011 -0.549926 1.000000
-5.448100 30.221800 -746.677124 -0.503276 0.190794 -0.842799 1.000000
-5.920100 31.663900 -747.250488 -0.184257 0.793372 0.580182 1.000000
-7.076400 29.057800 -746.174927 -0.423930 0.495950 -0.757837 1.000000
-7.469000 28.690599 -746.018677 -0.063524 0.551950 0.831454 1.000000
-8.260400 27.995001 -745.722229 -0.132802 0.965717 -0.223056 1.000000
-8.658900 27.675301 -745.585205 -0.287065 0.940860 -0.179931 1.000000
-9.135900 27.485399 -745.499084 -0.383587 0.804088 -0.454206 1.000000
-9.587200 27.290400 -745.411499 -0.523036 0.667670 0.529764 1.000000
16.490601 39.700100 -750.739685 0.015146 0.979836 -0.199229 1.000000
15.977700 39.740299 -750.745728 0.065615 0.997135 0.037648 1.000000
15.107000 39.848801 -750.772278 -0.026702 0.983314 -0.179945 1.000000
14.552500 39.719398 -750.708984 -0.200976 0.838660 -0.506218 1.000000
11.908100 39.505299 -750.569885 -0.049525 0.911527 -0.408246 1.000000
11.412400 39.400700 -750.517822 -0.142872 0.903911 -0.403153 1.000000
10.903900 39.382801 -750.500488 -0.071684 0.944931 -0.319322 1.000000
10.400300 39.330601 -750.469421 -0.111320 0.889150 -0.443870 1.000000
8.553500 38.942799 -750.275879 -0.317196 0.878740 -0.356656 1.000000
5.602600 37.845001 -749.773621 -0.333222 0.864536 -0.376219 1.000000
4.819500 37.591400 -749.655518 -0.361888 0.829655 -0.425099 1.000000
1.920300 36.033401 -748.968201 -0.415454 0.893154 -0.172261 1.000000
-1.249900 33.979099 -748.074829 -0.729004 0.634123 -0.257761 1.000000
-1.611400 33.618900 -747.922119 -0.600035 0.794720 0.091531 1.000000
-1.976500 33.300201 -747.786011 -0.869600 0.479927 -0.116042 1.000000
-5.427900 30.901300 -746.747803 0.827945 0.351679 0.436839 1.000000
-5.510700 31.518101 -746.995422 -0.114092 0.894424 -0.432422 1.000000
-6.193100 29.796301 -746.285889 -0.798501 0.147760 -0.583578 1.000000
14.053900 39.721600 -750.555908 -0.171685 0.364653 -0.915179 1.000000
12.934100 39.865101 -750.591919 -0.022891 0.480707 -0.876583 1.000000
6.726100 38.200199 -749.796875 -0.112415 0.877978 -0.465314 1.000000
4.383200 37.407700 -749.430420 -0.314998 0.906901 -0.279835 1.000000
3.882400 37.248402 -749.356201 -0.444383 0.884451 -0.142375 1.000000
0.397500 35.253899 -748.481506 -0.447597 0.837491 -0.313474 1.000000
-0.031300 34.915501 -748.336182 -0.591294 0.724864 -0.353473 1.000000
-2.350700 32.933601 -747.489502 -0.925999 0.275374 -0.258253 1.000000
-3.234900 32.035198 -747.109009 -0.522217 0.339040 -0.782522 1.000000
-3.911200 31.575199 -746.909790 -0.452510 0.420072 -0.786622 1.000000
-5.814200 30.173500 -746.305786 -0.170744 0.943874 0.282752 1.000000
-6.664700 29.535101 -746.030884 -0.602667 0.585785 -0.541893 1.000000
-7.837600 28.738600 -745.685913 -0.311321 0.807539 -0.500959 1.000000
13.552100 39.882500 -750.490173 0.124876 0.469361 -0.874132 1.000000
9.974000 39.421398 -750.234619 -0.185797 0.860614 -0.474155 1.000000
9.264000 39.280499 -750.163879 -0.323076 0.894786 -0.308188 1.000000
7.826400 38.514000 -749.826294 -0.294304 0.294304 -0.909269 1.000000
7.326700 38.405499 -749.772827 -0.136623 0.832957 -0.536207 1.000000
3.422600 37.049999 -749.149414 -0.456163 0.889848 -0.009255 1.000000
2.588100 36.407799 -748.873779 -0.671529 0.661773 -0.333325 1.000000
1.510000 35.948700 -748.667419 -0.440700 0.758528 -0.480019 1.000000
0.935800 35.644299 -748.533203 -0.590318 0.768823 -0.245836 1.000000
-0.716700 34.511200 -748.043274 -0.476351 0.800334 -0.364080 1.000000
-2.675300 32.628399 -747.244507 -0.732657 0.603838 -0.313996 1.000000
-4.320600 31.382700 -746.709229 -0.632522 0.635860 -0.442265 1.000000
-7.316500 29.233000 -745.782410 -0.256986 0.859156 -0.442503 1.000000
-8.498400 28.169300 -745.329712 -0.418025 0.303878 0.856103 1.000000
-8.820500 27.626301 -745.103882 -0.472381 0.502216 -0.724317 1.000000
15.568200 39.871101 -750.424072 0.139881 0.952522 -0.270436 1.000000
12.432500 39.888901 -750.369690 -0.432039 0.865594 -0.253160 1.000000
8.183400 38.989700 -749.922974 -0.409113 0.829283 -0.380680 1.000000
6.226700 38.211102 -749.569885 -0.301975 0.897001 -0.322801 1.000000
5.238800 37.842400 -749.401611 -0.424461 0.837958 -0.343015 1.000000
3.053000 36.789902 -748.933411 -0.557931 0.794157 -0.240889 1.000000
-4.716500 31.048500 -746.461121 -0.673674 0.532555 -0.512395 1.000000
-5.326500 30.685900 -746.302612 -0.615642 0.722289 -0.315093 1.000000
-8.196800 28.567600 -745.390381 -0.268427 0.636920 0.722689 1.000000
16.213600 39.797600 -750.300476 -0.038355 0.916542 -0.398094 1.000000
14.893000 39.890800 -750.311279 -0.001257 0.936483 -0.350710 1.000000
11.652800 39.708099 -750.171570 -0.182598 0.822446 -0.538740 1.000000
11.148300 39.668499 -750.145386 -0.081700 0.824162 -0.560430 1.000000
10.647800 39.601299 -750.107971 -0.139197 0.882540 -0.449163 1.000000
8.810300 39.176498 -749.899109 -0.488905 0.819034 -0.300260 1.000000
2.127700 36.261101 -748.585388 -0.479078 0.843361 -0.243365 1.000000
-0.388700 34.903599 -747.985779 -0.748971 0.662175 -0.023799 1.000000
-1.187400 34.417301 -747.773071 -0.542639 0.836034 -0.081182 1.000000
-1.465900 33.943501 -747.575989 -0.964012 0.093209 -0.248983 1.000000
-3.591400 31.946301 -746.725891 -0.189637 0.963878 -0.187021 1.000000
-6.405000 30.009399 -745.886230 -0.456753 0.746965 -0.483136 1.000000
16.710800 39.835499 -750.185181 0.107850 0.743131 -0.660397 1.000000
14.369800 40.025002 -750.213684 0.255946 0.915334 -0.310895 1.000000
13.882100 40.171700 -750.262878 0.088493 0.916242 -0.390730 1.000000
13.231000 40.198700 -750.260498 0.091100 0.805436 -0.585640 1.000000
9.624200 39.478298 -749.895081 -0.305379 0.932871 -0.191036 1.000000
6.978400 38.450802 -749.425415 -0.292754 0.936537 -0.192857 1.000000
5.768100 38.133999 -749.272400 -0.338995 0.913121 -0.226477 1.000000
4.854500 37.739601 -749.094177 -0.448799 0.869268 -0.207252 1.000000
4.147500 37.446201 -748.961121 -0.343610 0.928712 -0.139376 1.000000
0.669900 35.548901 -748.122620 -0.607917 0.767977 -0.201613 1.000000
0.240300 35.267799 -748.000122 -0.554612 0.766811 -0.323121 1.000000
-1.851600 33.645302 -747.301208 0.975911 0.217001 0.022530 1.000000
-3.022800 32.576599 -746.845215 -0.278119 0.912987 -0.298504 1.000000
-5.735200 30.543699 -745.967590 -0.188295 0.949600 -0.250608 1.000000
-6.813700 29.840401 -745.661072 -0.363277 0.869106 -0.335686 1.000000
-7.592300 28.967199 -745.292114 0.645394 0.049865 -0.762220 1.000000
7.864100 38.933201 -749.537109 -0.395653 0.730562 -0.556541 1.000000
3.714100 37.270599 -748.778687 -0.467746 0.881680 0.062090 1.000000
1.301800 35.989201 -748.210510 -0.350619 0.886330 -0.302466 1.000000
-2.224600 33.349998 -747.070313 -0.690960 0.362713 -0.625311 1.000000
-2.588900 32.980202 -746.913086 -0.413667 0.299870 -0.859627 1.000000
-3.999600 31.841101 -746.423279 -0.545708 0.800683 -0.247201 1.000000
-5.056000 31.042400 -746.078430 -0.803186 0.523407 -0.284494 1.000000
12.730900 40.129299 -750.057983 -0.305794 0.928656 -0.209969 1.000000
12.092000 40.023399 -750.001587 -0.279721 0.779109 -0.561022 1.000000
10.251700 39.660599 -749.815918 -0.168810 0.893104 -0.416974 1.000000
2.803700 36.736698 -748.475891 -0.436786 0.856714 -0.274332 1.000000
-0.705700 34.730400 -747.590393 -0.523821 0.775255 -0.352975 1.000000
-4.448300 31.550400 -746.225525 -0.730594 0.508600 -0.455586 1.000000
-7.126800 29.554800 -745.361816 -0.904742 0.425216 -0.025169 1.000000
15.973800 40.144100 -750.041626 0.006938 0.673002 -0.739608 1.000000
15.373500 40.120602 -750.019104 0.037837 0.808581 -0.587167 1.000000
9.167400 39.435299 -749.607117 -0.270015 0.944368 -0.187777 1.000000
8.468100 39.205502 -749.499023 -0.230174 0.842954 -0.486261 1.000000
7.418100 38.839001 -749.328003 -0.333222 0.376219 -0.864536 1.000000
6.515300 38.422699 -749.140015 -0.322294 0.801766 -0.503287 1.000000
5.379700 38.077702 -748.975830 -0.495492 0.854246 -0.157322 1.000000
3.343700 37.054699 -748.517883 -0.553473 0.781840 -0.287045 1.000000
1.853500 36.273899 -748.169800 -0.629439 0.716369 -0.301036 1.000000
-3.427400 32.427799 -746.499817 -0.916964 0.397131 -0.038262 1.000000
-6.148600 30.418501 -745.628113 -0.507076 0.510423 -0.694509 1.000000
11.471400 39.919300 -749.760315 -0.128464 0.989518 -0.065968 1.000000
10.973500 39.836102 -749.715576 -0.198525 0.972391 -0.122655 1.000000
4.502000 37.695000 -748.707275 -0.493814 0.852681 -0.170536 1.000000
2.388000 36.569099 -748.205322 -0.492787 0.758008 -0.427300 1.000000
-0.118700 35.185600 -747.590576 -0.552935 0.733419 -0.395423 1.000000
-1.129200 34.498100 -747.290283 -0.637964 0.743004 -0.202356 1.000000
-1.562200 34.132500 -747.132813 -0.620637 0.746336 -0.240399 1.000000
-2.888600 33.374699 -746.797180 0.051101 0.262985 -0.963446 1.000000
-5.496700 30.931000 -745.751282 -0.330222 0.854237 -0.401538 1.000000
14.876600 40.193501 -749.878723 -0.032475 0.673512 -0.738463 1.000000
13.572500 40.358501 -749.916626 0.070182 0.983736 -0.165344 1.000000
1.022800 35.870399 -747.823120 -0.495469 0.859487 -0.125673 1.000000
-3.262500 33.047100 -746.585999 0.341287 0.029399 0.939499 1.000000
-6.576100 30.226801 -745.371582 -0.694494 0.503717 -0.513758 1.000000
16.478901 40.177399 -749.861328 0.354580 0.915643 -0.189394 1.000000
13.027000 40.500801 -749.913879 -0.039703 0.215358 -0.975728 1.000000
9.880600 39.639999 -749.494324 -0.126131 0.980885 0.148174 1.000000
6.019600 38.360901 -748.889526 -0.388552 0.663018 -0.639871 1.000000
0.574100 35.581299 -747.641724 -0.478480 0.765895 -0.429489 1.000000
-2.027400 33.806900 -746.864990 -0.826120 0.378969 -0.417024 1.000000
-4.841500 31.483601 -745.861511 -0.405573 0.399211 -0.822278 1.000000
14.193800 40.330399 -749.846375 0.062060 0.277368 -0.958757 1.000000
6.979600 38.864399 -749.089905 -0.743183 0.408505 -0.529908 1.000000
5.031400 37.924099 -748.665527 -0.280813 0.872797 -0.399210 1.000000
4.040000 37.533401 -748.484985 -0.470474 0.719842 -0.510373 1.000000
-3.717300 32.213200 -746.157593 -0.378407 0.076759 -0.922451 1.000000
12.457000 40.637600 -749.806030 -0.053208 0.017736 -0.998426 1.000000
11.989600 40.819698 -749.868591 0.015773 0.263290 -0.964588 1.000000
10.558800 39.727299 -749.393494 -0.071216 0.867154 0.492923 1.000000
8.851600 39.385300 -749.215088 -0.058580 0.767253 0.638663 1.000000
8.063400 39.258999 -749.145630 -0.163379 0.963285 0.213047 1.000000
3.003600 37.121601 -748.162781 -0.450224 0.437222 -0.778547 1.000000
1.519000 36.253300 -747.776978 -0.423064 0.394328 -0.815796 1.000000
-0.487400 35.046101 -747.242004 -0.472577 0.842018 -0.260148 1.000000
-2.365200 33.532700 -746.586182 -0.803485 0.335714 -0.491638 1.000000
-2.800800 33.088501 -746.396484 -0.480797 0.792753 -0.374668 1.000000
-4.134400 32.016201 -745.931824 -0.591706 0.694468 -0.409388 1.000000
-5.875800 30.898800 -745.439270 -0.322405 0.845730 -0.425201 1.000000
16.077000 40.449699 -749.643372 0.177416 0.790030 -0.586836 1.000000
15.580700 40.556400 -749.674805 0.023815 0.741060 -0.671016 1.000000
14.611500 40.543098 -749.646484 0.229320 0.600599 -0.765959 1.000000
11.510700 41.023201 -749.767578 0.280411 0.777862 -0.562406 1.000000
11.048600 41.189800 -749.824219 0.409055 0.841619 -0.352634 1.000000
10.514200 41.365002 -749.882385 0.250621 0.946335 0.204058 1.000000
9.994300 41.456402 -749.907227 0.130436 0.830979 -0.540796 1.000000
9.465700 41.614601 -749.958679 0.265485 0.423259 -0.866239 1.000000
8.937000 41.785900 -750.015503 0.220348 0.867900 0.445192 1.000000
8.411800 41.944698 -750.067383 0.263727 0.964591 -0.003613 1.000000
7.893600 42.063599 -750.103271 0.165544 0.896817 -0.410261 1.000000
7.371200 42.225498 -750.156372 0.028917 0.305515 -0.951748 1.000000
5.579300 38.462502 -748.591309 -0.316707 0.817767 -0.480576 1.000000
3.614500 37.516701 -748.162170 -0.341976 0.565639 -0.750403 1.000000
2.553300 36.984699 -747.921814 -0.434747 0.611311 -0.661282 1.000000
2.052500 36.769600 -747.822876 -0.521346 0.675571 -0.521346 1.000000
0.207700 35.550400 -747.286011 -0.693299 0.516215 -0.502850 1.000000
-0.947400 34.845600 -746.973511 -0.546432 0.693485 -0.469564 1.000000
-1.382600 34.560600 -746.847900 -0.592294 0.704483 -0.391013 1.000000
-3.272000 32.857498 -746.114075 -0.400171 0.507973 -0.762776 1.000000
-5.218400 31.405899 -745.480713 -0.479515 0.436964 -0.761005 1.000000
-6.286700 30.746500 -745.188599 -0.312097 0.906986 -0.282792 1.000000
14.144200 40.757801 -749.574585 0.130305 0.687469 -0.714428 1.000000
13.643600 40.847401 -749.598999 0.092804 0.523985 -0.846657 1.000000
12.977900 40.871399 -749.592773 0.031842 0.557928 -0.829278 1.000000
6.892100 42.407200 -750.069885 0.104722 0.970252 -0.218275 1.000000
6.401500 42.331001 -750.027283 -0.011859 0.098109 0.995105 1.000000
5.378100 42.417301 -750.037903 0.326043 0.682906 -0.653708 1.000000
6.248600 38.770500 -748.581177 -0.189213 0.638402 -0.746084 1.000000
5.121100 38.338699 -748.379517 -0.382855 0.489472 -0.783479 1.000000
4.625400 38.153801 -748.292725 -0.453097 0.637011 -0.623635 1.000000
4.211000 37.881401 -748.172485 -0.328198 0.596576 -0.732382 1.000000
1.086300 36.330502 -747.469727 -0.505245 0.702007 -0.501910 1.000000
0.662200 36.015400 -747.331909 -0.435570 0.302264 -0.847889 1.000000
-1.784700 34.312000 -746.583496 -0.471497 0.785828 -0.400205 1.000000
-3.688700 32.709801 -745.888977 -0.881838 0.296961 -0.366302 1.000000
-4.508800 32.036999 -745.596924 -0.450488 0.863309 -0.227504 1.000000
-6.716400 30.578400 -744.953308 -0.148203 0.600297 -0.785926 1.000000
15.107300 40.626202 -749.439209 -0.023502 0.822562 -0.568190 1.000000
12.344600 41.044998 -749.541382 0.121490 0.827011 -0.548901 1.000000
3.185300 37.606998 -747.924316 -0.360364 0.728881 -0.582126 1.000000
1.630200 36.729099 -747.530396 -0.580888 0.644870 -0.496701 1.000000
-0.218600 35.453499 -746.968201 -0.471165 0.422255 -0.774406 1.000000
-2.173200 34.043900 -746.349121 -0.789995 0.358796 -0.497166 1.000000
-2.608400 33.621399 -746.167175 -0.391833 0.336078 -0.856457 1.000000
-4.089500 32.489498 -745.672180 -0.460339 0.361581 -0.810770 1.000000
-4.991400 31.837700 -745.385986 -0.537587 0.788144 -0.299717 1.000000
-5.672600 31.291401 -745.147888 -0.437995 0.883265 -0.167340 1.000000
5.881300 42.554699 -749.942688 0.023061 0.108715 0.993805 1.000000
-0.635800 35.191898 -746.797913 -0.668420 0.598411 -0.441724 1.000000
-3.036600 33.330399 -745.984070 -0.389262 0.440522 -0.808959 1.000000
2.737500 37.411999 -747.749817 -0.561354 0.713698 -0.418946 1.000000
13.330400 41.236000 -749.487488 0.123310 0.375473 -0.918594 1.000000
11.869300 41.219200 -749.444214 0.018072 0.774326 -0.632529 1.000000
3.803200 37.903400 -747.899109 -0.422414 0.858653 -0.290314 1.000000
2.244900 37.129601 -747.546692 -0.532838 0.787328 -0.310159 1.000000
-6.163900 31.134899 -744.908081 -0.355410 0.431231 -0.829291 1.000000
16.311100 40.556400 -749.188599 0.100841 0.870638 -0.481478 1.000000
15.849000 40.825199 -749.285522 0.146010 0.757143 -0.636723 1.000000
14.687500 40.948898 -749.305481 0.195053 0.417972 -0.887273 1.000000
13.926800 41.200298 -749.387695 0.246708 0.315959 -0.916136 1.000000
11.344800 41.458302 -749.425415 0.366816 0.738523 -0.565712 1.000000
10.819600 41.569500 -749.456909 0.190198 0.849150 -0.492717 1.000000
10.293600 41.694199 -749.493774 0.296254 0.747842 -0.594110 1.000000
9.761200 41.871601 -749.551880 0.139344 0.840466 -0.523641 1.000000
9.233400 42.030499 -749.602600 0.295352 0.829798 -0.473500 1.000000
8.714400 42.137600 -749.632507 0.188600 0.768200 -0.611800 1.000000
8.189700 42.296902 -749.683472 0.173956 0.504025 -0.845989 1.000000
7.669500 42.433701 -749.725525 0.159093 0.634858 -0.756072 1.000000
0.339500 36.011700 -746.934326 -0.598159 0.769061 -0.225281 1.000000
-1.026800 35.082699 -746.522583 -0.531202 0.741709 -0.409502 1.000000
-1.459500 34.737099 -746.371521 -0.829349 0.383870 -0.405986 1.000000
-3.435000 33.163300 -745.682800 -0.285497 0.303066 -0.909199 1.000000
12.894000 41.439201 -749.346802 -0.143489 0.321143 -0.936097 1.000000
7.185200 42.616501 -749.672791 0.055059 0.577415 -0.814592 1.000000
6.675800 42.690300 -749.689209 0.318298 0.625285 -0.712534 1.000000
5.449700 42.807701 -749.704285 0.156683 0.331392 -0.930392 1.000000
4.943500 42.757702 -749.670715 -0.426033 0.871637 -0.242372 1.000000
4.398200 38.458199 -747.914185 -0.331455 0.916883 -0.222405 1.000000
1.374000 36.678398 -747.113220 -0.397060 0.909754 -0.121208 1.000000
0.946100 36.422901 -746.998413 -0.583544 0.794646 -0.167373 1.000000
-1.933500 34.415901 -746.109009 -0.965561 0.154646 -0.209227 1.000000
-2.444900 34.027199 -745.937988 -0.440405 0.897798 -0.001307 1.000000
-3.847000 32.922699 -745.453430 -0.979514 0.163868 -0.117049 1.000000
-4.445300 32.480099 -745.258179 -0.299101 0.923062 -0.241857 1.000000
-5.350200 31.809900 -744.962708 -0.196484 0.400246 -0.895096 1.000000
15.347400 40.916302 -749.105774 -0.001313 0.894164 -0.447738 1.000000
3.479500 37.833199 -747.535095 -0.363475 0.930338 0.048551 1.000000
1.922000 36.998299 -747.154724 -0.394703 0.902794 0.170799 1.000000
-0.081000 35.824799 -746.625000 -0.539965 0.804501 -0.247419 1.000000
-1.196500 35.692799 -746.541321 0.186550 0.805349 0.562683 1.000000
-2.837900 33.793999 -745.727722 -0.184031 0.189251 -0.964529 1.000000
-4.846200 32.208900 -745.031128 -0.432053 0.438526 -0.788052 1.000000
-5.834900 31.648300 -744.777222 -0.237727 0.271487 -0.932620 1.000000
-6.664400 31.312201 -744.618530 0.474764 0.429082 -0.768432 1.000000
14.428300 41.335800 -749.142578 0.198980 0.480245 -0.854267 1.000000
13.589500 41.563301 -749.211426 0.122542 0.600897 -0.789877 1.000000
12.372300 41.459900 -749.135925 0.027262 0.207427 -0.977871 1.000000
6.173300 42.863800 -749.532715 0.056251 0.935330 -0.349277 1.000000
2.949500 37.558701 -747.294922 -0.259599 0.950967 0.168134 1.000000
-0.478600 35.570900 -746.394897 -0.520278 0.819785 -0.239297 1.000000
-1.516000 35.328999 -746.268188 0.351360 0.121677 0.928300 1.000000
16.201000 40.979401 -748.902222 0.414461 0.502923 -0.758479 1.000000
14.996400 41.238701 -748.973206 0.506429 0.700310 -0.503086 1.000000
11.908700 41.600300 -749.032471 -0.003948 0.448789 -0.893629 1.000000
11.086100 41.752499 -749.070923 0.198114 0.887846 -0.415307 1.000000
10.567600 41.826698 -749.086304 0.097323 0.579578 -0.809085 1.000000
10.105700 42.011501 -749.148071 0.173836 0.397954 -0.900785 1.000000
9.503600 42.180599 -749.199585 0.402628 0.550532 -0.731304 1.000000
9.036000 42.429199 -749.286987 0.218646 0.271567 -0.937254 1.000000
8.580400 42.605900 -749.345825 0.292639 0.266690 -0.918280 1.000000
8.061400 42.733700 -749.382874 -0.003870 0.917125 -0.398582 1.000000
7.553900 42.784401 -749.389099 0.048320 0.865610 -0.498382 1.000000
4.604300 43.005402 -749.395325 -0.276042 0.332136 -0.901935 1.000000
3.765800 42.862202 -749.313721 -0.428712 0.541270 -0.723348 1.000000
2.318100 37.287601 -747.014771 -0.610551 0.729762 0.307692 1.000000
0.603100 36.362999 -746.591919 -0.404259 0.868013 0.288321 1.000000
-1.633400 34.903099 -745.937378 -0.577572 0.792056 -0.197631 1.000000
-3.244900 33.708900 -745.408081 -0.412110 0.710021 -0.570996 1.000000
-3.690100 33.395500 -745.268677 -0.045913 0.177764 -0.983001 1.000000
-4.213700 33.078300 -745.125427 -0.364860 0.393047 0.844033 1.000000
-6.254600 31.666599 -744.495911 -0.159210 0.668683 0.726302 1.000000
15.710400 41.166500 -748.763489 -0.039462 0.477621 -0.877679 1.000000
14.205200 41.730801 -748.949219 0.254050 0.626446 -0.736902 1.000000
