ply
format ascii 1.0
element vertex 692
property float x
property float y
property float z
property float nx
property float ny
property float nz
property float label
element face 0
property list uchar int vertex_indices
end_header
43.159199 7.908700 -739.657471 -0.235338 0.825991 0.512206 0.000000
43.739799 7.718700 -739.450012 0.530096 0.434316 -0.728263 0.000000
43.873699 7.746900 -739.275024 0.676971 0.469701 -0.566650 0.000000
43.999298 7.782800 -739.093872 0.250093 0.924630 -0.287250 0.000000
44.122898 7.820600 -738.911377 0.375391 0.840311 -0.391098 0.000000
42.190498 7.688800 -741.295471 0.190078 0.981087 0.036599 0.000000
42.358398 7.684200 -741.146484 -0.122429 0.991785 -0.037066 0.000000
42.522202 7.893300 -740.623413 -0.384585 0.770792 -0.507911 0.000000
42.694801 7.936400 -740.385925 -0.982424 0.180880 0.046107 0.000000
42.742001 8.047300 -740.145386 -0.906853 0.252634 0.337332 0.000000
42.894100 8.109500 -739.893127 -0.768632 0.343226 0.539815 0.000000
43.050201 8.116000 -739.735718 -0.445573 0.789069 0.422889 0.000000
43.708801 7.851900 -739.586975 -0.887302 0.386237 0.252024 0.000000
43.951401 7.777000 -739.492371 0.075233 0.960182 0.269055 0.000000
44.167400 7.727700 -739.377625 -0.176934 0.975021 0.134269 0.000000
44.275002 7.781000 -739.182678 0.017991 0.970337 -0.241085 0.000000
42.713501 7.880900 -740.735291 -0.188589 0.977459 -0.094911 0.000000
42.884800 7.768700 -740.773682 -0.456578 0.272102 0.847052 0.000000
42.601898 8.144700 -740.372681 0.837660 0.512823 0.187985 0.000000
43.911999 7.830600 -739.704224 0.447665 0.888314 0.102444 0.000000
42.728802 7.999700 -740.570618 -0.954486 0.046776 -0.294563 0.000000
42.823898 8.221300 -740.090027 0.905295 0.044259 -0.422471 0.000000
42.990501 8.269800 -739.848572 0.755638 0.029550 -0.654323 0.000000
43.799500 8.018800 -739.537415 0.711821 0.627887 -0.314751 0.000000
43.748901 7.904300 -739.781921 -0.182429 0.636202 -0.749645 0.000000
43.193501 8.262300 -739.687683 -0.264622 0.256132 0.929716 0.000000
43.622200 8.113800 -739.549988 0.615172 0.727605 -0.303570 0.000000
42.560200 7.736700 -741.227783 0.050478 0.984913 -0.165522 0.000000
42.774502 8.188900 -740.298584 -0.942749 0.332809 0.021512 0.000000
42.864101 8.376800 -739.970093 -0.808479 0.361982 0.464038 0.000000
42.571701 8.298000 -740.663513 -0.902953 0.319642 -0.287236 0.000000
42.532398 8.439800 -740.448914 0.810126 0.023542 0.585783 0.000000
42.715599 8.368800 -740.403687 -0.922233 0.131352 0.363639 0.000000
42.759201 8.483000 -740.160583 -0.894263 0.340742 0.290152 0.000000
42.977501 8.534300 -739.866028 -0.630276 0.243623 0.737156 0.000000
43.228699 8.450900 -739.779419 -0.162654 0.329479 0.930047 0.000000
42.445900 8.632200 -740.556396 -0.089745 0.113056 0.989527 0.000000
42.686298 8.558300 -740.463074 -0.063496 0.967374 -0.245267 0.000000
42.826500 8.684100 -740.109009 -0.227521 0.971006 -0.073354 0.000000
43.068600 8.712500 -739.832520 -0.308142 0.863104 0.400125 0.000000
43.734699 8.443300 -739.688599 0.110862 0.731689 0.672563 0.000000
42.455799 8.709700 -740.809326 0.895041 0.200034 -0.398607 0.000000
42.656502 8.667800 -740.696411 0.694276 0.490176 -0.526981 0.000000
42.826599 8.661500 -740.549011 0.870501 0.477556 -0.119031 0.000000
42.754601 8.782000 -740.401978 0.899307 0.113641 -0.422295 0.000000
42.808998 8.885600 -740.167114 0.478948 0.752163 -0.452614 0.000000
42.954201 8.902600 -740.001282 0.490296 0.681060 -0.543844 0.000000
43.127602 8.893000 -739.856689 0.492711 0.693136 -0.526115 0.000000
42.678501 8.893300 -740.629211 0.533898 0.761088 -0.368373 0.000000
42.732601 8.997400 -740.393799 -0.884434 0.326954 0.332981 0.000000
43.812500 8.921200 -739.523010 0.410717 0.502351 -0.760890 0.000000
42.441700 9.055500 -740.913208 -0.685311 0.348380 0.639515 0.000000
42.632099 8.977500 -740.874573 0.732475 0.120346 0.670073 0.000000
42.625801 9.087500 -740.684814 -0.897952 0.374759 0.230734 0.000000
42.796902 9.183600 -740.354492 -0.918380 0.120149 0.377019 0.000000
42.903702 9.237200 -740.159729 -0.724501 0.445974 0.525553 0.000000
43.080399 9.224300 -740.018005 -0.473257 0.252710 0.843899 0.000000
43.715900 8.932500 -739.944885 -0.067870 0.737907 0.671481 0.000000
43.865002 8.946600 -739.781128 -0.230537 0.960353 0.156765 0.000000
44.057999 8.921800 -739.645386 0.107580 0.764849 0.635164 0.000000
42.414101 9.005800 -741.446777 0.372348 0.868812 -0.326379 0.000000
42.562401 9.027200 -741.270203 0.210666 0.902232 -0.376293 0.000000
42.645500 9.104100 -741.055908 -0.780890 0.574322 0.245691 0.000000
42.648701 9.205000 -740.872986 -0.671306 0.162879 0.723062 0.000000
42.736599 9.276700 -740.663208 -0.950699 0.309384 -0.021294 0.000000
42.740799 9.376300 -740.481995 0.947427 0.172136 -0.269725 0.000000
42.808601 9.466700 -740.257629 0.736819 0.388922 -0.553025 0.000000
42.960800 9.476900 -740.097595 0.566634 0.255848 -0.783242 0.000000
43.554798 9.326600 -739.811584 0.462777 0.871538 -0.162045 0.000000
43.752201 9.191800 -739.867676 0.160832 0.584707 -0.795142 0.000000
43.934601 9.071400 -739.912170 -0.413463 0.204524 0.887253 0.000000
42.673599 8.961900 -741.661621 0.118545 0.992948 0.001088 0.000000
42.821999 8.976700 -741.496887 0.414342 0.794827 -0.443362 0.000000
42.873299 9.084100 -741.257324 0.439245 0.772353 -0.458840 0.000000
42.688801 9.416200 -740.836914 0.991181 0.102457 0.084037 0.000000
42.683601 9.576300 -740.555908 0.968892 0.176279 -0.173706 0.000000
42.769699 9.649200 -740.345520 -0.731916 0.342426 0.589103 0.000000
42.935699 9.646100 -740.196228 -0.525583 0.288834 0.800211 0.000000
43.127899 9.618300 -740.066528 -0.476752 0.277976 0.833928 0.000000
43.462002 9.559400 -739.859924 -0.483993 0.561030 0.671562 0.000000
43.596802 9.577200 -739.998779 -0.385753 0.902980 0.189265 0.000000
42.737099 12.773300 -741.132080 -0.445735 0.139023 0.884304 0.000000
42.958401 12.719300 -741.026428 -0.069292 0.535951 0.841401 0.000000
43.183201 12.611900 -741.013977 0.141597 0.500699 0.853962 0.000000
43.415901 12.497400 -741.007019 0.313133 0.916312 -0.249641 0.000000
43.562698 12.507800 -740.853577 0.568585 0.769261 0.291459 0.000000
42.198399 12.703900 -741.990479 0.406879 0.799284 -0.442260 0.000000
42.325500 12.734300 -741.819214 0.404190 0.800328 -0.442838 0.000000
42.374401 12.840700 -741.582275 0.406879 0.799284 -0.442260 0.000000
42.480202 12.894000 -741.389282 0.406879 0.799284 -0.442260 0.000000
42.622200 12.913600 -741.223877 -0.722189 0.018159 0.691458 0.000000
43.107300 12.817400 -740.953125 0.441305 0.418674 -0.793702 0.000000
43.319099 12.722700 -740.929993 0.554142 0.728442 -0.402863 0.000000
43.517101 25.065300 -743.068176 -0.468854 0.006641 0.883251 0.000000
43.742100 24.965599 -743.057678 -0.811057 0.043575 0.583342 0.000000
44.012699 24.827700 -743.080017 -0.737112 0.584830 -0.338586 0.000000
43.865799 24.996799 -742.885193 0.555196 0.294301 -0.777910 0.000000
43.175499 25.327000 -743.235474 0.181780 0.521304 0.833786 0.000000
43.600601 25.283400 -742.934875 -0.551057 0.109048 0.827312 0.000000
43.770302 25.275400 -742.796387 -0.194089 0.977770 0.079345 0.000000
43.101601 24.927700 -744.241882 -0.145336 0.910114 -0.388033 0.000000
44.005299 25.241600 -742.792175 0.390963 0.262140 0.882287 0.000000
43.023499 25.664900 -743.198181 0.953207 0.253384 -0.164901 0.000000
43.796101 25.459200 -742.894470 0.448691 0.785614 -0.426013 0.000000
43.922199 25.487000 -742.725098 -0.873052 0.036774 0.486239 0.000000
43.113899 25.204399 -744.180481 -0.846051 0.219459 -0.485836 0.000000
43.167099 25.484501 -743.584473 -0.818076 0.565243 -0.106074 0.000000
43.332699 25.613400 -743.181519 -0.249657 0.519473 -0.817202 0.000000
43.732300 25.633600 -742.777100 0.266595 0.227513 0.936571 0.000000
43.868500 25.652800 -742.615295 0.628933 0.671852 -0.391226 0.000000
43.157299 25.929800 -743.102783 0.354264 0.706895 0.612207 0.000000
43.517899 25.714399 -743.195129 0.152588 0.753874 -0.639055 0.000000
43.642399 25.744101 -743.024414 0.524379 0.615429 -0.588451 0.000000
43.932598 25.678801 -742.888000 -0.064764 0.464371 0.883270 0.000000
44.088600 25.682100 -742.740112 -0.978540 0.186912 -0.086737 0.000000
43.071899 26.200500 -742.916077 -0.726997 0.367583 -0.579964 0.000000
43.562000 25.920799 -743.016724 -0.731108 0.482432 -0.482432 0.000000
43.383801 26.148701 -742.958923 0.139536 0.203543 0.969072 0.000000
43.391399 25.754601 -744.099915 0.475114 0.698501 0.535129 0.000000
43.514099 25.779100 -743.941284 -0.135664 0.981423 -0.135664 0.000000
43.310699 26.133200 -743.435791 0.996802 0.024626 0.076018 0.000000
43.701199 26.111900 -743.956177 0.104628 0.852787 0.511672 0.000000
43.900501 26.097099 -743.983215 0.403140 0.190655 0.895058 0.000000
43.313099 26.358999 -744.200623 -0.816561 0.383609 0.431361 0.000000
43.761501 26.307899 -744.063477 0.242571 0.596254 0.765271 0.000000
43.420300 26.465700 -744.353882 0.244714 0.708880 0.661516 0.000000
43.581600 26.459700 -744.219727 0.139966 0.720899 0.678759 0.000000
43.814499 26.421101 -744.266174 0.945367 0.324453 -0.031809 0.000000
42.584702 11.832000 -741.106873 0.416137 0.801746 -0.428991 0.000000
42.715000 11.861600 -740.924500 0.416137 0.801746 -0.428991 0.000000
42.896400 11.843600 -740.781128 0.416710 0.802850 -0.426363 0.000000
43.148602 11.760600 -740.690979 0.401478 0.859871 -0.315337 0.000000
43.322300 11.700200 -740.634888 -0.400789 0.068822 0.913582 0.000000
43.558800 11.632300 -740.531799 0.385504 0.888595 -0.248568 0.000000
42.386398 9.099700 -741.195129 0.423341 0.595998 -0.682326 0.000000
42.770599 8.625600 -740.292175 0.945711 0.037012 -0.322895 0.000000
42.383701 7.673700 -741.355286 -0.078869 0.889696 -0.449691 0.000000
41.927700 7.743500 -741.274780 -0.101756 0.985237 0.137670 0.000000
42.265999 7.728200 -740.969299 0.247041 0.951714 0.182243 0.000000
42.998001 7.466800 -740.365173 -0.861345 0.188931 -0.471583 0.000000
42.351200 7.146400 -740.672119 -0.192317 0.939450 -0.283634 0.000000
43.957600 6.597700 -739.260986 0.448782 0.730306 0.515023 0.000000
43.950699 6.126700 -739.128906 -0.733316 0.586978 0.343081 0.000000
44.148499 5.966800 -739.228088 0.892143 0.345201 0.291404 0.000000
45.076000 5.426800 -738.900208 0.272483 0.848240 -0.454139 0.000000
45.233601 5.436900 -738.726013 0.387295 0.888850 -0.244842 0.000000
43.993599 5.707800 -739.112793 0.230497 0.261230 -0.937353 0.000000
43.788200 4.465000 -738.726929 0.619379 0.064370 -0.782449 0.000000
43.259201 3.635600 -740.249573 -0.073463 0.615070 -0.785043 0.000000
43.376400 3.657000 -740.094177 0.883268 0.306501 -0.354817 0.000000
44.217098 4.084200 -738.476318 0.119770 0.989554 -0.080234 0.000000
45.224602 3.771800 -738.050110 0.295624 0.759035 -0.580062 0.000000
45.420799 3.762000 -737.873474 0.518319 0.622995 -0.585852 0.000000
43.883900 4.104300 -738.333984 0.258467 0.421709 -0.869113 0.000000
43.299301 3.702800 -739.341919 -0.993143 0.066661 -0.096038 0.000000
44.338902 3.566600 -738.557312 0.506793 0.840645 -0.190987 0.000000
44.542198 3.533700 -738.415405 -0.478389 0.285163 0.830558 0.000000
44.806499 3.259200 -738.469177 0.558484 0.494753 0.665820 0.000000
43.101002 3.590100 -739.722900 -0.819824 0.262904 0.508695 0.000000
43.366901 3.810700 -739.058899 0.603114 0.603114 -0.522023 0.000000
44.312199 3.363400 -738.548828 0.012648 0.182816 0.983066 0.000000
43.313999 2.872000 -739.413330 0.751758 0.657966 0.044054 0.000000
43.846901 2.778600 -738.491516 -0.405996 0.457757 0.790965 0.000000
43.566601 1.119100 -739.539673 -0.308119 0.921492 -0.236464 0.000000
43.720299 1.136100 -739.358276 0.287593 0.922873 -0.256115 0.000000
43.627701 1.341600 -739.056213 0.881790 0.468921 0.050583 0.000000
44.668201 1.411600 -738.030579 -0.131597 0.969727 -0.205700 0.000000
43.160301 0.749500 -740.430176 0.211659 0.588628 -0.780203 0.000000
43.279701 0.866700 -740.101074 -0.141493 0.985696 0.091554 0.000000
43.465801 0.851200 -739.944580 0.921848 0.360119 0.143213 0.000000
43.107300 0.942300 -739.869690 -0.042580 0.940625 -0.336767 0.000000
43.287800 1.043700 -739.508728 0.306721 0.871331 -0.383020 0.000000
44.813702 0.785200 -738.082275 -0.252793 0.522645 0.814210 0.000000
44.719601 0.732300 -737.851196 0.510720 0.098711 -0.854062 0.000000
44.224701 -0.844300 -739.925415 0.242241 0.970157 0.010740 0.000000
43.417999 -0.568400 -739.585876 0.563712 0.644483 -0.516596 0.000000
43.706699 -0.515900 -739.204895 0.053846 0.962959 -0.264219 0.000000
44.126999 -0.313100 -738.424316 -0.198902 0.968845 0.147572 0.000000
44.311798 -0.326600 -738.264709 0.246736 0.969064 0.005960 0.000000
44.060600 -1.197300 -739.604614 -0.564745 0.786888 0.248738 0.000000
43.990398 -0.813400 -738.987915 -0.570580 0.670975 -0.473531 0.000000
44.427898 -0.571600 -738.119507 0.788966 0.161414 -0.592856 0.000000
44.798801 -0.544100 -737.700684 -0.138419 0.596841 0.790330 0.000000
43.945702 -0.761900 -738.739014 -0.430426 0.846867 -0.312331 0.000000
44.824600 -0.841000 -738.003174 0.804132 0.052290 -0.592146 0.000000
43.872601 -1.208300 -739.539185 0.212640 0.812315 0.543073 0.000000
43.792099 -1.145300 -739.313171 0.953260 0.062698 -0.295575 0.000000
44.461899 -0.908000 -738.218201 0.001340 0.856545 0.516071 0.000000
43.777802 -1.147400 -739.116028 -0.003256 0.993227 -0.116148 0.000000
43.885201 -1.830900 -738.805481 -0.149709 0.543994 0.825626 0.000000
43.348099 -1.700800 -738.940979 0.407276 0.905524 0.118964 0.000000
43.659302 -1.995200 -738.026428 0.067052 0.992136 -0.105691 0.000000
43.952301 -2.006000 -737.752686 0.477286 0.756113 -0.447763 0.000000
44.152000 -2.035700 -737.605774 0.275940 0.943138 -0.185333 0.000000
44.705502 -2.093500 -737.155029 -0.272020 0.960293 -0.061995 0.000000
43.771900 -1.858100 -737.289978 0.510336 0.829104 0.228349 0.000000
44.553501 -2.132900 -737.388428 -0.262251 0.789894 0.554339 0.000000
43.497398 -1.847500 -739.431702 0.690849 0.591446 -0.415835 0.000000
43.223499 -0.590200 -739.789490 0.501073 0.823745 -0.265274 0.000000
43.762501 0.007500 -739.050598 0.591496 0.320730 -0.739773 0.000000
43.713902 0.822800 -738.100220 -0.831187 0.541951 -0.124167 0.000000
43.587200 0.242900 -739.394897 0.987206 0.158272 0.019357 0.000000
43.640400 0.341200 -739.164429 -0.867940 0.329113 -0.371974 0.000000
43.656601 0.434600 -738.979980 -0.516513 0.788362 -0.334214 0.000000
43.675400 0.525200 -738.797974 -0.848345 0.528319 -0.034486 0.000000
42.878899 0.956400 -740.007813 0.240003 0.918336 -0.314735 0.000000
43.469898 0.800600 -740.145874 0.339685 0.875870 -0.342732 0.000000
43.377300 1.542700 -739.380005 0.351509 0.616366 -0.704652 0.000000
44.491600 1.859900 -738.050720 -0.795266 0.395213 0.459738 0.000000
42.924099 2.535400 -740.111511 0.353323 0.892997 -0.278782 0.000000
43.088699 2.536100 -739.943420 0.278766 0.901197 -0.331865 0.000000
43.215099 2.574000 -739.745972 0.365420 0.839054 -0.403060 0.000000
43.288399 2.662900 -739.508423 -0.916234 0.397611 -0.049203 0.000000
43.306198 2.805100 -739.229126 -0.828027 0.534549 -0.169199 0.000000
43.421299 2.906100 -738.926880 -0.807376 0.318826 0.496481 0.000000
44.359200 2.746800 -738.269409 0.179093 0.543298 -0.820215 0.000000
43.102299 3.666100 -740.038086 -0.904399 0.408031 -0.124793 0.000000
45.209202 3.796800 -737.655029 -0.573514 0.174021 0.800499 0.000000
44.123199 4.394800 -738.768494 0.184602 0.785701 0.590420 0.000000
44.274799 4.407300 -738.591187 -0.664686 0.731305 0.152923 0.000000
43.272598 4.321700 -739.662170 -0.043766 0.783552 0.619783 0.000000
42.584301 4.616200 -740.319702 0.052252 0.405957 0.912397 0.000000
43.013302 4.539300 -740.320618 0.083232 0.399786 -0.912822 0.000000
43.713299 5.045700 -738.891907 0.431404 0.033390 -0.901541 0.000000
43.226700 4.837800 -739.959106 -0.969424 0.219229 0.110248 0.000000
43.185299 4.983300 -739.729492 0.890929 0.084784 0.446159 0.000000
43.333599 5.417000 -739.216980 0.592039 0.608906 -0.527943 0.000000
43.154999 5.147500 -740.442078 -0.154599 0.882805 -0.443570 0.000000
44.427101 6.607700 -738.986572 -0.564040 0.783999 0.259238 0.000000
44.550499 6.645600 -738.789917 -0.162783 0.982728 -0.088023 0.000000
42.615898 6.616800 -741.544983 -0.165826 0.950467 -0.262895 0.000000
42.706799 6.677200 -741.338501 0.387571 0.827346 -0.406554 0.000000
42.814201 6.627200 -741.624084 -0.140535 0.948945 -0.282408 0.000000
42.908901 6.667200 -741.452087 -0.062843 0.972215 -0.225495 0.000000
42.456001 8.518400 -741.068726 -0.770948 0.471045 0.428667 0.000000
42.543999 8.563100 -740.894104 -0.398172 0.844749 0.357574 0.000000
42.922401 9.048900 -740.134216 -0.716388 0.156000 0.680038 0.000000
42.734100 9.813100 -740.529419 -0.706912 0.329892 0.625657 0.000000
42.891602 9.814100 -740.364624 -0.652123 0.520687 0.551018 0.000000
43.042000 9.822000 -740.193970 -0.444317 0.554149 0.703919 0.000000
41.402500 23.410101 -747.426025 0.464597 0.785120 -0.409557 0.000000
41.494400 23.457500 -747.220825 0.267489 0.875007 0.403501 0.000000
41.697498 23.375000 -747.212830 0.439553 0.865512 -0.240168 0.000000
41.648602 23.476200 -747.627686 -0.068702 0.241081 0.968070 0.000000
41.209900 23.733900 -747.897522 -0.743462 0.661019 -0.101582 0.000000
41.279099 23.804199 -748.089722 -0.346154 0.520036 -0.780859 0.000000
41.323101 23.902700 -747.822388 -0.149110 0.965970 -0.211347 0.000000
41.428200 23.938801 -747.626587 -0.502288 0.844144 -0.187421 0.000000
40.978500 24.060301 -748.040527 0.036889 0.867568 0.495948 0.000000
41.160400 24.014400 -747.942078 0.474302 0.850106 -0.228817 0.000000
43.226799 25.075500 -743.312683 -0.479965 0.185745 0.857399 0.000000
42.992500 24.986500 -743.674072 0.978804 0.190897 0.074170 0.000000
42.929901 25.281000 -743.452820 -0.282974 0.155703 0.946405 0.000000
41.139099 24.112600 -748.233582 -0.416731 0.885000 0.207629 0.000000
41.334099 24.092300 -748.064209 -0.239174 0.076386 -0.967967 0.000000
41.483200 24.104200 -747.873901 -0.874111 0.392365 0.286321 0.000000
43.708599 25.171000 -743.052612 0.352609 0.016548 -0.935624 0.000000
43.209301 24.998100 -744.096619 0.883081 0.445142 0.148381 0.000000
41.429401 23.710501 -747.901306 0.785522 0.197529 -0.586462 0.000000
41.637402 23.641600 -747.790588 0.008715 0.319948 0.947395 0.000000
43.400799 25.130899 -743.245728 0.601737 0.372192 -0.706672 0.000000
41.431099 23.936300 -748.369629 0.502637 0.336687 -0.796240 0.000000
41.226398 24.287399 -748.257874 0.668975 0.273018 -0.691327 0.000000
41.464100 24.295500 -748.430176 0.215929 0.944863 -0.246187 0.000000
43.484100 25.340900 -744.127625 0.016646 0.364928 0.930887 0.000000
42.864399 26.091299 -743.330627 0.936117 0.270061 -0.225284 0.000000
35.047501 20.549801 -764.485474 0.179936 0.805932 -0.564001 1.000000
34.895199 20.397499 -764.625183 -0.031553 0.522688 -0.851940 1.000000
34.743301 20.265900 -764.767883 0.228525 0.592299 -0.772631 1.000000
34.591702 20.149500 -764.912781 0.151723 0.611399 -0.776641 1.000000
34.437901 19.979000 -765.051270 0.395105 0.603403 -0.692674 1.000000
34.287498 19.906099 -765.202087 0.162210 0.747379 -0.644292 1.000000
34.134998 19.786400 -765.347412 0.169200 0.644791 -0.745396 1.000000
34.029099 19.604300 -765.432007 -0.824493 0.494072 0.275870 1.000000
35.918098 21.305700 -763.345276 -0.238350 0.967273 0.087017 1.000000
35.769699 21.236200 -763.494385 -0.181194 0.975949 0.121213 1.000000
35.619900 21.116699 -763.637024 -0.060350 0.991791 -0.112729 1.000000
35.471401 21.050100 -763.786682 0.124178 0.979897 -0.156144 1.000000
35.320900 20.922199 -763.928589 0.987887 0.154675 0.012419 1.000000
35.171101 20.824699 -764.074585 0.154883 0.957097 -0.244900 1.000000
35.021500 20.736300 -764.222107 0.239207 0.935846 -0.258791 1.000000
34.871399 20.641399 -764.368896 0.217984 0.921803 -0.320565 1.000000
34.720901 20.538401 -764.514893 0.182601 0.707386 -0.682834 1.000000
34.570099 20.433001 -764.660828 -0.064739 0.758171 -0.648834 1.000000
34.419102 20.327700 -764.806885 0.199377 0.666137 -0.718686 1.000000
34.266499 20.186899 -764.948914 0.116592 0.774823 -0.621334 1.000000
34.114601 20.069901 -765.094116 0.250418 0.622107 -0.741804 1.000000
33.960701 19.910999 -765.234375 0.018111 0.773209 -0.633892 1.000000
33.808998 19.810400 -765.382080 0.488561 0.669883 -0.559075 1.000000
33.662498 19.840500 -765.545715 -0.430375 0.784419 0.446615 1.000000
33.516399 19.876699 -765.709778 -0.618388 0.402864 0.674756 1.000000
33.369499 19.893400 -765.871582 -0.253241 0.916008 0.311124 1.000000
33.261200 19.673599 -765.952576 -0.749655 0.205575 0.629092 1.000000
33.112499 19.655001 -766.110474 0.796110 0.076300 -0.600322 1.000000
36.751701 21.944599 -762.168579 -0.722173 0.691678 0.006931 1.000000
36.603600 21.840500 -762.311707 0.099653 0.958999 -0.265310 1.000000
36.456299 21.782600 -762.461609 0.149110 0.965970 -0.211347 1.000000
36.308899 21.725300 -762.611694 -0.516550 0.148637 0.843257 1.000000
36.161800 21.682899 -762.763977 -0.797324 0.357753 0.486095 1.000000
36.013302 21.584101 -762.908508 -0.688993 0.623218 0.369984 1.000000
35.865200 21.511101 -763.056824 -0.700459 0.601571 0.384017 1.000000
35.716702 21.426399 -763.203613 -0.023033 0.865753 -0.499942 1.000000
35.568901 21.373301 -763.354797 -0.133840 0.942289 -0.306886 1.000000
35.419701 21.272699 -763.499817 0.232187 0.965948 -0.114169 1.000000
35.271400 21.212000 -763.650208 0.067870 0.671481 -0.737907 1.000000
35.121601 21.103701 -763.794373 -0.765079 0.494284 0.412719 1.000000
34.972301 21.016800 -763.941772 -0.219589 0.961194 -0.166993 1.000000
34.822498 20.918800 -764.087830 -0.301483 0.851881 -0.428260 1.000000
34.671799 20.801399 -764.231506 -0.868359 0.017556 0.495626 1.000000
34.520699 20.679399 -764.374878 -0.270879 0.958990 0.083446 1.000000
34.369099 20.547701 -764.517273 -0.374646 0.919334 -0.120274 1.000000
34.218201 20.445299 -764.663696 -0.246772 0.965576 -0.082257 1.000000
34.067101 20.340300 -764.809998 -0.072849 0.957263 -0.279894 1.000000
33.916199 20.248600 -764.958130 -0.197271 0.838776 -0.507482 1.000000
33.762699 20.095600 -765.098999 -0.292461 0.380351 -0.877383 1.000000
33.611599 20.006901 -765.247986 0.187628 0.909497 -0.370960 1.000000
33.462101 19.961000 -765.402283 0.113673 0.966856 -0.228622 1.000000
33.313599 19.939699 -765.559570 0.135374 0.916916 -0.375419 1.000000
33.161800 19.844999 -765.708313 0.927517 0.291181 -0.234365 1.000000
33.007599 19.702700 -765.851685 -0.229137 0.955408 0.186258 1.000000
32.896599 19.434999 -765.927490 -0.772222 0.432640 -0.465292 1.000000
32.836800 19.211300 -765.955200 0.850126 0.251833 -0.462456 1.000000
32.680199 19.039000 -766.096313 -0.665927 0.656110 -0.355052 1.000000
32.573200 18.876200 -766.185120 -0.899076 0.309566 0.309566 1.000000
37.213600 22.314501 -761.323730 -0.830111 0.513298 0.217809 1.000000
37.067402 22.299400 -761.479492 -0.319201 0.947667 -0.006210 1.000000
36.920502 22.229700 -761.627014 -0.782876 0.221686 0.581344 1.000000
36.773499 22.166901 -761.775818 -0.841714 0.009519 0.539839 1.000000
36.627102 22.143999 -761.930481 0.052503 0.948900 -0.311178 1.000000
36.479801 22.068100 -762.077393 0.614948 0.350700 -0.706293 1.000000
36.331902 21.972900 -762.221680 0.344834 0.749569 -0.565010 1.000000
36.184700 21.914700 -762.371521 -0.145761 0.925929 -0.348438 1.000000
36.037399 21.861000 -762.521973 -0.044883 0.988580 -0.143856 1.000000
35.890301 21.815701 -762.673889 0.435124 0.591835 -0.678527 1.000000
35.741299 21.696699 -762.815430 -0.144633 0.889277 -0.433898 1.000000
35.592701 21.602699 -762.960693 -0.343706 0.938434 -0.034757 1.000000
35.444698 21.536100 -763.109924 -0.111400 0.988525 -0.102019 1.000000
35.297401 21.499701 -763.263428 0.165695 0.866600 -0.470691 1.000000
35.148800 21.419901 -763.411072 0.485137 0.400765 -0.777193 1.000000
34.999401 21.318199 -763.555908 0.186371 0.685415 -0.703898 1.000000
34.850201 21.231300 -763.703003 -0.299100 0.931001 -0.209229 1.000000
34.700100 21.118601 -763.846924 0.400382 0.481431 -0.779691 1.000000
34.550098 21.015499 -763.992188 -0.440744 0.893924 -0.081517 1.000000
34.400200 20.919901 -764.138672 -0.294823 0.913516 -0.280300 1.000000
34.250099 20.826401 -764.285583 -0.671053 0.607777 0.424612 1.000000
34.098499 20.694700 -764.427917 0.738314 0.092107 -0.668138 1.000000
33.946098 20.549299 -764.568787 -0.707545 0.704686 -0.052887 1.000000
33.794701 20.438900 -764.714417 -0.414586 0.894177 -0.169013 1.000000
33.642399 20.310699 -764.857971 -0.578343 0.812536 -0.072828 1.000000
33.493500 20.271601 -765.012817 0.335059 0.780734 -0.527437 1.000000
33.345100 20.247400 -765.169373 0.545183 0.639704 -0.541807 1.000000
33.196899 20.227301 -765.326599 0.510658 0.645485 -0.567959 1.000000
33.045601 20.139000 -765.475830 -0.732889 0.535256 0.419970 1.000000
32.894402 20.054800 -765.625488 0.164112 0.495292 -0.853085 1.000000
32.785099 19.816700 -765.704285 0.272948 0.008492 0.961991 1.000000
32.725300 19.586399 -765.730774 -0.032244 0.623857 -0.780873 1.000000
32.615501 19.349501 -765.810303 -0.107726 0.730471 -0.674394 1.000000
32.457500 19.148001 -765.947876 -0.445881 0.629577 -0.636257 1.000000
32.350899 18.991699 -766.037415 -0.105918 0.549905 -0.828484 1.000000
32.244400 18.841400 -766.127686 -0.035282 0.667534 -0.743743 1.000000
32.137199 18.682899 -766.217529 -0.026369 0.587059 -0.809115 1.000000
37.919899 22.799601 -760.188171 0.907111 0.326794 -0.265246 1.000000
37.773899 22.764400 -760.340576 0.880581 0.394536 -0.262524 1.000000
37.627701 22.712799 -760.490417 0.555950 0.469135 -0.686172 1.000000
37.481300 22.639900 -760.636780 0.780672 0.505901 -0.366900 1.000000
37.334801 22.574200 -760.784485 0.815047 0.574400 -0.075918 1.000000
37.188599 22.535000 -760.936523 0.162623 0.986121 0.033447 1.000000
37.042500 22.512800 -761.091125 0.108021 0.994014 0.016367 1.000000
36.896099 22.467400 -761.242188 0.812288 0.435667 -0.387792 1.000000
36.749401 22.408600 -761.391418 -0.224681 0.966769 -0.121970 1.000000
36.602600 22.343700 -761.539612 -0.980367 0.153374 0.123926 1.000000
36.456001 22.301001 -761.691284 0.127255 0.187733 -0.973942 1.000000
36.308701 22.219900 -761.837402 -0.855705 0.446919 -0.260830 1.000000
36.161400 22.145500 -761.984619 0.363639 0.131352 -0.922233 1.000000
36.014198 22.082300 -762.133484 0.659401 0.435706 -0.612659 1.000000
35.867100 22.028601 -762.283997 0.916173 0.032956 -0.399425 1.000000
35.719799 21.967899 -762.433472 0.390831 0.296545 -0.871385 1.000000
35.572102 21.898199 -762.581909 0.230403 0.684940 -0.691210 1.000000
35.424900 21.849701 -762.733398 0.174304 0.841726 -0.510995 1.000000
35.276600 21.763000 -762.879578 0.061424 0.896796 -0.438160 1.000000
35.128601 21.694300 -763.028503 -0.349609 0.928179 -0.127505 1.000000
34.980801 21.634800 -763.178772 -0.070815 0.750060 -0.657567 1.000000
34.831799 21.539101 -763.324280 0.097857 0.775551 -0.623654 1.000000
34.682999 21.456499 -763.471680 0.126825 0.687840 -0.714697 1.000000
34.532001 21.306299 -763.610291 0.548503 0.153105 -0.822012 1.000000
34.383999 21.259199 -763.762817 0.326635 0.407133 -0.852967 1.000000
34.233501 21.138000 -763.905701 -0.885088 0.359144 0.296031 1.000000
34.083801 21.049999 -764.053223 0.430181 0.038864 -0.901906 1.000000
33.931599 20.894501 -764.192200 0.296976 0.394446 -0.869608 1.000000
33.782001 20.818501 -764.341614 0.291208 0.517878 -0.804363 1.000000
33.630501 20.697300 -764.485474 -0.150200 0.822382 -0.548751 1.000000
33.478600 20.570801 -764.629028 0.914516 0.106211 -0.390359 1.000000
33.330101 20.534300 -764.783875 0.378327 0.574861 -0.725537 1.000000
33.180099 20.465099 -764.934875 0.579542 0.566025 -0.586300 1.000000
33.032398 20.452101 -765.092773 0.378329 0.851629 -0.362760 1.000000
32.884102 20.427601 -765.249390 -0.062419 0.925655 -0.373184 1.000000
32.731499 20.304399 -765.394226 -0.118407 0.820075 -0.559873 1.000000
32.626301 20.150499 -765.482483 -0.371334 0.108249 -0.922168 1.000000
32.519001 19.953899 -765.565979 -0.535312 0.633255 -0.558953 1.000000
32.408298 19.692600 -765.642273 -0.196618 0.444977 -0.873692 1.000000
32.303398 19.558300 -765.733704 0.201204 0.463515 -0.862943 1.000000
32.155300 19.557699 -765.894104 0.113870 0.634419 0.764556 1.000000
32.091000 19.253901 -765.913025 0.081464 0.035844 -0.996032 1.000000
31.982700 19.064400 -765.998779 -0.009379 0.489031 -0.872216 1.000000
31.874901 18.890600 -766.086609 -0.141973 0.611233 -0.778613 1.000000
31.769100 18.761801 -766.179688 -0.091320 0.795787 -0.598652 1.000000
31.615499 18.671801 -766.331177 0.441898 0.381276 -0.812007 1.000000
38.239799 23.125401 -759.363098 0.419192 0.046875 -0.906687 1.000000
38.094002 23.081499 -759.513916 0.896990 0.027989 -0.441164 1.000000
37.948101 23.046900 -759.666077 0.817773 0.299798 -0.491292 1.000000
37.802200 23.002199 -759.816772 0.117650 0.241764 -0.963176 1.000000
37.656200 22.941601 -759.965027 0.231901 0.926179 -0.297345 1.000000
37.510399 22.916599 -760.118896 -0.003381 0.986174 -0.165677 1.000000
37.364201 22.851000 -760.266418 0.118992 0.583206 -0.803562 1.000000
37.218102 22.805500 -760.417114 0.050168 0.985868 -0.159839 1.000000
37.071800 22.741600 -760.565125 0.048329 0.965332 -0.256513 1.000000
36.925598 22.696800 -760.716125 0.001245 0.944882 -0.327410 1.000000
36.779499 22.667999 -760.869629 -0.072773 0.989946 -0.121289 1.000000
36.633202 22.625601 -761.021118 -0.136835 0.980037 -0.144232 1.000000
36.486500 22.554701 -761.168274 0.344380 0.507761 -0.789672 1.000000
36.340000 22.500000 -761.317993 0.042077 0.990518 -0.130780 1.000000
36.193199 22.438499 -761.466797 0.022501 0.977014 -0.211983 1.000000
36.046700 22.396700 -761.618713 -0.086055 0.959445 -0.268439 1.000000
35.899799 22.339199 -761.768188 0.045709 0.931153 -0.361752 1.000000
35.752399 22.257000 -761.914307 0.631715 0.574440 -0.520533 1.000000
35.605801 22.225300 -762.067810 0.198114 0.887846 -0.415307 1.000000
35.458801 22.172600 -762.218323 0.152727 0.900661 -0.406796 1.000000
35.311501 22.110300 -762.367615 0.411028 0.842374 -0.348514 1.000000
35.164398 22.060301 -762.518799 0.076814 0.872889 -0.481835 1.000000
35.015800 21.953501 -762.661987 -0.057549 0.973432 -0.221624 1.000000
34.867699 21.874201 -762.809326 0.381904 0.282277 -0.880039 1.000000
34.719799 21.809099 -762.958618 0.175187 0.460787 -0.870049 1.000000
34.570301 21.690800 -763.100891 -0.216004 0.906057 -0.363872 1.000000
34.421200 21.591900 -763.245972 -0.275003 0.953958 -0.119738 1.000000
34.273201 21.535999 -763.397095 -0.077744 0.989784 -0.119517 1.000000
34.125599 21.495600 -763.550415 0.027142 0.929289 -0.368355 1.000000
33.975601 21.385799 -763.694519 0.009729 0.743604 -0.668549 1.000000
33.825699 21.284700 -763.840027 0.268068 0.750273 -0.604343 1.000000
33.676201 21.197599 -763.987610 0.115512 0.877038 -0.466327 1.000000
33.526100 21.100599 -764.133972 0.115251 0.827179 -0.549994 1.000000
33.373798 20.950500 -764.273987 0.114721 0.987550 -0.107625 1.000000
33.223400 20.857100 -764.421387 0.082860 0.742831 -0.664332 1.000000
33.072601 20.759001 -764.568420 0.084907 0.810211 -0.579956 1.000000
32.922501 20.682699 -764.718323 0.088230 0.944191 -0.317364 1.000000
32.772099 20.601999 -764.867920 -0.053385 0.461298 -0.885638 1.000000
32.621601 20.522600 -765.017700 -0.024946 0.912495 -0.408325 1.000000
32.467899 20.375299 -765.159607 -0.103274 0.568735 -0.816011 1.000000
32.362598 20.215200 -765.247009 -0.401722 0.808246 -0.430531 1.000000
32.206001 20.017099 -765.383606 -0.296990 0.551100 -0.779798 1.000000
32.100399 19.864901 -765.472473 -0.182223 0.626297 -0.757988 1.000000
31.994200 19.705400 -765.560913 0.006619 0.459341 -0.888235 1.000000
31.889200 19.573700 -765.652588 0.054993 0.562616 -0.824888 1.000000
31.730200 19.354500 -765.788330 -0.229414 0.366770 -0.901582 1.000000
31.624300 19.213900 -765.879517 -0.064020 0.587557 -0.806646 1.000000
31.466400 19.029600 -766.019897 0.015260 0.631198 -0.775472 1.000000
31.358000 18.851400 -766.107483 0.080215 0.263562 -0.961302 1.000000
31.198799 18.658501 -766.247681 -0.288189 0.927030 -0.239921 1.000000
31.046801 18.603800 -766.403381 -0.894424 0.114092 0.432422 1.000000
30.915300 18.546000 -766.536194 -0.106240 0.980579 0.164855 1.000000
38.510300 23.412100 -758.577393 0.301171 0.897580 -0.321942 1.000000
38.364700 23.385599 -758.730896 0.236891 0.946193 -0.220459 1.000000
38.219101 23.353600 -758.883484 0.164106 0.936372 -0.310285 1.000000
38.073399 23.295799 -759.031677 0.310026 0.948239 -0.068751 1.000000
37.927799 23.275700 -759.186401 0.030132 0.992116 -0.121643 1.000000
37.782101 23.257000 -759.341187 -0.050908 0.992146 -0.114261 1.000000
37.636299 23.177401 -759.486023 -0.038303 0.998982 0.023810 1.000000
37.490501 23.121401 -759.634827 -0.347729 0.934771 -0.072719 1.000000
37.344398 23.047701 -759.780823 -0.095390 0.965343 -0.242926 1.000000
37.198700 23.035400 -759.936829 0.148482 0.960537 -0.235207 1.000000
37.052799 22.986500 -760.086975 0.026352 0.998206 -0.053758 1.000000
36.906799 22.951000 -760.239319 0.114632 0.990000 -0.082211 1.000000
36.760700 22.900700 -760.389282 0.381345 0.474670 -0.793262 1.000000
36.614101 22.809900 -760.533020 0.102921 0.918053 -0.382865 1.000000
36.468102 22.776899 -760.685913 0.156339 0.976803 -0.146333 1.000000
36.321800 22.730400 -760.836792 0.096151 0.962793 -0.252557 1.000000
36.175701 22.699400 -760.990112 0.196409 0.913231 -0.356977 1.000000
36.029301 22.646999 -761.140076 0.155532 0.980956 -0.116343 1.000000
35.883202 22.616899 -761.293579 0.325898 0.944203 -0.047661 1.000000
35.736500 22.559099 -761.442871 0.554251 0.487272 -0.674813 1.000000
35.589901 22.510000 -761.593689 0.663018 0.639871 -0.388552 1.000000
35.443802 22.485300 -761.748108 0.391688 0.880922 -0.265627 1.000000
35.297401 22.453600 -761.901489 0.302268 0.828495 -0.471412 1.000000
35.149502 22.350700 -762.044678 0.307585 0.182324 -0.933889 1.000000
35.001598 22.259800 -762.189819 0.137535 0.127798 -0.982218 1.000000
34.854301 22.198099 -762.339172 0.070452 0.362892 -0.929164 1.000000
34.706699 22.127300 -762.487427 0.259495 0.866502 -0.426422 1.000000
34.558498 22.039301 -762.633423 0.257659 0.443662 -0.858356 1.000000
34.410801 21.976000 -762.782898 0.263219 0.879904 -0.395581 1.000000
34.262199 21.883101 -762.928528 0.555950 0.686172 -0.469135 1.000000
34.113998 21.809900 -763.077026 0.046850 0.631769 -0.773740 1.000000
33.964600 21.705700 -763.221375 -0.080554 0.960258 -0.267236 1.000000
33.817001 21.660200 -763.374023 0.107725 0.990378 -0.086875 1.000000
33.667099 21.548201 -763.517700 0.177296 0.096596 -0.979406 1.000000
33.517200 21.442400 -763.662476 -0.060099 0.224453 -0.972630 1.000000
33.367100 21.339701 -763.807983 -0.194363 0.908469 -0.370010 1.000000
33.217701 21.257601 -763.956299 -0.051984 0.954733 -0.292886 1.000000
33.067402 21.158001 -764.102478 -0.160982 0.904633 -0.394619 1.000000
32.916599 21.050900 -764.248108 -0.243352 0.969813 0.015584 1.000000
32.766701 20.971201 -764.397278 0.468618 0.323457 -0.822054 1.000000
32.617199 20.903000 -764.547974 0.404241 0.757748 -0.512257 1.000000
32.468102 20.850000 -764.700806 0.099846 0.820473 -0.562899 1.000000
32.363300 20.689800 -764.787476 -0.034459 0.330552 -0.943158 1.000000
32.209099 20.525999 -764.927185 -0.382860 0.914688 -0.129476 1.000000
32.055901 20.393801 -765.071106 -0.759618 0.648454 -0.049881 1.000000
31.951000 20.247499 -765.160278 -0.746508 0.658511 -0.095330 1.000000
31.838200 19.938000 -765.230530 0.201915 0.978510 0.041817 1.000000
31.682699 19.777100 -765.372070 -0.219776 0.868637 -0.444036 1.000000
31.577700 19.645201 -765.463806 -0.389590 0.563838 -0.728222 1.000000
31.420200 19.455601 -765.602722 -0.828689 0.559330 0.020614 1.000000
31.264099 19.301001 -765.745972 -0.563187 0.762147 -0.319300 1.000000
31.106800 19.131901 -765.888123 -0.470864 0.859513 -0.198809 1.000000
30.998899 18.962799 -765.976685 -0.505555 0.795811 -0.333316 1.000000
30.845400 18.875700 -766.128479 -0.270181 0.957915 0.096955 1.000000
38.672001 23.618401 -757.989014 0.248915 0.944777 -0.213159 1.000000
38.526501 23.583799 -758.140991 0.273213 0.910225 -0.311200 1.000000
38.380901 23.546801 -758.292725 0.232944 0.944179 -0.232944 1.000000
38.235298 23.519899 -758.445984 0.151722 0.959144 -0.238796 1.000000
38.089802 23.487499 -758.598511 0.059901 0.954585 -0.291856 1.000000
37.944199 23.442301 -758.748779 0.031327 0.953587 -0.299484 1.000000
37.798599 23.423500 -758.903625 0.100423 0.912062 -0.397565 1.000000
37.653000 23.380600 -759.054382 0.218937 0.954994 -0.200132 1.000000
37.507301 23.357599 -759.208496 0.322803 0.840536 -0.435083 1.000000
37.361599 23.309999 -759.358521 0.227109 0.921290 -0.315667 1.000000
37.215900 23.266600 -759.509277 -0.419243 0.906797 0.044201 1.000000
37.070000 23.206100 -759.657288 0.542730 0.286397 -0.789570 1.000000
36.924099 23.139500 -759.804382 0.107132 0.978967 -0.173628 1.000000
36.778099 23.086599 -759.953918 0.793492 0.471589 -0.384675 1.000000
36.632301 23.065901 -760.108521 0.330509 0.875773 -0.351832 1.000000
36.486099 22.995199 -760.255188 0.361432 0.289446 -0.886334 1.000000
36.339901 22.943100 -760.405029 0.391039 0.432537 -0.812404 1.000000
36.194099 22.922400 -760.559814 0.263329 0.575539 -0.774218 1.000000
36.047901 22.877899 -760.710815 0.333999 0.891163 -0.307039 1.000000
35.901798 22.838400 -760.862671 -0.006870 0.594918 -0.803757 1.000000
35.755402 22.783199 -761.012207 0.091746 0.328424 -0.940064 1.000000
35.609600 22.768400 -761.167908 -0.129646 0.990944 0.034948 1.000000
35.463200 22.723400 -761.319092 0.919180 0.194633 -0.342384 1.000000
35.316700 22.674400 -761.469727 0.048671 0.981721 -0.183998 1.000000
35.169800 22.603300 -761.617188 -0.131745 0.974910 -0.179424 1.000000
35.022701 22.534100 -761.765076 -0.160738 0.980378 -0.114112 1.000000
34.875999 22.484800 -761.915894 -0.052717 0.997328 -0.050566 1.000000
34.728001 22.387600 -762.059998 0.226298 0.168069 -0.959449 1.000000
34.580799 22.329000 -762.209778 0.213563 0.936607 -0.277772 1.000000
34.433102 22.252600 -762.357117 0.094074 0.942064 -0.321971 1.000000
34.284698 22.155001 -762.501587 0.076302 0.886486 -0.456422 1.000000
34.136398 22.068100 -762.647888 0.220708 0.191280 -0.956400 1.000000
33.988300 21.992201 -762.795776 -0.556521 0.822366 -0.118316 1.000000
33.838600 21.868700 -762.937317 -0.307080 0.951320 -0.026321 1.000000
33.689899 21.785000 -763.084473 -0.003763 0.939530 -0.342446 1.000000
33.541000 21.700701 -763.231812 0.120864 0.528598 -0.840224 1.000000
33.391899 21.613701 -763.378906 0.241194 0.269404 -0.932334 1.000000
33.241402 21.493999 -763.521912 0.014492 0.899798 -0.436066 1.000000
33.093399 21.447001 -763.674622 0.145271 0.968046 -0.204408 1.000000
32.947102 21.449400 -763.833679 -0.220778 0.975002 -0.025061 1.000000
32.842800 21.271799 -763.916809 -0.146975 0.982668 0.112964 1.000000
32.688599 21.074499 -764.050781 0.068162 0.970384 -0.231752 1.000000
32.537102 20.955299 -764.195007 0.020770 0.963990 -0.265128 1.000000
32.386101 20.854200 -764.341675 0.265549 0.955184 -0.130793 1.000000
32.236900 20.801100 -764.494629 0.993095 0.116899 0.009833 1.000000
32.088200 20.760099 -764.649109 0.208369 0.976803 0.049382 1.000000
31.937099 20.668501 -764.797485 0.148969 0.310238 -0.938915 1.000000
31.828400 20.431200 -764.875427 -0.789415 0.364964 0.493585 1.000000
31.722000 20.252600 -764.960571 0.439682 0.189695 -0.877893 1.000000
31.616400 20.096600 -765.048889 0.988815 0.148938 0.007839 1.000000
31.461500 19.945700 -765.191406 -0.414537 0.775427 -0.476311 1.000000
31.355200 19.785299 -765.279724 -0.665308 0.745088 -0.047013 1.000000
31.204500 19.731199 -765.434021 0.020459 0.522389 -0.852462 1.000000
31.093000 19.476400 -765.511780 -0.821989 0.185513 -0.538441 1.000000
30.936300 19.312700 -765.654297 -0.402133 0.736970 -0.543290 1.000000
30.827499 19.124800 -765.740479 -0.558553 0.308885 -0.769811 1.000000
30.719700 18.959499 -765.829590 -0.272317 0.334141 -0.902327 1.000000
30.612499 18.811701 -765.920898 -0.668504 0.681391 -0.298008 1.000000
30.503901 18.641800 -766.010010 0.351259 0.354327 -0.866643 1.000000
30.353100 18.611601 -766.168579 0.746084 0.189213 -0.638402 1.000000
30.221600 18.637199 -766.315491 -0.818668 0.034867 0.573207 1.000000
38.855400 23.773001 -757.468994 0.039015 0.955242 -0.293243 1.000000
38.709999 23.726101 -757.618774 0.072215 0.961599 -0.264788 1.000000
38.564301 23.706800 -757.773621 0.026253 0.987348 -0.156378 1.000000
38.418900 23.666800 -757.924683 0.155686 0.973356 -0.168344 1.000000
38.273300 23.632999 -758.076782 0.239485 0.928180 -0.284831 1.000000
38.127701 23.608700 -758.230713 0.078914 0.953439 -0.291077 1.000000
37.982101 23.589300 -758.385376 0.086214 0.970847 -0.223657 1.000000
37.836601 23.570801 -758.540222 0.210787 0.943720 -0.254873 1.000000
37.691002 23.550400 -758.694702 0.143037 0.984430 -0.102169 1.000000
37.545399 23.502300 -758.844482 0.121012 0.948149 -0.293886 1.000000
37.399899 23.484800 -758.999512 0.066652 0.964565 -0.255289 1.000000
37.254299 23.461000 -759.153381 0.050020 0.972342 -0.228141 1.000000
37.108700 23.424900 -759.305176 0.110036 0.990325 -0.084554 1.000000
36.963001 23.379299 -759.455627 -0.006146 0.296239 -0.955094 1.000000
36.817299 23.324100 -759.604370 0.208299 0.962891 -0.171617 1.000000
36.671398 23.264299 -759.752625 -0.028707 0.161910 -0.986388 1.000000
36.525398 23.195400 -759.899414 0.195606 0.970361 -0.141910 1.000000
36.379398 23.140800 -760.048523 0.177078 0.899786 -0.398785 1.000000
36.233299 23.080099 -760.196777 0.033474 0.437835 -0.898432 1.000000
36.087399 23.049400 -760.349915 0.164570 0.986286 0.012485 1.000000
35.941399 23.014601 -760.502380 0.106959 0.988494 -0.106959 1.000000
35.795101 22.949499 -760.650208 0.047153 0.975695 -0.214000 1.000000
35.648701 22.889700 -760.799011 0.088894 0.980266 -0.176570 1.000000
35.502499 22.852200 -760.951172 0.883265 0.437995 -0.167340 1.000000
35.355900 22.790600 -761.099792 -0.959696 0.280976 0.006082 1.000000
35.209702 22.755199 -761.252380 0.103702 0.985769 -0.132310 1.000000
35.062901 22.688601 -761.400513 -0.188651 0.948682 -0.253796 1.000000
34.915699 22.611601 -761.547119 0.078977 0.986620 -0.142630 1.000000
34.768299 22.527100 -761.692871 0.008163 0.978430 -0.206415 1.000000
34.621300 22.466900 -761.842224 -0.117185 0.989688 -0.082377 1.000000
34.474499 22.422501 -761.994019 -0.141058 0.989661 0.025955 1.000000
34.326199 22.320601 -762.137573 -0.146007 0.983437 -0.107394 1.000000
34.178600 22.248800 -762.285583 -0.038694 0.998725 0.032419 1.000000
34.030102 22.152100 -762.430420 -0.158458 0.935589 -0.315537 1.000000
33.882301 22.085400 -762.579529 0.082761 0.996360 -0.020422 1.000000
33.732800 21.964300 -762.721191 0.059406 0.996942 -0.050765 1.000000
33.584900 21.904200 -762.871521 0.425690 0.751122 -0.504583 1.000000
33.436298 21.823999 -763.019226 -0.102526 0.977086 -0.186523 1.000000
33.286900 21.724600 -763.164490 0.185692 0.078889 -0.979436 1.000000
33.138100 21.646700 -763.312805 0.868314 0.020256 -0.495601 1.000000
32.988098 21.540701 -763.457581 -0.054602 0.920235 -0.387538 1.000000
32.837799 21.432301 -763.602295 0.072557 0.937969 -0.339041 1.000000
32.687302 21.322399 -763.747070 -0.071270 0.949837 -0.304518 1.000000
32.536499 21.211201 -763.891785 -0.756781 0.165309 0.632420 1.000000
32.384998 21.086800 -764.035278 0.481165 0.356478 -0.800877 1.000000
32.232899 20.955299 -764.177979 0.042277 0.944187 -0.326686 1.000000
32.083599 20.897200 -764.330200 0.114959 0.934546 -0.336761 1.000000
31.933800 20.830700 -764.481506 0.547400 0.223586 -0.806451 1.000000
31.784300 20.773500 -764.633972 0.079205 0.793494 -0.603401 1.000000
31.628799 20.584600 -764.770813 -0.820187 0.225360 0.525839 1.000000
31.523800 20.433100 -764.859070 0.384361 0.403342 -0.830410 1.000000
31.419201 20.295900 -764.949402 -0.239244 0.845735 -0.476964 1.000000
31.314100 20.152000 -765.039124 0.995790 0.066972 -0.062580 1.000000
31.158800 19.993401 -765.180786 -0.492118 0.823322 -0.282773 1.000000
31.003799 19.847200 -765.324280 -0.299798 0.817773 -0.491292 1.000000
30.897200 19.688299 -765.413086 -0.254255 0.746973 -0.614318 1.000000
30.789301 19.507200 -765.499573 -0.214321 0.454121 -0.864778 1.000000
30.680799 19.320999 -765.585815 -0.382580 0.847921 -0.366964 1.000000
30.573601 19.163601 -765.675476 -0.261820 0.908327 -0.326179 1.000000
30.408001 18.845301 -765.801392 -0.671514 0.234322 -0.702967 1.000000
30.301701 18.716900 -765.895020 -0.337712 0.872551 -0.352994 1.000000
30.185200 18.405001 -765.968811 -0.428947 0.856357 -0.287502 1.000000
30.037500 18.319599 -766.114502 -0.537645 0.678337 0.500797 1.000000
39.007599 23.928499 -757.031189 0.109578 0.962998 -0.246228 1.000000
38.862000 23.906500 -757.185486 -0.018458 0.958573 -0.284249 1.000000
38.717098 23.826200 -757.329224 0.125544 0.940907 -0.314536 1.000000
38.571800 23.777500 -757.478699 0.242381 0.868658 -0.432071 1.000000
38.426102 23.763000 -757.634277 0.096609 0.959654 -0.264066 1.000000
38.280602 23.735001 -757.787476 0.087336 0.965762 -0.244288 1.000000
38.134998 23.714600 -757.942078 0.098119 0.987103 -0.126491 1.000000
37.989399 23.709499 -758.099304 0.164755 0.960853 -0.222749 1.000000
37.843800 23.697500 -758.255188 0.185679 0.950082 -0.250735 1.000000
37.698299 23.671700 -758.408813 0.127830 0.927798 -0.350501 1.000000
37.552799 23.636000 -758.560730 0.180896 0.937621 -0.296890 1.000000
37.407398 23.590401 -758.710815 0.116070 0.904787 -0.409741 1.000000
37.261902 23.546900 -758.861389 0.330449 0.892662 -0.306525 1.000000
37.116402 23.535999 -759.017517 0.153067 0.933571 -0.324061 1.000000
36.970798 23.492701 -759.168213 0.151900 0.937401 -0.313379 1.000000
36.825199 23.447701 -759.318604 0.264622 0.929716 -0.256132 1.000000
36.679401 23.382601 -759.465820 -0.030217 0.400705 -0.915709 1.000000
36.533798 23.350500 -759.618530 0.197644 0.959035 -0.202949 1.000000
36.388000 23.306999 -759.769287 0.381733 0.478374 -0.790847 1.000000
36.241901 23.224501 -759.913879 0.337230 0.374187 -0.863863 1.000000
36.096001 23.179001 -760.064575 0.311200 0.273213 -0.910225 1.000000
35.950100 23.136499 -760.215820 0.272035 0.091538 -0.957924 1.000000
35.804298 23.104500 -760.368713 0.290708 0.901636 -0.320221 1.000000
35.657799 23.022499 -760.513794 0.311887 0.207454 -0.927194 1.000000
35.511600 22.969700 -760.663574 0.195626 0.899880 -0.389803 1.000000
35.365299 22.920900 -760.814026 -0.068474 0.981464 -0.178994 1.000000
35.218800 22.860701 -760.962830 0.819282 0.102954 -0.564072 1.000000
35.072399 22.805901 -761.112488 0.855063 0.101691 -0.508455 1.000000
34.925598 22.742701 -761.261108 -0.114983 0.950265 -0.289441 1.000000
34.778400 22.660500 -761.406982 -0.071490 0.966993 -0.244570 1.000000
34.632000 22.618401 -761.558899 0.079783 0.764463 -0.639712 1.000000
34.484699 22.544600 -761.706177 0.177261 0.801461 -0.571173 1.000000
34.336800 22.447901 -761.850281 0.044693 0.974783 -0.218632 1.000000
34.189301 22.375000 -761.998108 -0.408873 0.331140 0.850393 1.000000
34.041199 22.283600 -762.143372 0.038782 0.993920 -0.103049 1.000000
33.893200 22.198500 -762.289673 -0.432537 0.875478 0.215525 1.000000
33.745399 22.129400 -762.438477 0.106611 0.951603 -0.288245 1.000000
33.597000 22.044800 -762.585205 -0.669836 0.268889 0.692111 1.000000
33.448700 21.967300 -762.732971 -0.517129 0.025925 0.855515 1.000000
33.300301 21.889500 -762.880981 0.422187 0.175548 -0.889349 1.000000
33.152500 21.837999 -763.032715 0.128771 0.991644 -0.007704 1.000000
33.003799 21.761000 -763.181030 -0.053568 0.880439 -0.471124 1.000000
32.853199 21.631001 -763.322571 0.028537 0.959093 -0.281648 1.000000
32.704498 21.564100 -763.472595 -0.426912 0.903341 -0.041487 1.000000
32.554600 21.465799 -763.618713 0.041198 0.731615 -0.680473 1.000000
32.402401 21.311800 -763.757813 0.422063 0.418853 -0.804006 1.000000
32.299400 21.172001 -763.846130 -0.344587 0.160435 0.924944 1.000000
32.147400 21.039101 -763.988525 -0.988759 0.111426 0.099697 1.000000
31.997200 20.955799 -764.137512 -0.128705 0.975906 0.176188 1.000000
31.848200 20.903400 -764.290405 -0.135051 0.989223 0.056560 1.000000
31.699900 20.874001 -764.446289 -0.439318 0.898308 0.006557 1.000000
31.546400 20.723301 -764.587402 -0.139540 0.878960 -0.456024 1.000000
31.391800 20.556000 -764.726929 -0.171226 0.589441 -0.789456 1.000000
31.284800 20.361000 -764.810120 -0.185621 0.737880 -0.648905 1.000000
31.130400 20.212999 -764.952698 -0.436166 0.718098 -0.542305 1.000000
