ply
format ascii 1.0
element vertex 690
property float x
property float y
property float z
property float nx
property float ny
property float nz
property float label
element face 0
property list uchar int vertex_indices
end_header
54.726299 31.643200 -766.370178 0.297873 0.850403 -0.433690 0.000000
51.702099 38.207901 -756.617126 0.172264 0.864265 -0.472622 0.000000
51.379902 39.073601 -755.256775 0.940891 0.075008 -0.330299 0.000000
52.363400 39.117100 -754.220825 -0.785788 0.575005 0.227832 0.000000
53.132702 40.711601 -750.396423 0.072907 0.972501 -0.221192 0.000000
53.894299 31.701200 -767.967712 0.525142 0.786915 -0.324024 0.000000
51.482800 38.886002 -756.413330 0.914116 0.353344 0.198845 0.000000
53.059200 40.301498 -752.158020 0.407678 0.810559 -0.420468 0.000000
54.809399 32.046001 -767.470093 -0.732150 0.666001 -0.142822 0.000000
51.937801 38.841499 -757.101074 0.752213 0.640214 0.155891 0.000000
51.226002 39.562698 -756.391785 0.878462 0.470654 0.082399 0.000000
51.149601 39.939899 -755.736511 0.899366 0.192618 -0.392477 0.000000
52.699299 39.552799 -754.995422 -0.862359 0.506079 0.014845 0.000000
52.686298 39.911701 -754.314514 -0.931824 0.220658 -0.288121 0.000000
51.364601 39.607300 -757.098816 0.404497 0.813790 -0.417287 0.000000
52.237598 40.081799 -755.345886 -0.449150 0.240454 0.860492 0.000000
53.241402 40.759701 -753.074890 0.403956 0.812702 -0.419923 0.000000
53.454601 41.744801 -750.967529 -0.357392 0.799726 -0.482400 0.000000
51.063801 40.256599 -756.925171 0.917551 0.258648 0.301997 0.000000
52.661598 40.521301 -754.890320 -0.151652 0.976338 0.154159 0.000000
53.198700 41.499802 -752.490479 0.085933 0.981576 -0.170656 0.000000
53.639000 41.598701 -751.879578 -0.108261 0.986243 -0.124916 0.000000
51.570000 39.721298 -758.171997 0.152818 0.739881 -0.655151 0.000000
51.117802 40.171299 -757.735474 -0.840217 0.233309 -0.489491 0.000000
50.892799 40.766399 -757.367615 0.868635 0.474196 -0.143564 0.000000
52.859100 40.630901 -755.765076 0.697773 0.098423 0.709525 0.000000
52.542999 41.214401 -754.943298 0.192390 0.978892 0.068970 0.000000
52.929401 41.319599 -754.375122 -0.950267 0.143008 0.276660 0.000000
53.664600 41.427299 -753.471619 0.330416 0.659204 -0.675481 0.000000
53.852200 38.882999 -758.617371 0.400738 0.812652 -0.423090 0.000000
53.743599 39.240101 -758.034912 0.400738 0.812652 -0.423090 0.000000
53.507401 42.224499 -752.531982 0.561431 0.752349 -0.344625 0.000000
52.612000 41.274502 -755.650574 -0.812743 0.269874 -0.516349 0.000000
52.855400 43.129700 -751.864929 0.058110 0.906781 -0.417579 0.000000
51.275002 40.688702 -758.483582 0.694319 0.571106 0.437904 0.000000
50.795799 41.130299 -758.088379 -0.781725 0.015273 -0.623436 0.000000
53.544102 42.280102 -753.299683 -0.438478 0.857094 0.270420 0.000000
53.012699 41.913502 -754.761719 -0.912059 0.321475 -0.254562 0.000000
52.929501 41.375999 -756.313416 -0.286541 0.555667 -0.780467 0.000000
53.455700 42.893398 -752.925720 -0.060119 0.920496 -0.386100 0.000000
52.913700 41.935200 -755.789185 -0.744492 0.348727 -0.569317 0.000000
53.307800 42.575199 -754.997375 -0.904841 0.425731 -0.003906 0.000000
53.150700 41.765999 -756.880981 0.948421 0.093137 0.303023 0.000000
53.166599 42.334400 -756.394592 -0.699893 0.447200 -0.556922 0.000000
53.172501 42.674999 -755.736816 -0.914515 0.043801 0.402174 0.000000
53.188202 42.491299 -757.351379 -0.913885 0.348625 0.208027 0.000000
53.304600 43.008598 -756.846191 0.980207 0.197893 0.005786 0.000000
53.458302 43.487099 -756.371887 -0.749019 0.661891 -0.029511 0.000000
53.152802 44.443401 -754.827271 -0.957321 0.001220 0.289025 0.000000
53.738201 43.837399 -755.708923 0.940766 0.334408 0.055952 0.000000
53.248001 44.345100 -755.669983 -0.490073 0.773371 -0.402153 0.000000
52.292198 38.986900 -758.607483 0.401279 0.813748 -0.420463 0.000000
51.668999 40.451000 -755.597778 0.869771 0.365335 -0.331705 0.000000
54.108299 31.927500 -766.977112 -0.702062 0.436507 0.562646 0.000000
52.063099 39.159302 -754.938904 0.343610 0.928712 0.139376 0.000000
53.117500 40.439400 -751.435486 0.403956 0.812702 -0.419923 0.000000
52.843800 36.624802 -749.921082 0.573826 0.690254 -0.440765 0.000000
53.054199 36.011299 -750.335022 -0.156353 0.711939 -0.684615 0.000000
52.917400 35.564701 -750.871704 -0.157797 0.905558 -0.393783 0.000000
53.168301 29.406000 -761.244995 -0.258249 0.701868 -0.663844 0.000000
51.945000 32.635799 -753.868225 -0.647874 0.644560 -0.405957 0.000000
52.599300 34.082901 -750.210571 0.520893 0.732558 -0.438212 0.000000
52.605301 32.342999 -753.117798 0.125288 0.582222 -0.803319 0.000000
52.909000 33.289101 -750.579712 0.448124 0.735849 -0.507653 0.000000
53.000900 33.598999 -749.842712 0.454766 0.812197 -0.365409 0.000000
53.181400 32.733501 -749.699707 -0.448889 0.856693 -0.254117 0.000000
52.259300 32.770500 -748.735229 -0.949933 0.295622 0.101169 0.000000
53.003799 31.468700 -750.005188 -0.162485 0.985430 0.050265 0.000000
39.672298 42.875301 -740.804871 -0.346921 0.711758 0.610776 0.000000
52.047798 30.171200 -753.375488 0.493776 0.781948 -0.380451 0.000000
52.853699 31.656401 -749.326721 0.431361 0.816561 -0.383609 0.000000
52.237099 31.532900 -749.769226 0.504301 0.807830 -0.305110 0.000000
51.567799 32.547100 -748.363586 0.098719 0.985998 -0.134400 0.000000
50.742001 30.537500 -753.242798 0.454638 0.869292 -0.193999 0.000000
42.595798 38.290199 -742.883606 -0.352897 0.861438 0.365225 0.000000
41.252899 39.470600 -741.875610 0.418946 0.561354 0.713698 0.000000
51.390900 30.200399 -749.242920 -0.542716 0.730769 0.414048 0.000000
51.100601 26.603800 -757.178772 0.895676 0.087214 0.436071 0.000000
40.830799 38.904400 -741.763000 0.379728 0.802717 -0.459840 0.000000
43.360699 35.785400 -743.177124 -0.084189 0.990661 -0.107254 0.000000
44.499901 33.248100 -744.533020 -0.508718 0.248947 0.824155 0.000000
42.431000 34.485298 -743.015198 0.446826 0.815735 -0.367319 0.000000
50.772301 27.510900 -747.762817 0.645644 0.304306 -0.700387 0.000000
49.916401 27.320900 -746.932312 0.738330 0.674369 0.009733 0.000000
49.494202 23.001499 -751.104370 -0.910218 0.069182 -0.408310 0.000000
48.884899 22.794201 -749.678528 0.876661 0.082493 0.473984 0.000000
48.355202 23.169701 -748.936584 0.781723 0.171524 0.599574 0.000000
47.906700 23.490200 -748.422119 -0.922545 0.096466 -0.373638 0.000000
49.022099 22.028400 -749.552124 0.999110 0.021697 -0.036162 0.000000
48.569099 22.515400 -749.059082 0.817009 0.507702 0.273378 0.000000
48.383099 21.822300 -749.155884 0.198143 0.885041 -0.421238 0.000000
48.329700 21.968399 -748.433472 -0.948148 0.008721 -0.317710 0.000000
48.615398 22.858000 -746.021973 -0.464292 0.537513 0.703926 0.000000
48.404598 21.154200 -748.781372 -0.938929 0.154438 -0.307509 0.000000
48.823898 20.497700 -749.009521 0.512112 0.792895 -0.330240 0.000000
48.074100 21.340000 -748.034973 0.848400 0.288981 0.443517 0.000000
48.760799 20.034201 -748.009705 0.038867 0.435582 0.899310 0.000000
48.650600 19.481800 -747.562317 0.568692 0.760926 -0.312380 0.000000
49.604500 20.925100 -742.363708 0.463224 0.813427 -0.351795 0.000000
48.055801 18.698799 -747.352783 0.385548 0.769470 -0.509184 0.000000
48.076500 17.828300 -746.612122 0.326688 0.936687 -0.126066 0.000000
48.687500 18.480700 -743.957581 0.382259 0.877837 -0.288583 0.000000
47.643101 14.810600 -745.398987 0.248354 0.967470 -0.048188 0.000000
46.296600 15.519900 -743.901489 0.966141 0.084616 0.243745 0.000000
46.236301 14.746800 -743.913086 0.921175 0.051692 0.385701 0.000000
45.986500 14.312900 -744.769714 -0.847731 0.530341 -0.009495 0.000000
46.103298 14.033000 -743.634277 0.855529 0.218786 0.469258 0.000000
47.429401 13.715400 -741.359802 0.023016 0.994066 0.106311 0.000000
45.931900 13.455200 -743.284790 -0.971475 0.045100 -0.232813 0.000000
46.576599 12.240800 -744.969116 0.484237 0.815475 -0.317041 0.000000
45.889198 12.296200 -743.981384 -0.207387 0.975576 -0.072401 0.000000
45.808998 12.764100 -742.880371 -0.927213 0.145527 -0.345106 0.000000
45.628799 12.361500 -742.298584 -0.976765 0.193382 -0.092380 0.000000
45.949200 11.116400 -744.194275 0.455647 0.692650 -0.559127 0.000000
47.249001 11.900200 -740.007996 0.929141 0.183586 -0.320925 0.000000
45.610600 11.652100 -742.459595 -0.914863 0.256626 -0.311720 0.000000
45.446499 10.999800 -742.007996 -0.615006 0.362444 -0.700287 0.000000
45.177601 10.406000 -741.457275 -0.878918 0.323332 -0.350656 0.000000
45.111000 9.736400 -741.213928 0.921598 0.011601 0.387973 0.000000
45.536598 6.846100 -736.081299 0.539999 0.790203 -0.289794 0.000000
44.337700 6.125000 -739.041626 0.515556 0.827644 -0.221827 0.000000
45.322300 4.100500 -736.479187 0.517788 0.830587 -0.204989 0.000000
44.439301 4.504700 -735.766113 0.376927 0.905492 -0.194962 0.000000
45.613098 3.057600 -736.077698 -0.094209 0.970981 -0.219821 0.000000
44.742298 3.502700 -734.168884 0.144516 0.982466 -0.117799 0.000000
44.657001 1.807000 -739.843811 0.390036 0.853107 -0.346526 0.000000
45.088200 1.108400 -735.905884 0.638340 0.621585 -0.454042 0.000000
43.451500 1.551200 -738.004028 0.900036 0.069654 0.430214 0.000000
44.821301 0.846000 -735.159607 -0.012694 0.982067 -0.188104 0.000000
40.267399 43.475498 -738.797424 0.184337 0.404961 -0.895559 1.000000
39.716900 42.978401 -739.051392 -0.205273 0.151050 0.966978 1.000000
39.563702 43.630001 -738.784729 -0.020971 0.647303 -0.761944 1.000000
39.020199 43.215099 -739.060425 0.035061 0.601649 -0.797991 1.000000
38.431301 43.046001 -739.466675 0.470659 0.654903 -0.591255 1.000000
37.877602 42.956402 -739.875488 -0.939515 0.240794 0.243578 1.000000
39.979801 44.972698 -737.957214 -0.338746 0.778634 0.528187 1.000000
39.380199 44.698898 -738.329224 -0.071662 0.396168 -0.915377 1.000000
38.903198 44.186001 -738.511108 -0.509812 0.319228 0.798865 1.000000
38.357700 43.766102 -738.783386 0.327969 0.788725 -0.519951 1.000000
37.793900 43.756901 -739.229309 0.394833 0.672373 -0.626116 1.000000
37.155701 43.556599 -739.660522 0.238535 0.103323 0.965622 1.000000
39.926899 46.104500 -737.373779 0.369561 0.335825 -0.866398 1.000000
39.318501 45.760601 -737.721985 -0.170851 0.900198 -0.400567 1.000000
38.783699 45.388699 -738.000916 0.050969 0.491781 -0.869226 1.000000
38.295399 44.812599 -738.163513 0.003906 0.425731 -0.904841 1.000000
37.757801 44.450500 -738.448303 0.200823 0.977338 0.066941 1.000000
37.196201 44.450199 -738.893188 0.282676 0.614860 -0.736235 1.000000
36.608002 44.286098 -739.295471 0.223552 0.556567 -0.800161 1.000000
40.015800 46.789902 -736.985779 -0.008406 0.255785 -0.966697 1.000000
35.839401 44.353001 -739.312622 -0.664865 0.387701 0.638469 1.000000
39.302399 46.592098 -737.230774 -0.039336 0.462532 -0.885729 1.000000
38.761002 46.213699 -737.499329 0.015001 0.535932 -0.844128 1.000000
38.215599 45.823200 -737.766113 -0.185752 0.634012 -0.750683 1.000000
37.705700 45.172600 -737.905090 -0.131626 0.481663 -0.866415 1.000000
37.119099 45.045898 -738.305481 0.404142 0.862067 -0.305795 1.000000
36.540100 44.966499 -738.718506 0.235897 0.760808 -0.604585 1.000000
40.176300 47.827400 -736.373108 -0.838353 0.418393 0.349444 1.000000
39.588200 47.548100 -736.714478 -0.188295 0.949600 -0.250608 1.000000
37.465698 45.824299 -737.669006 -0.116694 0.613013 -0.781407 1.000000
35.936401 45.365398 -738.660583 0.352172 0.653566 -0.669946 1.000000
35.331600 45.141201 -739.036316 0.172069 0.525184 -0.833411 1.000000
40.131901 48.642601 -735.810791 0.536782 0.340123 -0.772128 1.000000
39.535599 48.379002 -736.164673 -0.054419 0.846977 -0.528837 1.000000
39.062901 47.902699 -736.340881 0.092217 0.709924 -0.698214 1.000000
38.515202 47.469299 -736.591309 -0.215996 0.635557 -0.741224 1.000000
37.967800 47.051800 -736.847717 -0.125503 0.580268 -0.804697 1.000000
37.419498 46.642502 -737.107910 -0.067189 0.440159 -0.895402 1.000000
36.858299 46.169899 -737.353516 0.123453 0.512694 -0.849649 1.000000
36.280701 46.081501 -737.761414 0.326601 0.693823 -0.641827 1.000000
35.706902 46.016701 -738.175720 0.273212 0.917934 -0.287667 1.000000
35.111198 45.832100 -738.560120 0.333548 0.626419 -0.704518 1.000000
34.502399 45.582600 -738.929016 0.071646 0.512760 -0.855537 1.000000
40.015701 49.181702 -735.375183 -0.457825 0.431757 0.777163 1.000000
39.439400 49.034100 -735.759521 0.650720 0.583462 -0.485938 1.000000
38.403198 48.008598 -736.152527 -0.067337 0.617494 -0.783688 1.000000
37.336201 47.336102 -736.707581 0.049297 0.584522 -0.809879 1.000000
36.770699 46.828602 -736.942505 -0.049583 0.604914 -0.794746 1.000000
36.171799 46.605202 -737.314514 0.307580 0.713393 -0.629654 1.000000
35.083599 46.342602 -738.046509 0.248909 0.784297 -0.568263 1.000000
34.491501 46.174000 -738.434814 0.300930 0.781781 -0.546132 1.000000
33.888802 45.954300 -738.811096 0.045409 0.493996 -0.868277 1.000000
38.774601 48.602600 -735.818909 -0.361264 0.603197 -0.711085 1.000000
35.495701 46.659698 -737.568176 0.369011 0.762406 -0.531571 1.000000
37.672501 47.896301 -736.231079 0.009694 0.649505 -0.760295 1.000000
33.830200 46.484200 -738.362610 0.108195 0.846807 -0.520779 1.000000
33.130699 46.256802 -738.804688 0.917509 0.351356 0.186347 1.000000
39.709202 49.908401 -734.973022 0.296674 0.893005 -0.338418 1.000000
39.094200 49.523602 -735.286682 -0.176201 0.036174 0.983689 1.000000
38.061600 48.551899 -735.686218 -0.058748 0.740798 -0.669154 1.000000
36.907501 47.859699 -736.286621 0.050526 0.465658 -0.883521 1.000000
36.340801 47.361599 -736.519592 0.055917 0.445968 -0.893300 1.000000
35.748199 47.182999 -736.897095 0.111868 0.979767 -0.165958 1.000000
34.829800 46.983398 -737.512329 0.192571 0.663984 -0.722525 1.000000
34.232800 46.794300 -737.888977 0.194081 0.573074 -0.796190 1.000000
38.443802 49.092201 -735.311523 -0.927096 0.059684 0.370042 1.000000
37.289299 48.491699 -735.706421 -0.052724 0.648359 -0.759507 1.000000
35.017200 47.390202 -736.975403 0.067191 0.892680 -0.445654 1.000000
33.484299 46.916100 -737.936707 0.123573 0.647641 -0.751859 1.000000
32.890900 46.756401 -738.318176 0.105995 0.561919 -0.820373 1.000000
32.304798 46.293999 -738.575684 0.464428 0.204587 -0.861656 1.000000
39.498600 50.402599 -734.480286 0.351373 0.855989 -0.379236 1.000000
38.890400 50.051102 -734.796814 -0.056786 0.041786 -0.997512 1.000000
37.691898 49.020000 -735.288086 -0.612544 0.775087 0.155017 1.000000
36.619999 48.330898 -735.818726 -0.098613 0.856075 -0.507357 1.000000
36.064602 47.891201 -736.061401 -0.648380 0.752240 0.117213 1.000000
35.469002 47.688301 -736.426575 0.560557 0.377518 -0.737059 1.000000
34.302101 47.432598 -737.197571 0.192341 0.755514 -0.626261 1.000000
38.157501 49.781799 -734.777283 -0.138541 0.986367 0.088809 1.000000
34.818699 47.927601 -736.537720 -0.247020 0.942541 0.224940 1.000000
33.538898 47.490398 -737.319580 -0.061727 0.890239 -0.451292 1.000000
32.949001 47.335098 -737.697998 0.255173 0.654574 -0.711632 1.000000
32.365700 47.217999 -738.086487 0.100968 0.610195 -0.785791 1.000000
39.310600 51.140701 -733.865784 0.375252 0.527952 -0.761875 1.000000
38.721500 50.891701 -734.205383 -0.225621 0.608398 -0.760886 1.000000
38.248001 50.395401 -734.362122 -0.262429 0.685497 -0.679135 1.000000
37.425400 49.714901 -734.705627 -0.120322 0.735303 -0.666972 1.000000
36.883999 49.320599 -734.952820 0.366837 0.210242 -0.906217 1.000000
36.269798 48.977100 -735.273926 -0.192866 0.927728 -0.319567 1.000000
35.727901 48.604500 -735.530029 -0.149425 0.528165 -0.835891 1.000000
35.115601 48.295502 -735.863220 0.456165 0.593182 -0.663361 1.000000
34.130699 48.140202 -736.533325 0.294036 0.637882 -0.711793 1.000000
37.563499 50.301601 -734.191772 -0.056903 0.044019 -0.997409 1.000000
34.493599 48.611500 -735.793030 0.351298 0.642141 -0.681355 1.000000
33.400002 48.303101 -736.478882 -0.554419 0.681717 0.477370 1.000000
32.796700 48.069500 -736.832275 -0.136580 0.908185 -0.395659 1.000000
32.201099 47.882900 -737.198608 0.105915 0.822653 -0.558591 1.000000
31.612900 47.739700 -737.576477 -0.006925 0.649520 -0.760313 1.000000
38.868801 51.800201 -733.273010 0.219057 0.753495 -0.619886 1.000000
38.256500 51.407600 -733.568115 -0.263006 0.947092 -0.183968 1.000000
37.712101 50.965099 -733.793579 -0.256807 0.481320 -0.838082 1.000000
36.804298 50.256599 -734.181274 -0.145677 0.635273 -0.758423 1.000000
36.264301 49.876499 -734.428284 0.049200 0.574936 -0.816718 1.000000
35.649300 49.532902 -734.744690 0.049938 0.660607 -0.749069 1.000000
35.099098 49.120399 -734.986328 0.372063 0.135169 -0.918313 1.000000
33.752499 48.722500 -735.818787 0.040708 0.801521 -0.596579 1.000000
30.865900 47.621799 -737.505676 0.339306 0.395082 -0.853687 1.000000
34.384300 49.207500 -735.052795 -0.547455 0.520504 0.655262 1.000000
33.035500 48.807899 -735.882690 0.377900 0.365459 -0.850665 1.000000
32.438202 48.605801 -736.240173 0.160623 0.800114 -0.577943 1.000000
31.844801 48.429798 -736.605225 0.492152 0.230077 -0.839554 1.000000
31.248100 48.243000 -736.968384 0.240579 0.627393 -0.740607 1.000000
38.615200 52.327000 -732.653015 0.271731 0.961604 -0.038464 1.000000
38.037300 52.140800 -733.001770 -0.384451 0.615452 -0.688052 1.000000
37.467701 51.543598 -733.182129 -0.201684 0.317335 -0.926619 1.000000
36.840801 51.091499 -733.461487 -0.145376 0.441887 -0.885213 1.000000
36.293499 50.660301 -733.691223 -0.213030 0.635981 -0.741719 1.000000
35.690201 50.372601 -734.018372 -0.107455 0.758072 -0.643257 1.000000
35.150501 50.008999 -734.269226 -0.206148 0.720741 -0.661842 1.000000
34.594002 49.564701 -734.500305 -0.073759 0.739036 -0.669616 1.000000
33.691502 49.409000 -735.098511 -0.028732 0.857862 -0.513076 1.000000
30.507000 48.217602 -736.955322 -0.100235 0.229653 -0.968097 1.000000
33.904400 49.807800 -734.538818 0.357576 0.818452 -0.449751 1.000000
32.970200 49.486401 -735.093384 -0.512332 0.660152 0.549287 1.000000
32.365601 49.239300 -735.436707 -0.015003 0.838816 -0.544208 1.000000
31.762100 49.005299 -735.784485 0.272935 0.700693 -0.659194 1.000000
31.179300 48.881199 -736.160828 0.512649 0.793728 -0.327393 1.000000
38.168098 52.746399 -732.041016 0.661190 0.506408 0.553515 1.000000
37.590698 52.561298 -732.388428 -0.068052 0.873568 -0.481921 1.000000
37.036098 52.058399 -732.592896 -0.156029 0.710460 -0.686223 1.000000
36.495201 51.650501 -732.825195 -0.069524 0.549094 -0.832864 1.000000
35.958401 51.278599 -733.068787 -0.210012 0.661148 -0.720263 1.000000
35.342300 50.915501 -733.373718 -0.126229 0.767767 -0.628173 1.000000
34.719700 50.530102 -733.674500 -0.113954 0.759199 -0.640805 1.000000
34.104099 50.195599 -733.990417 0.060212 0.847167 -0.527904 1.000000
33.191700 49.979401 -734.569580 0.136857 0.828498 -0.543012 1.000000
30.478399 49.123600 -736.207825 0.067163 0.795959 -0.601613 1.000000
29.793200 48.814301 -736.584412 -0.285565 0.410786 0.865857 1.000000
32.495602 49.997200 -734.554626 0.046687 0.782358 -0.621076 1.000000
31.902000 49.804699 -734.909973 0.179205 0.715287 -0.675463 1.000000
31.300301 49.578201 -735.257813 0.069961 0.806693 -0.586815 1.000000
30.708900 49.409401 -735.620911 0.098807 0.852031 -0.514082 1.000000
37.723301 53.332699 -731.622070 0.463475 0.740570 -0.486566 1.000000
37.112301 52.946800 -731.912292 -0.393769 0.454843 -0.798789 1.000000
36.631100 52.420200 -732.052124 -0.289254 0.941790 -0.171359 1.000000
36.094799 52.041801 -732.291077 -0.076729 0.658713 -0.748472 1.000000
35.479500 51.672600 -732.591187 -0.133120 0.755343 -0.641667 1.000000
34.869400 51.345299 -732.904175 -0.079343 0.794874 -0.601565 1.000000
34.244301 50.948898 -733.200623 -0.106168 0.821711 -0.559927 1.000000
33.704102 50.596298 -733.452698 -0.079404 0.966707 -0.243252 1.000000
33.053699 50.505001 -733.889221 0.185324 0.752018 -0.632553 1.000000
29.985201 49.457199 -735.702271 0.221986 0.906804 -0.358369 1.000000
29.327499 49.347900 -736.136902 0.026703 0.749078 -0.661943 1.000000
31.851801 50.242001 -734.331726 0.039630 0.870489 -0.490590 1.000000
31.257799 50.049702 -734.686401 0.104253 0.776757 -0.621112 1.000000
30.655600 49.823601 -735.033508 0.098054 0.762476 -0.639543 1.000000
32.325699 50.614799 -733.918884 0.029550 0.755638 -0.654323 1.000000
37.535000 53.738800 -731.067078 0.680572 0.670918 -0.294432 1.000000
36.942799 53.457100 -731.383118 -0.741628 0.457530 -0.490565 1.000000
36.393902 52.984001 -731.591614 -0.268808 0.660089 -0.701445 1.000000
35.839802 52.496799 -731.797974 -0.067791 0.751471 -0.656275 1.000000
35.222900 52.112801 -732.091125 -0.172938 0.684102 -0.708588 1.000000
34.602901 51.725700 -732.385315 -0.101534 0.713678 -0.693077 1.000000
33.997002 51.428501 -732.704895 0.029308 0.794096 -0.607086 1.000000
33.377998 51.071899 -733.010376 -0.009742 0.716748 -0.697264 1.000000
32.802299 50.952999 -733.379395 0.258827 0.826077 -0.500606 1.000000
29.906401 49.948002 -735.073120 0.162527 0.748840 -0.642514 1.000000
29.319700 49.804699 -735.440186 0.159335 0.897156 -0.411974 1.000000
31.209900 50.501598 -734.122192 0.119349 0.800079 -0.587903 1.000000
30.624201 50.346600 -734.484314 0.046802 0.767263 -0.639622 1.000000
32.125000 51.104401 -733.425110 0.176303 0.700615 -0.691416 1.000000
36.874599 53.965302 -730.888916 -0.252825 0.867478 -0.428440 1.000000
35.166100 52.625198 -731.590271 -0.212958 0.744577 -0.632657 1.000000
33.339199 51.623600 -732.513123 0.004088 0.819033 -0.573732 1.000000
29.874399 50.440399 -734.549316 0.091965 0.754698 -0.649595 1.000000
29.276501 50.230099 -734.898193 0.101543 0.853817 -0.510574 1.000000
28.680099 50.033001 -735.251282 -0.114819 0.449352 -0.885946 1.000000
36.345200 53.480499 -730.960083 -0.439221 0.663006 -0.606225 1.000000
35.812698 53.096500 -731.191772 -0.172731 0.658825 -0.732198 1.000000
34.579102 52.297401 -731.764526 -0.168962 0.653015 -0.738257 1.000000
33.965599 51.937801 -732.064514 0.119828 0.770748 -0.625770 1.000000
32.688900 51.409199 -732.776672 0.185535 0.859400 -0.476455 1.000000
31.445499 51.088100 -733.547791 0.044042 0.654944 -0.754393 1.000000
37.043499 54.392200 -730.116089 0.688092 0.722713 -0.064914 1.000000
35.114201 53.051998 -730.980225 -0.213278 0.730127 -0.649175 1.000000
33.310398 52.122398 -731.917725 0.143277 0.695272 -0.704321 1.000000
32.046001 51.644798 -732.644470 0.228260 0.777947 -0.585402 1.000000
30.779600 51.189999 -733.381897 0.043902 0.627369 -0.777484 1.000000
30.184601 50.968601 -733.725220 0.175340 0.751676 -0.635799 1.000000
29.258699 50.679600 -734.281677 0.087180 0.836067 -0.541657 1.000000
28.670500 50.507900 -734.640076 0.096892 0.817072 -0.568335 1.000000
36.308899 54.480900 -730.029602 -0.371873 0.521272 -0.768105 1.000000
35.757900 53.957500 -730.219482 -0.079783 0.764463 -0.639712 1.000000
34.354900 53.025600 -730.864319 -0.116240 0.601802 -0.790141 1.000000
33.745399 52.666100 -731.162781 0.041150 0.662655 -0.747793 1.000000
32.562199 52.180500 -731.827271 0.018086 0.769349 -0.638573 1.000000
31.319401 51.825401 -732.587830 0.046121 0.549263 -0.834376 1.000000
29.446301 51.099098 -733.657104 0.113420 0.776261 -0.620125 1.000000
27.947300 50.692299 -734.583008 0.044704 0.448391 -0.892719 1.000000
36.597698 54.787300 -729.402710 0.291354 0.138293 -0.946566 1.000000
35.044300 53.825600 -730.144287 -0.165492 0.763691 -0.624010 1.000000
33.056999 52.711201 -731.139893 -0.023527 0.812385 -0.582647 1.000000
31.867100 52.199200 -731.798706 0.285005 0.848851 -0.445223 1.000000
30.557199 51.911301 -732.635315 0.082954 0.752412 -0.653449 1.000000
29.955700 51.648499 -732.966675 -0.012358 0.819750 -0.572589 1.000000
28.764700 51.206902 -733.654724 0.096368 0.832795 -0.545129 1.000000
28.189600 51.094200 -734.027527 0.158434 0.903501 -0.398226 1.000000
35.856300 54.707699 -729.456482 -0.344325 0.435516 -0.831725 1.000000
34.289700 53.696499 -730.187195 -0.168175 0.783302 -0.598461 1.000000
33.749699 53.279598 -730.411377 -0.028582 0.864264 -0.502226 1.000000
32.314899 52.682201 -731.213684 0.065699 0.501826 -0.862470 1.000000
31.153700 52.333401 -731.917480 0.094064 0.580303 -0.808950 1.000000
29.209101 51.624699 -733.045715 0.026212 0.954882 -0.295826 1.000000
27.479900 51.145302 -734.109985 0.004134 0.781265 0.624185 1.000000
36.269901 55.330002 -728.946472 0.386330 0.074035 0.919384 1.000000
35.144299 54.589600 -729.466125 -0.093685 0.310083 -0.946082 1.000000
34.594002 54.084900 -729.662170 -0.308092 0.662963 -0.682319 1.000000
33.048500 53.251999 -730.450378 -0.037050 0.863136 -0.503610 1.000000
31.620899 52.702999 -731.267822 0.149587 0.898949 -0.411721 1.000000
30.447100 52.293499 -731.956909 0.140230 0.874633 -0.464061 1.000000
29.874599 52.171001 -732.324402 -0.022351 0.911127 -0.411519 1.000000
28.524500 51.703201 -733.118408 0.106987 0.868736 -0.483582 1.000000
27.943399 51.555099 -733.481689 0.129278 0.975230 -0.179482 1.000000
35.577400 55.159302 -728.978394 -0.631784 0.332945 -0.699997 1.000000
33.735500 53.881599 -729.802307 -0.055813 0.679775 -0.731294 1.000000
32.292900 53.210300 -730.581726 0.058558 0.769822 -0.635567 1.000000
30.883600 52.766499 -731.429504 0.243912 0.725443 -0.643614 1.000000
29.108999 52.098000 -732.452271 0.001383 0.731560 -0.681775 1.000000
27.194599 51.573502 -733.635925 0.295497 0.263785 -0.918204 1.000000
35.821602 55.676998 -728.370728 0.485406 0.799397 -0.354042 1.000000
34.875301 55.081902 -728.817078 -0.358148 0.717931 -0.596913 1.000000
34.271900 54.714401 -729.106628 0.023292 0.962320 -0.270921 1.000000
33.049099 53.929001 -729.676819 -0.116108 0.795118 -0.595236 1.000000
32.449299 53.620602 -729.987915 0.004036 0.857011 -0.515283 1.000000
31.623800 53.366100 -730.485474 -0.019649 0.913040 -0.407397 1.000000
31.038401 53.155300 -730.825989 0.187098 0.876561 -0.443437 1.000000
30.210501 52.909100 -731.328796 0.054910 0.829276 -0.556136 1.000000
29.626101 52.718399 -731.676880 0.299457 0.410025 -0.861513 1.000000
28.449900 52.319901 -732.371216 0.134574 0.808921 -0.572308 1.000000
27.861200 52.126900 -732.721375 0.098865 0.980106 -0.172098 1.000000
33.604801 54.517601 -729.198181 -0.156943 0.334719 -0.929157 1.000000
28.897301 52.659500 -731.870483 -0.112961 0.947540 -0.299013 1.000000
27.152201 52.173698 -732.944519 0.260419 0.752847 -0.604487 1.000000
35.118999 55.746300 -728.315125 0.035850 0.996206 -0.079305 1.000000
34.410301 55.429100 -728.359802 -0.250361 0.757381 -0.603070 1.000000
33.832401 55.206501 -728.689880 0.431012 0.099035 -0.896895 1.000000
32.927502 54.458199 -729.042297 -0.104920 0.969564 -0.221217 1.000000
32.323002 54.115700 -729.342529 -0.001381 0.749918 -0.661530 1.000000
31.739401 53.897701 -729.678711 -0.017852 0.825310 -0.564397 1.000000
31.138100 53.593201 -729.992188 0.049583 0.794746 -0.604914 1.000000
30.492399 53.473400 -730.414124 0.134467 0.866082 -0.481478 1.000000
29.844000 53.343201 -730.833801 0.151401 0.786984 -0.598108 1.000000
29.249201 53.096298 -731.166199 0.054867 0.831446 -0.552890 1.000000
28.162500 52.744801 -731.814575 0.213369 0.488782 -0.845911 1.000000
27.588900 52.618698 -732.181396 0.154023 0.803012 -0.575716 1.000000
26.444799 52.336899 -732.900513 -0.326793 0.505334 0.798651 1.000000
35.202000 56.292400 -727.685730 0.242165 0.773367 -0.585884 1.000000
33.192799 54.908699 -728.578979 -0.054602 0.387538 -0.920235 1.000000
28.496599 53.101002 -731.256409 0.146177 0.718828 -0.679646 1.000000
26.851000 52.708801 -732.294189 0.259341 0.821505 -0.507811 1.000000
34.471401 56.107800 -727.698792 -0.084903 0.301731 -0.949605 1.000000
33.932201 55.656200 -727.904480 -0.323121 0.554612 -0.766811 1.000000
32.464600 54.784599 -728.612671 0.032411 0.649637 -0.759554 1.000000
31.869699 54.498600 -728.927673 -0.029478 0.759422 -0.649930 1.000000
31.282801 54.264000 -729.258179 0.043681 0.596040 -0.801766 1.000000
30.692200 54.018501 -729.586670 0.329757 0.397875 -0.856128 1.000000
30.051901 53.925301 -730.014709 0.214904 0.830658 -0.513637 1.000000
29.464500 53.709301 -730.353271 0.130244 0.726072 -0.675172 1.000000
28.871300 53.471298 -730.686890 0.115246 0.558723 -0.821308 1.000000
27.787901 53.137402 -731.338013 0.148841 0.762246 -0.629943 1.000000
27.207100 52.977501 -731.694885 0.279527 0.669268 -0.688436 1.000000
26.119900 52.727798 -732.383728 0.029054 0.554785 -0.831486 1.000000
33.225201 55.426300 -727.945496 0.088635 0.786089 -0.611725 1.000000
28.180901 53.527000 -730.794312 0.103122 0.820622 -0.562090 1.000000
26.523701 53.114101 -731.817383 0.059800 0.923573 -0.378731 1.000000
34.955101 56.710899 -726.723572 -0.100984 0.906091 -0.410854 1.000000
34.309799 56.635700 -727.156616 -0.270120 0.838144 -0.473868 1.000000
33.758701 56.130699 -727.343323 -0.392047 0.853827 -0.342460 1.000000
32.460602 55.374699 -727.962830 -0.146010 0.757143 -0.636723 1.000000
31.858299 55.059200 -728.265076 -0.041219 0.695044 -0.717785 1.000000
31.250700 54.727299 -728.564209 0.079533 0.880445 -0.467431 1.000000
30.670300 54.547401 -728.906921 -0.042834 0.852533 -0.520916 1.000000
30.017900 54.404701 -729.316895 0.313531 0.820853 -0.477387 1.000000
29.435301 54.224800 -729.661316 0.167445 0.801020 -0.574743 1.000000
28.780800 54.082001 -730.072693 0.081096 0.843683 -0.530681 1.000000
27.416599 53.550201 -730.833008 0.103665 0.910872 -0.399457 1.000000
26.841700 53.431599 -731.197205 0.196406 0.719126 -0.666545 1.000000
25.691299 53.070400 -731.874695 -0.772204 0.630753 0.076499 1.000000
33.054501 55.885201 -727.297302 -0.067805 0.711226 -0.699685 1.000000
28.026501 54.054001 -730.149719 0.133114 0.665569 -0.734369 1.000000
26.106899 53.511501 -731.303772 0.327684 0.791237 -0.516302 1.000000
34.377201 57.046200 -726.542725 0.087651 0.891818 -0.443822 1.000000
31.826900 55.439999 -727.676208 -0.198237 0.779116 -0.594710 1.000000
31.233400 55.176601 -727.992920 -0.104628 0.852787 -0.511672 1.000000
30.648300 54.966000 -728.325378 0.064598 0.759391 -0.647420 1.000000
30.067400 54.783901 -728.666870 0.251016 0.718317 -0.648854 1.000000
29.423100 54.681301 -729.086975 0.160073 0.818317 -0.552027 1.000000
28.837799 54.487598 -729.426819 0.113471 0.773664 -0.623352 1.000000
26.829599 53.862499 -730.609070 0.272400 0.792006 -0.546374 1.000000
33.697601 56.665600 -726.654480 0.206014 0.958300 -0.198040 1.000000
32.309299 55.820000 -727.298279 -0.248738 0.786888 -0.564745 1.000000
25.340099 53.726700 -731.428528 0.485313 0.636448 -0.599504 1.000000
32.960098 56.437599 -726.693726 -0.429519 0.799516 -0.419867 1.000000
28.113300 54.638401 -729.424500 0.031313 0.867230 -0.496922 1.000000
27.515301 54.389999 -729.750427 -0.022174 0.981489 -0.190229 1.000000
26.113199 54.049500 -730.615723 0.118056 0.883284 -0.453732 1.000000
34.005001 57.369900 -725.949707 0.072443 0.939118 -0.335870 1.000000
32.253201 56.179298 -726.709900 -0.228611 0.855398 -0.464792 1.000000
31.665001 55.925999 -727.026672 0.104781 0.854037 -0.509551 1.000000
31.089001 55.746300 -727.365479 0.132707 0.157512 -0.978560 1.000000
30.492500 55.465401 -727.676575 0.117199 0.846434 -0.519436 1.000000
29.834700 55.277901 -728.070984 -0.062379 0.974830 -0.214047 1.000000
29.182301 55.124401 -728.475891 0.230830 0.895384 -0.380795 1.000000
28.529400 54.973900 -728.882324 0.272104 0.618998 -0.736750 1.000000
26.765699 54.369400 -729.897217 0.129153 0.779372 -0.613106 1.000000
25.383101 54.123901 -730.788574 0.167386 0.902739 -0.396289 1.000000
33.325001 57.179600 -726.070923 -0.198452 0.977651 -0.069397 1.000000
32.597900 56.821400 -726.086914 -0.207025 0.568936 -0.795897 1.000000
27.844500 55.101799 -728.776611 0.154971 0.597315 -0.786892 1.000000
27.261700 54.924702 -729.120483 0.156050 0.695407 -0.701468 1.000000
26.091801 54.567001 -729.810120 0.082677 0.873009 -0.480645 1.000000
33.540600 57.691200 -725.351501 0.106716 0.973002 -0.204644 1.000000
31.894899 56.688999 -726.108582 -0.216602 0.690320 -0.690320 1.000000
31.297899 56.392601 -726.411682 0.087933 0.817343 -0.569401 1.000000
30.703600 56.120399 -726.723083 0.064763 0.680732 -0.729664 1.000000
30.112200 55.872200 -727.042480 0.237880 0.788268 -0.567491 1.000000
29.472300 55.778999 -727.462402 0.015204 0.803048 -0.595721 1.000000
28.885099 55.565300 -727.793396 0.225145 0.878214 -0.421960 1.000000
28.244801 55.478600 -728.216187 0.153723 0.816375 -0.556687 1.000000
26.494600 54.943501 -729.245972 0.116511 0.603204 -0.789032 1.000000
25.349501 54.710499 -729.969299 0.169246 0.892518 -0.418052 1.000000
24.724300 54.561199 -730.354797 -0.152688 0.645523 -0.748323 1.000000
32.800499 57.445999 -725.398071 -0.242228 0.899912 -0.362607 1.000000
27.271299 55.353401 -728.473022 0.118186 0.878562 -0.462776 1.000000
32.102100 57.199600 -725.413513 -0.171243 0.844301 -0.507772 1.000000
30.667601 56.576302 -726.174988 0.058565 0.781337 -0.621356 1.000000
30.082800 56.364399 -726.503418 0.165187 0.774410 -0.610739 1.000000
29.429199 56.203499 -726.902588 0.046978 0.753067 -0.656264 1.000000
28.840900 55.987202 -727.231628 0.134574 0.808921 -0.572308 1.000000
27.615900 55.714600 -727.992188 0.108607 0.832656 -0.543036 1.000000
26.540199 55.427898 -728.640076 0.191732 0.762325 -0.618142 1.000000
25.866501 55.206299 -729.028015 0.017465 0.877299 -0.479626 1.000000
24.731800 55.031101 -729.765320 0.145761 0.925929 -0.348438 1.000000
33.083302 58.049400 -724.592590 0.177191 0.795087 -0.580035 1.000000
31.370800 57.136101 -725.429077 -0.311201 0.941687 0.127983 1.000000
28.139200 56.106499 -727.303711 0.256567 0.810129 -0.527128 1.000000
26.892799 55.739899 -728.039917 0.174370 0.783907 -0.595890 1.000000
25.157400 55.308201 -729.098206 0.345912 0.476626 -0.808191 1.000000
32.395699 58.058998 -724.519897 -0.026078 0.531175 -0.846861 1.000000
31.772301 57.606800 -724.773682 -0.070706 0.642124 -0.763333 1.000000
30.659599 57.041302 -725.330017 0.003944 0.895208 -0.445632 1.000000
30.016199 56.920300 -725.739990 -0.123496 0.917197 -0.378812 1.000000
29.440001 56.751499 -726.081299 0.153566 0.861432 -0.484099 1.000000
28.773600 56.526699 -726.463318 -0.086007 0.753658 -0.651615 1.000000
27.389900 56.227501 -727.328308 0.160902 0.801502 -0.575939 1.000000
26.143900 55.867599 -728.068420 0.154599 0.882805 -0.443570 1.000000
25.488899 55.727001 -728.478394 0.076918 0.874063 -0.479686 1.000000
24.422600 55.500900 -729.146912 0.095462 0.726984 -0.679987 1.000000
32.674801 58.328098 -723.874512 0.322341 0.646302 -0.691657 1.000000
31.062401 57.536098 -724.692383 -0.130658 0.928359 -0.347963 1.000000
28.011801 56.613998 -726.487915 0.150179 0.896781 -0.416209 1.000000
26.622000 56.293201 -727.348572 -0.025731 0.873484 -0.486172 1.000000
24.823299 55.910801 -728.476685 0.141742 0.851914 -0.504134 1.000000
31.970501 58.348598 -723.922180 -0.587421 0.580650 -0.563721 1.000000
31.359200 57.966499 -724.196411 -0.318770 0.890460 -0.324756 1.000000
30.343201 57.504700 -724.726929 0.023580 0.811440 -0.583960 1.000000
29.749399 57.241699 -725.039917 0.040416 0.832013 -0.553282 1.000000
29.103901 57.115002 -725.448914 0.130296 0.838872 -0.528504 1.000000
28.458799 56.994801 -725.860413 0.048749 0.842658 -0.536237 1.000000
27.327299 56.781700 -726.581177 0.182429 0.749645 -0.636202 1.000000
25.912600 56.355598 -727.413513 0.114027 0.730068 -0.673795 1.000000
25.334801 56.209801 -727.765625 0.189093 0.856130 -0.480922 1.000000
24.123899 56.029800 -728.557678 0.233003 0.745922 -0.623947 1.000000
26.592600 56.777302 -726.715027 0.068240 0.921912 -0.381342 1.000000
32.034100 58.609100 -723.239075 0.253800 0.858664 -0.445289 1.000000
30.674299 57.959099 -723.931580 -0.509557 0.068783 0.857683 1.000000
29.113100 57.512199 -724.856384 0.054368 0.957137 -0.284486 1.000000
28.455999 57.336201 -725.250977 0.137926 0.897231 -0.419466 1.000000
27.790400 57.126099 -725.636780 0.153185 0.931529 -0.329830 1.000000
24.681801 56.453201 -727.572510 0.197280 0.892875 -0.404790 1.000000
23.445499 56.321201 -728.401184 0.142606 0.749054 -0.646979 1.000000
31.300301 58.446301 -723.260071 -0.227824 0.909844 -0.346815 1.000000
29.966299 57.950298 -724.000977 -0.173835 0.796619 -0.578947 1.000000
27.112200 57.279301 -725.756226 0.207697 0.832305 -0.513937 1.000000
25.977301 57.068699 -726.478516 -0.504936 0.104420 0.856817 1.000000
25.385500 56.859798 -726.812073 -0.274499 0.072774 0.958830 1.000000
24.016399 56.668800 -727.711121 0.111127 0.993538 -0.023106 1.000000
31.630501 58.727901 -722.655823 0.724658 0.673435 -0.146137 1.000000
30.549601 58.325001 -723.257019 -0.080319 0.863786 -0.497417 1.000000
29.243401 57.979900 -724.045715 0.055033 0.822670 -0.565850 1.000000
28.665199 57.803600 -724.384521 0.159556 0.895526 -0.415421 1.000000
28.011801 57.643902 -724.784607 0.071862 0.912508 -0.402697 1.000000
26.405800 57.393398 -725.830322 0.128960 0.938011 -0.321720 1.000000
24.674200 56.954800 -726.883972 0.088900 0.753466 -0.651449 1.000000
23.320801 56.829700 -727.802795 0.090727 0.819423 -0.565963 1.000000
29.797899 58.286301 -723.396973 0.130938 0.905304 -0.404078 1.000000
27.265900 57.648201 -724.942017 0.302498 0.750644 -0.587391 1.000000
25.422300 57.381901 -726.153809 0.198980 0.854267 -0.480245 1.000000
23.946800 57.050999 -727.072021 0.351734 0.760200 -0.546241 1.000000
30.934299 58.767899 -722.697571 -0.106723 0.869433 -0.482386 1.000000
26.612000 57.695801 -725.235718 0.093853 0.972318 -0.213985 1.000000
29.052601 58.320702 -723.452026 0.004021 0.864500 -0.502616 1.000000
28.403900 58.181099 -723.856079 0.229488 0.871454 -0.433477 1.000000
27.745399 58.000702 -724.249207 -0.004054 0.847307 -0.531087 1.000000
25.892000 57.689499 -725.442505 0.147143 0.866832 -0.476394 1.000000
24.683201 57.501801 -726.227478 0.161562 0.840419 -0.517295 1.000000
23.330299 57.373199 -727.142029 0.279856 0.814553 -0.508118 1.000000
31.258200 59.104000 -722.001770 0.635691 0.771005 0.038057 1.000000
30.184601 58.747700 -722.614990 -0.088994 0.663808 -0.742589 1.000000
23.985500 57.348202 -726.445923 0.165530 0.871596 -0.461433 1.000000
29.466200 58.605099 -722.834717 0.056593 0.930486 -0.361929 1.000000
27.016701 58.054001 -724.331177 0.116718 0.895778 -0.428905 1.000000
25.160000 57.766201 -725.522888 0.132674 0.847069 -0.514657 1.000000
30.573000 59.286999 -721.889893 0.341453 0.938671 -0.048037 1.000000
28.723499 58.594101 -722.894287 0.181566 0.866499 -0.464987 1.000000
28.088200 58.528099 -723.315491 0.211569 0.880306 -0.424618 1.000000
27.432800 58.374199 -723.711975 0.071216 0.867154 -0.492923 1.000000
26.306400 58.206402 -724.436279 0.258961 0.895265 -0.362545 1.000000
25.646900 58.047100 -724.833374 0.090184 0.894906 -0.437047 1.000000
24.443300 57.898998 -725.621216 0.176002 0.888740 -0.423279 1.000000
23.476900 57.772900 -726.250488 0.471591 0.589070 -0.656200 1.000000
22.916500 57.813099 -726.665588 0.219550 0.927778 -0.301705 1.000000
29.874201 59.202099 -721.756592 -0.349202 0.916476 0.195268 1.000000
29.216499 59.019299 -722.141724 0.038661 0.959044 -0.280605 1.000000
26.691799 58.472301 -723.689026 -0.398108 0.336146 0.853531 1.000000
24.926701 58.236801 -724.836121 -0.385871 0.766858 0.512867 1.000000
23.736900 58.144100 -725.638672 -0.414097 0.636945 0.650249 1.000000
30.438400 59.676800 -721.032776 0.406604 0.839897 0.359507 1.000000
28.466499 59.120098 -722.183899 0.080874 0.849890 -0.520717 1.000000
27.812599 58.962399 -722.577576 -0.034034 0.982289 -0.184253 1.000000
27.168699 58.854301 -722.986511 0.297244 0.653936 -0.695711 1.000000
25.956100 58.639099 -723.750977 0.198114 0.887846 -0.415307 1.000000
25.321301 58.579899 -724.175110 0.220364 0.900429 -0.375057 1.000000
24.198601 58.432899 -724.906311 0.262630 0.784743 -0.561430 1.000000
23.113899 58.446400 -725.682190 0.233213 0.883834 -0.405524 1.000000
22.488600 58.432201 -726.119812 0.052821 0.760911 -0.646703 1.000000
29.703199 59.601799 -721.063416 0.076813 0.673925 -0.734796 1.000000
29.123301 59.415298 -721.391785 0.079533 0.880445 -0.467431 1.000000
26.452900 58.884701 -723.051514 0.179415 0.657856 -0.731462 1.000000
24.620899 58.677101 -724.260315 0.199102 0.754735 -0.625087 1.000000
23.520800 58.621101 -725.016785 0.302371 0.763128 -0.571146 1.000000
28.394699 59.401600 -721.528992 0.071893 0.986472 -0.147323 1.000000
27.766300 59.353600 -721.954712 0.523755 0.063188 -0.849522 1.000000
27.127501 59.260300 -722.367493 -0.520801 0.396723 0.755895 1.000000
25.358700 58.968800 -723.495483 0.086949 0.985024 -0.148885 1.000000
22.625000 58.873798 -725.398621 -0.478472 0.448875 0.754703 1.000000
29.931299 59.954899 -720.394775 0.799923 0.469694 0.373511 1.000000
24.000299 58.970100 -724.182129 0.183911 0.954457 -0.234923 1.000000
21.952700 58.945301 -725.631226 -0.233158 0.886593 0.399487 1.000000
29.243299 59.894501 -720.606873 -0.114087 0.686003 -0.718599 1.000000
28.646700 59.625900 -720.911804 0.170605 0.882188 -0.438907 1.000000
26.431700 59.375599 -722.379578 0.052088 0.817921 -0.572967 1.000000
25.852900 59.210201 -722.718079 0.196667 0.845217 -0.496921 1.000000
24.675699 59.133099 -723.523376 -0.209589 0.919626 0.332206 1.000000
23.343901 59.061600 -724.441406 0.311017 0.809907 -0.497311 1.000000
27.778900 59.643600 -721.308228 0.141996 0.912429 -0.383811 1.000000
27.134501 59.519901 -721.712280 0.247819 0.829656 -0.500256 1.000000
22.648100 59.162800 -724.752380 0.534252 0.814464 -0.226326 1.000000
25.162701 59.386501 -722.824585 0.129273 0.934851 -0.330668 1.000000
22.034700 59.401299 -725.062683 0.293208 0.719401 -0.629676 1.000000
29.433201 60.343899 -719.937073 0.158316 0.982524 0.097890 1.000000
24.051001 59.377701 -723.342773 0.232699 0.937763 -0.257780 1.000000
23.432301 59.374802 -723.783081 0.304283 0.912848 -0.272253 1.000000
28.743099 60.193199 -720.110229 0.063129 0.851545 -0.520467 1.000000
28.152500 59.957001 -720.425415 0.017367 0.883069 -0.468922 1.000000
26.494101 59.776798 -721.528687 0.253155 0.862546 -0.438095 1.000000
25.861099 59.706902 -721.949402 0.137805 0.807569 -0.573448 1.000000
22.796400 59.481499 -724.036926 0.287122 0.858296 -0.425310 1.000000
27.462400 59.939899 -720.718323 0.226333 0.889058 -0.397931 1.000000
24.454000 59.606701 -722.717529 0.080526 0.854708 -0.512825 1.000000
22.181700 59.697300 -724.382324 0.371987 0.888885 -0.267412 1.000000
25.139700 59.746498 -722.107300 0.289775 0.918341 -0.269592 1.000000
21.494101 59.782600 -724.724976 0.929449 0.048504 0.365749 1.000000
29.087299 60.560299 -719.375671 0.253562 0.965536 0.058707 1.000000
26.733000 60.023201 -720.810425 0.036414 0.955552 -0.292567 1.000000
23.731899 59.744400 -722.822876 0.226691 0.803443 -0.550536 1.000000
23.108101 59.722801 -723.257629 0.111065 0.992850 0.043753 1.000000
28.368700 60.587299 -719.513977 0.295248 0.952786 -0.070911 1.000000
27.784901 60.386501 -719.838989 0.119515 0.941345 -0.315572 1.000000
26.036400 60.155499 -720.980591 0.257947 0.938369 -0.230061 1.000000
25.408600 60.109798 -721.407410 0.067573 0.974273 -0.215003 1.000000
24.451500 59.982201 -722.031677 0.070376 0.955838 -0.285344 1.000000
22.462099 59.973301 -723.445923 -0.075464 0.827260 0.556728 1.000000
21.911100 60.116600 -723.903809 0.564435 0.648679 -0.510519 1.000000
27.035000 60.364101 -719.947327 -0.024095 0.998391 -0.051334 1.000000
23.727800 60.075401 -722.174988 0.112961 0.947540 -0.299013 1.000000
23.101101 60.038700 -722.605530 0.097348 0.988727 0.113768 1.000000
21.222900 60.156399 -723.998779 -0.250298 0.860115 -0.444469 1.000000
28.425301 60.912300 -718.831421 0.329049 0.534504 -0.778481 1.000000
26.319599 60.448399 -720.120972 0.312416 0.804034 -0.505891 1.000000
25.494600 60.539501 -720.750916 0.616910 0.475710 -0.626995 1.000000
24.759300 60.366299 -721.195984 0.184519 0.925412 -0.331007 1.000000
22.421101 60.265202 -722.817017 0.417632 0.855298 -0.306674 1.000000
27.736500 60.963699 -719.005676 -0.360649 0.894943 -0.262695 1.000000
27.136999 60.695900 -719.310120 -0.476256 0.079609 0.875696 1.000000
24.096001 60.533501 -721.401184 0.207673 0.792234 -0.573793 1.000000
21.774099 60.566799 -723.069824 0.475208 0.812144 -0.338526 1.000000
23.373800 60.505100 -721.663574 0.208284 0.825534 -0.524511 1.000000
22.750299 60.480301 -722.094788 0.189827 0.899865 -0.392695 1.000000
21.052799 60.695702 -723.398376 0.861936 0.394862 0.318041 1.000000
26.414700 60.806999 -719.474670 0.269497 0.776970 -0.568937 1.000000
25.701599 60.724300 -719.941772 0.303347 0.838483 -0.452688 1.000000
24.862000 60.757198 -720.551270 0.185612 0.756253 -0.627399 1.000000
22.061701 60.745098 -722.279419 0.466666 0.824914 -0.318967 1.000000
27.661900 61.441799 -718.272888 -0.260481 0.933508 0.246401 1.000000
27.016199 61.305000 -718.667419 -0.338893 0.279698 0.898288 1.000000
24.164600 60.958000 -720.527771 0.403173 0.874296 -0.270292 1.000000
23.556000 60.986801 -720.971985 0.314973 0.055281 -0.947489 1.000000
22.833000 60.870201 -721.430481 0.213925 0.792601 -0.570981 1.000000
21.435801 61.092098 -722.522217 0.525012 0.508238 -0.682683 1.000000
26.267099 61.265499 -718.766296 -0.127290 0.986198 -0.105877 1.000000
25.629299 61.167500 -719.174072 0.333135 0.641895 -0.690646 1.000000
25.015200 61.169300 -719.611084 -0.196876 0.874840 0.442601 1.000000
22.125799 60.993999 -721.582214 0.438478 0.857094 -0.270420 1.000000
27.045099 61.737499 -718.057922 0.175247 0.910427 -0.374714 1.000000
24.359900 61.405998 -719.814087 -0.233087 0.930937 0.281117 1.000000
23.659901 61.368698 -720.294617 -0.295808 0.847156 0.441389 1.000000
22.949800 61.293900 -720.764893 0.205220 0.943463 -0.260313 1.000000
21.492599 61.302502 -721.804871 0.532542 0.715033 -0.452909 1.000000
20.758200 61.266201 -722.310425 -0.104582 0.732071 -0.673152 1.000000
26.361601 61.719299 -718.247620 -0.028437 0.486136 -0.873420 1.000000
22.285299 61.367100 -720.983276 -0.374289 0.795164 0.477098 1.000000
25.653099 61.570999 -718.477905 0.412630 0.681088 -0.604860 1.000000
25.037201 61.562199 -718.911926 0.411396 0.509738 -0.755593 1.000000
23.058100 61.698898 -720.213318 0.264358 0.854198 -0.447728 1.000000
21.657600 61.626202 -721.175720 0.495076 0.676324 -0.545423 1.000000
20.947100 61.785999 -721.755127 0.175594 0.823939 -0.538787 1.000000
26.721201 62.120800 -717.553101 0.471811 0.818964 -0.326639 1.000000
24.361401 61.868401 -719.113281 0.310527 0.917137 -0.249866 1.000000
23.738100 61.830002 -719.538513 0.254362 0.830917 -0.494850 1.000000
26.007700 62.170300 -717.740784 0.020544 0.250154 -0.967988 1.000000
25.303400 62.108700 -718.213074 0.446336 0.742795 -0.499040 1.000000
22.358500 61.985500 -720.250000 0.233323 0.734418 -0.637331 1.000000
24.618799 62.163200 -718.418579 0.077937 0.995622 -0.051592 1.000000
23.181400 62.237099 -719.476929 0.450794 0.710292 -0.540620 1.000000
21.675100 62.047501 -720.461609 0.442037 0.534748 -0.720172 1.000000
21.092400 62.163799 -720.930725 0.753845 0.390822 -0.528182 1.000000
23.822800 62.295101 -718.926575 0.495063 0.796267 -0.347666 1.000000
26.075701 62.650200 -717.213989 0.477722 0.782169 -0.399991 1.000000
25.438601 62.550499 -717.621704 0.188051 0.831938 -0.522030 1.000000
22.487900 62.409500 -719.659485 0.126297 0.892592 -0.432815 1.000000
20.315300 62.305199 -721.159790 0.048818 0.123747 0.991112 1.000000
24.725201 62.662800 -717.674927 0.054245 0.858188 -0.510462 1.000000
24.081200 62.541401 -718.077881 -0.167330 0.905296 0.390436 1.000000
23.270399 62.671501 -718.718018 0.533353 0.253459 -0.807027 1.000000
21.808701 62.655499 -719.754395 0.155434 0.974303 -0.163016 1.000000
21.200899 62.677700 -720.198914 0.193352 0.980821 -0.024608 1.000000
25.421000 62.870300 -716.996399 0.492375 0.763918 -0.417129 1.000000
22.576099 62.838100 -719.011475 0.479160 0.159720 -0.863073 1.000000
20.514299 62.713200 -720.424316 -0.735342 0.236752 0.634997 1.000000
24.741699 63.160301 -717.167725 0.393232 0.867558 -0.304487 1.000000
23.553101 63.009998 -717.942505 0.480718 0.795837 -0.368175 1.000000
21.894100 63.121799 -719.175110 0.303570 0.615172 -0.727605 1.000000
21.275700 63.105099 -719.607178 0.397197 0.585083 -0.707044 1.000000
24.025400 63.129601 -717.422913 0.382240 0.388532 -0.838412 1.000000
22.901800 63.235001 -718.270996 0.155369 0.973899 -0.165474 1.000000
22.272699 63.491501 -718.566223 0.447606 0.693872 -0.564083 1.000000
20.614100 63.311501 -719.658875 0.980098 0.188804 0.061331 1.000000
21.382299 63.579399 -719.004700 0.054975 0.997090 -0.052819 1.000000
24.349400 63.609699 -716.717529 0.558887 0.792405 -0.244416 1.000000
23.601500 63.681198 -717.280579 0.395040 0.646279 -0.652891 1.000000
