ply
format ascii 1.0
element vertex 696
property float x
property float y
property float z
property float nx
property float ny
property float nz
property float label
element face 0
property list uchar int vertex_indices
end_header
53.174801 21.053600 -760.750488 0.365978 0.918449 -0.150037 1.000000
49.422901 21.028400 -747.290894 0.279233 0.865163 0.416560 1.000000
49.497700 21.172199 -747.466675 0.221282 0.898318 0.379550 1.000000
49.623699 21.347500 -747.809326 0.160265 0.977741 0.135418 1.000000
49.748699 21.518801 -748.150818 0.235688 0.903226 0.358655 1.000000
49.809101 21.595200 -748.320496 0.361347 0.925867 0.110449 1.000000
49.858501 21.618000 -748.486511 0.207090 0.965116 0.160201 1.000000
49.993599 21.732800 -748.904724 0.430960 0.875341 0.219208 1.000000
50.129398 21.851999 -749.322388 0.396313 0.873103 0.283948 1.000000
50.322899 21.928200 -749.982422 0.250027 0.959527 -0.129595 1.000000
50.371601 21.949100 -750.147278 0.041618 0.997764 0.052289 1.000000
50.418701 21.962200 -750.311584 0.070423 0.997490 0.007358 1.000000
50.465000 21.971701 -750.475830 0.269248 0.962656 0.028277 1.000000
50.515499 22.001600 -750.640930 0.148969 0.938915 0.310238 1.000000
50.562901 22.016899 -750.805176 0.117298 0.986965 -0.110189 1.000000
50.614799 22.054100 -750.970520 0.213159 0.944777 0.248915 1.000000
50.660599 22.061199 -751.134277 0.236093 0.956375 0.172067 1.000000
50.705898 22.065800 -751.297913 0.215483 0.973982 0.070186 1.000000
50.752300 22.076300 -751.461792 0.043134 0.998391 0.036822 1.000000
50.793301 22.059900 -751.624207 0.215179 0.963742 0.157798 1.000000
50.837700 22.060499 -751.787476 0.235154 0.962702 0.133817 1.000000
50.887199 22.086399 -751.951904 0.094890 0.983731 0.152544 1.000000
50.934399 22.101000 -752.115723 0.156663 0.976326 0.149144 1.000000
50.979000 22.102501 -752.278809 0.236582 0.965512 0.108700 1.000000
51.023300 22.102600 -752.442017 0.248762 0.966296 0.066253 1.000000
51.066700 22.098499 -752.604919 0.152579 0.983952 0.092508 1.000000
51.108898 22.087799 -752.767517 0.184914 0.978453 0.091845 1.000000
51.218498 22.083200 -753.174927 0.111289 0.992612 0.048338 1.000000
51.261799 22.078400 -753.337585 0.229689 0.972871 -0.027659 1.000000
51.305901 22.077600 -753.500488 0.145735 0.984012 0.102376 1.000000
51.349701 22.075399 -753.663330 0.206877 0.978282 0.012857 1.000000
51.394600 22.079100 -753.826416 0.120506 0.988617 0.090087 1.000000
51.435501 22.062500 -753.988708 0.359435 0.931916 0.048360 1.000000
51.480400 22.065901 -754.151672 0.271488 0.958573 0.086207 1.000000
51.524300 22.064400 -754.314514 0.220477 0.974677 0.037349 1.000000
51.567200 22.058300 -754.477112 0.136797 0.986131 0.093974 1.000000
51.612499 22.063999 -754.640015 0.185879 0.981487 0.046174 1.000000
51.657200 22.066500 -754.802673 0.194751 0.978594 0.066530 1.000000
51.697201 22.045300 -754.965027 0.193037 0.979572 0.056352 1.000000
51.740700 22.041800 -755.127625 0.204400 0.974928 0.087954 1.000000
51.781601 22.025101 -755.289917 0.213520 0.975919 -0.044634 1.000000
51.820999 22.000299 -755.452087 0.242756 0.969816 0.022947 1.000000
51.863800 21.993500 -755.614685 0.224515 0.974464 0.003526 1.000000
51.909000 21.998699 -755.777405 0.220265 0.975120 -0.025003 1.000000
51.952702 21.996799 -755.940002 0.147062 0.989020 -0.014594 1.000000
51.992699 21.975300 -756.102295 0.187538 0.981953 -0.024461 1.000000
52.034801 21.964701 -756.264771 0.243065 0.968558 0.053055 1.000000
52.070499 21.920799 -756.426819 0.218774 0.975614 -0.017738 1.000000
52.111000 21.902000 -756.589111 0.322629 0.944564 -0.060898 1.000000
52.155499 21.903900 -756.751770 0.191073 0.965764 0.175475 1.000000
52.200500 21.908300 -756.914490 0.176771 0.977803 0.112491 1.000000
52.241402 21.891399 -757.076782 0.290371 0.956876 0.008576 1.000000
52.270500 21.812700 -757.238770 0.387901 0.911637 -0.135835 1.000000
52.352100 21.777500 -757.563904 0.326394 0.942480 -0.072095 1.000000
52.387600 21.731899 -757.726379 0.268196 0.962786 -0.033370 1.000000
52.426102 21.701900 -757.888916 0.226690 0.968815 -0.100048 1.000000
52.466301 21.680901 -758.051514 0.264836 0.961772 -0.069694 1.000000
52.505402 21.654499 -758.214172 0.287743 0.955306 0.067779 1.000000
52.541801 21.613100 -758.376892 0.218707 0.968196 -0.121504 1.000000
52.620899 21.564199 -758.702515 0.062258 0.992730 -0.103008 1.000000
52.713799 21.470400 -759.109680 0.271226 0.953922 -0.128336 1.000000
52.841999 21.328300 -759.680786 0.349277 0.935330 -0.056251 1.000000
52.881302 21.302000 -759.843872 0.380132 0.921244 -0.082520 1.000000
52.914101 21.240499 -760.007629 0.318358 0.938818 -0.131407 1.000000
52.952499 21.208599 -760.171021 0.398044 0.903089 -0.161215 1.000000
52.986000 21.150900 -760.334717 0.283243 0.952488 -0.111980 1.000000
53.018700 21.087999 -760.498718 0.360119 0.921848 -0.143213 1.000000
53.114899 21.009300 -760.907776 0.371681 0.925871 -0.067942 1.000000
53.146599 20.940800 -761.072083 0.254137 0.965221 -0.061343 1.000000
53.187500 20.922001 -761.235779 0.427364 0.888049 -0.169497 1.000000
53.215801 20.834700 -761.400818 0.178538 0.936977 -0.300331 1.000000
53.248901 20.773399 -761.565430 -0.114961 0.912764 -0.391976 1.000000
53.283501 20.719801 -761.729980 -0.098237 0.763904 -0.637809 1.000000
49.156601 20.650200 -746.800598 -0.207454 0.311887 0.927194 1.000000
49.280998 20.923100 -747.070007 -0.008742 0.945350 0.325940 1.000000
49.615299 21.454399 -747.934204 0.359074 0.861470 0.359074 1.000000
49.871799 21.725000 -748.692688 -0.275654 0.959071 0.064785 1.000000
50.007500 21.843800 -749.110718 0.856895 0.472718 0.205595 1.000000
50.140900 21.952900 -749.527222 0.312069 0.927734 0.204751 1.000000
50.188900 21.970900 -749.692017 0.406187 0.890092 0.206759 1.000000
50.234001 21.974400 -749.856018 0.312686 0.929645 0.194903 1.000000
51.099800 22.097200 -752.965881 0.299022 0.945340 0.130068 1.000000
52.600201 21.524700 -758.901123 0.149013 0.988489 -0.026163 1.000000
52.694901 21.441299 -759.308472 0.270638 0.961575 -0.046146 1.000000
52.731998 21.403299 -759.471680 0.265113 0.963938 -0.023213 1.000000
53.008801 21.109800 -760.697510 0.345861 0.938035 -0.021696 1.000000
49.180000 20.823601 -746.941528 0.038366 0.914172 0.403506 1.000000
49.361099 21.154301 -747.379822 0.292701 0.862780 0.412234 1.000000
49.467602 21.343901 -747.641174 0.207914 0.883267 0.420252 1.000000
50.400398 22.095400 -750.560974 -0.052667 0.998599 -0.005163 1.000000
52.207699 21.852400 -757.399292 0.339818 0.938108 -0.066914 1.000000
52.468601 21.600700 -758.537292 0.329682 0.934328 -0.135430 1.000000
53.133701 20.656799 -761.648010 -0.563983 0.760011 -0.322965 1.000000
49.209499 21.041300 -747.198975 0.170983 0.951850 0.254455 1.000000
49.452202 21.454100 -747.806519 0.237003 0.864984 0.442304 1.000000
49.539200 21.550501 -748.060181 0.368225 0.877374 0.307611 1.000000
49.599899 21.628000 -748.229980 0.397683 0.880906 0.256618 1.000000
49.656101 21.684000 -748.398315 0.300600 0.932559 0.199934 1.000000
49.716499 21.761000 -748.567627 0.160446 0.939366 0.303065 1.000000
49.810101 21.890600 -748.822327 0.349070 0.888407 0.298133 1.000000
49.860199 21.917900 -748.987976 0.278615 0.911700 0.301955 1.000000
49.938900 21.976700 -749.237488 0.292660 0.943317 0.156539 1.000000
49.988300 22.000700 -749.402771 0.180671 0.969988 0.162732 1.000000
50.155300 22.057199 -749.979126 0.364561 0.923095 0.122437 1.000000
50.199299 22.055500 -750.142578 0.361236 0.923158 0.131484 1.000000
50.244801 22.061199 -750.306519 0.489491 0.840217 0.233309 1.000000
50.368801 22.125700 -750.718506 0.376791 0.898727 0.224315 1.000000
50.413399 22.127300 -750.882019 0.367651 0.929942 0.006361 1.000000
50.457401 22.125700 -751.045227 0.505023 0.857827 0.095314 1.000000
50.501999 22.127399 -751.208618 0.396155 0.900353 0.180071 1.000000
50.547901 22.135300 -751.372314 0.447912 0.885870 0.120865 1.000000
50.592499 22.136700 -751.535583 0.411101 0.898120 0.156132 1.000000
50.637402 22.139999 -751.698975 0.433755 0.894181 0.110895 1.000000
50.678699 22.125401 -751.861511 0.373734 0.922783 0.093773 1.000000
50.725899 22.139799 -752.025208 0.283902 0.930803 0.230229 1.000000
50.773201 22.155100 -752.189026 0.272250 0.941129 0.200387 1.000000
50.818100 22.158501 -752.352112 0.361147 0.931101 0.051217 1.000000
50.863201 22.163000 -752.515320 0.387542 0.917863 0.085667 1.000000
50.909801 22.175100 -752.678772 0.329479 0.930047 0.162654 1.000000
50.953999 22.174801 -752.841675 0.277854 0.948998 0.148994 1.000000
51.020000 22.173401 -753.086121 0.296049 0.955037 0.016103 1.000000
51.062698 22.166201 -753.248718 0.261029 0.965202 0.015783 1.000000
51.107899 22.171000 -753.411682 0.201390 0.978007 -0.054267 1.000000
51.152000 22.170700 -753.574524 0.098111 0.995128 0.009703 1.000000
51.192001 22.149799 -753.736572 0.065745 0.996951 0.042034 1.000000
51.234798 22.142900 -753.899170 0.036822 0.998391 0.043134 1.000000
51.277802 22.137199 -754.061890 0.040865 0.998566 -0.034578 1.000000
51.321999 22.137501 -754.224487 -0.149876 0.984385 -0.092324 1.000000
51.360401 22.108101 -754.386475 0.175865 0.982213 0.065800 1.000000
51.401402 22.092100 -754.548828 0.316001 0.945381 0.079984 1.000000
51.443802 22.082899 -754.711426 0.201252 0.973760 0.106251 1.000000
51.491100 22.099199 -754.874512 0.147066 0.989050 -0.012349 1.000000
51.534801 22.096800 -755.037109 0.084916 0.992954 0.082652 1.000000
51.579201 22.098600 -755.199585 0.071754 0.997063 -0.026774 1.000000
51.621601 22.089800 -755.362122 0.168613 0.984935 -0.038374 1.000000
51.662102 22.071100 -755.524414 0.198856 0.977199 -0.074418 1.000000
51.701099 22.044600 -755.686523 0.280979 0.959707 -0.003649 1.000000
51.741798 22.027000 -755.848816 0.348500 0.937301 -0.003774 1.000000
51.782101 22.007401 -756.011108 0.293906 0.953590 0.065455 1.000000
51.825699 22.004801 -756.173706 0.169548 0.982418 0.078161 1.000000
51.868999 22.000500 -756.336182 0.090764 0.991515 0.093062 1.000000
51.910999 21.989700 -756.498718 0.218926 0.965088 0.143792 1.000000
51.951401 21.970501 -756.660889 0.362979 0.928208 -0.081704 1.000000
51.988602 21.934601 -756.823120 0.179546 0.983449 0.024326 1.000000
52.031101 21.926001 -756.985718 0.120164 0.986299 0.113026 1.000000
52.074100 21.920099 -757.148071 0.194783 0.980829 -0.005763 1.000000
52.191502 21.841801 -757.635376 0.278086 0.960549 -0.003643 1.000000
52.226398 21.793400 -757.797729 0.306735 0.950752 -0.044547 1.000000
52.266998 21.774900 -757.960327 0.262985 0.963446 0.051101 1.000000
52.304401 21.739300 -758.122925 0.302583 0.947390 -0.104385 1.000000
52.344002 21.715500 -758.285522 0.254115 0.967083 0.013248 1.000000
52.437500 21.625999 -758.692322 0.372871 0.920483 -0.116952 1.000000
52.529099 21.525999 -759.099487 0.176993 0.975347 -0.131804 1.000000
52.663601 21.418900 -759.669983 0.243352 0.969813 0.015584 1.000000
52.697601 21.363800 -759.833496 0.183806 0.982962 0.001142 1.000000
52.731899 21.310499 -759.996887 0.253013 0.966385 0.045666 1.000000
52.772202 21.289499 -760.160095 0.290845 0.954536 -0.065344 1.000000
52.804798 21.227100 -760.323914 0.333566 0.932064 -0.141388 1.000000
52.844898 21.204599 -760.487183 0.231932 0.969099 0.083997 1.000000
52.931801 21.076300 -760.896912 0.011563 0.997596 0.068328 1.000000
52.968102 21.032801 -761.060791 0.058077 0.970012 -0.236016 1.000000
53.004700 20.991199 -761.224792 -0.043681 0.917306 -0.395779 1.000000
53.019699 20.831200 -761.391296 0.889090 0.456048 0.039244 1.000000
48.947300 20.744600 -746.855286 -0.211250 0.834363 0.509129 1.000000
49.003700 20.816000 -747.013489 0.553917 0.424946 0.715959 1.000000
49.057301 20.964701 -747.107422 -0.169789 0.380955 0.908870 1.000000
49.170898 21.186300 -747.371826 -0.873061 0.118599 0.472968 1.000000
49.240398 21.304800 -747.545410 0.006655 0.879853 0.475200 1.000000
49.316700 21.456100 -747.721130 0.008520 0.960332 0.278728 1.000000
49.650200 21.881201 -748.654419 0.114983 0.950265 0.289441 1.000000
49.938999 22.095699 -749.568970 0.335389 0.910343 0.242468 1.000000
49.988300 22.119900 -749.733887 0.538984 0.840140 -0.060513 1.000000
50.034100 22.126400 -749.897888 0.408231 0.910044 0.071881 1.000000
50.193501 22.146700 -750.471313 0.394619 0.904633 0.160982 1.000000
52.002998 21.904200 -757.307190 0.119770 0.989554 -0.080234 1.000000
52.047501 21.905899 -757.469788 0.136153 0.989682 -0.044622 1.000000
52.275299 21.711100 -758.444702 0.235029 0.966793 -0.100364 1.000000
52.367001 21.611900 -758.851624 0.320091 0.929523 -0.183109 1.000000
52.407501 21.592501 -759.014404 0.174950 0.984524 0.010291 1.000000
52.467602 21.559799 -759.258728 0.085764 0.988051 -0.128059 1.000000
52.500301 21.498301 -759.421875 0.257861 0.960177 -0.107550 1.000000
52.780201 21.220600 -760.646606 0.231309 0.955989 -0.180501 1.000000
52.810398 21.144600 -760.810791 0.069647 0.961124 -0.267190 1.000000
49.016201 21.131500 -747.205017 -0.089600 0.902890 0.420430 1.000000
49.274799 21.565300 -747.856384 0.058360 0.942835 0.328112 1.000000
49.332199 21.626900 -748.025391 0.174809 0.974656 0.139596 1.000000
49.395302 21.716299 -748.195984 -0.219285 0.972534 0.078050 1.000000
49.453300 21.781099 -748.364624 0.966141 0.138020 0.217994 1.000000
49.507900 21.830299 -748.532104 0.379613 0.905009 0.191972 1.000000
49.628899 21.985600 -748.870178 0.433147 0.830067 0.351243 1.000000
49.678299 22.009600 -749.035583 0.440579 0.888288 0.129750 1.000000
49.727600 22.033600 -749.200928 0.423932 0.887198 0.182101 1.000000
49.782600 22.085199 -749.367920 0.591893 0.713223 0.375467 1.000000
50.002998 22.187401 -750.109924 0.794590 0.574126 0.197499 1.000000
50.047699 22.189600 -750.273499 0.768164 0.600565 0.221914 1.000000
50.143700 22.226101 -750.602112 0.302226 0.944290 0.130293 1.000000
50.195702 22.264700 -750.767273 0.229121 0.966404 0.116480 1.000000
50.240898 22.269300 -750.930786 0.251569 0.964557 0.079642 1.000000
50.284100 22.264400 -751.093811 0.181682 0.982031 0.051061 1.000000
50.325699 22.251400 -751.256287 0.369746 0.928875 0.021901 1.000000
50.363998 22.222099 -751.418030 0.268904 0.961801 0.051279 1.000000
50.408199 22.222300 -751.581177 0.257789 0.959907 0.110111 1.000000
50.456100 22.240700 -751.745117 0.301565 0.952643 0.039115 1.000000
50.500401 22.241100 -751.908203 0.350983 0.933747 0.070197 1.000000
50.549500 22.265699 -752.072327 0.214935 0.975099 0.054644 1.000000
50.597301 22.283800 -752.235901 0.225120 0.971373 0.075869 1.000000
50.638802 22.270901 -752.398376 0.323816 0.939201 0.114209 1.000000
50.680401 22.258200 -752.560791 0.198340 0.980100 -0.008119 1.000000
50.726398 22.267401 -752.723999 0.285683 0.953581 0.095228 1.000000
50.771000 22.269899 -752.887024 0.210154 0.973673 0.088290 1.000000
50.816399 22.276300 -753.049988 0.260273 0.965528 -0.003598 1.000000
50.858898 22.268400 -753.212524 0.231417 0.969451 0.081309 1.000000
50.901600 22.261299 -753.375000 0.345555 0.930131 0.124291 1.000000
50.939301 22.228901 -753.536682 0.385153 0.920902 0.059972 1.000000
50.981201 22.217501 -753.698975 0.325464 0.942132 -0.080378 1.000000
51.025299 22.217600 -753.861816 0.276474 0.960959 -0.010962 1.000000
51.067902 22.209900 -754.024292 0.288794 0.952627 0.095393 1.000000
51.107800 22.188999 -754.186523 0.304588 0.951678 0.039179 1.000000
51.148701 22.172600 -754.348572 0.298483 0.954408 0.003685 1.000000
51.191399 22.165701 -754.511230 0.239228 0.960835 0.139877 1.000000
51.235600 22.166401 -754.673828 0.233038 0.971999 -0.030186 1.000000
51.279999 22.167999 -754.836487 0.207387 0.975576 0.072401 1.000000
51.320202 22.148199 -754.998718 0.227608 0.973589 0.017875 1.000000
51.361198 22.132700 -755.160828 0.283065 0.955183 0.086600 1.000000
51.403999 22.126200 -755.323425 0.159790 0.987072 0.012466 1.000000
51.448502 22.128401 -755.486023 0.121643 0.992116 0.030132 1.000000
51.491100 22.121201 -755.648376 0.241636 0.970152 -0.020437 1.000000
51.531799 22.103600 -755.810608 0.277755 0.960520 -0.015907 1.000000
51.574200 22.095100 -755.973022 0.240329 0.969856 -0.040258 1.000000
51.615501 22.081100 -756.135376 0.134166 0.989614 -0.051602 1.000000
51.659801 22.082600 -756.297913 0.087541 0.992505 -0.085267 1.000000
51.702999 22.078300 -756.460327 -0.029133 0.999575 0.001005 1.000000
51.735100 22.016100 -756.622009 0.160538 0.985492 0.055075 1.000000
51.775200 21.995701 -756.784302 0.330580 0.943238 0.031909 1.000000
51.814499 21.970699 -756.946716 0.145677 0.977407 -0.153148 1.000000
51.856499 21.960400 -757.109070 0.165522 0.984913 -0.050478 1.000000
52.001099 21.910200 -757.677612 0.217504 0.975798 -0.022582 1.000000
52.028900 21.824800 -757.839783 0.293913 0.941887 -0.162677 1.000000
52.071098 21.815300 -758.002380 0.346871 0.936680 -0.048068 1.000000
52.112598 21.801500 -758.164917 0.325178 0.944929 -0.036981 1.000000
52.154701 21.791201 -758.327515 0.365513 0.930042 -0.037722 1.000000
52.225399 21.699100 -758.652893 0.312787 0.943685 -0.107812 1.000000
52.454399 21.509899 -759.630127 0.176619 0.975787 -0.129019 1.000000
52.493000 21.480400 -759.793213 0.239985 0.970688 -0.013134 1.000000
52.529301 21.438601 -759.956421 0.144557 0.982744 -0.115403 1.000000
52.563499 21.385000 -760.119812 0.046174 0.992176 -0.115998 1.000000
52.598400 21.335501 -760.283325 0.007690 0.991959 -0.126329 1.000000
52.631599 21.275999 -760.447083 0.153523 0.982788 -0.102752 1.000000
52.752201 21.091999 -761.020691 0.244426 0.943180 -0.225093 1.000000
52.777802 20.990601 -761.185730 0.297954 0.952686 -0.060102 1.000000
52.787800 20.804600 -761.352783 0.956069 0.033744 0.291195 1.000000
50.054401 22.248501 -750.440979 0.545310 0.830325 0.114879 1.000000
51.846600 21.953699 -757.272522 0.209301 0.976335 -0.054442 1.000000
51.886600 21.933201 -757.434875 0.174692 0.983667 -0.043380 1.000000
52.212601 21.680500 -758.816589 0.330449 0.892662 -0.306525 1.000000
52.241600 21.600401 -758.979614 0.371528 0.926838 -0.054209 1.000000
52.283199 21.587601 -759.142517 0.328198 0.943408 -0.047621 1.000000
52.341301 21.545200 -759.386780 0.359831 0.929674 -0.078922 1.000000
52.618999 21.261801 -760.611511 0.135822 0.984407 -0.111782 1.000000
52.642700 21.151600 -760.776306 0.060477 0.912526 -0.404522 1.000000
52.078899 21.780100 -758.472900 0.559743 0.822981 -0.096906 1.000000
52.611698 21.093500 -760.923279 -0.227504 0.863309 -0.450488 1.000000
52.636600 20.989000 -761.088623 -0.971486 0.194297 -0.135881 1.000000
48.928699 21.413500 -747.663330 0.915820 0.156154 -0.369986 1.000000
48.994999 21.505501 -747.844421 0.509085 0.850419 0.132741 1.000000
49.076199 21.682600 -748.020813 0.021901 0.928875 0.369746 1.000000
49.144100 21.795700 -748.192688 -0.035479 0.921129 0.387636 1.000000
49.201099 21.856800 -748.361023 0.310775 0.887284 0.340801 1.000000
49.268200 21.966999 -748.532288 0.095906 0.899289 0.426710 1.000000
49.327702 22.040701 -748.700928 -0.915365 0.370941 -0.156557 1.000000
49.387100 22.114100 -748.869324 0.647807 0.734388 0.202536 1.000000
49.445000 22.180799 -749.037170 0.259159 0.865379 0.428901 1.000000
49.507500 22.269800 -749.206116 0.525302 0.795095 0.303120 1.000000
49.557400 22.297501 -749.371277 0.537903 0.818283 0.202666 1.000000
49.604801 22.313499 -749.535706 0.150488 0.931920 0.329969 1.000000
49.654701 22.341400 -749.700684 0.121756 0.991118 0.053482 1.000000
49.700100 22.347900 -749.864380 0.597829 0.798539 0.070249 1.000000
49.745701 22.355301 -750.028076 0.225960 0.941268 0.250912 1.000000
49.792301 22.367300 -750.192078 0.372386 0.926327 0.056984 1.000000
49.839901 22.384800 -750.356323 0.322510 0.896192 0.304676 1.000000
49.887100 22.400101 -750.520203 0.768164 0.600565 0.221914 1.000000
49.934799 22.418100 -750.684204 0.794106 0.573776 0.200439 1.000000
49.980000 22.423700 -750.847473 0.564539 0.823579 0.054905 1.000000
50.023701 22.421700 -751.010620 0.698301 0.701318 0.143280 1.000000
50.068501 22.425301 -751.173706 0.777089 0.623123 0.088603 1.000000
50.112598 22.425800 -751.336670 0.790924 0.568041 0.227526 1.000000
50.154999 22.417700 -751.499329 0.593629 0.791006 0.148033 1.000000
50.198200 22.413700 -751.661987 0.730616 0.646494 0.219652 1.000000
50.239899 22.402500 -751.824524 0.512273 0.846938 0.142380 1.000000
50.284801 22.406799 -751.987488 0.532019 0.839343 0.111622 1.000000
50.328800 22.406900 -752.150330 0.498826 0.866524 0.017574 1.000000
50.372799 22.406700 -752.313171 0.477938 0.855493 0.199266 1.000000
50.417801 22.412100 -752.476196 0.321372 0.946332 0.034297 1.000000
50.461700 22.411501 -752.638916 0.317869 0.945823 0.066169 1.000000
50.502201 22.394501 -752.801025 0.456645 0.887077 0.067600 1.000000
50.544701 22.386801 -752.963501 0.417103 0.906214 0.069291 1.000000
50.585098 22.368900 -753.125610 0.368021 0.924805 0.096419 1.000000
50.629299 22.370501 -753.288391 0.437835 0.898432 0.033474 1.000000
50.671700 22.362400 -753.450806 0.363730 0.931504 0.001267 1.000000
50.715599 22.362301 -753.613281 0.270633 0.954478 0.125416 1.000000
50.756699 22.347799 -753.775513 0.291218 0.956146 0.031247 1.000000
50.795898 22.323900 -753.937500 0.329786 0.943519 -0.031833 1.000000
50.837799 22.313900 -754.099792 0.288860 0.955657 0.057263 1.000000
50.878502 22.297501 -754.262024 0.380188 0.923313 -0.054313 1.000000
50.921902 22.294500 -754.424622 0.457230 0.888984 0.025476 1.000000
50.965302 22.292101 -754.586975 0.402911 0.915238 -0.001287 1.000000
51.006401 22.277599 -754.749329 0.352909 0.926901 0.127706 1.000000
51.046700 22.258900 -754.911377 0.319205 0.947678 0.003726 1.000000
51.088699 22.249500 -755.073730 0.292151 0.956016 0.026107 1.000000
51.131302 22.242800 -755.236084 0.260656 0.963293 -0.064220 1.000000
51.174099 22.237000 -755.398376 0.156014 0.977271 -0.143533 1.000000
51.212601 22.209299 -755.560425 -0.007172 0.999003 -0.044059 1.000000
51.253300 22.192400 -755.722717 0.275839 0.961185 0.006076 1.000000
51.296799 22.190500 -755.885071 0.012206 0.990871 -0.134261 1.000000
51.340900 22.191601 -756.047729 -0.066604 0.987374 -0.143724 1.000000
51.381500 22.174900 -756.209778 0.002991 0.999852 0.016947 1.000000
51.422199 22.158400 -756.372070 -0.065419 0.983663 -0.167710 1.000000
51.463600 22.145399 -756.534424 -0.064090 0.978285 -0.197108 1.000000
51.500401 22.108400 -756.696411 0.271947 0.962182 0.015853 1.000000
51.539600 22.083599 -756.858704 0.270069 0.962804 -0.008478 1.000000
51.578201 22.056299 -757.020996 0.258704 0.962175 -0.085385 1.000000
51.615898 22.023600 -757.183228 0.283579 0.945717 -0.158750 1.000000
51.658699 22.017700 -757.345581 0.135858 0.984669 -0.109408 1.000000
51.700100 22.004999 -757.508179 0.325178 0.944929 0.036981 1.000000
51.742298 21.996099 -757.670471 0.258856 0.964828 0.045826 1.000000
51.778500 21.955601 -757.832886 0.396357 0.904944 -0.154849 1.000000
51.816898 21.926201 -757.995422 0.402643 0.915334 0.006473 1.000000
51.855301 21.897200 -758.157898 0.261126 0.964818 -0.030649 1.000000
51.893501 21.867001 -758.320496 0.317480 0.941724 0.111185 1.000000
51.947701 21.805000 -758.564514 0.193934 0.974674 -0.111356 1.000000
51.983101 21.759600 -758.727295 0.199660 0.964372 -0.173561 1.000000
52.022598 21.736401 -758.890015 0.421800 0.904632 -0.061032 1.000000
52.062901 21.716900 -759.052795 0.408622 0.912546 -0.016972 1.000000
52.094299 21.650000 -759.215881 0.206512 0.977651 -0.039393 1.000000
52.136398 21.639799 -759.378784 0.271607 0.951294 -0.145838 1.000000
52.167801 21.572701 -759.542114 0.434846 0.893616 -0.111174 1.000000
52.208000 21.552601 -759.705017 0.193879 0.974400 -0.113826 1.000000
52.248100 21.531601 -759.867981 0.167542 0.982351 -0.083168 1.000000
52.285999 21.499001 -760.031311 0.198114 0.928749 -0.313330 1.000000
52.313202 21.408400 -760.195374 0.134070 0.961918 -0.238201 1.000000
52.344898 21.342199 -760.359314 -0.068342 0.981970 -0.176251 1.000000
52.373001 21.255600 -760.523621 0.171685 0.915179 -0.364653 1.000000
52.403500 21.182501 -760.687988 0.967895 0.045505 0.247201 1.000000
52.430199 21.088200 -760.852905 -0.780956 0.446493 -0.436751 1.000000
48.961498 21.746099 -748.130798 -0.893085 0.006596 -0.449840 1.000000
49.030701 21.865900 -748.302979 -0.102314 0.892795 0.438689 1.000000
49.103001 22.001101 -748.476013 0.301117 0.632829 0.713341 1.000000
49.168400 22.103701 -748.646484 -0.046996 0.903667 0.425650 1.000000
49.227402 22.175200 -748.814819 -0.301154 0.912190 0.277876 1.000000
49.289299 22.261200 -748.983826 0.786349 0.372991 0.492477 1.000000
49.351898 22.350700 -749.152710 0.550441 0.768692 0.325771 1.000000
49.400700 22.373800 -749.317627 0.470926 0.874983 0.112396 1.000000
49.446701 22.382799 -749.481628 0.791786 0.550330 0.264974 1.000000
49.495701 22.407101 -749.646423 0.405056 0.821232 0.401880 1.000000
49.548599 22.450001 -749.812073 0.008618 0.954159 0.299175 1.000000
49.594700 22.460100 -749.975891 0.751166 0.655642 0.076709 1.000000
49.642200 22.476999 -750.140076 0.571173 0.801461 0.177261 1.000000
49.687199 22.482100 -750.303528 0.677642 0.693438 0.244836 1.000000
49.732101 22.486401 -750.466797 -0.282560 0.959249 0.001213 1.000000
49.779999 22.505501 -750.630920 0.535888 0.828462 0.162707 1.000000
49.824200 22.506500 -750.793884 0.510447 0.816404 0.270053 1.000000
49.868401 22.507700 -750.956909 0.431687 0.876724 0.212135 1.000000
49.911900 22.505301 -751.119873 0.350841 0.930608 0.104304 1.000000
49.956001 22.505899 -751.282776 0.395264 0.915987 0.068800 1.000000
50.000599 22.509399 -751.445923 0.459499 0.884082 0.085196 1.000000
50.044201 22.507601 -751.608582 0.473931 0.867658 0.150200 1.000000
50.088501 22.509199 -751.771606 0.491570 0.854712 0.166809 1.000000
50.134300 22.518801 -751.934814 0.502288 0.855481 0.125934 1.000000
50.177799 22.516600 -752.097473 0.473616 0.870935 0.131000 1.000000
50.221001 22.513000 -752.260071 0.453063 0.872183 0.184472 1.000000
50.264198 22.509800 -752.422607 0.451219 0.874513 0.177842 1.000000
50.305401 22.496000 -752.584778 0.409632 0.909842 0.066244 1.000000
50.343899 22.469000 -752.746521 0.354680 0.934120 0.040275 1.000000
50.385201 22.455900 -752.908813 0.377610 0.924946 0.043419 1.000000
50.429699 22.459400 -753.071594 0.345416 0.928907 0.133487 1.000000
50.472099 22.451500 -753.233887 0.385323 0.921881 0.040768 1.000000
50.513599 22.439501 -753.396179 0.404044 0.912140 0.068917 1.000000
50.556301 22.433901 -753.558594 0.491481 0.870584 0.023017 1.000000
50.600101 22.433399 -753.721130 0.427731 0.903860 -0.009156 1.000000
50.641201 22.419500 -753.883301 0.393065 0.918041 -0.051965 1.000000
50.679699 22.392099 -754.045105 0.438294 0.898831 -0.001308 1.000000
50.721600 22.382200 -754.207275 0.428867 0.890725 0.150606 1.000000
50.764301 22.376499 -754.369812 0.399786 0.912822 0.083232 1.000000
50.807499 22.373400 -754.532227 0.400862 0.913748 0.066135 1.000000
50.848801 22.360399 -754.694519 0.478515 0.874720 0.076730 1.000000
50.888802 22.340500 -754.856506 0.416339 0.909201 0.003891 1.000000
50.931198 22.333099 -755.018799 0.409129 0.907797 0.092295 1.000000
50.974499 22.330500 -755.181213 0.372047 0.928213 -0.001270 1.000000
51.015499 22.316099 -755.343384 0.363537 0.931324 -0.021838 1.000000
51.052898 22.283100 -755.505188 0.307992 0.947567 -0.085189 1.000000
51.087799 22.237101 -755.666870 0.273860 0.956563 -0.099939 1.000000
51.130402 22.230600 -755.829285 0.203641 0.976746 0.067067 1.000000
51.171902 22.218599 -755.991577 0.263117 0.964763 0.001201 1.000000
51.214500 22.212299 -756.153992 0.273205 0.961730 -0.020827 1.000000
51.258099 22.211100 -756.316406 0.237189 0.971404 -0.010727 1.000000
51.294201 22.170700 -756.478394 0.217277 0.974713 -0.052195 1.000000
51.335899 22.159901 -756.640686 0.284607 0.958218 -0.028585 1.000000
51.378799 22.155300 -756.802979 0.345472 0.938428 -0.001256 1.000000
51.417599 22.128901 -756.965271 0.353743 0.935342 -0.001259 1.000000
51.460499 22.124300 -757.127686 0.342907 0.938820 0.032107 1.000000
51.502102 22.112700 -757.290100 0.354019 0.935169 -0.011420 1.000000
51.537701 22.069201 -757.452271 0.374476 0.921893 -0.099406 1.000000
51.571602 22.017500 -757.614624 0.386688 0.922101 0.014226 1.000000
51.611698 21.997801 -757.776978 0.255866 0.964224 0.069323 1.000000
51.651901 21.978600 -757.939514 0.351272 0.927083 -0.130866 1.000000
51.690701 21.951700 -758.101929 0.290910 0.955847 -0.041559 1.000000
51.726299 21.908400 -758.264526 0.276063 0.950884 -0.140032 1.000000
51.765800 21.885300 -758.427124 0.216862 0.974040 -0.064936 1.000000
51.825600 21.853500 -758.671021 0.131311 0.991005 -0.025813 1.000000
51.865200 21.830799 -758.833679 0.251435 0.963623 0.090619 1.000000
51.894699 21.754400 -758.996826 0.156604 0.975958 0.151593 1.000000
51.937500 21.749100 -759.159424 0.284607 0.958218 -0.028585 1.000000
51.978699 21.734501 -759.322083 0.184112 0.979086 -0.086569 1.000000
52.009499 21.664900 -759.485474 0.153281 0.986379 -0.059674 1.000000
52.046001 21.624901 -759.648499 0.068201 0.970939 -0.229404 1.000000
52.082901 21.587799 -759.811584 -0.055847 0.966776 -0.249451 1.000000
52.112000 21.507999 -759.975403 -0.169350 0.909365 -0.379969 1.000000
52.134800 21.394400 -760.139893 -0.335986 0.884410 -0.323932 1.000000
52.165401 21.322300 -760.303894 -0.108300 0.919863 -0.376993 1.000000
51.693001 21.899799 -758.588013 0.444367 0.895406 0.028023 1.000000
49.793499 22.645901 -751.293030 0.805400 0.571429 0.157480 1.000000
49.835300 22.635401 -751.455322 0.593734 0.797967 0.103575 1.000000
49.878700 22.632700 -751.617981 0.583355 0.779362 0.228675 1.000000
49.926102 22.650101 -751.781372 0.540063 0.816941 0.202334 1.000000
49.969601 22.647900 -751.943970 0.443369 0.893601 0.070006 1.000000
50.012699 22.644100 -752.106384 0.438191 0.877857 0.193276 1.000000
50.053699 22.629700 -752.268372 0.401671 0.915283 -0.030290 1.000000
50.089699 22.590401 -752.429626 0.367998 0.922062 0.119909 1.000000
50.133301 22.588699 -752.592224 0.487249 0.872705 0.031217 1.000000
50.175098 22.578300 -752.754272 0.825156 0.532505 0.188564 1.000000
50.217300 22.570101 -752.916626 0.793166 0.593759 0.135419 1.000000
50.254299 22.535601 -753.078125 0.522781 0.848633 0.080755 1.000000
50.296001 22.524700 -753.240173 0.580458 0.809167 0.091194 1.000000
50.339001 22.520000 -753.402588 0.469762 0.871588 0.140206 1.000000
50.383301 22.522200 -753.565186 0.424200 0.901939 0.080996 1.000000
50.425999 22.516300 -753.727478 0.494825 0.862735 0.104099 1.000000
50.468700 22.510599 -753.889771 0.399208 0.916749 0.014304 1.000000
50.512199 22.509100 -754.052185 0.455792 0.888315 0.056119 1.000000
50.551300 22.485100 -754.213989 0.432605 0.901150 -0.027953 1.000000
50.590401 22.460800 -754.375916 0.510462 0.858188 0.054245 1.000000
50.633400 22.456400 -754.538086 0.507569 0.849849 0.141885 1.000000
50.674999 22.445200 -754.700378 0.419547 0.907021 0.035961 1.000000
50.719200 22.447300 -754.862793 0.395143 0.918546 -0.011660 1.000000
50.762100 22.442499 -755.025024 0.309479 0.950808 0.013672 1.000000
50.800400 22.414000 -755.186829 0.334188 0.942486 -0.006258 1.000000
50.841000 22.397400 -755.348816 0.334399 0.941699 0.037155 1.000000
50.880901 22.377501 -755.510925 0.320110 0.944651 -0.071861 1.000000
50.918499 22.345400 -755.672729 0.328560 0.940817 -0.083130 1.000000
50.950401 22.284000 -755.834229 0.446570 0.877034 -0.177164 1.000000
50.988098 22.252399 -755.996216 0.262446 0.963140 -0.059019 1.000000
51.028702 22.235300 -756.158386 0.277536 0.957945 -0.072901 1.000000
51.070999 22.227400 -756.320679 0.304825 0.950488 -0.060451 1.000000
51.113400 22.219801 -756.483093 0.347836 0.928022 0.133360 1.000000
51.157101 22.219500 -756.645325 0.472747 0.876755 0.088377 1.000000
51.199299 22.210800 -756.807678 0.338266 0.939047 0.061384 1.000000
51.242199 22.205999 -756.969971 0.210878 0.977495 0.005825 1.000000
51.282398 22.187201 -757.132324 0.225057 0.963972 -0.141799 1.000000
51.322399 22.167101 -757.294617 0.255245 0.964400 -0.069155 1.000000
51.359600 22.132799 -757.456787 0.395790 0.916354 0.060375 1.000000
51.397499 22.101601 -757.619080 0.440632 0.891119 -0.108398 1.000000
51.436501 22.075899 -757.781372 0.423590 0.905831 -0.006517 1.000000
51.476200 22.054600 -757.943787 0.363884 0.927836 -0.081907 1.000000
51.515598 22.031099 -758.106201 0.381314 0.914873 -0.132692 1.000000
51.554901 22.007200 -758.268677 0.316874 0.948097 0.026511 1.000000
51.596199 21.993799 -758.431030 0.161783 0.981648 -0.100963 1.000000
51.672699 21.934601 -758.756287 0.299157 0.941184 -0.157092 1.000000
51.707901 21.888399 -758.919128 0.235225 0.969527 0.068452 1.000000
51.742401 21.838900 -759.081787 -0.005143 0.998817 -0.048346 1.000000
51.767101 21.736300 -759.245178 0.222652 0.960433 -0.167318 1.000000
51.806400 21.712099 -759.408081 -0.005974 0.968919 -0.247307 1.000000
51.840302 21.658501 -759.571411 0.129907 0.931229 -0.340494 1.000000
51.866299 21.562401 -759.735229 0.214976 0.910403 -0.353485 1.000000
51.905602 21.537800 -759.898315 0.003331 0.989358 0.145461 1.000000
51.550499 21.969400 -758.619873 0.003207 0.995252 -0.097280 1.000000
49.829399 22.762699 -752.051270 0.399092 0.912015 0.094630 1.000000
49.871601 22.754000 -752.213379 0.423058 0.904237 0.058120 1.000000
49.910400 22.728600 -752.375000 0.437964 0.898558 0.027955 1.000000
49.950500 22.709299 -752.536682 0.499045 0.866191 0.025836 1.000000
49.993599 22.704901 -752.699097 0.509396 0.853776 0.107619 1.000000
50.037399 22.704201 -752.861572 0.463285 0.879816 0.106258 1.000000
50.077099 22.683300 -753.023315 0.389417 0.920795 -0.022141 1.000000
50.117901 22.667200 -753.185181 0.403545 0.914262 0.035724 1.000000
50.160198 22.658899 -753.347412 0.450605 0.891737 0.041948 1.000000
50.200401 22.640301 -753.509216 0.489476 0.871240 0.036813 1.000000
50.242298 22.630199 -753.671204 0.454123 0.887415 0.079159 1.000000
50.279400 22.595900 -753.832581 0.480433 0.877023 0.003993 1.000000
50.320000 22.578899 -753.994629 0.417107 0.908744 0.014383 1.000000
50.361900 22.569099 -754.156677 0.265739 0.963764 -0.023267 1.000000
50.403500 22.557100 -754.318787 0.149021 0.987699 0.047363 1.000000
50.443100 22.535000 -754.480713 0.143232 0.988876 0.040105 1.000000
50.486500 22.532600 -754.642883 0.228828 0.973408 0.010671 1.000000
50.525700 22.508699 -754.804688 0.323702 0.945917 0.021412 1.000000
50.565201 22.486000 -754.966614 0.324457 0.945596 -0.023987 1.000000
50.605301 22.466600 -755.128479 0.319954 0.947413 -0.006225 1.000000
50.645699 22.448601 -755.290527 0.205018 0.978758 -0.001158 1.000000
50.688702 22.444201 -755.452820 0.167885 0.985311 0.031261 1.000000
50.730301 22.432301 -755.614929 0.431176 0.901306 -0.041640 1.000000
50.767502 22.398199 -755.776672 0.362818 0.921642 -0.137621 1.000000
50.800098 22.339899 -755.938171 0.355681 0.934460 -0.016573 1.000000
50.841499 22.326700 -756.100403 0.313847 0.949104 0.026469 1.000000
50.881500 22.306601 -756.262573 0.337491 0.939501 0.058637 1.000000
50.922798 22.293301 -756.424683 0.413904 0.906189 0.086631 1.000000
50.965801 22.288401 -756.586975 0.360916 0.931607 0.042997 1.000000
51.007000 22.274599 -756.749207 0.175594 0.984462 -0.001133 1.000000
51.048801 22.263599 -756.911499 0.149021 0.987699 0.047363 1.000000
51.091702 22.258301 -757.073730 0.145732 0.977777 0.150715 1.000000
51.132599 22.242800 -757.236023 0.251753 0.965681 -0.063878 1.000000
51.171001 22.213800 -757.398071 0.218286 0.975798 -0.012979 1.000000
51.214100 22.209600 -757.560425 0.088162 0.981859 -0.167870 1.000000
51.255501 22.196899 -757.722717 0.135639 0.987213 -0.083742 1.000000
51.291500 22.155100 -757.885010 0.208646 0.977957 -0.008159 1.000000
51.329399 22.123899 -758.047302 0.250069 0.956614 -0.149512 1.000000
51.364498 22.077400 -758.209717 0.185179 0.973763 -0.132270 1.000000
51.397499 22.019800 -758.372192 0.007913 0.986817 -0.161644 1.000000
51.493500 21.946899 -758.778687 -0.104792 0.926797 -0.360648 1.000000
51.515800 21.831900 -758.941895 -0.196825 0.909420 -0.366354 1.000000
51.546902 21.763599 -759.104980 -0.316568 0.915012 -0.250074 1.000000
51.586201 21.738800 -759.267883 -0.332136 0.901935 -0.276042 1.000000
51.627201 21.722500 -759.430725 -0.143336 0.972909 -0.181390 1.000000
51.364700 22.005501 -758.602295 0.141444 0.964156 -0.224494 1.000000
49.817699 22.826401 -752.615601 0.721022 0.682369 0.120418 1.000000
49.860802 22.822599 -752.777893 0.653075 0.753991 0.070642 1.000000
49.904202 22.820801 -752.940308 0.742401 0.668303 0.047023 1.000000
49.944901 22.805300 -753.102112 0.723546 0.689957 0.020993 1.000000
49.984402 22.783899 -753.263916 0.570867 0.814902 0.100229 1.000000
50.025799 22.772301 -753.425781 0.617497 0.785002 0.049684 1.000000
50.063301 22.740900 -753.587280 0.568599 0.821309 0.046330 1.000000
50.103600 22.723101 -753.749084 0.436949 0.899132 0.025234 1.000000
50.136398 22.667500 -753.909973 0.444588 0.895734 0.001311 1.000000
50.177101 22.652000 -754.071777 0.443437 0.896140 0.017208 1.000000
50.219398 22.644699 -754.234070 0.470097 0.881603 0.042241 1.000000
50.261902 22.638599 -754.396423 0.509147 0.859616 0.042774 1.000000
50.301300 22.616100 -754.558228 0.450045 0.890456 0.067438 1.000000
50.341499 22.598301 -754.720093 0.371835 0.927630 0.035226 1.000000
50.384998 22.596800 -754.882385 0.467948 0.883302 -0.028320 1.000000
50.425499 22.580200 -755.044373 0.471053 0.880306 0.056307 1.000000
50.462002 22.543100 -755.205994 0.465731 0.884756 0.017348 1.000000
50.499802 22.512800 -755.367798 0.495394 0.868618 -0.009398 1.000000
50.540001 22.494301 -755.529785 0.466835 0.883893 -0.028252 1.000000
50.583199 22.491400 -755.692078 0.324426 0.945287 -0.034351 1.000000
50.620998 22.460899 -755.854004 0.185467 0.981678 0.043709 1.000000
50.658401 22.428200 -756.015930 0.381346 0.924280 0.016805 1.000000
50.699501 22.414600 -756.177979 0.377253 0.923804 0.065319 1.000000
50.738998 22.392700 -756.340088 0.327513 0.944309 0.031859 1.000000
50.779499 22.375900 -756.502319 0.204999 0.975894 0.074880 1.000000
50.822201 22.370100 -756.664612 0.190484 0.980816 -0.041410 1.000000
50.862400 22.351801 -756.826721 0.203751 0.978710 -0.024733 1.000000
50.903198 22.336399 -756.989014 0.110014 0.990128 -0.086853 1.000000
50.946400 22.333401 -757.151184 0.101712 0.993652 -0.048062 1.000000
50.982201 22.292101 -757.313416 0.001079 0.994040 -0.109010 1.000000
51.020100 22.261700 -757.475586 0.078619 0.980921 -0.177800 1.000000
51.058701 22.234200 -757.637878 0.072946 0.973030 -0.218839 1.000000
51.096500 22.203199 -757.800293 0.060513 0.983640 -0.169675 1.000000
51.124901 22.122400 -757.962585 0.134869 0.974332 -0.180245 1.000000
51.161701 22.085899 -758.125000 0.137830 0.959556 -0.245468 1.000000
51.203098 22.073200 -758.287476 0.010348 0.983092 -0.182821 1.000000
51.246399 22.070801 -758.450012 -0.067682 0.984356 -0.162674 1.000000
51.343399 22.038200 -758.832703 0.392412 0.737209 -0.550033 1.000000
49.934601 22.834000 -753.549805 0.897799 0.440356 0.006572 1.000000
50.008598 22.765100 -753.872314 0.376001 0.926619 0.001275 1.000000
50.048599 22.745701 -754.034180 0.478518 0.877954 0.014744 1.000000
50.090000 22.733400 -754.196106 0.526366 0.850074 0.017682 1.000000
50.172199 22.705601 -754.520020 0.507740 0.860831 -0.034214 1.000000
50.373001 22.612000 -755.329407 0.355433 0.926322 0.124882 1.000000
50.412998 22.592300 -755.491272 0.428192 0.903072 -0.033348 1.000000
50.868301 22.225901 -757.435425 -0.052025 0.988470 -0.142201 1.000000
50.167999 22.703501 -754.732910 0.359312 0.933196 -0.006348 1.000000
50.209301 22.690100 -754.894775 0.279055 0.960098 0.018440 1.000000
50.250099 22.674299 -755.056824 0.349958 0.930970 0.104042 1.000000
50.408199 22.584101 -755.703979 0.312087 0.946708 -0.079654 1.000000
50.447899 22.562300 -755.865906 0.109310 0.988488 -0.104608 1.000000
50.482601 22.514400 -756.027527 0.216306 0.975188 -0.047128 1.000000
50.512699 22.443199 -756.189026 0.095166 0.988079 -0.121013 1.000000
50.553501 22.427200 -756.351074 -0.017217 0.999626 0.021269 1.000000
50.596298 22.421101 -756.513428 -0.049647 0.998230 -0.032746 1.000000
50.639599 22.417999 -756.675476 -0.047547 0.986889 -0.154238 1.000000
50.675301 22.374901 -756.837524 0.038096 0.995934 -0.081634 1.000000
50.718201 22.369499 -756.999817 0.076455 0.986863 -0.142325 1.000000
50.756001 22.337500 -757.161926 -0.105411 0.956510 -0.271987 1.000000
50.868000 22.233900 -757.648499 -0.358072 0.880826 -0.309725 1.000000
50.901001 22.176600 -757.810791 -0.939695 0.229025 -0.254009 1.000000
50.934399 22.121201 -757.973206 -0.905849 0.395512 -0.151684 1.000000
50.959702 22.022800 -758.135681 -0.750479 0.580135 -0.316583 1.000000
50.015598 22.774000 -754.475220 0.810840 0.585072 0.015143 1.000000
50.202301 22.674299 -755.235596 0.142128 0.985341 -0.094354 1.000000
50.265499 22.660700 -755.478577 0.086066 0.980662 -0.175768 1.000000
50.693600 22.264000 -757.341125 -0.211955 0.971985 -0.101588 1.000000
50.772900 22.104500 -757.746887 0.153800 0.889740 -0.429777 1.000000
50.210602 22.538500 -755.842102 -0.171068 0.930443 -0.324056 1.000000
50.245300 22.491800 -756.003784 0.114996 0.971776 -0.205981 1.000000
50.276199 22.425800 -756.165527 -0.105479 0.976608 -0.187380 1.000000
50.315201 22.400999 -756.327576 -0.137670 0.985237 -0.101756 1.000000
50.354900 22.379900 -756.489929 0.388961 0.920672 -0.032741 1.000000
50.395100 22.361000 -756.651978 0.306850 0.939642 0.151379 1.000000
50.434399 22.337799 -756.814270 0.303023 0.948421 0.093137 1.000000
50.481201 22.353500 -756.976929 -0.935218 0.339470 -0.100633 1.000000
50.531399 22.338699 -757.173584 -0.084584 0.985226 -0.148916 1.000000
50.034500 22.727501 -754.878906 0.199047 0.978348 -0.056698 1.000000
50.076500 22.720200 -755.040771 0.296904 0.953883 0.044220 1.000000
50.222900 22.581200 -755.686829 0.068342 0.981970 -0.176251 1.000000
50.653500 22.242100 -757.537170 0.671878 0.712222 0.203270 1.000000
49.825500 22.878599 -753.365479 0.289423 0.944361 -0.156261 1.000000
51.194099 22.011700 -758.612427 -0.986847 0.122317 -0.105691 1.000000
49.787300 22.830299 -752.408325 0.811563 0.579688 0.072998 1.000000
51.651901 21.724400 -759.596313 0.011096 0.999669 0.023201 1.000000
49.900398 22.857000 -753.716492 0.987562 0.042737 -0.151311 1.000000
51.007099 22.019400 -758.307922 -0.548060 0.832767 -0.078294 1.000000
51.269001 21.896299 -758.820923 0.935289 0.288532 -0.204899 1.000000
49.058399 21.261700 -747.480103 -0.962429 0.072087 -0.261791 1.000000
49.127602 21.381100 -747.651184 -0.843289 0.345764 0.411475 1.000000
49.511398 21.960899 -748.664673 0.883832 0.245923 0.397948 1.000000
49.795200 22.183701 -749.572876 0.994991 0.099821 -0.005367 1.000000
49.843102 22.207199 -749.736877 0.467010 0.871462 0.149851 1.000000
49.890099 22.226601 -749.900696 0.432839 0.864160 0.256666 1.000000
52.483898 21.422899 -760.385925 0.487186 0.868461 -0.091789 1.000000
52.520100 21.389299 -760.549622 -0.182326 0.888292 -0.421538 1.000000
49.720699 20.493999 -747.033630 -0.124559 0.990757 0.053709 1.000000
49.788502 20.608999 -747.205200 0.397890 0.691767 0.602613 1.000000
49.865200 20.765699 -747.379028 0.633047 0.468488 0.616255 1.000000
50.052898 21.041401 -747.887512 0.923895 0.314608 0.217806 1.000000
50.230999 21.274300 -748.392029 0.483851 0.860343 0.160303 1.000000
50.279400 21.300699 -748.557312 -0.959574 0.115878 -0.256494 1.000000
50.329102 21.333700 -748.722778 -0.954516 0.252313 0.158863 1.000000
50.379601 21.370399 -748.888428 0.996959 0.077341 -0.009535 1.000000
50.431900 21.416100 -749.054199 0.791825 0.306257 0.528412 1.000000
51.480701 21.856600 -752.275024 0.960736 0.159027 0.227370 1.000000
51.655499 21.882900 -752.925781 -0.073402 0.995857 0.053682 1.000000
51.698799 21.887501 -753.088379 -0.152730 0.981136 -0.118518 1.000000
53.766300 20.428200 -762.145020 -0.620587 0.479315 -0.620587 1.000000
54.431999 20.211300 -762.662598 0.414382 0.171817 0.893737 1.000000
52.219299 21.572800 -749.927185 0.153318 0.988171 0.003357 1.000000
52.261501 21.571600 -750.090027 0.046348 0.980430 0.191332 1.000000
52.308399 21.593000 -750.253479 0.047633 0.998178 0.037048 1.000000
52.351501 21.596300 -750.416382 0.063072 0.997385 0.035277 1.000000
52.531200 21.646099 -751.068420 0.181716 0.979313 0.089028 1.000000
52.574299 21.649500 -751.231079 0.193861 0.980913 -0.015091 1.000000
55.705200 19.633801 -763.143372 0.012203 0.522014 -0.852849 1.000000
56.356800 19.898399 -761.954773 -0.949517 0.177442 -0.258713 1.000000
56.507999 20.128401 -760.515381 -0.617814 0.757170 -0.212132 1.000000
56.539101 20.078899 -760.671387 -0.665213 0.726382 -0.172802 1.000000
56.414101 20.285601 -759.025330 -0.146741 0.989098 -0.012322 1.000000
52.846500 21.003500 -761.372681 -0.208247 0.941938 0.263412 1.000000
56.636902 19.998301 -759.811096 0.429175 0.276444 -0.859877 1.000000
56.341202 20.107901 -759.924316 -0.133461 0.111819 -0.984726 1.000000
56.548500 20.157700 -759.510315 0.396530 0.905338 -0.152074 1.000000
56.505600 20.095900 -759.327393 0.941424 0.255747 0.219804 1.000000
52.485600 21.311300 -760.834412 -0.506618 0.755828 0.414804 1.000000
52.275799 21.359301 -760.708618 0.892502 0.336370 0.300491 1.000000
56.559700 20.183100 -758.918579 0.362105 0.709463 -0.604600 1.000000
52.260502 21.370899 -760.521790 -0.364630 0.828704 -0.424612 1.000000
56.468800 20.341600 -758.750671 0.856178 0.451661 -0.250923 1.000000
52.224201 21.487900 -760.333313 -0.913002 0.003885 -0.407937 1.000000
56.589600 20.416901 -758.486023 -0.153436 0.474921 -0.866549 1.000000
51.960999 21.504400 -760.197876 0.752379 0.404875 0.519617 1.000000
56.443600 20.372400 -758.366516 -0.295838 0.798920 0.523648 1.000000
51.752998 21.591900 -759.969604 0.103122 0.562090 0.820622 1.000000
56.396000 20.444000 -758.218872 0.152212 0.923045 -0.353299 1.000000
51.728001 21.493000 -759.837891 0.935303 0.332582 0.120816 1.000000
56.375000 20.527100 -757.725281 -0.751957 0.543171 -0.373532 1.000000
51.477501 21.796600 -759.383484 0.095515 0.703874 0.703874 1.000000
51.355099 21.903000 -759.160522 0.994888 0.063220 -0.078748 1.000000
56.208698 20.631201 -757.162476 -0.114005 0.993475 0.003257 1.000000
56.304001 20.724501 -756.944214 -0.267301 0.909992 0.316963 1.000000
56.179901 20.548901 -756.848511 -0.001381 0.708486 0.705724 1.000000
56.016998 20.575399 -756.776184 0.546629 0.829419 0.115157 1.000000
51.167999 22.167000 -758.567200 0.736987 0.314469 -0.598298 1.000000
56.003201 20.633600 -756.514282 0.344802 0.759211 -0.552006 1.000000
51.064701 22.172701 -758.266479 0.052285 0.952605 -0.299682 1.000000
56.017200 20.752600 -756.385498 0.019755 0.904791 0.425397 1.000000
55.900902 20.744699 -756.145325 0.050392 0.993285 0.104144 1.000000
56.157902 20.905199 -755.962219 -0.322924 0.029126 -0.945977 1.000000
55.943401 20.938299 -756.038513 -0.394670 0.488872 0.777972 1.000000
55.799301 20.847700 -756.019104 0.995295 0.042891 -0.086882 1.000000
55.949902 20.737499 -755.871826 0.116548 0.966968 -0.226693 1.000000
56.012699 20.834999 -755.693420 -0.076374 0.995081 0.063092 1.000000
55.828701 20.871901 -755.759399 0.193661 0.980187 0.041584 1.000000
55.673000 20.921900 -755.816772 0.559241 0.806100 0.193525 1.000000
50.542900 22.326000 -757.688721 0.462276 0.394626 -0.794085 1.000000
55.886299 20.783001 -755.501221 -0.089703 0.903935 0.418156 1.000000
55.715199 20.838499 -755.564575 0.403733 0.891150 0.207005 1.000000
55.609798 20.949600 -755.378723 0.693240 0.718968 0.050028 1.000000
55.577099 20.902599 -755.163513 0.887023 0.434136 0.157212 1.000000
55.564098 20.920799 -754.956421 0.958167 0.283577 -0.038726 1.000000
50.307899 22.463200 -756.886719 -0.115071 0.287016 0.950989 1.000000
55.525902 21.036301 -754.780823 -0.689396 0.721192 -0.067928 1.000000
55.569099 20.987600 -754.588928 0.497874 0.826689 -0.262121 1.000000
55.416801 21.051100 -754.646423 0.798466 0.599205 -0.058355 1.000000
55.274200 21.157801 -754.704529 0.752636 0.579321 -0.312930 1.000000
55.510201 21.027201 -754.431824 0.830768 0.551471 0.075524 1.000000
55.365799 21.125601 -754.489807 0.575644 0.816547 0.043418 1.000000
55.214401 21.192400 -754.547424 0.344149 0.922881 0.172777 1.000000
50.262001 22.596800 -756.357727 -0.032289 0.998887 0.034373 1.000000
55.451801 21.029900 -754.216125 0.409174 0.431638 0.803906 1.000000
55.312698 21.151600 -754.274719 0.450062 0.875202 0.177386 1.000000
55.160702 21.214600 -754.332214 0.401596 0.911473 0.089091 1.000000
50.195400 22.596300 -756.150085 0.995675 0.016146 -0.091494 1.000000
