ply
format ascii 1.0
element vertex 692
property float x
property float y
property float z
property float nx
property float ny
property float nz
property float label
element face 0
property list uchar int vertex_indices
end_header
47.497398 11.035900 -742.546082 -0.971687 0.229716 -0.055279 0.000000
44.356201 10.697800 -740.624695 -0.707568 0.541082 -0.454509 0.000000
48.625599 11.249400 -744.017822 -0.355251 0.888878 -0.289297 0.000000
43.487000 11.156900 -738.819824 0.626691 0.472118 0.619970 0.000000
45.989700 11.583600 -740.486328 -0.185902 0.256463 0.948508 0.000000
48.143002 11.607300 -742.975525 -0.411017 0.908061 0.080565 0.000000
44.857399 11.463300 -740.338623 -0.198935 0.760271 0.618395 0.000000
47.546902 12.167500 -742.448730 0.915760 0.141209 0.376091 0.000000
47.481300 11.990600 -743.476318 -0.458313 0.888565 -0.020043 0.000000
45.393501 12.173800 -740.896118 0.183968 0.947092 0.263006 0.000000
46.291698 12.671900 -740.418579 0.415543 0.696986 0.584409 0.000000
48.897400 12.786000 -743.478882 -0.553025 0.736819 -0.388922 0.000000
43.953499 12.016000 -741.054382 -0.469771 0.879955 0.070674 0.000000
47.663200 12.895600 -743.002930 -0.990684 0.135144 -0.016753 0.000000
44.602901 12.497400 -741.547180 -0.379646 0.126549 0.916436 0.000000
45.878502 13.116900 -741.097717 -0.087215 0.020458 -0.995979 0.000000
47.492401 12.759300 -744.034424 -0.351053 0.891825 -0.285324 0.000000
48.208000 13.292600 -743.849304 0.579083 0.144398 0.802379 0.000000
43.781101 13.293100 -740.441528 0.643790 0.579915 0.499232 0.000000
45.032001 13.305700 -741.825317 0.221620 0.124261 0.967184 0.000000
46.347000 13.850900 -741.638611 -0.294614 0.889823 -0.348452 0.000000
47.723099 13.846100 -743.218201 -0.481107 0.833815 -0.270719 0.000000
47.714699 13.350900 -744.736206 -0.368460 0.899866 -0.233407 0.000000
48.477402 13.585500 -745.678772 0.746315 0.543814 0.383772 0.000000
42.957699 13.703300 -739.963684 0.587212 0.781408 0.211150 0.000000
47.928902 14.215700 -744.031616 0.845101 0.510613 0.158364 0.000000
47.341099 14.688800 -742.707214 0.779173 0.301153 0.549724 0.000000
44.921200 14.151400 -742.242188 -0.080603 0.516145 0.852700 0.000000
45.834499 14.530100 -742.104675 -0.280931 0.930321 0.235757 0.000000
47.700298 14.298000 -744.951782 0.868498 0.268279 0.416818 0.000000
42.219799 14.169200 -739.655273 0.558837 0.134180 0.818350 0.000000
47.784599 14.960400 -743.526672 -0.959564 0.048919 -0.277207 0.000000
48.628201 14.551700 -745.758728 0.196394 0.974467 0.108830 0.000000
46.551800 15.534800 -741.739502 -0.193133 0.703002 -0.684462 0.000000
47.928398 15.154600 -744.489319 0.613694 0.784890 -0.085598 0.000000
45.983700 15.362200 -742.445679 -0.563613 0.745528 0.355709 0.000000
46.962002 15.662900 -742.619080 0.563975 0.466911 0.681121 0.000000
44.596802 15.118400 -742.353882 -0.363655 0.199795 0.909856 0.000000
47.536701 15.886000 -743.297180 0.741074 0.035289 0.670495 0.000000
48.070202 16.022800 -744.107605 0.619909 0.734648 0.275692 0.000000
47.908699 15.794400 -745.275085 0.519473 0.817202 -0.249657 0.000000
46.028999 16.322001 -742.284729 0.595806 0.438927 -0.672576 0.000000
46.661800 16.631201 -742.973816 0.318660 0.552451 0.770229 0.000000
47.512402 16.823900 -743.333130 0.347584 0.465033 0.814205 0.000000
44.584999 15.947000 -743.730103 0.220301 0.657778 -0.720275 0.000000
47.911098 17.006500 -744.169006 0.991873 0.027956 0.124124 0.000000
48.138401 16.756001 -745.215515 -0.698936 0.488755 -0.522117 0.000000
45.795502 17.045500 -743.215576 -0.710965 0.282788 0.643863 0.000000
48.191700 16.905199 -746.395874 0.248558 0.958723 0.138088 0.000000
45.163601 18.654600 -744.025208 -0.124429 0.979418 -0.158924 0.000000
46.134201 19.027700 -743.945190 -0.315342 0.882656 -0.348536 0.000000
47.050499 19.263000 -744.246582 -0.152197 0.978760 0.137348 0.000000
47.735298 19.323200 -744.845520 0.204216 0.928126 0.311253 0.000000
48.204700 19.215200 -745.737183 0.264729 0.915701 -0.302341 0.000000
48.678600 19.431900 -746.513184 -0.472426 0.752261 -0.459258 0.000000
49.792301 19.357000 -748.044678 0.501575 0.704872 0.501575 0.000000
50.371300 19.314199 -748.853271 0.540737 0.725943 0.424983 0.000000
51.008900 19.337099 -749.517578 0.570272 0.440589 0.693304 0.000000
48.943501 19.526600 -747.394470 0.265352 0.964151 0.001201 0.000000
47.959599 20.046101 -745.427917 0.628855 0.733401 0.258195 0.000000
46.356800 20.000700 -744.515686 0.335775 0.191264 -0.922319 0.000000
47.282700 20.277500 -744.690918 0.403487 0.209813 0.890605 0.000000
48.315201 20.348200 -746.283630 0.954585 0.059901 0.291856 0.000000
45.475498 20.128300 -744.039185 -0.895622 0.286659 -0.340129 0.000000
48.955299 20.534901 -746.974976 -0.325744 0.943489 -0.060996 0.000000
48.240700 20.394300 -747.589294 -0.521387 0.711284 0.471413 0.000000
46.566502 20.882200 -744.757019 0.255319 0.056046 0.965231 0.000000
47.431702 21.052299 -745.205872 0.519945 0.316419 0.793433 0.000000
48.830601 20.577400 -748.383423 -0.676893 0.634072 -0.373856 0.000000
48.059898 21.250900 -745.903320 0.859473 0.280363 0.427438 0.000000
48.378899 21.267099 -746.804016 0.930223 0.147896 0.335875 0.000000
45.708599 21.407400 -744.954285 -0.166387 0.968657 -0.184445 0.000000
46.701199 21.692400 -745.172913 0.060142 0.391593 0.918171 0.000000
47.458199 22.116600 -745.638428 0.217534 0.575462 0.788367 0.000000
48.173100 22.199100 -746.201477 0.756894 0.061758 0.650613 0.000000
48.555099 21.974001 -747.392822 0.755820 0.486938 0.437753 0.000000
44.240101 21.489100 -744.643799 -0.553023 0.724708 -0.411053 0.000000
48.833000 22.324200 -748.312622 0.693084 0.329499 0.641143 0.000000
45.808498 22.382401 -745.315796 -0.110184 0.960545 0.255368 0.000000
46.639000 22.569201 -745.667725 -0.335760 0.262450 0.904646 0.000000
48.411900 22.836599 -746.857178 0.919414 0.051892 0.389853 0.000000
47.444500 23.049700 -745.856018 -0.486231 0.079871 -0.870172 0.000000
48.744301 23.113400 -747.741516 -0.309607 0.934374 -0.176323 0.000000
49.015499 23.112101 -748.851074 0.711065 0.026753 -0.702617 0.000000
47.923599 23.665800 -746.390320 0.542748 0.258079 0.799262 0.000000
46.229401 23.424400 -746.129883 -0.318351 0.947442 0.031708 0.000000
48.533798 23.940701 -747.111023 -0.828498 0.136857 -0.543012 0.000000
47.042900 24.061800 -746.095520 -0.228587 0.874008 -0.428787 0.000000
48.924999 24.158501 -747.997925 0.666256 0.745136 -0.029580 0.000000
48.816601 23.642200 -749.618530 0.156071 0.973223 -0.168760 0.000000
47.777699 24.584600 -746.510071 0.563511 0.337461 0.754039 0.000000
48.932598 23.794399 -750.566772 -0.640651 0.731502 -0.233391 0.000000
48.390900 24.973499 -747.134094 0.679001 0.301599 0.669324 0.000000
49.011799 24.729900 -748.702698 0.909489 0.373822 -0.181898 0.000000
49.223499 23.860300 -751.920776 0.289572 0.956466 0.036353 0.000000
46.592899 25.155899 -745.322388 0.403913 0.572072 0.713854 0.000000
47.177502 25.140200 -746.072388 -0.674853 0.035370 -0.737104 0.000000
48.946098 25.242201 -747.830200 0.888494 0.283180 0.361091 0.000000
48.574699 24.610600 -749.549622 -0.178252 0.867691 -0.464045 0.000000
49.319401 24.399700 -751.158630 0.076291 0.969269 0.233875 0.000000
47.637402 25.459499 -746.804077 0.396366 0.219548 0.891455 0.000000
48.385300 24.646400 -750.491516 0.125996 0.990939 -0.046539 0.000000
49.021099 25.654600 -748.665100 0.974129 0.145298 -0.173094 0.000000
49.306900 24.715700 -752.237122 -0.639955 0.061562 -0.765942 0.000000
46.260799 25.965300 -744.953430 0.965338 0.237168 0.108969 0.000000
46.866299 25.964100 -745.679626 0.678209 0.098568 0.728229 0.000000
48.216301 25.954800 -747.321472 0.435924 0.629668 0.643030 0.000000
48.894600 26.299900 -747.929321 -0.381343 0.873595 -0.302340 0.000000
49.173199 25.924900 -749.557617 -0.004916 0.999987 0.000983 0.000000
48.282398 25.121201 -751.273071 -0.136218 0.988454 -0.066363 0.000000
50.470200 26.015800 -750.789795 -0.013063 0.999801 -0.015072 0.000000
46.636398 26.258699 -746.635986 0.810153 0.455412 -0.369123 0.000000
49.739799 26.300200 -750.190918 -0.102031 0.959610 -0.262181 0.000000
49.190399 25.629200 -751.861084 0.874736 0.068143 0.479784 0.000000
49.591801 25.522600 -752.708923 0.861761 0.498317 -0.095120 0.000000
45.585098 26.785801 -744.818726 -0.638603 0.015304 -0.769384 0.000000
46.419201 26.973600 -745.160217 -0.528066 0.350429 -0.773528 0.000000
47.285099 26.716999 -747.083618 0.163252 0.300438 0.939726 0.000000
48.182701 26.940500 -747.376282 -0.255750 0.082705 -0.963199 0.000000
49.205502 26.972700 -748.483276 -0.906514 0.191679 -0.376153 0.000000
49.332500 27.056299 -749.433777 -0.542210 0.778927 -0.315089 0.000000
49.727001 26.023701 -753.504211 0.606189 0.780675 0.151923 0.000000
46.377800 27.256500 -746.103027 -0.283192 0.921454 -0.265942 0.000000
45.354801 27.607300 -744.483826 0.632623 0.073494 0.770965 0.000000
48.414299 27.701799 -747.819214 0.472933 0.345544 0.810515 0.000000
49.368900 27.304199 -750.356873 -0.452366 0.877096 0.161455 0.000000
46.130600 27.991100 -744.918823 0.603124 0.295963 0.740707 0.000000
46.645100 27.436800 -747.479797 -0.730127 0.223572 0.645701 0.000000
49.092098 27.996901 -748.443787 0.354913 0.904079 0.238069 0.000000
48.545502 26.620001 -752.620972 0.386749 0.457359 0.800780 0.000000
49.859001 26.611900 -754.221924 -0.680241 0.640902 -0.355692 0.000000
49.499401 28.091700 -749.308777 -0.950403 0.310105 -0.023854 0.000000
50.036499 27.802900 -750.967285 0.156731 0.987291 -0.026313 0.000000
46.028000 28.093100 -745.834473 0.937563 0.347293 0.019082 0.000000
50.321098 26.968500 -754.950317 -0.619886 0.753495 -0.219057 0.000000
44.510502 28.353300 -744.003418 -0.445974 0.724501 -0.525553 0.000000
45.700901 27.858999 -747.176514 0.590194 0.806830 0.026385 0.000000
49.857700 28.443800 -750.091370 0.674836 0.681248 0.283720 0.000000
50.636299 28.330000 -751.426514 -0.287062 0.929061 -0.233326 0.000000
50.459900 27.012800 -755.868713 -0.937073 0.083738 0.338941 0.000000
45.316200 28.726801 -744.366516 -0.343711 0.879719 -0.328570 0.000000
47.861401 28.586100 -747.911194 -0.112226 0.392100 -0.913052 0.000000
49.318298 28.835899 -748.771912 0.773901 0.301582 0.556889 0.000000
49.158501 27.422400 -754.624878 -0.704526 0.656815 0.268769 0.000000
45.010201 29.478901 -743.584778 0.578465 0.371988 -0.725950 0.000000
45.697601 29.322901 -744.961792 -0.313963 0.915847 -0.250303 0.000000
46.167900 28.921900 -746.949707 0.569592 0.702442 0.426779 0.000000
46.747898 28.816601 -748.017700 0.657568 0.230698 0.717205 0.000000
48.360699 29.282499 -748.291809 0.209742 0.694479 0.688264 0.000000
49.702499 29.432600 -749.363892 0.710357 0.633039 0.307660 0.000000
50.011700 29.180201 -750.630798 -0.146340 0.980111 0.134043 0.000000
49.985802 27.865700 -755.271423 0.548329 0.162855 0.820252 0.000000
50.405102 28.093599 -756.087524 -0.173646 0.958368 -0.226668 0.000000
50.527699 27.886200 -756.975586 -0.795044 0.583837 -0.164440 0.000000
45.428001 29.946899 -744.253601 0.885855 0.017370 0.463637 0.000000
48.983101 29.910801 -748.672974 0.531882 0.205742 0.821445 0.000000
50.562901 29.774000 -751.069580 -0.123167 0.952229 0.279444 0.000000
49.102001 28.098101 -755.314880 0.711699 0.429674 0.555756 0.000000
44.040100 29.867100 -743.493408 -0.066487 0.544627 -0.836039 0.000000
45.375702 29.489500 -746.459473 0.449499 0.834785 0.317939 0.000000
49.919998 29.998199 -750.114014 -0.956021 0.166670 -0.241339 0.000000
44.846901 30.428699 -743.687012 -0.336592 0.632532 -0.697574 0.000000
49.543400 30.457800 -749.221924 0.689222 0.223489 0.689222 0.000000
49.646198 28.667801 -755.776611 -0.145110 0.848675 0.508619 0.000000
50.794498 28.513100 -757.711182 0.972600 0.032541 0.230194 0.000000
49.988800 28.714100 -756.629272 0.124668 0.819875 0.558805 0.000000
46.664101 30.412800 -747.055176 0.660331 0.539354 -0.522552 0.000000
45.047501 30.687201 -744.726379 -0.583294 0.535954 -0.610345 0.000000
50.147099 30.740000 -750.649414 0.900927 0.107552 0.420432 0.000000
51.290600 28.958300 -758.443787 -0.348846 0.895125 -0.277593 0.000000
43.685699 30.819201 -743.374512 -0.864160 0.256666 0.432839 0.000000
49.929501 31.106100 -749.810120 -0.437034 0.844518 -0.309501 0.000000
50.244301 30.719500 -751.582214 -0.253012 0.915181 -0.313735 0.000000
44.548401 31.346399 -743.296021 -0.239814 0.157668 -0.957930 0.000000
48.850300 31.177601 -749.040283 0.185529 0.281729 0.941386 0.000000
49.388100 30.436001 -753.047791 -0.189639 0.981175 -0.036514 0.000000
49.852901 29.445101 -757.187317 0.596860 0.346407 0.723713 0.000000
50.765701 29.530899 -757.965820 0.950701 0.283216 0.126317 0.000000
51.226898 29.277201 -759.433777 -0.362668 0.890998 -0.273120 0.000000
50.301300 31.706200 -750.454712 -0.918737 0.195143 -0.343280 0.000000
50.580601 31.181900 -752.687622 -0.079280 0.925832 -0.369527 0.000000
43.719002 31.694500 -743.015015 -0.204683 0.041894 0.977931 0.000000
44.807499 31.749800 -744.110229 0.342907 0.938820 -0.032107 0.000000
49.443802 31.802099 -749.437378 0.370960 0.187628 0.909497 0.000000
50.319000 31.645201 -751.450623 0.975623 0.169510 0.139375 0.000000
51.051102 29.989300 -758.780518 0.530606 0.725658 0.438039 0.000000
51.719398 29.857500 -760.054077 -0.117655 0.992918 -0.016494 0.000000
44.447899 32.273701 -743.022217 0.667086 0.258278 0.698777 0.000000
43.665600 30.716000 -747.757629 0.051299 0.990635 0.126537 0.000000
49.686100 29.873100 -757.996277 0.629972 0.049772 0.775022 0.000000
49.956799 32.412300 -749.951477 0.496044 0.596934 0.630564 0.000000
43.351200 32.499298 -742.635010 -0.599406 0.142004 -0.787748 0.000000
50.453999 32.591702 -750.732117 -0.853642 0.458015 -0.248028 0.000000
48.830502 32.622601 -749.604919 0.274697 0.297952 0.914203 0.000000
50.686401 32.665298 -751.651672 -0.436102 0.861568 -0.259838 0.000000
50.717201 30.506100 -759.581787 -0.083263 0.973060 -0.214993 0.000000
51.626400 30.496599 -760.695679 0.226604 0.973063 -0.042412 0.000000
43.980598 33.236500 -742.598572 0.185976 0.814967 0.548855 0.000000
50.857899 32.693199 -752.756470 -0.460861 0.713753 -0.527412 0.000000
42.816002 33.234699 -742.279297 0.497635 0.487649 0.717327 0.000000
49.399101 33.305698 -749.839905 0.136466 0.523853 0.840806 0.000000
50.230499 33.450600 -750.295410 0.762033 0.168834 0.625141 0.000000
51.870300 30.930599 -761.498474 -0.313358 0.916969 -0.246932 0.000000
43.949902 33.448700 -743.835693 0.113202 0.901426 0.417871 0.000000
50.663399 33.638699 -751.111694 -0.877972 0.199204 -0.435297 0.000000
51.271500 33.203300 -753.436401 -0.003110 0.998248 0.059086 0.000000
50.869400 31.107700 -760.670898 -0.497128 0.148112 0.854943 0.000000
43.476898 33.960499 -742.155090 -0.286603 0.174156 -0.942087 0.000000
50.842701 33.652500 -752.055298 -0.864926 0.101169 -0.491597 0.000000
52.445900 31.258301 -762.795471 0.284670 0.435468 0.854009 0.000000
45.411800 32.988098 -748.413513 -0.760566 0.020933 -0.648923 0.000000
42.514999 34.071701 -741.841614 -0.416040 0.191232 -0.889011 0.000000
51.234299 31.587400 -761.374207 0.143053 0.836197 0.529444 0.000000
52.030201 31.667900 -762.021973 0.905233 0.234690 0.354222 0.000000
47.759102 33.895500 -749.172302 -0.003984 0.880464 -0.474096 0.000000
49.449299 34.162102 -750.191284 0.187917 0.374400 0.908027 0.000000
50.654800 33.777699 -753.042175 0.381990 0.866765 -0.320626 0.000000
50.270000 34.424400 -750.696594 0.515521 0.312485 0.797867 0.000000
50.927799 34.408501 -751.534424 -0.888298 0.261264 -0.377713 0.000000
51.442600 34.343102 -752.385986 -0.236674 0.961078 0.142527 0.000000
52.476501 31.818600 -763.617615 0.841620 0.099268 0.530868 0.000000
42.910900 34.903599 -741.668884 -0.314862 0.608734 -0.728220 0.000000
52.222401 32.188202 -762.802917 -0.834759 0.165166 -0.525259 0.000000
52.843800 31.807699 -764.953125 0.200800 0.952789 0.227753 0.000000
51.197102 32.195400 -762.497070 0.012277 0.833454 -0.552453 0.000000
43.195000 35.270401 -742.562073 -0.756982 0.552742 0.348503 0.000000
48.604198 34.881199 -750.451904 0.118507 0.067883 0.990630 0.000000
49.553902 35.150002 -750.578979 -0.751106 0.355275 -0.556435 0.000000
50.415901 35.310101 -751.007080 0.602676 0.109977 0.790371 0.000000
51.083698 35.332901 -751.716675 0.720201 0.654301 0.230653 0.000000
51.273602 35.058201 -752.968018 -0.670806 0.664309 -0.329718 0.000000
42.068199 35.551899 -741.269287 -0.976181 0.092558 -0.196223 0.000000
52.088501 32.811501 -763.454529 0.218017 0.827856 0.516839 0.000000
52.642200 32.784599 -764.214478 -0.753498 0.531208 -0.387373 0.000000
53.126099 32.715900 -765.047607 -0.613963 0.195422 -0.764761 0.000000
42.850399 36.028900 -741.494019 0.822259 0.017905 0.568832 0.000000
51.384102 35.818298 -752.449829 -0.509415 0.813497 -0.280570 0.000000
47.839100 35.380699 -750.979980 0.187327 0.508030 -0.840722 0.000000
48.737099 35.680599 -750.922913 -0.144443 0.430470 -0.890972 0.000000
49.759800 35.988201 -750.985718 0.022356 0.416868 0.908692 0.000000
50.648102 36.162498 -751.388977 0.473728 0.222486 0.852105 0.000000
51.659199 35.966702 -753.330688 0.620625 0.082461 0.779760 0.000000
51.012299 33.085999 -763.390808 0.464491 0.595287 0.655654 0.000000
41.698700 36.413601 -740.820313 -0.989745 0.137813 0.037585 0.000000
51.771999 33.342400 -764.443298 -0.810772 0.527547 0.253658 0.000000
52.692902 33.528702 -764.840393 -0.055733 0.750255 0.658795 0.000000
53.205799 33.477699 -765.645996 -0.459770 0.840590 -0.286389 0.000000
42.489799 36.812000 -741.143799 0.726673 0.226597 0.648536 0.000000
51.128899 36.681702 -751.977417 0.762476 0.098054 0.639543 0.000000
47.385601 36.088001 -750.399170 0.458627 0.733473 0.501676 0.000000
51.609501 36.802502 -752.744080 -0.975449 0.105892 -0.193097 0.000000
48.982700 36.471901 -751.328491 -0.196109 0.432030 0.880279 0.000000
49.919899 36.834599 -751.506714 0.046599 0.597313 0.800653 0.000000
51.853199 33.812000 -765.233826 0.183034 0.809282 0.558177 0.000000
52.120602 37.138802 -753.461487 0.839431 0.105471 0.533133 0.000000
53.464802 33.787899 -767.729919 -0.626821 0.660074 -0.414001 0.000000
41.096901 37.270901 -740.375488 -0.960545 0.255368 -0.110184 0.000000
46.493900 36.525799 -749.621887 -0.446819 0.627555 -0.637595 0.000000
50.566898 37.465698 -751.852173 0.344990 0.515078 0.784651 0.000000
51.381802 37.600601 -752.311890 0.681849 0.139982 0.717974 0.000000
53.580200 34.200699 -768.640381 0.347672 0.936240 0.050784 0.000000
48.445599 37.184898 -751.871277 -0.018162 0.697143 0.716702 0.000000
51.830299 37.932499 -753.048584 -0.899046 0.098659 -0.426595 0.000000
52.228401 37.776699 -754.114014 -0.138989 0.197644 0.970370 0.000000
53.696201 34.687302 -767.607422 -0.729841 0.471666 -0.494836 0.000000
49.239700 37.721802 -751.764099 -0.589395 0.795311 -0.141753 0.000000
54.255100 34.711800 -769.215881 -0.842954 0.486261 -0.230174 0.000000
50.069199 38.228199 -752.043884 0.069474 0.423653 0.903157 0.000000
50.938301 38.420898 -752.343872 0.304120 0.395814 0.866512 0.000000
41.874500 38.883598 -740.971680 -0.206468 0.976143 0.067194 0.000000
47.620499 38.025700 -751.143127 -0.719336 0.670256 -0.182518 0.000000
51.643700 38.838699 -752.832092 -0.070596 0.989497 0.126146 0.000000
52.253101 38.832100 -753.586487 -0.343857 0.851085 -0.396758 0.000000
52.571400 38.697300 -754.485413 -0.255388 0.942864 -0.213974 0.000000
40.199699 39.031799 -739.422180 0.047052 0.026140 -0.998550 0.000000
48.551102 38.499599 -751.484375 0.738366 0.136291 0.660485 0.000000
49.161098 38.476101 -752.306213 0.499119 0.576423 0.647006 0.000000
47.114101 38.521400 -750.437195 0.614847 0.209079 0.760427 0.000000
52.937401 39.462002 -753.785095 -0.437102 0.014526 -0.899295 0.000000
53.346901 39.378399 -754.598389 -0.025620 0.880528 0.473301 0.000000
55.136902 35.601002 -771.319702 -0.413877 0.902113 -0.122059 0.000000
41.091801 39.593498 -739.621582 -0.503848 0.101341 -0.857827 0.000000
50.074402 39.077099 -752.374695 -0.017367 0.883069 0.468922 0.000000
50.903599 39.428001 -752.745972 0.259208 0.282122 0.923698 0.000000
51.812099 39.669498 -753.193481 0.380177 0.198039 0.903463 0.000000
53.352901 40.202999 -754.111511 -0.933289 0.348481 -0.086787 0.000000
53.992802 40.215599 -754.829224 0.650221 0.101276 0.752965 0.000000
52.902302 36.221298 -769.034973 0.267032 0.901416 0.340797 0.000000
41.198399 40.201599 -740.348206 -0.516894 0.547201 -0.658325 0.000000
49.130699 39.456299 -752.752380 0.381152 0.096996 0.919410 0.000000
48.650299 39.850700 -751.613586 0.510726 0.835045 -0.204594 0.000000
50.042198 39.958099 -752.863892 -0.262223 0.165402 0.950727 0.000000
54.657200 40.746201 -755.324219 -0.091112 0.260503 0.961164 0.000000
46.087200 39.867500 -749.582397 0.551897 0.639660 0.535019 0.000000
50.859200 40.418598 -753.153198 -0.329180 0.888334 -0.320161 0.000000
53.646099 41.067501 -753.959473 -0.545692 0.182905 -0.817782 0.000000
48.544498 39.989101 -753.316284 -0.220439 0.670697 -0.708218 0.000000
54.463100 41.548500 -754.309326 0.463452 0.402089 0.789644 0.000000
55.229599 41.511700 -755.374390 0.481671 0.212902 0.850097 0.000000
48.078201 40.517700 -752.139587 -0.205598 0.959015 -0.194986 0.000000
49.351700 40.590801 -753.383118 -0.041073 0.664243 -0.746388 0.000000
56.003899 42.046101 -755.652771 -0.403425 0.888126 -0.220184 0.000000
54.953800 42.394798 -754.503418 -0.622710 0.394769 -0.675566 0.000000
55.806400 42.555801 -754.892822 0.270430 0.432383 0.860182 0.000000
48.532902 41.138100 -753.131775 -0.519156 0.542678 -0.660286 0.000000
49.816601 41.403801 -753.624084 -0.139019 0.929090 -0.342731 0.000000
56.450401 42.971100 -755.399109 -0.555026 0.230359 0.799300 0.000000
56.883202 42.876202 -756.295471 -0.249134 0.939471 -0.235216 0.000000
51.733700 42.003101 -754.606812 0.255656 0.866811 0.428111 0.000000
57.673599 43.341900 -756.455505 0.542730 0.286397 0.789570 0.000000
50.926601 42.158600 -754.103516 0.375356 0.323266 0.868681 0.000000
56.827400 43.799301 -755.173401 -0.758694 0.341331 -0.554866 0.000000
49.771900 42.202400 -754.121826 -0.056215 0.343826 0.937349 0.000000
57.324902 44.025299 -755.957581 0.843323 0.040158 0.535905 0.000000
58.190300 44.108002 -756.672791 0.433108 0.515448 0.739413 0.000000
51.750401 42.711601 -755.539490 0.588451 0.524379 0.615429 0.000000
51.143002 42.917702 -754.622925 0.480324 0.463818 0.744420 0.000000
58.846001 44.611500 -757.151978 0.607332 0.482837 0.630885 0.000000
57.792500 44.823299 -755.799805 -0.238179 0.948635 -0.208237 0.000000
58.664501 45.000599 -756.143127 0.306812 0.868538 -0.389239 0.000000
59.856201 45.223999 -756.689026 -0.448799 0.869268 0.207252 0.000000
48.444698 42.870499 -753.280212 -0.577390 0.496589 -0.648090 0.000000
52.375099 43.378899 -755.998230 -0.224249 0.417311 0.880661 0.000000
49.265099 43.005501 -754.816528 0.007061 0.025218 0.999657 0.000000
59.890999 45.512001 -757.596680 -0.359779 0.883640 -0.299565 0.000000
50.047199 43.530300 -754.808472 -0.030023 0.032093 -0.999034 0.000000
59.021301 45.836700 -756.386780 -0.602750 0.449141 -0.659519 0.000000
51.577099 43.938999 -756.321777 -0.918565 0.394787 -0.019544 0.000000
59.640202 46.188999 -757.004211 -0.406604 0.839897 -0.359507 0.000000
60.492500 46.329800 -757.472595 -0.314085 0.910116 -0.270259 0.000000
61.285000 46.439098 -757.997070 -0.418923 0.774274 -0.474345 0.000000
48.017700 44.051498 -752.862427 0.723428 0.448624 0.524775 0.000000
48.645401 44.037701 -753.689270 0.116767 0.979613 -0.163474 0.000000
48.825901 43.840599 -754.718689 -0.300049 0.920245 -0.251237 0.000000
51.464298 44.018799 -757.224915 -0.263482 0.927171 -0.266330 0.000000
52.356899 44.223000 -757.482727 -0.279273 0.933250 -0.225945 0.000000
49.532600 44.196201 -755.366882 0.339530 0.825926 0.450074 0.000000
50.487701 44.493000 -755.319092 -0.310830 0.616829 0.723123 0.000000
60.112701 46.979000 -756.912292 -0.161239 0.985088 -0.060023 0.000000
61.098000 47.164398 -757.359680 -0.276506 0.933382 -0.228784 0.000000
61.822601 47.208401 -758.068176 -0.313836 0.909394 -0.272964 0.000000
51.405701 44.858501 -755.990479 -0.525391 0.736207 -0.426572 0.000000
62.560398 47.556900 -758.586792 -0.206122 0.958801 -0.195484 0.000000
51.689999 44.889198 -756.955078 0.664837 0.744904 -0.055761 0.000000
51.614899 44.645599 -757.870483 -0.300264 0.920906 -0.248544 0.000000
57.300301 46.632198 -756.669678 0.836887 0.543342 0.066330 0.000000
48.980499 44.747700 -754.668518 -0.607685 0.765404 -0.211839 0.000000
63.299500 48.182598 -758.616516 -0.280618 0.895306 -0.345948 0.000000
48.593700 44.674000 -755.502075 -0.456006 0.838865 0.297260 0.000000
49.824799 44.960999 -755.833191 -0.209726 0.700639 0.681997 0.000000
61.380299 48.040298 -757.341003 -0.357373 0.104630 -0.928082 0.000000
62.227798 48.182598 -757.798279 0.329006 0.190626 0.924888 0.000000
50.659500 45.401299 -755.706177 -0.130018 0.220129 0.966767 0.000000
48.352600 45.582500 -753.081421 0.756699 0.620524 0.205810 0.000000
51.386299 45.682999 -756.409119 0.829217 0.149823 0.538472 0.000000
56.174801 46.998600 -756.849670 -0.276132 0.934923 -0.222868 0.000000
63.918999 48.828400 -758.801208 0.858400 0.509457 -0.060018 0.000000
51.565498 45.847801 -757.359192 -0.965034 0.154561 0.211710 0.000000
51.631100 45.648800 -758.267883 0.038324 0.995322 0.088692 0.000000
62.990700 49.042599 -758.108398 -0.159677 0.983271 -0.087642 0.000000
64.674698 49.293701 -759.133728 -0.170159 0.974319 -0.147471 0.000000
48.570099 45.849800 -755.417480 -0.278014 0.380203 -0.882130 0.000000
49.733601 46.011600 -756.168091 0.761078 0.347413 0.547782 0.000000
50.654900 46.281300 -756.172180 -0.365888 0.375230 0.851662 0.000000
63.701000 49.621201 -758.228271 -0.593107 0.082256 0.800911 0.000000
65.417297 49.861301 -759.329285 -0.300310 0.929129 -0.215716 0.000000
51.785801 46.608601 -758.030701 -0.650506 0.704848 -0.282898 0.000000
50.827099 46.034698 -759.256897 0.134890 0.967356 0.214540 0.000000
64.378998 50.138699 -758.692078 0.316413 0.563762 0.762926 0.000000
65.859802 50.249802 -760.042297 0.137269 0.922059 0.361891 0.000000
47.603298 46.627800 -754.551880 -0.718383 0.519293 -0.462884 0.000000
48.737701 46.519199 -756.405579 0.757017 0.242935 0.606554 0.000000
50.955502 47.159000 -756.443970 0.305805 0.302851 0.902643 0.000000
65.045502 50.669399 -759.022278 -0.305110 0.827708 -0.470964 0.000000
66.620697 50.836102 -760.260315 -0.071954 0.850756 0.520612 0.000000
48.443100 46.986599 -755.518921 -0.035944 0.999235 -0.015404 0.000000
49.848499 47.325500 -755.822083 0.477325 0.861549 -0.172901 0.000000
51.807701 47.212502 -758.716370 0.700693 0.659194 0.272935 0.000000
60.123001 49.946201 -757.435486 0.934460 0.016573 0.355681 0.000000
65.814598 51.163399 -759.319580 -0.131882 0.988535 -0.073527 0.000000
67.320000 51.264500 -760.750183 -0.269932 0.939918 -0.209024 0.000000
52.241001 47.839001 -757.919922 -0.284220 0.938618 -0.195488 0.000000
68.125099 51.782700 -760.801697 -0.104943 0.896916 0.429568 0.000000
68.308098 51.617699 -761.723511 0.852481 0.132608 -0.505660 0.000000
47.087002 47.466999 -754.470215 0.698501 0.535129 0.475114 0.000000
50.290298 47.888500 -756.622375 -0.054919 0.302693 0.951504 0.000000
50.525002 47.052101 -760.447021 0.929624 0.177537 0.322922 0.000000
62.375500 51.043800 -758.125000 0.021058 0.999754 0.007019 0.000000
66.492302 51.877201 -759.657471 -0.485368 0.633161 -0.602931 0.000000
51.106201 48.417400 -756.688171 -0.161997 0.960126 0.227849 0.000000
53.386299 48.356300 -759.752625 -0.748510 0.306136 -0.588229 0.000000
67.255096 52.321701 -759.999695 -0.275580 0.935853 -0.219625 0.000000
68.735199 52.499699 -761.066223 -0.274681 0.038530 -0.960763 0.000000
49.557899 48.369598 -756.186890 -0.335389 0.910343 -0.242468 0.000000
51.900600 48.737400 -757.510376 0.935064 0.291249 0.202063 0.000000
52.382900 48.556400 -758.874573 -0.268984 0.937960 -0.218811 0.000000
68.100098 52.783901 -760.270325 -0.216799 0.889320 -0.402627 0.000000
69.468597 52.901798 -761.455688 -0.469790 0.690474 -0.550039 0.000000
48.858002 48.585899 -755.557495 -0.535476 0.814721 -0.222476 0.000000
70.255699 53.319801 -761.795288 -0.282619 0.943430 -0.173395 0.000000
51.409100 49.307800 -756.789612 -0.316352 0.355707 -0.879428 0.000000
68.764801 53.455101 -760.507019 -0.498821 0.237899 -0.833415 0.000000
71.058701 53.742199 -762.114075 -0.581852 0.760392 0.288535 0.000000
47.690399 48.174599 -758.162720 -0.606140 0.606140 -0.514965 0.000000
52.035801 49.432598 -758.145020 0.867295 0.491794 0.077062 0.000000
53.518501 49.306599 -760.517517 0.625291 0.746919 0.226103 0.000000
69.622101 53.864899 -760.896912 -0.596202 0.085172 -0.798304 0.000000
50.034698 49.405201 -756.635925 0.573056 0.316224 0.756048 0.000000
62.803600 52.411999 -759.538086 0.081711 0.990892 0.107030 0.000000
70.401703 54.178398 -761.362671 -0.504157 0.628932 -0.591837 0.000000
71.682999 54.281399 -762.507507 -0.419031 0.353116 -0.836494 0.000000
47.199600 48.501900 -757.447876 0.092023 0.977901 0.187728 0.000000
54.580002 49.803501 -761.006287 0.388005 0.920354 0.048997 0.000000
72.472099 54.545601 -762.919678 -0.270004 0.579482 -0.768959 0.000000
52.516300 49.907398 -758.817627 0.757250 0.382696 0.529261 0.000000
50.730202 50.054600 -756.697327 0.563567 0.144237 0.813380 0.000000
52.576401 49.859001 -759.821777 -0.369561 0.866398 -0.335825 0.000000
71.071297 54.746300 -761.696411 0.357508 0.765165 0.535454 0.000000
51.995399 50.364201 -757.896484 0.905851 0.247316 -0.343901 0.000000
66.139503 53.812801 -760.553589 -0.137980 0.987087 -0.081373 0.000000
72.219902 55.178501 -762.198975 0.659220 0.709808 0.248196 0.000000
73.112396 55.239601 -763.041016 0.015237 0.793715 0.608099 0.000000
74.066704 55.724499 -763.128479 0.083025 0.398792 0.913275 0.000000
51.863098 50.880100 -758.646973 0.886517 0.358507 0.292506 0.000000
52.517601 50.901600 -759.369324 -0.676744 0.466201 -0.569802 0.000000
54.406101 50.752602 -762.371094 -0.505347 0.283182 -0.815127 0.000000
72.700401 55.988300 -762.417114 -0.186703 0.051135 -0.981085 0.000000
74.588303 56.232601 -763.708313 0.166914 0.980772 0.101123 0.000000
73.607101 56.450298 -762.689697 0.499448 0.004017 0.866335 0.000000
75.400902 56.644001 -764.089722 0.026283 0.820311 0.571313 0.000000
52.513802 51.194500 -760.256775 -0.051592 0.995622 -0.077937 0.000000
76.190804 57.102600 -764.184204 0.107550 0.960177 0.257861 0.000000
64.088097 54.580101 -760.934875 0.488147 0.438839 0.754409 0.000000
74.376602 57.069901 -763.016174 0.027402 0.922537 0.384934 0.000000
52.263599 51.788799 -759.108276 0.449683 0.867993 0.210649 0.000000
54.173801 52.553902 -758.157776 0.271867 0.495574 0.824921 0.000000
53.204201 51.508301 -761.543213 0.294985 0.937580 0.184192 0.000000
75.149597 57.410000 -763.382813 -0.546480 0.597236 -0.587085 0.000000
76.848701 57.617599 -764.626526 0.640810 0.427762 0.637481 0.000000
78.050003 58.099899 -764.939026 0.451126 0.801110 0.393330 0.000000
51.255299 52.474701 -756.935303 -0.334638 0.356030 -0.872502 0.000000
52.416100 52.118301 -759.980713 -0.369566 0.905798 -0.207247 0.000000
52.590698 51.953899 -760.928284 -0.542419 0.814392 -0.206272 0.000000
75.814499 57.956100 -763.776794 -0.500467 0.272840 -0.821639 0.000000
53.605400 52.229698 -762.344727 0.723031 0.406808 0.558331 0.000000
76.606796 58.414398 -764.061707 -0.289232 0.919499 -0.266209 0.000000
78.644798 58.730499 -765.242920 0.472780 0.539604 0.696640 0.000000
79.345001 58.796600 -765.837280 -0.775910 0.284024 -0.563288 0.000000
80.590897 58.924999 -766.846924 -0.283871 0.951957 -0.114869 0.000000
51.858101 52.826302 -758.762695 0.566930 0.331113 0.754291 0.000000
51.436699 53.373600 -756.930603 -0.099160 0.945322 0.310700 0.000000
52.192402 52.990200 -759.620178 -0.614056 0.689784 -0.383579 0.000000
52.601101 52.919800 -760.460327 -0.266629 0.925359 -0.269480 0.000000
53.142300 52.887600 -761.299683 -0.261951 0.944944 -0.196120 0.000000
77.245598 59.122200 -764.299927 0.457675 0.130559 0.879482 0.000000
78.806000 59.638100 -765.054321 0.508956 0.167674 0.844304 0.000000
53.042500 53.113499 -762.225525 0.869747 0.493350 0.012098 0.000000
51.051201 54.228001 -756.609924 0.363812 0.771280 -0.522272 0.000000
51.587700 53.852798 -758.991821 -0.533877 0.813893 0.229244 0.000000
52.350101 53.850800 -759.980774 0.774274 0.474345 0.418923 0.000000
52.591400 53.696999 -760.984619 -0.879026 0.189940 -0.437305 0.000000
53.370998 53.950600 -761.872620 0.217043 0.679234 -0.701095 0.000000
87.346001 62.367199 -768.720886 -0.119868 0.972825 0.198098 0.000000
51.568401 55.133099 -756.747314 -0.723752 0.655268 -0.216347 0.000000
51.757099 54.559601 -759.593628 0.118128 0.826897 0.549806 0.000000
52.472900 54.534401 -760.630005 0.926896 0.237047 -0.290986 0.000000
74.228203 59.697601 -765.229980 -0.039993 0.973160 0.226626 0.000000
88.089401 62.778500 -769.108521 -0.266667 0.940935 -0.208636 0.000000
88.999298 63.030102 -769.138916 -0.266667 0.940935 -0.208636 0.000000
48.625301 54.511101 -757.360229 -0.252809 0.947009 -0.198148 0.000000
52.925800 54.837502 -761.419006 -0.315273 0.803234 -0.505388 0.000000
53.447800 54.796398 -762.278992 0.544089 0.282295 0.790112 0.000000
54.437099 54.804100 -763.518982 0.857044 0.507404 0.089542 0.000000
86.729500 62.933601 -768.155212 -0.126787 0.987042 0.098349 0.000000
89.617897 63.402802 -769.743713 -0.672175 0.632538 -0.384808 0.000000
90.555801 63.631401 -769.912170 -0.212129 0.602324 -0.769550 0.000000
91.275703 63.712898 -770.469421 -0.254211 0.966493 0.035614 0.000000
92.800797 64.074600 -770.789917 0.636065 0.247797 0.730765 0.000000
52.076000 55.244400 -760.128113 -0.249601 0.947938 -0.197771 0.000000
73.359001 60.460800 -763.778625 0.500743 0.451164 0.738720 0.000000
87.485100 63.408798 -768.548584 -0.409595 0.645070 -0.645070 0.000000
91.975800 64.288002 -770.329285 0.359059 0.331557 0.872437 0.000000
51.223202 56.140999 -756.515625 -0.227451 0.911251 -0.343349 0.000000
51.525101 55.736801 -758.755310 -0.674839 0.684411 0.275998 0.000000
52.474701 55.533901 -760.909973 0.822681 0.550916 0.140314 0.000000
53.375801 55.681999 -761.395325 -0.178829 0.243369 -0.953306 0.000000
53.686401 55.427101 -762.963074 0.251125 0.553724 0.793931 0.000000
52.432800 56.602501 -757.363220 -0.647807 0.749541 -0.136144 0.000000
51.522400 55.844200 -759.668274 0.833195 0.130324 0.537403 0.000000
54.363800 55.737598 -763.839783 -0.206122 0.958801 -0.195484 0.000000
92.468102 65.001602 -770.636902 -0.233339 0.971228 0.047645 0.000000
53.717098 56.378201 -761.901184 -0.094544 0.984933 -0.144808 0.000000
55.133701 56.515099 -763.112793 -0.073600 0.951638 0.298275 0.000000
51.655602 57.017101 -756.507385 -0.300369 0.079318 -0.950519 0.000000
52.682999 56.292400 -761.407593 -0.036084 0.279961 -0.959333 0.000000
50.895401 56.553398 -759.385193 0.588324 0.434993 0.681656 0.000000
53.849201 56.643299 -762.816772 0.798169 0.298721 0.523156 0.000000
54.586399 56.548401 -764.216675 -0.475394 0.143927 -0.867921 0.000000
88.160004 64.869102 -769.410522 -0.259477 0.963951 0.058915 0.000000
51.307400 57.864399 -754.962585 -0.087394 0.829527 0.551586 0.000000
49.046700 56.502602 -758.341370 -0.305976 0.909144 -0.282552 0.000000
51.112801 57.810699 -755.935120 0.715663 0.466593 0.519728 0.000000
52.004002 57.972000 -756.351501 0.353065 0.225206 0.908090 0.000000
54.226398 57.367802 -762.089600 0.237293 0.968004 0.081609 0.000000
82.142502 63.976501 -767.867615 0.552776 0.304265 -0.775797 0.000000
52.576099 58.173000 -757.079712 -0.969337 0.196435 0.147647 0.000000
88.974602 65.644699 -769.916382 0.493088 0.799472 0.343087 0.000000
53.222900 58.377800 -757.883484 0.476996 0.195882 0.856799 0.000000
87.896400 65.815498 -769.378479 0.627517 0.322677 0.708592 0.000000
90.672997 66.342400 -770.547180 -0.298676 0.804370 -0.513596 0.000000
51.440800 58.718800 -755.847595 0.721039 0.389262 0.573217 0.000000
52.319000 58.876999 -756.254700 0.691817 0.049925 0.720345 0.000000
85.894402 65.841400 -768.556030 0.138527 0.382000 0.913721 0.000000
52.583302 59.320702 -757.084778 -0.251383 0.927419 -0.276948 0.000000
51.633801 59.771099 -755.431274 0.408787 0.740413 -0.533557 0.000000
52.427299 59.874802 -755.977905 -0.600607 0.113073 -0.791509 0.000000
53.171700 59.702702 -757.765076 0.840071 0.004058 0.542461 0.000000
85.671303 66.711601 -768.730225 -0.495186 0.135051 -0.858226 0.000000
52.500702 60.327702 -756.765625 0.662857 0.735004 -0.142792 0.000000
52.122898 60.596298 -755.511597 -0.246708 0.315959 -0.916136 0.000000
50.407101 60.431702 -754.805725 -0.003337 0.988988 0.147959 0.000000
51.308300 60.621300 -755.086914 -0.093427 0.990787 0.098041 0.000000
52.009800 60.370602 -757.544800 0.519653 0.849952 0.086846 0.000000
52.958698 60.591999 -757.737610 0.240601 0.184147 0.952996 0.000000
52.710800 61.045399 -756.095520 0.940625 0.003757 0.339427 0.000000
51.510502 61.443901 -754.748718 0.492853 0.446699 0.746697 0.000000
51.564701 61.175201 -757.544312 0.477529 0.020177 0.878384 0.000000
51.848801 62.273399 -754.172974 -0.155908 0.667530 -0.728077 0.000000
52.764999 62.213100 -755.685120 0.956630 0.127638 0.261856 0.000000
47.200600 57.335899 -772.027283 -0.207519 0.937320 -0.279942 0.000000
51.800499 63.171600 -753.987427 -0.527490 0.117704 -0.841368 0.000000
52.487400 63.844101 -754.054993 -0.448466 0.278943 -0.849158 0.000000
52.313400 64.503502 -752.930481 0.885953 0.323395 -0.332420 0.000000
53.040100 64.350700 -754.663879 -0.845851 0.051559 -0.530921 0.000000
52.867401 64.954102 -753.537292 -0.254451 0.948410 -0.189138 0.000000
52.214001 65.645897 -752.404297 -0.836958 0.521798 -0.165013 0.000000
52.961899 65.729202 -752.992920 -0.473149 0.775575 -0.417867 0.000000
51.447701 66.317200 -749.834412 0.177502 0.796484 0.578020 0.000000
52.018600 66.759399 -750.448975 -0.193664 0.978062 0.076735 0.000000
52.452599 67.742699 -747.266479 0.001255 0.937612 0.347682 0.000000
52.081699 68.591103 -747.546814 -0.101105 0.986076 0.132032 0.000000
38.859699 63.541000 -782.873779 -0.246527 0.952430 -0.179170 0.000000
39.817501 63.419998 -784.846191 -0.089635 0.994837 -0.047584 0.000000
39.033699 63.528198 -785.328125 -0.555026 0.528033 -0.642750 0.000000
40.638699 64.139297 -785.448975 -0.381144 0.917773 -0.111454 0.000000
39.261501 64.210999 -783.784119 0.506930 0.358874 0.783729 0.000000
39.635201 63.909302 -785.928711 -0.561808 0.695175 -0.448446 0.000000
38.725800 63.789799 -787.682129 -0.251254 0.949333 -0.188780 0.000000
36.470100 64.533699 -788.754089 0.681267 0.632019 -0.369362 0.000000
36.585899 64.388100 -789.711670 0.635026 0.268971 0.724152 0.000000
35.139500 64.892700 -787.880798 -0.009739 0.994429 0.104961 0.000000
37.112301 65.494202 -787.354187 0.674427 0.577363 -0.460217 0.000000
35.591099 64.566597 -790.310486 -0.521226 0.852031 -0.048648 0.000000
36.398399 64.672501 -790.866089 0.172615 0.954066 0.244872 0.000000
35.000599 64.653297 -791.718201 -0.503946 0.784095 -0.362262 0.000000
51.616199 64.074799 -753.461792 0.568377 0.728898 -0.381648 0.000000
52.901901 63.546001 -756.733826 -0.237573 0.954319 -0.181200 0.000000
54.665298 60.995201 -762.075623 -0.505898 0.696236 -0.509237 0.000000
83.887398 64.604401 -768.045410 -0.633391 0.095082 -0.767968 0.000000
86.246101 64.527496 -769.174988 0.252163 0.868225 0.427317 0.000000
89.812599 64.297699 -769.479126 -0.270748 0.596911 -0.755243 0.000000
90.901497 64.474899 -769.973816 -0.308500 0.702605 -0.641228 0.000000
88.492203 63.784698 -769.002014 -0.580861 0.248940 -0.775003 0.000000
93.283600 64.506104 -771.473511 0.251559 0.795302 -0.551555 0.000000
49.293201 54.178398 -757.975220 0.750767 0.534860 0.387651 0.000000
84.112900 61.107601 -767.483093 0.475884 0.382320 0.792064 0.000000
79.567001 60.019501 -765.519592 -0.666405 0.515331 -0.538831 0.000000
80.446297 60.124298 -766.108276 -0.656249 0.682174 -0.322453 0.000000
81.153297 60.166801 -766.790771 0.408302 0.149379 0.900542 0.000000
81.130798 59.332199 -769.707092 0.741741 0.076932 0.666260 0.000000
81.310699 59.533199 -768.084106 0.020878 0.789180 0.613807 0.000000
57.265202 53.576698 -761.028687 0.733060 0.583522 -0.349463 0.000000
49.178299 50.429901 -757.223816 0.489002 0.626797 0.606632 0.000000
64.578499 52.263000 -759.913574 0.315224 0.687027 0.654696 0.000000
62.821098 51.255402 -759.285400 0.356285 0.933129 0.048288 0.000000
48.866100 47.723000 -755.154419 -0.945536 0.090993 -0.312541 0.000000
52.695599 47.680500 -758.712830 -0.097901 0.995149 -0.009683 0.000000
53.952000 48.338799 -756.838501 -0.059656 0.996803 -0.053148 0.000000
51.148201 46.777000 -759.794312 -0.795095 0.234034 -0.559511 0.000000
47.906300 45.287102 -754.510071 -0.243577 0.948452 -0.202754 0.000000
48.485401 45.042301 -756.359924 0.441684 0.353031 0.824794 0.000000
52.790699 44.142799 -756.493103 -0.076865 0.720787 0.688881 0.000000
39.278198 43.696899 -738.706726 0.499326 0.827057 0.258166 0.000000
46.123001 42.682201 -751.495789 -0.041628 0.954923 0.293920 0.000000
38.575199 42.240101 -737.723022 0.956910 0.049169 -0.286191 0.000000
47.850101 40.684898 -751.097778 0.484061 0.852727 0.196322 0.000000
54.861801 35.929901 -772.365479 -0.807569 0.573448 -0.137805 0.000000
54.314602 35.182400 -772.344788 0.284220 0.955544 0.078450 0.000000
46.952599 37.557098 -751.623718 -0.247912 0.946448 -0.206822 0.000000
42.582100 36.717999 -742.051514 -0.183829 0.982372 0.033956 0.000000
47.442001 35.163700 -749.692017 -0.307492 0.910816 -0.275431 0.000000
45.771198 29.619499 -747.858521 0.491753 0.656230 0.572313 0.000000
45.833698 18.031900 -743.809387 -0.080923 0.956952 -0.278736 0.000000
47.744301 18.476400 -744.349426 -0.786315 0.214731 -0.579309 0.000000
48.102699 18.373301 -745.191528 -0.990461 0.058397 -0.124809 0.000000
48.731998 18.163700 -746.040771 -0.929344 0.224910 0.292807 0.000000
44.659801 17.533501 -743.257629 -0.040687 0.995194 -0.089073 0.000000
46.597301 17.765699 -743.300415 -0.580154 0.797147 -0.167265 0.000000
48.969398 13.817500 -743.561096 -0.653686 0.152476 -0.741246 0.000000
43.078201 8.248400 -738.180725 -0.669709 0.340558 -0.659932 0.000000
48.039398 9.126300 -740.691711 -0.376830 0.800162 0.466627 0.000000
46.833698 8.747000 -739.908325 0.711490 0.514872 0.478214 0.000000
48.078999 8.133700 -742.230530 0.606538 0.281778 0.743447 0.000000
43.063801 4.876900 -735.780029 0.408615 0.520204 0.749948 0.000000
47.266499 4.652700 -740.632690 0.294206 0.955230 -0.031298 0.000000
46.361500 4.310900 -739.858215 -0.327084 0.874759 -0.357510 0.000000
41.147301 3.233100 -735.344727 -0.295497 0.918204 -0.263785 0.000000
47.410400 2.201300 -738.225830 -0.299477 0.915793 -0.267649 0.000000
90.292801 65.447601 -771.371399 -0.865014 0.501084 -0.025801 0.000000
78.013199 60.798100 -766.557312 -0.451155 0.886849 0.099788 0.000000
76.379501 60.401100 -764.269287 -0.828442 0.391253 -0.400757 0.000000
75.201103 59.083199 -764.999878 -0.934461 0.273193 0.228361 0.000000
68.065697 53.942902 -762.593994 -0.902778 0.344964 0.256888 0.000000
67.323799 56.569401 -761.629822 -0.623434 0.769948 -0.136049 0.000000
64.964500 53.671001 -759.534973 -0.861683 0.494644 -0.113266 0.000000
64.497498 53.264702 -760.421204 0.234517 0.876824 -0.419740 0.000000
60.889301 50.619598 -759.606873 -0.929109 0.360650 -0.081783 0.000000
49.933102 31.067900 -760.338074 -0.157490 0.964462 -0.212156 0.000000
50.696301 45.088902 -758.142273 0.924682 0.294930 0.240788 0.000000
51.034100 44.995800 -759.538391 -0.672407 0.508078 -0.538261 0.000000
50.939400 46.942001 -758.390991 -0.212009 0.099105 0.972230 0.000000
51.469398 48.276299 -758.461609 0.388954 0.506129 -0.769771 0.000000
50.250500 45.833500 -759.945923 0.171658 0.462156 -0.870026 0.000000
51.933498 51.762001 -755.451416 -0.568125 0.665326 -0.484330 0.000000
51.560398 49.046600 -758.948486 -0.933913 0.179012 0.309454 0.000000
52.666302 49.330399 -761.487122 -0.827286 0.495130 -0.265414 0.000000
52.380901 53.583698 -754.585205 0.852314 0.519226 0.062979 0.000000
52.500198 50.053600 -760.767822 -0.877621 0.421675 -0.227973 0.000000
49.821301 46.466099 -760.452820 -0.629477 0.707150 -0.322020 0.000000
52.085899 53.611198 -755.487000 -0.705763 0.562950 -0.430100 0.000000
50.165699 47.857201 -759.838318 0.349318 0.934590 0.067227 0.000000
52.283298 55.191299 -755.716919 -0.777972 0.488872 -0.394670 0.000000
52.433498 57.291698 -755.549622 -0.848252 0.347083 -0.400002 0.000000
55.070099 41.868500 -756.339172 -0.473784 0.805593 -0.355737 0.000000
67.697998 54.788898 -759.068726 -0.848149 0.469156 -0.246040 0.000000
77.865997 63.641899 -766.984985 0.619590 0.761035 -0.192181 0.000000
44.373199 1.658900 -739.520325 -0.730904 0.625807 0.272298 0.000000
43.976898 2.466700 -738.347473 0.744573 0.162259 0.647521 0.000000
45.757000 1.680700 -740.417175 -0.026681 0.756901 -0.652985 0.000000
44.821602 2.246600 -740.068787 0.757414 0.641801 -0.120060 0.000000
44.355099 2.607100 -739.302124 -0.215369 0.596525 -0.773158 0.000000
45.639500 2.054000 -741.808472 0.170815 0.985297 0.003394 0.000000
45.843498 2.607400 -740.642822 0.586239 0.755561 -0.292321 0.000000
45.836201 3.156500 -736.607788 0.455053 0.879960 -0.136372 0.000000
45.721001 3.346500 -735.671326 0.557388 0.825279 -0.090738 0.000000
45.368801 3.304200 -741.214478 -0.254123 0.957240 0.138253 0.000000
45.055901 3.587800 -740.395386 0.554421 0.771716 -0.311562 0.000000
44.678200 4.343300 -740.039124 0.435424 0.883954 -0.170383 0.000000
45.773800 4.151800 -737.059814 0.477556 0.870501 -0.119031 0.000000
45.585800 4.232900 -741.083801 0.219160 0.928957 -0.298341 0.000000
44.423698 5.185800 -738.796021 -0.915479 0.244417 0.319622 0.000000
45.122200 5.075400 -736.844727 0.584701 0.332032 0.740189 0.000000
44.751400 5.327500 -740.761414 0.311013 0.950386 -0.006195 0.000000
45.510799 5.460000 -741.297485 -0.166093 0.983413 -0.072890 0.000000
44.586601 6.102600 -740.289612 -0.387941 0.609151 -0.691691 0.000000
44.553398 6.250600 -739.364075 -0.942371 0.304209 0.139260 0.000000
45.255501 6.764900 -741.686096 0.219533 0.975570 -0.008218 0.000000
46.140900 6.841900 -737.757874 0.647613 0.761815 -0.015320 0.000000
46.387402 6.872200 -736.601013 0.470583 0.873940 -0.121579 0.000000
45.930801 6.849300 -743.065125 0.043312 0.998297 0.039087 0.000000
44.977299 7.615100 -741.272705 -0.860896 0.293104 -0.415870 0.000000
45.398701 8.489900 -742.617004 -0.935055 0.273367 0.225703 0.000000
44.883202 8.955000 -741.297974 -0.886148 0.230072 -0.402255 0.000000
44.945702 9.599200 -740.530823 -0.990760 0.014488 0.134850 0.000000
46.779701 8.652000 -743.467773 0.844770 0.525283 -0.102178 0.000000
45.474998 9.412200 -742.966492 0.946065 0.256026 -0.198523 0.000000
45.288700 10.134400 -742.440613 -0.613565 0.532433 -0.583141 0.000000
44.910801 10.495800 -741.346008 -0.906152 0.418537 0.060952 0.000000
46.301998 10.364700 -739.257080 -0.883693 0.467837 -0.014662 0.000000
45.819302 10.336400 -743.478699 0.465346 0.804362 -0.369399 0.000000
46.421200 10.942300 -738.379517 -0.918342 0.345980 -0.192211 0.000000
45.404499 11.075100 -742.927002 0.449340 0.882889 -0.136381 0.000000
45.089699 11.365500 -742.082275 0.853363 0.518163 -0.057263 0.000000
46.477600 10.614700 -744.925720 0.193122 0.973185 -0.124961 0.000000
45.921501 11.527300 -743.932617 -0.194772 0.973862 -0.116863 0.000000
45.296902 12.016900 -742.830322 0.502760 0.858822 -0.098273 0.000000
46.165100 11.785100 -744.814514 -0.854291 0.176801 0.488803 0.000000
46.103802 12.685000 -739.143921 0.523920 0.843207 -0.120458 0.000000
46.410999 12.294700 -744.099487 0.362587 0.914287 -0.180582 0.000000
45.688202 12.729400 -743.675171 0.751644 0.515834 0.411030 0.000000
45.318699 13.048800 -742.829407 0.991131 0.065312 0.115727 0.000000
46.419201 12.604600 -745.189575 -0.774054 0.590275 -0.228946 0.000000
46.159000 13.277100 -744.531799 -0.792127 0.586929 -0.167478 0.000000
45.588200 13.673300 -743.852112 -0.391098 0.678234 -0.622127 0.000000
46.030998 13.575100 -745.803284 -0.538508 0.831973 -0.133527 0.000000
45.365601 14.326700 -743.173706 0.942774 0.307982 -0.127765 0.000000
46.195301 14.419300 -739.927185 -0.911467 0.406447 -0.063465 0.000000
45.836399 14.229800 -745.026672 -0.531608 0.260347 0.805986 0.000000
45.693802 14.838600 -744.314209 -0.845517 0.180437 -0.502538 0.000000
45.426399 15.465700 -743.694275 0.426300 0.893947 -0.138298 0.000000
47.388802 14.855000 -741.356689 -0.630025 0.688937 0.358378 0.000000
46.641399 14.834200 -745.872925 -0.450958 0.837939 -0.307400 0.000000
