ply
format ascii 1.0
element vertex 684
property float x
property float y
property float z
property float nx
property float ny
property float nz
property float label
element face 0
property list uchar int vertex_indices
end_header
25.599199 109.509201 -864.302185 0.084727 0.990024 0.112582 1.000000
24.926800 109.523399 -865.689270 -0.079237 0.994373 -0.070309 1.000000
30.209801 108.972900 -853.616882 -0.445258 0.894552 0.039011 1.000000
29.509800 108.312599 -854.796509 -0.436416 0.880179 -0.186616 1.000000
28.659401 106.910202 -855.994995 0.363108 0.750640 -0.551989 1.000000
27.987801 106.107399 -857.060730 0.044552 0.976531 -0.210719 1.000000
26.908199 106.126999 -859.286072 0.847185 0.530352 -0.031683 1.000000
23.910101 109.724197 -866.851807 -0.044552 0.976531 0.210719 1.000000
23.278700 110.543503 -868.469177 -0.012228 0.843710 0.536659 1.000000
22.638500 111.496300 -870.157288 0.447263 0.833322 0.324854 1.000000
20.745800 113.708000 -874.910278 0.154298 0.958757 0.238700 1.000000
21.726999 112.201797 -871.191101 0.338857 0.908950 0.242871 1.000000
21.155500 112.772102 -872.588989 0.378949 0.822907 0.423345 1.000000
19.809500 114.349503 -875.972412 0.294532 0.949634 0.106982 1.000000
30.376101 109.214104 -851.024902 -0.335805 0.938936 0.075062 1.000000
26.618401 106.334602 -857.638489 0.361536 0.931701 0.034987 1.000000
25.938700 107.412697 -859.458191 0.688324 0.490703 0.534247 1.000000
25.410400 108.711304 -861.052124 0.028707 0.986388 0.161910 1.000000
24.876101 109.257401 -862.364990 -0.037464 0.972845 0.228407 1.000000
24.149900 109.433899 -863.928711 -0.139120 0.987870 0.068976 1.000000
23.475700 109.421501 -865.311890 0.078441 0.992443 0.094356 1.000000
29.247400 108.730698 -851.887512 -0.344245 0.938735 -0.016514 1.000000
28.516399 108.246902 -853.205078 -0.515891 0.819539 -0.249425 1.000000
27.834999 107.353500 -854.260925 0.930586 0.358122 -0.075885 1.000000
27.149200 106.628304 -855.391174 -0.323987 0.943103 -0.074766 1.000000
22.471001 109.924599 -866.312012 0.101390 0.992255 0.071770 1.000000
21.975599 110.631401 -867.607788 0.110606 0.897450 0.427024 1.000000
21.483400 111.320900 -868.890015 -0.170489 0.932836 0.317414 1.000000
19.801100 113.252403 -873.107971 -0.029470 0.939198 0.342109 1.000000
19.285900 113.884903 -874.415588 0.092697 0.966338 0.239997 1.000000
25.415100 107.276199 -857.917725 0.671289 0.730827 0.123541 1.000000
24.828501 108.433502 -859.577820 -0.175342 0.947393 0.267771 1.000000
20.571100 112.149200 -869.802124 0.440522 0.808959 0.389262 1.000000
20.084700 112.798798 -871.057678 -0.177528 0.977023 0.117938 1.000000
18.275801 114.407700 -875.413513 0.327408 0.944876 0.003735 1.000000
29.363001 108.954002 -849.177490 -0.233710 0.964538 0.122665 1.000000
25.770700 107.003899 -855.836914 -0.853354 0.456445 0.251884 1.000000
23.825300 109.010902 -860.634277 -0.298688 0.896065 0.328409 1.000000
23.177299 109.217697 -862.052917 -0.207007 0.917969 0.338350 1.000000
22.508699 109.246101 -863.444519 -0.238641 0.968306 0.073716 1.000000
21.909000 109.506401 -864.783875 -0.393754 0.839277 0.374929 1.000000
28.337500 108.804001 -850.281372 -0.211170 0.974348 -0.077800 1.000000
27.639200 108.276001 -851.519714 -0.332705 0.940253 -0.072327 1.000000
26.934401 107.421997 -852.645386 -0.868447 0.439473 0.229486 1.000000
26.222500 106.888496 -853.909729 -0.378658 0.925465 -0.011552 1.000000
20.952200 109.893097 -865.963928 0.689664 0.713497 -0.123633 1.000000
20.399300 110.442101 -867.318970 0.188204 0.906539 0.377844 1.000000
19.976299 111.346603 -868.543396 -0.043359 0.821016 0.569256 1.000000
18.816900 113.341904 -871.711975 0.306053 0.944887 0.116273 1.000000
18.248400 113.866798 -873.089722 -0.432165 0.655755 0.619047 1.000000
10.143900 97.177803 -883.373474 0.669946 0.653566 -0.352172 1.000000
9.440700 96.905602 -884.721313 0.324784 0.830003 -0.453442 1.000000
8.739600 96.661201 -886.075073 -0.137640 0.990340 -0.016785 1.000000
24.234400 108.198898 -857.900818 0.502799 0.820356 0.272414 1.000000
7.795300 96.221001 -887.238220 -0.454185 0.835014 -0.310594 1.000000
24.586399 107.704903 -856.533997 0.385780 0.922518 0.011612 1.000000
19.182100 112.745399 -869.612610 0.663938 0.716804 0.213020 1.000000
17.239700 114.230301 -874.188721 -0.171260 0.985032 -0.019540 1.000000
23.338699 108.704803 -859.010620 -0.040056 0.936793 0.347583 1.000000
10.295000 97.436203 -881.711426 0.356290 0.901722 -0.244858 1.000000
24.920000 107.229797 -854.571472 -0.170921 0.976869 -0.128503 1.000000
22.321699 108.995903 -860.610229 -0.011317 0.998957 0.044238 1.000000
21.650900 109.004700 -862.001404 -0.045357 0.994535 0.094033 1.000000
20.989100 109.374603 -863.509521 -0.017806 0.998181 0.057607 1.000000
27.497299 108.842201 -849.045898 0.047994 0.937836 -0.343744 1.000000
26.813101 108.343399 -850.278320 -0.124735 0.965730 -0.227609 1.000000
20.125700 109.809700 -864.692200 -0.422467 0.897212 0.128577 1.000000
18.989201 110.956100 -867.476929 -0.805549 0.446815 0.389162 1.000000
18.006500 113.260101 -870.375305 0.032030 0.939124 0.342082 1.000000
8.809600 96.502296 -883.183716 0.077759 0.973837 -0.213528 1.000000
8.129000 95.919601 -884.377319 -0.098511 0.963358 -0.249475 1.000000
7.421100 95.642998 -885.741577 0.871738 0.280472 -0.401757 1.000000
25.809700 107.585503 -851.209412 -0.330675 0.873164 -0.358104 1.000000
25.112101 107.233398 -852.529480 0.107685 0.993589 0.034415 1.000000
19.246599 110.267403 -865.864014 -0.901146 0.131153 0.413201 1.000000
18.357800 112.063301 -868.382874 0.273925 0.574768 0.771107 1.000000
17.153799 113.727402 -871.508301 -0.409292 0.820177 0.399737 1.000000
16.514900 113.777397 -872.856323 0.659958 0.555843 -0.505464 1.000000
10.661600 98.029999 -879.160522 0.603619 0.735610 -0.307443 1.000000
23.636299 107.871498 -854.983521 0.732475 0.670073 -0.120346 1.000000
23.046101 108.274300 -856.366272 0.109244 0.994010 0.003245 1.000000
22.440599 108.552299 -857.734497 0.035833 0.985978 0.162981 1.000000
21.828400 108.743599 -859.084473 -0.091495 0.971350 0.219337 1.000000
9.685900 97.841904 -880.387329 -0.800942 0.598277 0.023598 1.000000
6.212200 95.279198 -886.688416 0.654042 0.711053 -0.258133 1.000000
23.965000 107.635002 -853.403992 0.443367 0.896054 0.022634 1.000000
20.855801 108.734596 -860.317078 -0.207376 0.956605 0.204700 1.000000
20.155199 109.084396 -861.912476 0.267885 0.943778 0.193701 1.000000
8.744400 97.046501 -881.323120 -0.294678 0.865711 -0.404609 1.000000
19.360399 109.452797 -863.133789 -0.221459 0.949691 0.221459 1.000000
17.170099 112.787102 -868.941406 -0.057650 0.951861 0.301060 1.000000
7.514400 95.813797 -882.893677 -0.673447 0.738392 -0.035296 1.000000
6.796400 95.229897 -884.180908 -0.803173 0.588219 0.094405 1.000000
18.643600 109.899498 -864.408020 0.005744 0.982292 0.187267 1.000000
17.919100 110.835403 -866.263428 0.682967 0.721486 0.114075 1.000000
16.475599 113.277901 -870.170593 -0.042075 0.947332 0.317477 1.000000
24.992100 107.726601 -849.863586 -0.393450 0.878855 -0.269837 1.000000
24.318800 107.439697 -851.172974 0.190304 0.980247 0.053860 1.000000
17.363899 111.751801 -867.300171 0.441098 0.755934 0.483732 1.000000
10.113600 98.597801 -877.761780 -0.918156 0.046372 0.393496 1.000000
5.882000 94.782097 -885.307800 -0.557722 0.828896 -0.043332 1.000000
22.133499 108.026703 -855.023682 -0.063220 0.994888 0.078748 1.000000
21.517500 108.282700 -856.414795 -0.068000 0.990034 0.123322 1.000000
20.866400 108.435898 -857.844971 0.066434 0.979604 0.189640 1.000000
10.865800 99.456200 -875.913025 0.236439 0.808221 -0.539329 1.000000
9.163100 98.278297 -878.873230 -0.111700 0.952732 -0.282534 1.000000
23.146099 107.734703 -852.081482 0.227781 0.973677 -0.008262 1.000000
22.502501 107.906403 -853.506592 0.097018 0.978774 0.180527 1.000000
19.999001 108.572197 -859.049072 -0.067154 0.986100 0.151980 1.000000
19.365801 108.844597 -860.486206 0.159785 0.987042 -0.014732 1.000000
18.642700 109.285599 -861.815674 0.124681 0.978930 -0.161715 1.000000
17.462700 110.757896 -864.819519 0.331946 0.940732 0.069538 1.000000
11.206700 100.186996 -874.582214 0.381231 0.744464 -0.548122 1.000000
8.273400 97.589600 -879.950684 -0.259157 0.930417 -0.259157 1.000000
7.421100 96.248001 -881.313721 -0.590642 0.778784 -0.211274 1.000000
18.011801 110.115303 -863.027527 0.672448 0.721242 0.166206 1.000000
16.678301 111.546501 -865.815796 0.691925 0.704091 0.159675 1.000000
6.230100 95.073700 -882.676392 -0.008955 0.999920 0.008955 1.000000
4.706800 93.702202 -885.474609 0.658700 0.251159 -0.709248 1.000000
4.026000 93.067596 -886.718384 -0.856895 0.472718 0.205595 1.000000
9.477800 99.294197 -876.582581 -0.642027 0.757681 -0.117137 1.000000
5.366700 94.750603 -883.885498 -0.217994 0.966141 -0.138020 1.000000
22.618500 107.857697 -850.592285 -0.943547 0.006249 0.331179 1.000000
21.061899 107.953102 -853.958191 0.095566 0.995395 0.007516 1.000000
20.416800 108.045502 -855.370300 0.001185 0.970628 0.240583 1.000000
19.768400 108.169502 -856.799988 -0.133462 0.976644 0.168387 1.000000
10.977500 100.881302 -873.255615 -0.118006 0.970691 -0.209365 1.000000
2.959100 92.536003 -887.711426 -0.124925 0.988890 0.080559 1.000000
21.683001 107.937500 -851.883118 -0.168033 0.977080 0.130692 1.000000
18.890400 108.365402 -858.009705 0.390753 0.918870 0.054679 1.000000
18.309999 108.779503 -859.388489 0.311845 0.924142 0.220712 1.000000
16.701401 110.710800 -863.464111 -0.373783 0.749197 0.546800 1.000000
9.756600 100.233704 -874.957886 0.797107 0.197364 -0.570673 1.000000
8.372400 98.692497 -877.426208 0.174978 0.911879 -0.371295 1.000000
7.711500 97.930801 -878.596313 -0.199973 0.872476 -0.445866 1.000000
6.984300 96.784698 -879.783875 -0.741434 0.450805 -0.497042 1.000000
6.109400 95.513603 -881.247681 -0.759481 0.035226 0.649575 1.000000
17.494801 109.358704 -860.541870 -0.048869 0.961081 0.271910 1.000000
16.979799 109.981796 -861.847412 0.874996 0.474837 -0.094404 1.000000
1.791700 91.959801 -888.621216 0.790591 0.231430 -0.566927 1.000000
4.748600 94.885696 -882.492676 -0.206201 0.973517 -0.098726 1.000000
3.920200 94.236801 -884.064514 -0.247762 0.967628 -0.048073 1.000000
3.218900 93.664398 -885.387817 -0.033434 0.897377 -0.439996 1.000000
21.844299 108.030296 -849.182373 -0.015282 0.999447 0.029545 1.000000
20.283600 107.881798 -852.494812 -0.128059 0.988051 0.085764 1.000000
19.557600 107.825699 -854.039612 -0.140758 0.989813 0.021395 1.000000
18.899900 107.825203 -855.455383 -0.224308 0.961506 0.158721 1.000000
10.366300 101.158302 -871.700195 -0.507239 0.776254 -0.374352 1.000000
9.492100 100.866402 -873.489014 0.644775 0.550500 -0.530298 1.000000
8.399600 99.894501 -875.530884 0.309542 0.824922 -0.472955 1.000000
0.662400 91.613098 -889.546997 -0.779708 0.600360 0.177828 1.000000
20.899799 108.003601 -850.395081 0.105707 0.992284 -0.064788 1.000000
17.997700 108.082100 -856.675171 -0.307992 0.947567 0.085189 1.000000
6.968000 98.130798 -877.296021 -0.535108 0.834183 -0.133411 1.000000
6.303000 97.073502 -878.394226 0.497852 0.362513 -0.787863 1.000000
5.646300 96.116402 -879.506409 -0.810194 0.555778 -0.186269 1.000000
2.044400 93.367104 -886.398926 0.365068 0.705581 -0.607356 1.000000
4.709200 95.369698 -880.450012 -0.219160 0.928957 -0.298341 1.000000
1.080400 92.612801 -887.405212 -0.464687 0.885182 0.022766 1.000000
10.978400 103.891602 -868.705872 0.829200 0.377483 -0.412231 1.000000
8.053600 100.621696 -873.987976 -0.069278 0.963599 -0.258219 1.000000
7.015400 99.238800 -875.793213 -0.181874 0.756535 -0.628153 1.000000
3.278600 94.542503 -882.379028 -0.082842 0.983294 -0.162081 1.000000
2.394000 94.031601 -884.126587 0.071801 0.943859 -0.322452 1.000000
-0.735600 91.472900 -890.073181 -0.543688 0.839260 -0.006779 1.000000
20.808001 108.098503 -848.012512 -0.349327 0.935464 0.053642 1.000000
19.444000 107.797699 -850.857483 -0.007675 0.992266 -0.123896 1.000000
18.785700 107.696098 -852.244385 0.148066 0.988252 -0.037877 1.000000
18.129400 107.618698 -853.634277 -0.040128 0.999075 0.015434 1.000000
17.474701 107.560501 -855.026794 -0.177679 0.979070 0.099255 1.000000
16.818100 107.154701 -856.315125 0.178081 0.965796 -0.188480 1.000000
15.213700 106.465302 -859.557312 -0.831527 0.291737 0.472707 1.000000
9.805700 101.815002 -869.761108 -0.733626 0.591111 0.335233 1.000000
8.893500 101.398598 -871.596924 0.064776 0.995795 -0.064776 1.000000
-0.158400 92.205101 -888.236877 0.261433 0.899508 -0.350055 1.000000
-1.673100 90.944099 -891.107910 0.043883 0.779978 -0.624266 1.000000
15.921900 106.833801 -857.515625 -0.388539 0.920640 0.038195 1.000000
5.525800 97.704697 -877.098083 -0.482026 0.791554 -0.375625 1.000000
4.892100 96.597198 -878.121521 -0.319414 0.879525 -0.352718 1.000000
1.236500 93.640800 -885.085510 -0.120008 0.990923 -0.060575 1.000000
19.730000 107.877296 -849.064087 -0.381063 0.922784 0.057093 1.000000
10.642300 103.053497 -867.190186 -0.549074 0.809081 -0.209535 1.000000
4.072100 95.918602 -879.177124 0.242131 0.825096 -0.510480 1.000000
3.231500 95.343300 -880.814270 0.520533 0.574440 -0.631715 1.000000
14.002400 105.623398 -860.054871 -0.892898 0.053003 0.447129 1.000000
13.352000 105.317299 -861.367126 0.052323 0.910948 -0.409189 1.000000
12.057100 104.433296 -863.896179 -0.063891 0.903984 -0.422766 1.000000
11.385100 103.950203 -865.201172 -0.087944 0.988487 -0.123121 1.000000
9.756300 102.473297 -868.271301 -0.083523 0.994482 -0.063478 1.000000
7.630200 101.184097 -872.472717 0.175381 0.924611 -0.338135 1.000000
6.677600 100.052200 -874.186523 -0.184039 0.925815 -0.330146 1.000000
0.195800 93.182800 -886.101624 0.090892 0.921131 -0.378491 1.000000
14.565800 106.406303 -858.140686 -0.108830 0.974467 -0.196394 1.000000
12.381100 104.762802 -862.368530 -0.236009 0.942656 -0.236009 1.000000
8.344500 101.799301 -870.202576 0.212562 0.909534 -0.357162 1.000000
5.771700 99.063499 -874.938599 -0.341434 0.900144 -0.270487 1.000000
1.795700 94.729103 -882.225830 0.909903 0.172298 -0.377346 1.000000
-1.611100 91.999901 -888.768188 -0.267635 0.930350 -0.250642 1.000000
-3.117900 90.727898 -891.642212 0.803064 0.298191 -0.515917 1.000000
19.844900 108.070702 -846.074829 0.060146 0.996241 -0.062333 1.000000
19.167801 107.815399 -847.464111 -0.325964 0.944655 -0.037070 1.000000
18.264799 107.569702 -849.344971 -0.439426 0.883203 -0.163878 1.000000
17.600401 107.423798 -850.739685 -0.203509 0.952852 0.225072 1.000000
16.983299 107.520897 -852.105530 -0.061304 0.964604 0.256477 1.000000
16.343399 107.518501 -853.490417 -0.112729 0.991791 -0.060350 1.000000
15.666600 107.117996 -854.834778 -0.590217 0.805355 -0.055200 1.000000
14.987800 106.871498 -856.230225 -0.478486 0.874184 0.082788 1.000000
10.074500 103.483704 -865.844116 -0.422288 0.903340 -0.075164 1.000000
4.754700 98.378899 -875.818420 -0.257892 0.886971 -0.383112 1.000000
4.078900 97.190399 -876.921875 -0.192789 0.735681 -0.649312 1.000000
0.754700 94.077003 -883.177917 -0.345322 0.924120 -0.163573 1.000000
-1.105100 92.840103 -886.830688 0.484006 0.346632 -0.803483 1.000000
-2.615800 91.223801 -889.612671 0.154108 0.911924 -0.380322 1.000000
-4.147500 90.540901 -892.722900 -0.726789 0.610761 0.314244 1.000000
13.250300 105.781303 -858.455688 -0.811623 0.569171 0.131575 1.000000
12.573700 105.243698 -859.759827 -0.143902 0.989186 -0.028327 1.000000
10.571900 104.115700 -863.758179 -0.367570 0.843066 -0.392597 1.000000
9.002800 102.755096 -866.747925 -0.467048 0.860980 -0.201443 1.000000
8.298500 102.192902 -868.104614 -0.267714 0.958338 -0.099584 1.000000
6.942000 101.585503 -870.861511 -0.099163 0.895263 -0.434363 1.000000
6.263200 100.736504 -872.075989 -0.235102 0.786270 -0.571408 1.000000
3.019900 96.852402 -877.931213 0.182644 0.918881 -0.349713 1.000000
2.320600 96.116203 -879.224121 -0.111700 0.952732 -0.282534 1.000000
1.677000 95.268898 -880.362793 -0.257273 0.938700 -0.229460 1.000000
-0.318200 93.773003 -884.235474 -0.249019 0.968408 0.013233 1.000000
13.640700 106.218300 -856.570984 -0.360410 0.930728 0.062049 1.000000
11.524600 104.842201 -860.746582 -0.026384 0.951081 -0.307813 1.000000
10.866200 104.547501 -862.086182 -0.372769 0.924521 0.079398 1.000000
7.213000 101.949898 -869.227905 0.063688 0.944922 -0.321039 1.000000
5.248700 99.957397 -872.887329 -0.145453 0.960515 -0.237180 1.000000
4.623000 99.024002 -873.962524 -0.133057 0.885614 -0.444953 1.000000
-1.389500 93.440002 -885.319214 -0.406139 0.879718 -0.247280 1.000000
-2.472500 92.327698 -887.332703 -0.319185 0.845451 -0.428175 1.000000
-3.957800 90.670303 -890.054077 -0.263001 0.962659 0.064177 1.000000
-5.519600 90.518799 -893.397827 -0.781948 0.493776 0.380451 1.000000
18.699499 107.815697 -845.062317 -0.369854 0.929082 -0.003813 1.000000
18.037201 107.632301 -846.445923 -0.327237 0.942600 -0.066490 1.000000
17.361700 107.400002 -847.843689 -0.333638 0.941197 -0.053226 1.000000
16.722900 107.369598 -849.222717 0.346120 0.934922 -0.078242 1.000000
16.056801 107.219398 -850.624512 -0.033076 0.997601 -0.060816 1.000000
15.383300 107.050697 -852.037109 -0.460409 0.883034 0.090962 1.000000
14.705500 106.766701 -853.424011 -0.402617 0.912327 0.074559 1.000000
14.060900 106.485703 -854.739685 -0.439664 0.896914 0.047348 1.000000
9.246800 103.597801 -864.327026 0.086298 0.957008 -0.276927 1.000000
3.417600 97.964699 -875.289307 0.784992 0.161217 -0.598161 1.000000
0.354000 94.793297 -880.987122 -0.014240 0.993513 -0.112825 1.000000
-3.452200 91.572998 -888.283325 -0.592751 0.032078 0.804747 1.000000
-4.941200 90.626404 -891.232788 -0.015162 0.999660 0.021226 1.000000
2.557400 97.418198 -876.385498 0.478017 0.353317 -0.804156 1.000000
-0.505900 94.364700 -882.131226 0.091150 0.972678 -0.213515 1.000000
-6.659800 90.503502 -894.357483 -0.065657 0.969985 -0.234134 1.000000
12.339900 105.571503 -857.112183 -0.286739 0.860216 -0.421674 1.000000
11.675200 105.120697 -858.426697 -0.183571 0.981807 -0.048557 1.000000
8.216100 103.097000 -865.363098 -0.201139 0.917252 -0.343791 1.000000
7.543000 102.426102 -866.630188 -0.066512 0.993174 -0.095823 1.000000
5.574600 101.057297 -870.512573 -0.138394 0.981003 -0.135944 1.000000
1.507800 96.616096 -878.052795 -0.271813 0.926442 -0.260428 1.000000
9.480200 104.004204 -862.338196 -0.561919 0.820373 0.105995 1.000000
6.709700 102.131302 -867.832214 -0.107867 0.982925 -0.149075 1.000000
0.721200 95.753304 -879.019409 -0.119413 0.943228 -0.309937 1.000000
-1.490400 94.005501 -883.330627 0.181102 0.893918 -0.410014 1.000000
-2.740800 92.752899 -885.689819 -0.165469 0.942218 -0.291281 1.000000
12.676000 105.950104 -855.159973 -0.144532 0.979604 0.139591 1.000000
10.554100 104.748299 -859.437927 -0.147743 0.988388 -0.035504 1.000000
9.890000 104.350098 -860.770081 -0.340904 0.928861 -0.144919 1.000000
5.797400 101.610199 -868.896973 -0.630753 0.772204 0.076499 1.000000
4.499100 100.279602 -871.339478 -0.393087 0.852983 -0.343369 1.000000
3.830900 99.528198 -872.577393 -0.337875 0.834474 -0.435309 1.000000
3.147300 98.707603 -873.828308 -0.144621 0.892068 -0.428135 1.000000
-4.727300 90.898399 -888.720825 0.524606 0.558342 -0.642684 1.000000
-6.275100 90.533096 -891.991089 -0.287355 0.937027 0.198511 1.000000
16.562799 107.369797 -846.271179 -0.201012 0.978895 0.036872 1.000000
15.841700 107.278000 -847.817383 -0.304081 0.950736 -0.060303 1.000000
15.193800 107.011101 -849.153015 -0.463356 0.876504 0.130543 1.000000
14.513500 106.789398 -850.572327 -0.222446 0.957715 -0.182485 1.000000
13.872000 106.593399 -851.914612 -0.272083 0.959318 -0.075366 1.000000
13.198600 106.235397 -853.279297 -0.510580 0.856593 0.074547 1.000000
8.311900 103.437798 -863.123474 -0.235168 0.916144 -0.324618 1.000000
-0.424700 95.164001 -879.769470 -0.181070 0.946193 -0.268202 1.000000
-2.657200 93.373497 -884.117371 -0.173006 0.907926 -0.381758 1.000000
-3.944000 92.194000 -886.580688 -0.171470 0.874939 -0.452858 1.000000
-5.672000 90.727501 -889.922424 0.751106 0.556435 -0.355275 1.000000
2.017900 98.232002 -874.746277 -0.181618 0.910950 -0.370386 1.000000
1.054200 97.141502 -876.536804 -0.304514 0.812563 -0.497004 1.000000
-8.124300 90.634102 -894.714417 0.290036 0.945652 -0.147041 1.000000
11.397800 105.624397 -855.927979 0.242481 0.946633 -0.212342 1.000000
10.751500 105.310204 -857.255005 -0.034416 0.979076 -0.200562 1.000000
6.747900 102.713402 -865.288208 -0.107539 0.970377 -0.216342 1.000000
-1.417300 94.639503 -880.872925 -0.124429 0.979418 -0.158924 1.000000
-7.463500 90.604202 -892.971802 -0.128215 0.991746 0.001096 1.000000
5.936000 102.106499 -866.425781 -0.225527 0.942231 -0.247664 1.000000
4.494500 100.933601 -869.259521 -0.283876 0.958842 -0.006092 1.000000
0.042800 96.379997 -877.744995 -0.145164 0.942885 -0.299824 1.000000
11.801400 106.291901 -853.882813 0.593279 0.711606 -0.376346 1.000000
9.630300 105.044701 -858.306702 -0.142971 0.989542 0.019138 1.000000
8.377800 104.129402 -860.803528 0.076680 0.921509 -0.380711 1.000000
6.943800 103.360603 -863.741089 -0.577401 0.782837 0.231894 1.000000
4.991000 101.743500 -867.579895 -0.088959 0.971032 -0.221771 1.000000
3.024500 100.027199 -871.421021 -0.262265 0.906940 -0.329663 1.000000
2.340400 99.405197 -872.749878 -0.036193 0.896771 -0.441013 1.000000
-2.419700 94.971298 -881.968323 0.654519 0.220256 -0.723251 1.000000
-2.890700 93.733299 -882.654114 -0.218646 0.937254 -0.271567 1.000000
-3.921300 92.768700 -884.648682 -0.133134 0.965543 -0.223613 1.000000
-5.244700 91.583702 -887.224976 0.020336 0.860883 -0.508396 1.000000
14.986500 107.468201 -846.023621 -0.132437 0.979042 -0.154716 1.000000
14.334400 107.322800 -847.417419 0.084932 0.993137 -0.080402 1.000000
13.674400 107.155098 -848.822327 0.063992 0.964897 -0.254713 1.000000
13.012600 106.996597 -850.233582 0.032289 0.998887 0.034373 1.000000
12.364000 106.740303 -851.588684 -0.143624 0.972321 -0.184296 1.000000
8.568700 104.679604 -859.358093 0.189265 0.902980 -0.385753 1.000000
7.302500 103.685699 -861.863586 -0.049106 0.990122 -0.131331 1.000000
3.198100 100.472397 -869.987671 -0.302648 0.845862 -0.439228 1.000000
0.557800 97.954300 -875.086487 0.760451 0.423563 -0.492249 1.000000
-1.232400 95.951797 -878.460388 -0.106137 0.991749 -0.071899 1.000000
-6.293200 91.155296 -888.241882 -0.257724 0.920032 -0.295159 1.000000
-7.154800 90.888603 -890.062622 -0.356514 0.934093 0.019167 1.000000
-7.807600 90.671799 -891.437927 0.172867 0.965718 -0.193664 1.000000
-9.544100 90.843399 -895.307312 0.019138 0.989542 -0.142971 1.000000
10.412500 106.029602 -854.445129 0.023292 0.962320 -0.270921 1.000000
9.771400 105.718803 -855.768372 -0.124619 0.905936 -0.404661 1.000000
5.542100 103.113297 -864.343018 -0.466775 0.874665 -0.130697 1.000000
3.594900 101.300697 -868.117981 -0.024710 0.922062 -0.386252 1.000000
0.972600 99.003998 -873.242615 0.226118 0.845288 -0.484106 1.000000
-0.518700 97.330803 -876.053528 0.018805 0.949016 -0.314667 1.000000
-2.266700 95.191200 -879.297485 -0.215166 0.822515 -0.526471 1.000000
-2.923800 94.483002 -880.544373 0.202822 0.874947 -0.439694 1.000000
-4.241700 93.151703 -883.069824 0.377296 0.739893 -0.556961 1.000000
-5.278000 92.194901 -885.080994 -0.413551 0.871033 -0.265097 1.000000
-8.934800 90.588203 -892.677124 0.727955 0.629196 -0.272386 1.000000
10.991300 106.451401 -852.252014 -0.221689 0.967488 -0.121737 1.000000
8.763500 105.313202 -856.837524 -0.061152 0.998124 -0.003109 1.000000
5.927300 103.511002 -862.575989 -0.218342 0.959382 -0.178643 1.000000
4.557900 102.424202 -865.285889 0.152942 0.946072 -0.285581 1.000000
1.586800 99.753304 -871.077393 -0.120102 0.972198 -0.201014 1.000000
-1.503600 96.695297 -877.022827 -0.276779 0.959249 -0.056872 1.000000
-3.933200 93.820999 -881.565125 -0.221397 0.856971 -0.465385 1.000000
-6.287700 91.408699 -886.071472 0.311030 0.717142 -0.623672 1.000000
7.831800 104.980598 -858.032776 0.021838 0.931324 -0.363537 1.000000
7.096400 104.514198 -859.521423 0.197072 0.840942 -0.503963 1.000000
3.642900 102.087601 -866.445374 -0.206271 0.910191 -0.359172 1.000000
-7.737500 90.803802 -888.346802 -0.562813 0.821908 0.087805 1.000000
-10.120300 90.780197 -893.584229 0.143792 0.965088 0.218926 1.000000
13.522700 107.469398 -845.705200 0.046261 0.980964 -0.188601 1.000000
12.847100 107.403000 -847.173523 -0.147183 0.984808 0.092139 1.000000
12.185500 107.237297 -848.583618 -0.267714 0.958338 0.099584 1.000000
6.294600 103.853600 -860.612976 -0.107724 0.851742 -0.512769 1.000000
2.213500 101.041100 -868.817627 -0.151578 0.924765 -0.349047 1.000000
-0.365100 98.606598 -873.820313 0.118797 0.907052 -0.403911 1.000000
-5.554700 92.636299 -883.593506 -0.098152 0.951418 -0.291838 1.000000
-8.663700 90.795097 -889.926880 -0.208661 0.969059 0.131853 1.000000
-2.694300 96.288101 -877.832397 -0.193701 0.943778 -0.267885 1.000000
-9.478700 90.767303 -891.248718 -0.450724 0.892030 0.033636 1.000000
8.823800 105.740601 -854.407593 -0.155268 0.986475 -0.052534 1.000000
4.536100 103.277702 -863.165527 -0.136407 0.927294 -0.348596 1.000000
1.186100 100.349998 -869.737305 -0.198067 0.862261 -0.466127 1.000000
0.201400 99.437401 -871.654724 0.033651 0.985169 -0.168256 1.000000
-1.396900 98.040398 -874.790283 -0.042604 0.867201 -0.496132 1.000000
-3.753500 95.430901 -879.264404 0.678724 0.166249 -0.715329 1.000000
-7.614600 90.816399 -886.503601 0.627357 0.692878 -0.355448 1.000000
10.900800 106.905403 -849.375488 0.471274 0.481196 -0.739156 1.000000
7.913500 105.667503 -855.599976 0.553590 0.722146 -0.414780 1.000000
5.025100 103.647400 -861.397583 0.196195 0.936448 -0.290814 1.000000
2.269300 101.778000 -866.944824 0.260924 0.911049 -0.319231 1.000000
-2.316400 97.410202 -875.838379 0.111317 0.891947 -0.438223 1.000000
-4.633200 94.440300 -880.127319 -0.164284 0.498772 -0.851021 1.000000
-5.409600 93.536797 -881.589294 -0.310869 0.903141 -0.296136 1.000000
-6.818600 92.263100 -884.340088 -0.216912 0.904043 -0.368314 1.000000
6.986000 105.189003 -856.768616 -0.413217 0.910632 -0.001295 1.000000
6.340700 104.899597 -858.106628 0.139088 0.911802 -0.386357 1.000000
3.378400 102.823502 -864.049805 -0.120219 0.938789 -0.322835 1.000000
-0.937000 98.826599 -872.449097 -0.273167 0.954106 -0.122727 1.000000
-9.216000 90.596298 -888.414124 0.102179 0.994324 -0.029665 1.000000
-10.800700 90.946999 -891.981628 0.712527 0.652224 -0.258668 1.000000
12.748500 107.726997 -844.189575 -0.168990 0.985586 0.007939 1.000000
12.019800 107.388199 -845.698181 0.010671 0.973408 -0.228828 1.000000
11.351400 107.194901 -847.112915 0.075233 0.997098 0.011656 1.000000
5.444900 104.505997 -859.355713 -0.245933 0.934547 -0.257176 1.000000
2.495100 102.344398 -865.254272 0.074451 0.997224 0.001049 1.000000
-6.503900 93.149399 -882.565125 0.083460 0.980956 -0.175387 1.000000
-7.839900 91.406403 -885.035583 -0.281281 0.902749 -0.325461 1.000000
9.595600 106.706200 -850.250427 0.624702 0.749331 -0.219658 1.000000
1.022000 101.417503 -867.695801 -0.174367 0.950233 -0.258172 1.000000
-0.245700 99.966103 -870.100708 0.414765 0.779107 -0.470067 1.000000
-3.572000 96.878799 -876.598816 0.035724 0.914262 -0.403545 1.000000
-4.213600 96.216499 -877.834473 -0.259976 0.934510 -0.243113 1.000000
-10.198500 90.952599 -889.602112 0.406277 0.909677 0.086180 1.000000
3.622700 103.306000 -861.821228 0.064139 0.899305 -0.432594 1.000000
-2.136100 98.337799 -873.194519 0.108638 0.954186 -0.278795 1.000000
-9.102800 90.754303 -886.546082 -0.794496 0.578782 0.183813 1.000000
10.040700 107.000397 -847.875977 -0.295789 0.939646 0.171970 1.000000
8.446400 106.354599 -851.211914 0.873134 0.128021 -0.470370 1.000000
4.176200 103.997902 -859.985474 -0.308626 0.908327 -0.282298 1.000000
-0.119500 100.953697 -868.638489 -0.366166 0.921634 -0.128504 1.000000
-1.382300 99.310600 -870.990112 0.177395 0.878179 -0.444221 1.000000
-3.073700 97.803200 -874.317627 -0.595939 0.802494 0.029308 1.000000
-5.357500 95.701897 -878.793823 -0.127535 0.982628 -0.134823 1.000000
-6.106500 94.663200 -880.171997 0.272935 0.659194 -0.700693 1.000000
5.296700 105.152802 -856.940979 -0.050874 0.875864 -0.479869 1.000000
2.412200 103.021599 -862.719116 -0.028199 0.964888 -0.261145 1.000000
1.011500 102.084396 -865.549622 -0.052608 0.972628 -0.226335 1.000000
-7.049600 93.992599 -881.151794 0.346678 0.603838 -0.717770 1.000000
-7.992100 92.857903 -882.927795 0.031049 0.881516 -0.471132 1.000000
-8.628200 92.424400 -884.211182 0.789119 0.426156 -0.442360 1.000000
11.352400 107.907402 -843.407227 0.066169 0.945823 -0.317869 1.000000
10.697300 107.572601 -844.754883 -0.094225 0.959028 -0.267185 1.000000
10.030300 107.201302 -846.119080 0.037552 0.972715 -0.228945 1.000000
8.783600 106.683601 -848.714111 -0.072654 0.996550 -0.040122 1.000000
7.189100 106.187202 -852.074829 -0.446723 0.868047 0.216638 1.000000
4.310000 104.870003 -858.036316 0.060630 0.983163 -0.172380 1.000000
1.429400 102.619698 -863.764587 -0.268444 0.938860 -0.215590 1.000000
0.016600 101.671997 -866.613586 -0.011142 0.952034 -0.305790 1.000000
-2.659900 98.739899 -871.722473 -0.394106 0.871902 -0.290634 1.000000
-4.353900 97.351097 -875.074402 -0.190183 0.937035 -0.292910 1.000000
-5.060200 96.768303 -876.471130 0.108625 0.940078 -0.323194 1.000000
-9.606200 91.702301 -885.127014 0.633328 0.552262 -0.542128 1.000000
-10.417400 91.505402 -886.850891 0.077091 0.985581 0.150624 1.000000
-11.084500 91.450302 -888.295715 0.290636 0.923448 -0.250548 1.000000
7.791000 106.399803 -849.794495 -0.138152 0.981734 -0.130816 1.000000
6.194600 105.959099 -853.169800 0.464141 0.818979 -0.337413 1.000000
2.684700 103.964996 -860.332397 0.056052 0.889993 -0.452516 1.000000
-1.590200 100.772202 -868.863220 -0.243016 0.867916 -0.433203 1.000000
-3.685900 98.164597 -872.782227 0.474177 0.474177 -0.741831 1.000000
-6.093000 96.293404 -877.567078 -0.351437 0.909686 -0.221275 1.000000
-6.833900 95.562798 -879.000977 -0.511533 0.838554 -0.187512 1.000000
8.738700 106.842102 -846.813171 -0.061652 0.891902 -0.448006 1.000000
5.202600 105.704002 -854.252930 -0.884140 0.223627 0.410229 1.000000
3.008300 104.479401 -858.739624 0.048578 0.982231 -0.181280 1.000000
1.674800 103.306198 -861.358521 -0.254047 0.889909 -0.378843 1.000000
-1.284700 101.519402 -867.375488 -0.300897 0.953051 -0.033993 1.000000
-2.591100 100.128403 -869.880371 0.340235 0.346338 -0.874237 1.000000
-7.894100 95.070099 -880.196228 -0.809922 0.458476 0.365823 1.000000
-8.524200 94.363800 -881.395630 -0.851473 0.480743 0.209477 1.000000
-9.416000 93.323898 -883.082703 0.517229 0.625055 -0.584620 1.000000
10.482000 108.122803 -842.175476 0.059325 0.977044 -0.204610 1.000000
9.820200 107.937103 -843.577820 0.092868 0.965575 -0.242984 1.000000
9.150800 107.538498 -844.943115 0.074943 0.940071 -0.332641 1.000000
6.448100 106.146797 -850.510315 -0.186028 0.973169 -0.135408 1.000000
0.649800 102.849503 -862.375916 0.044915 0.886054 -0.461401 1.000000
-0.011500 102.237801 -863.670288 -0.613621 0.705256 0.355082 1.000000
-0.677200 101.959702 -865.057800 0.019705 0.907745 -0.419060 1.000000
-4.998900 97.823097 -873.481323 -0.236047 0.922730 -0.304715 1.000000
-5.810700 97.015503 -875.055786 -0.054221 0.959584 -0.276148 1.000000
-10.456800 93.161003 -884.259888 0.316292 0.920253 -0.230421 1.000000
-11.130400 92.539398 -885.578674 0.137370 0.871938 -0.469950 1.000000
7.365800 106.683403 -847.375610 -0.166612 0.925466 -0.340224 1.000000
6.697500 106.437798 -848.780212 -0.165912 0.979495 -0.114295 1.000000
5.352600 105.900703 -851.596375 -0.017484 0.980251 -0.196983 1.000000
3.827400 105.476799 -854.836426 -0.041786 0.997512 -0.056786 1.000000
-3.981500 99.858200 -870.561096 -0.886715 0.338728 0.314641 1.000000
-4.721200 98.880600 -871.939026 0.284528 0.834928 -0.471104 1.000000
-6.877900 96.729500 -876.131775 0.628390 0.703082 -0.332868 1.000000
-7.599700 96.347099 -877.619507 -0.682668 0.713077 0.159644 1.000000
7.723900 107.328003 -845.350525 -0.103384 0.954016 -0.281363 1.000000
4.209500 105.568100 -852.623779 -0.060876 0.995047 -0.078585 1.000000
2.687700 105.232597 -855.880127 -0.065880 0.996845 -0.044280 1.000000
0.367500 103.586998 -860.560730 -0.087431 0.895127 0.437155 1.000000
-2.120700 101.879097 -865.594482 0.283140 0.953802 -0.100469 1.000000
-2.768800 101.775200 -866.991211 0.421709 0.869113 -0.258467 1.000000
-3.431600 101.567497 -868.393982 0.428144 0.835901 -0.343456 1.000000
-8.725400 96.100998 -878.644287 0.288852 0.754845 -0.588875 1.000000
9.278000 108.238503 -840.696594 -0.086150 0.995632 -0.035987 1.000000
8.655000 108.250603 -842.065186 0.132007 0.960645 -0.244409 1.000000
8.010800 107.968201 -843.406311 0.061536 0.978536 -0.196673 1.000000
5.243200 106.193001 -849.027283 -0.104143 0.994296 -0.023021 1.000000
1.547000 105.106796 -856.856018 -0.063873 0.997892 0.011518 1.000000
-0.843200 102.923798 -861.547424 -0.623433 0.734478 0.268092 1.000000
-1.486800 102.473000 -862.844788 -0.178429 0.973132 -0.145527 1.000000
-4.574200 101.102402 -869.268005 0.170354 0.490322 -0.854730 1.000000
-5.473900 99.738800 -870.898071 0.125599 0.793488 -0.595485 1.000000
-6.204300 98.867599 -872.280518 0.077142 0.865397 -0.495114 1.000000
-6.847200 98.122597 -873.502991 0.077658 0.908734 -0.410088 1.000000
-7.514500 97.520500 -874.814514 0.279977 0.899186 -0.336269 1.000000
6.276600 107.217796 -845.721619 -0.078314 0.956460 -0.281161 1.000000
5.630700 106.760300 -847.019104 -0.081908 0.966511 -0.243203 1.000000
4.155600 105.964401 -850.044800 -0.142660 0.989771 0.001106 1.000000
2.758100 105.376801 -852.953125 -0.094005 0.989954 -0.105611 1.000000
2.114700 105.126503 -854.297180 -0.247307 0.968720 0.020508 1.000000
0.435700 104.810898 -857.888794 0.188246 0.766759 -0.613713 1.000000
-8.618800 97.275902 -875.798584 0.332047 0.843368 -0.422463 1.000000
-9.279300 96.794403 -877.122070 0.348911 0.828861 -0.437323 1.000000
-10.141900 96.568398 -878.951477 0.266737 0.765488 -0.585559 1.000000
6.665200 107.748802 -844.087097 0.013256 0.967673 -0.251860 1.000000
3.180500 105.657898 -851.173828 0.026903 0.936463 -0.349733 1.000000
0.934500 104.969002 -855.252197 -0.005671 0.985601 -0.168993 1.000000
-6.962800 99.767998 -871.197388 -0.227313 0.922118 -0.313091 1.000000
-7.692600 98.946404 -872.586975 0.049853 0.904090 -0.424424 1.000000
-8.324600 98.316704 -873.810425 0.177078 0.899786 -0.398785 1.000000
8.492100 108.605598 -839.007874 -0.241883 0.913941 -0.325890 1.000000
7.792600 108.203102 -840.437012 -0.201103 0.957572 -0.206431 1.000000
7.157600 108.173897 -841.816711 -0.078457 0.992654 0.092102 1.000000
4.290000 106.394501 -847.643677 -0.048190 0.983781 -0.172779 1.000000
-0.910700 104.581596 -858.557617 -0.193890 0.969452 -0.150233 1.000000
-0.169600 104.735199 -856.323730 0.001032 0.998386 -0.056785 1.000000
-10.595700 97.485497 -877.371887 0.563205 0.730688 -0.385869 1.000000
5.235900 107.546898 -844.478882 -0.022664 0.974541 -0.223059 1.000000
4.596600 107.141502 -845.780029 -0.181018 0.927541 -0.326955 1.000000
3.175000 105.972099 -848.608276 -0.107181 0.988187 -0.109537 1.000000
1.742400 105.358200 -851.594971 -0.250740 0.967491 0.033024 1.000000
1.099400 105.096703 -852.938904 -0.281985 0.959241 0.018471 1.000000
-9.577000 98.213799 -874.639221 0.123511 0.887295 -0.444357 1.000000
-10.216100 97.842400 -875.948120 0.404123 0.838122 -0.366383 1.000000
-11.478000 97.282700 -878.574219 0.151203 0.800924 -0.579360 1.000000
5.845500 107.892998 -842.523682 -0.350548 0.936079 0.029533 1.000000
2.264000 105.738602 -849.834473 -0.262949 0.964145 -0.035801 1.000000
-2.214900 104.399399 -859.302490 -0.151940 0.964884 -0.214274 1.000000
0.012500 104.788902 -853.984619 -0.304103 0.948854 0.084836 1.000000
-1.439000 104.578102 -857.106201 -0.159437 0.975451 -0.151904 1.000000
7.053400 108.204498 -839.129822 -0.244196 0.962572 0.117576 1.000000
6.275300 108.057701 -840.539917 -0.024563 0.981350 -0.190656 1.000000
3.348900 106.708702 -846.510498 0.029489 0.937233 -0.347456 1.000000
-1.064800 104.571503 -855.097900 -0.143232 0.988876 -0.040105 1.000000
7.039700 109.610802 -837.505676 0.346253 0.577088 -0.739648 1.000000
4.409700 107.833900 -842.959412 -0.090952 0.991260 -0.095557 1.000000
3.743600 107.483299 -844.360718 -0.045100 0.971475 -0.232813 1.000000
2.219800 106.302498 -847.489685 -0.006268 0.941411 -0.337203 1.000000
0.841000 105.453102 -850.365417 -0.057337 0.974724 -0.215928 1.000000
0.205000 105.093498 -851.698425 0.056058 0.981609 -0.182486 1.000000
-3.582400 104.300201 -859.908997 -0.487537 0.790036 0.371687 1.000000
4.901900 107.908997 -841.128784 -0.001133 0.984462 -0.175594 1.000000
1.341100 105.737701 -848.556519 -0.244051 0.938551 -0.244051 1.000000
-2.874000 104.320900 -857.577820 0.016115 0.995886 0.089168 1.000000
5.556800 108.055298 -839.039185 0.053588 0.990799 0.124277 1.000000
-0.932100 104.831902 -852.697998 0.114169 0.965948 -0.232187 1.000000
-2.382300 104.331902 -855.793274 -0.158306 0.984354 0.077368 1.000000
2.460500 107.156303 -845.123474 -0.028816 0.985513 -0.167134 1.000000
-4.896000 104.074501 -860.700989 -0.370367 0.925245 0.082154 1.000000
5.740100 110.064400 -838.099915 0.070943 0.924932 0.373453 1.000000
-1.894800 104.513802 -853.842224 -0.312722 0.821877 0.476154 1.000000
-4.138800 104.158203 -858.457886 -0.230433 0.970309 -0.073489 1.000000
1.513400 106.726997 -846.226013 -0.028762 0.985955 -0.164518 1.000000
3.485700 107.769402 -841.629517 0.026657 0.943146 -0.331307 1.000000
2.845000 107.702599 -843.022827 -0.133704 0.984110 -0.116840 1.000000
-0.045500 105.350304 -848.973877 -0.050231 0.891936 -0.449362 1.000000
-0.702200 105.184799 -850.385986 0.025319 0.999593 0.013166 1.000000
4.110100 108.116096 -839.540405 0.081554 0.996655 0.005296 1.000000
0.455700 106.252098 -847.248230 0.062486 0.955144 -0.289476 1.000000
-3.804100 104.230598 -856.257019 -0.107479 0.990422 -0.086676 1.000000
-6.210200 103.998100 -861.489319 -0.766359 0.561570 0.311983 1.000000
5.282300 111.489502 -836.499817 0.142415 0.390585 -0.909484 1.000000
1.600100 107.421501 -843.921570 -0.086401 0.979621 -0.181321 1.000000
-1.917000 104.952202 -851.228577 -0.178494 0.973487 -0.143048 1.000000
-3.333300 104.273903 -854.219482 -0.209328 0.976460 0.052029 1.000000
-5.539400 103.911201 -858.985229 0.003146 0.997373 0.072365 1.000000
4.312600 111.028297 -837.592712 0.531328 0.819194 -0.215900 1.000000
0.635700 107.062698 -845.018982 0.039466 0.948452 -0.314453 1.000000
-2.891500 104.692497 -852.357605 -0.256767 0.957279 -0.132992 1.000000
-5.075600 104.028603 -857.021973 -0.180807 0.976359 -0.118460 1.000000
-7.486200 103.972298 -862.271118 0.015373 0.999238 0.035870 1.000000
2.658600 108.157501 -840.012024 -0.069470 0.997167 -0.028857 1.000000
2.014700 107.906303 -841.378784 -0.031720 0.980981 -0.191497 1.000000
-0.977700 105.992500 -847.622375 -0.118341 0.879718 -0.460533 1.000000
-1.581300 105.389099 -848.850281 0.047214 0.974554 -0.219123 1.000000
-6.743600 103.925598 -859.887817 -0.040782 0.998642 0.032417 1.000000
-8.424500 104.178101 -863.587402 -0.875824 0.228281 0.425230 1.000000
4.790300 113.437897 -835.471924 0.160054 0.560938 -0.812238 1.000000
-0.475600 106.695801 -846.006775 0.018427 0.959437 -0.281320 1.000000
-4.704000 104.189697 -854.873779 -0.318796 0.943159 0.093919 1.000000
1.007200 107.536697 -842.446777 -0.007706 0.991923 -0.126605 1.000000
3.961900 112.406700 -836.328430 0.370585 0.414740 -0.831058 1.000000
3.048500 111.575600 -838.207275 0.428564 0.899846 -0.081303 1.000000
2.759300 108.653999 -838.457886 0.464137 0.847089 -0.258875 1.000000
-2.700300 105.093002 -849.869812 0.061243 0.942107 -0.329672 1.000000
-4.163500 104.098000 -852.923218 -0.141426 0.980146 -0.138967 1.000000
-6.405800 103.719398 -857.750610 -0.114992 0.991668 0.058066 1.000000
0.100300 107.416702 -843.626404 0.067314 0.958911 -0.275607 1.000000
-7.987200 103.763603 -860.724670 0.088102 0.992002 0.090390 1.000000
-3.722900 104.608597 -850.913513 -0.106583 0.991334 0.076785 1.000000
-5.945700 103.895103 -855.645813 -0.298951 0.951209 -0.076356 1.000000
-9.817600 104.410698 -864.104370 -0.115437 0.976873 0.179983 1.000000
3.973400 114.822899 -834.918884 0.435074 0.384076 -0.814369 1.000000
1.202600 108.542397 -840.173828 0.256245 0.882620 -0.394107 1.000000
-7.622400 103.580902 -858.707214 -0.180420 0.976759 0.115718 1.000000
-9.036300 103.813400 -861.799377 -0.055581 0.969580 0.238381 1.000000
2.701600 112.650597 -837.108704 0.797578 0.521676 -0.302858 1.000000
-1.039900 107.172203 -844.582520 0.013928 0.938252 -0.345672 1.000000
-1.921600 106.491501 -846.414429 -0.069806 0.936458 -0.343763 1.000000
-2.524500 105.762604 -847.636719 -0.082684 0.776068 -0.625206 1.000000
3.177900 113.931099 -836.010376 0.176474 0.315430 -0.932395 1.000000
-5.553100 104.039803 -853.591675 -0.037197 0.997950 0.052076 1.000000
1.713700 112.716103 -838.365723 0.630701 0.686399 -0.362039 1.000000
1.467900 109.459702 -838.561584 -0.531107 0.770025 0.353534 1.000000
0.162800 108.022499 -841.238098 -0.072167 0.839123 -0.539133 1.000000
2.776800 115.378799 -835.633972 -0.196519 0.682402 -0.704065 1.000000
-3.665000 105.512497 -848.591370 -0.109405 0.909861 -0.400228 1.000000
-5.099300 104.348099 -851.579407 -0.180189 0.983578 -0.010329 1.000000
-7.304900 103.605698 -856.279419 -0.070309 0.994373 -0.079237 1.000000
1.737500 114.975601 -836.784119 0.836409 0.395365 -0.379613 1.000000
1.152500 114.130203 -837.968323 0.845993 0.325621 -0.422217 1.000000
-1.069200 107.780701 -842.158813 -0.067025 0.895944 -0.439081 1.000000
-2.447900 107.089401 -845.076721 0.141986 0.962642 -0.230565 1.000000
-4.654300 105.026604 -849.653076 -0.119938 0.896004 -0.427542 1.000000
-6.869300 103.869301 -854.336426 0.165612 0.977486 -0.130746 1.000000
-8.299700 103.378098 -857.385803 -0.256839 0.962187 0.090724 1.000000
-9.073900 103.414101 -859.065979 -0.239305 0.958543 0.154689 1.000000
-9.695800 103.521698 -860.422974 -0.108262 0.981660 0.156920 1.000000
-10.482600 103.890602 -862.162781 -0.142492 0.952164 0.270335 1.000000
-11.327900 104.421204 -864.045471 -0.220606 0.960362 0.170408 1.000000
0.265900 110.424103 -838.144226 -0.926307 0.169055 0.336712 1.000000
-0.270800 109.429398 -839.212280 0.070278 0.612423 -0.787400 1.000000
-2.191000 107.530899 -843.194702 -0.003195 0.995694 0.092647 1.000000
-3.546200 106.578003 -846.042725 -0.150568 0.913260 -0.378531 1.000000
-6.483900 104.057503 -852.172180 -0.251618 0.964748 0.077129 1.000000
-1.395300 108.831200 -840.088928 0.009379 0.872216 -0.489031 1.000000
-4.652800 105.984596 -846.902710 0.162967 0.911197 -0.378367 1.000000
-5.285500 105.511497 -848.233887 0.041735 0.952311 -0.302261 1.000000
-6.113600 104.821701 -849.969177 -0.040997 0.962797 -0.267098 1.000000
-8.348300 104.011703 -854.753479 0.119238 0.979720 -0.161033 1.000000
-8.981000 103.875999 -856.116882 0.163379 0.963285 -0.213047 1.000000
-9.737100 103.576599 -857.733215 0.888280 0.382392 -0.254432 1.000000
-11.135000 103.664803 -860.783325 0.091514 0.993092 -0.073437 1.000000
-11.931200 103.900497 -862.538208 0.165474 0.973899 0.155369 1.000000
-0.871600 111.423897 -837.598083 0.011386 0.937459 0.347910 1.000000
-1.525100 110.762497 -838.959717 -0.563615 0.443909 -0.696622 1.000000
-2.450300 107.966003 -840.710022 -0.297668 0.939642 -0.168724 1.000000
-3.708300 107.567596 -843.414673 0.095767 0.995333 0.011836 1.000000
-4.360300 107.271004 -844.808105 -0.042143 0.946297 -0.320541 1.000000
-7.259100 104.307899 -850.845398 -0.091650 0.915135 -0.392592 1.000000
-7.976800 103.859802 -852.367371 -0.056897 0.997312 -0.046162 1.000000
-10.891700 103.696800 -858.707397 0.305515 0.951748 -0.028917 1.000000
-2.593700 109.880699 -839.511780 0.184432 0.508313 -0.841191 1.000000
-3.658100 107.823402 -841.642517 0.153233 0.983345 -0.097731 1.000000
-5.542900 106.871399 -845.672180 -0.149007 0.842404 -0.517835 1.000000
-6.148500 106.013000 -846.914124 -0.006311 0.937806 -0.347102 1.000000
-6.783500 105.475800 -848.251221 0.101688 0.946887 -0.305064 1.000000
-9.162200 103.739998 -853.286194 -0.193851 0.923974 0.329688 1.000000
-9.849400 103.907204 -854.804688 -0.250215 0.950817 0.182589 1.000000
-10.477400 103.844902 -856.171570 -0.341987 0.939511 -0.019070 1.000000
-12.654100 103.802597 -860.926697 0.303655 0.951622 -0.047009 1.000000
-2.465300 112.070000 -837.757080 -0.153834 0.334000 0.929935 1.000000
-3.031600 111.221802 -838.917603 -0.493591 0.624991 -0.604776 1.000000
-5.217800 107.702202 -843.375122 0.054311 0.997828 -0.037272 1.000000
-7.937600 105.002998 -849.080688 -0.071462 0.864554 -0.497434 1.000000
-8.745300 104.067101 -850.762573 -0.123862 0.914355 -0.385504 1.000000
-11.670200 103.548302 -857.127014 -0.310312 0.904464 0.292664 1.000000
-12.404500 103.581802 -858.740479 -0.293213 0.955145 0.041528 1.000000
-13.829500 103.774902 -861.883972 0.227688 0.967994 -0.105576 1.000000
-5.155700 108.034103 -841.893982 0.048818 0.991112 -0.123747 1.000000
-6.306500 107.516197 -844.377380 -0.025445 0.887892 -0.459347 1.000000
-9.842000 103.939003 -851.817383 -0.338052 0.927905 0.157201 1.000000
-10.629700 103.573402 -853.516113 -0.150906 0.988261 -0.023827 1.000000
-7.236800 106.853203 -845.411316 -0.148112 0.854943 -0.497128 1.000000
-7.801300 106.052200 -846.584229 -0.008715 0.947395 -0.319948 1.000000
-11.577500 103.550102 -854.695923 -0.197364 0.979731 0.034273 1.000000
-13.732200 103.653999 -859.466919 -0.001217 0.957524 0.288352 1.000000
-3.976500 112.156700 -838.182800 -0.218477 0.029847 0.975386 1.000000
-8.603400 105.537102 -847.852417 -0.045502 0.864530 -0.500517 1.000000
-9.361500 104.626701 -849.452209 -0.166583 0.909800 -0.380151 1.000000
-13.143200 103.339401 -857.438721 0.057963 0.998024 0.024239 1.000000
-14.564200 104.130203 -860.627808 0.206028 0.948277 0.241504 1.000000
-6.574400 108.078697 -842.512085 0.029825 0.929753 -0.366974 1.000000
-12.636700 103.379402 -855.744629 0.050868 0.996798 0.061691 1.000000
-15.416300 104.260597 -861.929626 0.122319 0.989038 0.082711 1.000000
-5.844200 108.189697 -840.523376 0.746200 0.665605 -0.012506 1.000000
-10.357300 103.971497 -850.354675 -0.085460 0.992471 -0.087739 1.000000
-11.318500 103.873703 -852.017822 -0.211852 0.970460 -0.115440 1.000000
-7.718900 107.871002 -843.447693 0.267910 0.898461 -0.347839 1.000000
-12.208300 103.617203 -853.256409 0.205100 0.978622 -0.015236 1.000000
-8.654200 107.247299 -844.531921 -0.088276 0.878559 -0.469405 1.000000
-9.200000 106.487701 -845.720581 -0.018982 0.942797 -0.332826 1.000000
-10.080500 105.499901 -847.642029 0.068783 0.857683 -0.509557 1.000000
-14.589600 103.765503 -857.540405 0.001040 0.997710 -0.067624 1.000000
-15.203000 104.045303 -858.895874 -0.361894 0.909782 0.203295 1.000000
-16.804600 104.477303 -862.430115 0.625979 0.688412 -0.366387 1.000000
-7.345900 108.583099 -840.665527 0.215358 0.975728 -0.039703 1.000000
-7.983800 108.448799 -842.067322 0.156913 0.950868 -0.266887 1.000000
-10.972000 104.749298 -848.590881 -0.069382 0.904693 -0.420376 1.000000
-11.867400 103.937500 -850.549988 0.001115 0.988615 -0.150466 1.000000
-13.497800 103.486504 -854.130981 0.080222 0.993168 -0.084741 1.000000
-14.130100 103.353798 -855.520386 0.072723 0.958155 0.276857 1.000000
-16.185400 104.394600 -860.056824 0.206746 0.952651 0.222961 1.000000
-12.845700 103.817902 -851.761780 -0.034463 0.978031 -0.205589 1.000000
-9.174000 108.153702 -842.944519 -0.054849 0.913700 -0.402670 1.000000
-10.586200 106.165001 -846.163208 -0.114343 0.846718 -0.519610 1.000000
-17.338499 104.615501 -860.989075 -0.020341 0.972759 0.230926 1.000000
-18.235701 104.570702 -862.947876 -0.172665 0.080899 0.981653 1.000000
-10.136000 107.563499 -844.041382 0.118964 0.905524 -0.407276 1.000000
-11.524000 105.623497 -847.208923 -0.173336 0.920231 -0.350900 1.000000
-12.359800 104.313797 -849.126892 0.077142 0.865397 -0.495114 1.000000
-13.988700 103.661903 -852.725220 0.090066 0.975925 -0.198640 1.000000
-15.519000 103.407204 -856.079224 -0.108300 0.919863 0.376993 1.000000
-16.149000 103.683403 -857.432312 -0.179283 0.983127 0.036325 1.000000
-9.414000 108.731499 -841.009583 -0.125876 0.608647 0.783393 1.000000
-11.171400 106.929497 -844.976501 -0.079799 0.663055 -0.744305 1.000000
-13.451300 104.050102 -850.163208 0.091109 0.995771 0.011791 1.000000
