ply
format ascii 1.0
element vertex 692
property float x
property float y
property float z
property float nx
property float ny
property float nz
property float label
element face 0
property list uchar int vertex_indices
end_header
40.983898 25.906799 -744.917603 0.543616 0.040319 -0.838365 1.000000
43.321499 27.960699 -742.463074 -0.256502 0.245289 -0.934901 1.000000
43.249100 27.798700 -742.525330 0.301565 0.039115 -0.952643 1.000000
43.127602 27.633200 -742.638916 0.201866 0.147864 -0.968187 1.000000
42.964901 27.519600 -742.800110 -0.107394 0.983437 0.146007 1.000000
42.894501 27.374300 -742.861816 0.287250 0.557043 -0.779225 1.000000
42.780800 27.265900 -742.971985 0.117769 0.284498 -0.951415 1.000000
42.663601 27.136299 -743.084229 0.082279 0.976300 -0.200172 1.000000
42.384701 26.909500 -743.357971 0.149587 0.411721 -0.898949 1.000000
42.273899 26.510401 -743.440308 -0.084405 0.294770 -0.951833 1.000000
42.150600 26.349001 -743.556213 0.431663 0.544127 -0.719439 1.000000
42.003101 26.348301 -743.711182 0.685575 0.528010 -0.501191 1.000000
41.860901 26.382200 -743.863586 0.546495 0.522954 -0.654112 1.000000
41.712101 26.374201 -744.019287 0.577953 0.503813 -0.641983 1.000000
41.558102 26.334900 -744.177917 0.483919 0.434707 -0.759507 1.000000
41.403801 26.294300 -744.336670 0.456244 0.420524 -0.784220 1.000000
41.249001 26.251900 -744.495789 0.239340 0.529637 -0.813757 1.000000
41.090599 26.188499 -744.656921 0.349169 0.855076 -0.383310 1.000000
40.919102 26.047600 -744.825073 0.003594 0.255199 -0.966882 1.000000
40.835800 25.843599 -744.895203 0.151118 0.940741 -0.303596 1.000000
40.757900 26.130899 -745.001709 0.641473 0.523617 -0.560658 1.000000
43.286701 28.064501 -742.313477 0.271755 0.627738 -0.729448 1.000000
43.112598 27.869400 -742.479675 0.169923 0.489083 -0.855526 1.000000
42.997101 27.745100 -742.590515 -0.123691 0.519504 -0.845468 1.000000
42.842098 27.683201 -742.747925 0.199668 0.729019 -0.654724 1.000000
42.765800 27.499599 -742.812378 0.455741 0.096757 -0.884838 1.000000
42.648701 27.369699 -742.924316 0.322288 0.343472 -0.882132 1.000000
42.540298 27.297701 -743.031982 -0.588625 0.612237 0.527907 1.000000
42.418598 27.140699 -743.146423 0.375250 0.270598 -0.886546 1.000000
42.307701 27.055000 -743.255615 -0.612613 0.688570 -0.388043 1.000000
42.222198 26.819099 -743.325195 -0.479266 0.610434 -0.630614 1.000000
42.083302 26.556900 -743.448730 0.343511 0.460654 -0.818412 1.000000
41.932499 26.535000 -743.605225 0.609871 0.669695 -0.423752 1.000000
41.790699 26.570101 -743.757324 0.566724 0.647445 -0.509547 1.000000
41.643299 26.570299 -743.912170 0.531052 0.507599 -0.678474 1.000000
41.487999 26.521900 -744.071228 0.438244 0.578215 -0.688193 1.000000
41.332001 26.470699 -744.230713 0.482803 0.526239 -0.699981 1.000000
41.177601 26.430000 -744.389404 0.383355 0.526910 -0.758554 1.000000
41.019100 26.365900 -744.550415 0.387713 0.697884 -0.602193 1.000000
40.855999 26.275101 -744.713989 0.196866 0.448498 -0.871833 1.000000
40.716000 26.324800 -744.865295 0.661331 0.006932 -0.750063 1.000000
40.599499 26.351999 -744.990112 -0.199664 0.029536 0.979419 1.000000
42.453201 27.470699 -742.925110 0.122895 0.605590 -0.786230 1.000000
42.339298 27.364100 -743.035522 0.136098 0.339557 -0.930687 1.000000
42.178299 27.270300 -743.196411 0.009731 0.740973 -0.671464 1.000000
42.097698 27.066601 -743.263489 -0.432517 0.066856 -0.899144 1.000000
42.011600 26.829100 -743.333374 0.132745 0.387058 -0.912450 1.000000
41.899101 26.737400 -743.443726 0.420905 0.502793 -0.755009 1.000000
41.752102 26.739799 -743.598022 0.713271 0.507104 -0.483827 1.000000
41.606098 26.748400 -743.752014 0.519617 0.404875 -0.752379 1.000000
41.454899 26.725100 -743.908630 0.307767 0.540586 -0.782973 1.000000
41.301399 26.688299 -744.066589 0.555535 0.455439 -0.695670 1.000000
41.147999 26.653200 -744.224487 0.236284 0.483239 -0.843001 1.000000
40.983299 26.550200 -744.388489 0.235189 0.518031 -0.822393 1.000000
40.823799 26.480499 -744.549927 0.256235 0.842355 -0.474112 1.000000
40.672298 26.460400 -744.707214 0.945653 0.322061 -0.044909 1.000000
40.524300 26.461700 -744.862610 0.721653 0.446264 0.529212 1.000000
43.410000 28.447100 -741.823975 0.473433 0.740667 -0.476732 1.000000
43.270199 28.423500 -741.968384 0.517576 0.645705 -0.561409 1.000000
43.114899 28.353901 -742.125183 0.063378 0.403194 -0.912917 1.000000
42.999500 28.228001 -742.235413 0.076571 0.466386 -0.881261 1.000000
42.882198 28.091200 -742.346619 0.232078 0.465672 -0.853985 1.000000
42.709702 27.912600 -742.511902 0.255519 0.361861 -0.896530 1.000000
42.596500 27.806999 -742.621521 0.472196 0.263015 -0.841340 1.000000
42.484299 27.709101 -742.730713 0.272584 0.331521 -0.903212 1.000000
42.368500 27.589199 -742.841675 0.376684 0.243737 -0.893701 1.000000
42.204201 27.472700 -743.003906 0.227031 0.411030 -0.882899 1.000000
41.879101 26.957399 -743.300293 0.264719 0.445280 -0.855365 1.000000
41.772301 26.902300 -743.407471 0.506429 0.503086 -0.700310 1.000000
41.622601 26.887300 -743.562988 0.697537 0.588185 -0.409244 1.000000
41.477200 26.899799 -743.716492 0.376074 0.538877 -0.753777 1.000000
41.325298 26.872601 -743.873291 0.548825 0.407086 -0.730118 1.000000
41.169498 26.821899 -744.032227 0.534848 0.612460 -0.582090 1.000000
41.014400 26.776899 -744.190918 0.324525 0.271661 -0.906026 1.000000
40.856998 26.718700 -744.350830 0.947603 0.214681 -0.236559 1.000000
40.748600 26.660101 -744.459412 0.433770 0.424095 -0.794976 1.000000
40.602299 26.670500 -744.613586 0.291359 0.948579 -0.123728 1.000000
40.492401 26.604300 -744.723083 0.243119 0.884477 -0.398238 1.000000
40.352798 26.706600 -744.878113 0.413745 0.613140 0.672959 1.000000
43.205399 28.524799 -741.855774 0.531499 0.708110 -0.464853 1.000000
43.057800 28.506300 -742.008911 0.237193 0.553450 -0.798394 1.000000
42.942902 28.383801 -742.118591 0.201643 0.384427 -0.900864 1.000000
42.827900 28.261801 -742.228577 0.209451 0.394002 -0.894926 1.000000
42.715000 28.155600 -742.337708 0.167340 0.437995 -0.883265 1.000000
42.602901 28.055901 -742.446472 0.282512 0.547663 -0.787561 1.000000
42.492298 27.966700 -742.554688 0.441532 0.132888 -0.887350 1.000000
42.381401 27.877600 -742.663208 -0.024535 0.370611 -0.928464 1.000000
42.271400 27.795401 -742.771301 0.047292 0.441842 -0.895845 1.000000
42.161301 27.713301 -742.879578 0.060442 0.026510 0.997820 1.000000
42.034801 27.526199 -742.996094 0.503573 0.648414 -0.570941 1.000000
41.927799 27.467100 -743.103027 -0.303628 0.790069 -0.532542 1.000000
41.828800 27.147400 -743.179321 0.044595 0.441897 -0.895957 1.000000
41.714100 27.041700 -743.290283 0.251167 0.544455 -0.800302 1.000000
41.566799 27.041000 -743.444519 0.590163 0.670412 -0.449728 1.000000
41.422798 27.062000 -743.597107 0.426150 0.575385 -0.698089 1.000000
41.273300 27.048700 -743.752502 0.562429 0.708428 -0.426384 1.000000
41.117001 26.993900 -743.911621 0.341768 0.562055 -0.753186 1.000000
40.962399 26.951000 -744.069824 0.093117 0.363020 -0.927117 1.000000
40.854698 26.894899 -744.177673 0.341331 0.554866 -0.758694 1.000000
40.747501 26.841999 -744.285522 0.309303 0.901271 -0.303384 1.000000
40.593102 26.803200 -744.443909 0.298545 0.950390 -0.087347 1.000000
40.443699 26.795000 -744.599670 -0.502332 0.566174 0.653536 1.000000
42.917500 28.636000 -741.944702 0.312006 0.875140 -0.369842 1.000000
42.802299 28.511299 -742.054626 -0.085667 0.387542 -0.917863 1.000000
42.688301 28.395700 -742.164001 -0.003749 0.943559 -0.331183 1.000000
42.574100 28.280800 -742.273682 0.009448 0.519624 -0.854343 1.000000
42.464401 28.196600 -742.381287 0.151183 0.911334 -0.382902 1.000000
42.356899 28.127899 -742.487976 -0.027554 0.917159 -0.397567 1.000000
42.236801 27.978300 -742.600830 0.121391 0.554305 -0.823414 1.000000
42.076599 27.886101 -742.760620 0.073582 0.969034 -0.235711 1.000000
41.966999 27.807301 -742.868713 -0.040354 0.555211 -0.830730 1.000000
41.845901 27.656200 -742.982422 -0.710892 0.035333 0.702413 1.000000
41.771801 27.494801 -743.046082 -0.229011 0.300132 -0.925999 1.000000
41.638901 27.272100 -743.166077 0.264134 0.536082 -0.801779 1.000000
41.530201 27.204700 -743.274109 0.503202 0.597448 -0.624375 1.000000
41.387100 27.230000 -743.426086 0.555504 0.672983 -0.488374 1.000000
41.239201 27.224899 -743.580627 0.393659 0.759549 -0.517800 1.000000
41.085800 27.187099 -743.737915 0.387258 0.687177 -0.614669 1.000000
40.930401 27.137899 -743.896423 0.307916 0.646462 -0.698050 1.000000
40.773998 27.083700 -744.055481 0.161398 0.904113 -0.395639 1.000000
40.665100 27.020399 -744.164124 0.245123 0.889870 -0.384768 1.000000
40.555698 26.954599 -744.272888 0.311661 0.778354 -0.545007 1.000000
40.402802 26.924299 -744.430481 0.195247 0.946196 -0.258053 1.000000
40.243000 26.854601 -744.591797 0.781739 0.198123 -0.591296 1.000000
40.079498 26.764099 -744.755188 0.733897 0.237299 -0.636463 1.000000
43.231499 28.670700 -741.374512 -0.754618 0.636662 0.158787 1.000000
43.101799 28.772800 -741.519104 0.713497 0.689664 -0.123633 1.000000
42.970798 28.865999 -741.664185 0.723303 0.265476 -0.637460 1.000000
42.824001 28.851000 -741.816589 0.153841 0.560102 -0.814014 1.000000
42.707401 28.715500 -741.927002 0.022413 0.423212 -0.905753 1.000000
42.595001 28.610300 -742.035522 0.135253 0.587089 -0.798144 1.000000
42.487400 28.537800 -742.141785 -0.061882 0.095636 -0.993491 1.000000
42.374901 28.434601 -742.250610 0.085577 0.389850 -0.916894 1.000000
42.265099 28.350000 -742.358215 0.047171 0.901631 -0.429926 1.000000
42.151901 28.243999 -742.467590 0.009288 0.460413 -0.887656 1.000000
42.040401 28.150801 -742.576172 0.073297 0.613681 -0.786144 1.000000
41.932098 28.079100 -742.683289 -0.394999 0.914376 0.088841 1.000000
41.821098 27.991100 -742.791870 -0.335651 0.900491 -0.276505 1.000000
41.691700 27.787201 -742.909729 -0.753032 0.029558 0.657320 1.000000
41.550701 27.511299 -743.033508 0.179437 0.348983 -0.919790 1.000000
41.439499 27.427099 -743.142578 0.405960 0.500521 -0.764640 1.000000
41.286800 27.391399 -743.299316 0.520152 0.712925 -0.470298 1.000000
41.139198 27.387400 -743.453430 0.369402 0.750195 -0.548407 1.000000
40.987301 27.357599 -743.609924 0.320660 0.752503 -0.575254 1.000000
40.827999 27.283899 -743.770203 0.237277 0.859942 -0.451885 1.000000
40.669201 27.214199 -743.930420 0.311994 0.635305 -0.706433 1.000000
40.509998 27.144199 -744.090881 0.395184 0.736257 -0.549323 1.000000
40.353600 27.091801 -744.250122 0.447804 0.704168 -0.551016 1.000000
40.200298 27.059200 -744.407715 0.048831 0.991388 0.121510 1.000000
40.044201 27.010900 -744.567017 0.118867 0.869307 -0.479766 1.000000
39.875500 26.919500 -744.735596 -0.742742 0.314175 -0.591294 1.000000
42.668098 28.898600 -741.758423 -0.165775 0.895185 -0.413717 1.000000
42.553501 28.777201 -741.867676 0.197983 0.600087 -0.775048 1.000000
42.447498 28.714399 -741.973206 0.088980 0.762897 -0.640367 1.000000
42.339699 28.640800 -742.079590 0.059990 0.514800 -0.855209 1.000000
42.228901 28.548401 -742.187500 0.280208 0.469077 -0.837527 1.000000
42.117901 28.456400 -742.295593 0.076229 0.367772 -0.926786 1.000000
42.003799 28.345100 -742.405273 0.180317 0.574288 -0.798548 1.000000
41.848099 28.280001 -742.562500 -0.098661 0.516185 -0.850776 1.000000
41.730900 28.151600 -742.674011 0.132550 0.383697 -0.913897 1.000000
41.611301 28.009001 -742.786682 0.022768 0.459377 -0.887950 1.000000
41.434399 27.814800 -742.955017 0.192513 0.427644 -0.883210 1.000000
41.358700 27.645100 -743.019409 0.260059 0.478571 -0.838653 1.000000
41.204201 27.596300 -743.176819 0.570656 0.651457 -0.499955 1.000000
41.056499 27.591101 -743.330872 0.409388 0.591706 -0.694468 1.000000
40.902500 27.547001 -743.488220 0.305734 0.521173 -0.796809 1.000000
40.795601 27.492399 -743.595276 0.378852 0.585499 -0.716703 1.000000
40.640301 27.443300 -743.753479 0.452854 0.680116 -0.576511 1.000000
40.479500 27.361401 -743.914612 0.227315 0.501924 -0.834506 1.000000
40.370399 27.296499 -744.023071 0.490055 0.611306 -0.621410 1.000000
40.263401 27.244900 -744.130615 0.365759 0.680673 -0.634748 1.000000
40.109798 27.209700 -744.288208 0.321291 0.605448 -0.728152 1.000000
40.002499 27.157900 -744.395874 0.100138 0.991018 -0.088628 1.000000
39.890701 27.079800 -744.506226 0.132161 0.124886 -0.983329 1.000000
39.778198 26.998899 -744.616882 0.285732 0.940017 -0.186347 1.000000
39.701302 26.838499 -744.683289 0.967652 0.202292 0.150753 1.000000
39.627701 26.985500 -744.773193 0.463075 0.875659 0.137047 1.000000
42.582600 29.019501 -741.677124 0.220783 0.798217 -0.560450 1.000000
42.469799 28.910000 -741.785522 0.319568 0.660225 -0.679691 1.000000
42.364101 28.848801 -741.890686 0.221172 0.455886 -0.862120 1.000000
42.258301 28.788200 -741.996216 0.248986 0.303677 -0.919666 1.000000
41.920898 28.480101 -742.322327 0.258564 0.497000 -0.828333 1.000000
41.762600 28.397400 -742.480713 0.098020 0.036345 -0.994521 1.000000
41.648899 28.291300 -742.590271 0.238007 0.246358 -0.939500 1.000000
41.530998 28.158899 -742.702209 0.112763 0.177199 -0.977694 1.000000
41.401901 27.957600 -742.819702 -0.084363 0.438413 -0.894805 1.000000
41.228298 27.785900 -742.986328 0.360096 0.511885 -0.779939 1.000000
41.076599 27.754200 -743.142212 0.515537 0.699061 -0.495516 1.000000
40.926601 27.733700 -743.297424 0.452683 0.488898 -0.745692 1.000000
40.769501 27.670300 -743.456177 0.474292 0.524218 -0.707278 1.000000
40.662300 27.613800 -743.563416 0.375895 0.525602 -0.763181 1.000000
40.507702 27.567801 -743.721130 0.310869 0.296136 -0.903141 1.000000
40.344898 27.473900 -743.883179 0.282704 0.335989 -0.898437 1.000000
40.235699 27.408100 -743.991699 0.345029 0.555611 -0.756473 1.000000
40.126499 27.343000 -744.100281 0.284225 0.579564 -0.763755 1.000000
39.973301 27.309999 -744.257690 0.273042 0.901778 -0.335030 1.000000
39.806400 27.197500 -744.422424 0.164246 0.934410 -0.316071 1.000000
39.504799 26.877300 -744.710083 0.339862 0.774756 -0.533148 1.000000
42.981201 28.846201 -741.115601 -0.300293 0.854681 0.423491 1.000000
42.861099 28.926001 -741.248230 0.757585 0.647074 0.085792 1.000000
42.785900 29.070299 -741.339417 0.710608 0.689576 0.139718 1.000000
42.650501 29.131901 -741.486328 0.530255 0.486764 -0.694183 1.000000
42.059601 28.730801 -742.069275 0.219495 0.440483 -0.870515 1.000000
41.943501 28.604200 -742.179688 0.275113 0.532933 -0.800185 1.000000
41.738300 28.530300 -742.388000 0.217918 0.378796 -0.899458 1.000000
39.787800 27.350300 -744.325073 0.615429 0.588451 -0.524379 1.000000
39.632099 27.304001 -744.483887 0.295347 0.525939 -0.797595 1.000000
39.405102 27.130699 -744.706421 0.492803 0.865582 -0.088959 1.000000
42.429901 29.075899 -741.650513 0.209853 0.843942 -0.493683 1.000000
42.321098 28.992800 -741.757080 0.161599 0.599578 -0.783831 1.000000
42.160198 28.886200 -741.916016 0.238746 0.304509 -0.922103 1.000000
41.558498 28.436001 -742.505981 0.024906 0.399800 -0.916264 1.000000
41.442600 28.316000 -742.616821 -0.012086 0.490162 -0.871548 1.000000
41.325901 28.192400 -742.728027 -0.006572 0.440356 -0.897799 1.000000
41.251598 28.029499 -742.791626 0.144343 0.566957 -0.811002 1.000000
41.135399 27.911600 -742.902893 0.306290 0.591733 -0.745680 1.000000
40.984901 27.886801 -743.057983 0.521346 0.675571 -0.521346 1.000000
40.835999 27.872801 -743.212524 0.489201 0.657312 -0.573257 1.000000
40.681702 27.825899 -743.369812 0.275927 0.556584 -0.783632 1.000000
40.566799 27.721600 -743.480774 0.275883 0.626716 -0.728777 1.000000
40.410801 27.666401 -743.639221 0.313723 0.596877 -0.738455 1.000000
40.253201 27.603300 -743.798523 0.169604 0.907880 -0.383390 1.000000
40.144299 27.539101 -743.906677 0.244052 0.551837 -0.797443 1.000000
39.985401 27.470100 -744.066895 0.321672 0.495977 -0.806557 1.000000
39.476799 27.374599 -744.590271 0.166640 0.937868 0.304359 1.000000
42.828800 29.059000 -741.126404 0.185865 0.940337 -0.284992 1.000000
42.705101 29.203400 -741.267883 0.706045 0.681326 -0.193120 1.000000
41.751999 28.646299 -742.214478 0.222932 0.637617 -0.737391 1.000000
39.807899 27.493401 -744.144104 0.357508 0.765165 -0.535454 1.000000
39.651699 27.443899 -744.302795 0.254430 0.854703 -0.452490 1.000000
39.296001 27.383801 -744.668823 -0.315297 0.622509 0.716290 1.000000
42.386902 29.162399 -741.516479 0.198933 0.636895 -0.744843 1.000000
42.233299 29.101999 -741.671814 0.212736 0.734484 -0.644420 1.000000
42.126301 29.032200 -741.777405 0.189093 0.480922 -0.856130 1.000000
42.018700 28.958900 -741.883423 0.328415 0.393173 -0.858813 1.000000
41.907001 28.858801 -741.991516 0.214346 0.581356 -0.784908 1.000000
41.796902 28.771500 -742.098816 0.251989 0.502432 -0.827081 1.000000
41.583900 28.646700 -742.310425 0.310685 0.788662 -0.530554 1.000000
41.472900 28.555799 -742.418518 0.124131 0.452295 -0.883188 1.000000
41.169102 28.165800 -742.702026 0.195307 0.525360 -0.828162 1.000000
41.055500 28.063200 -742.811829 0.276676 0.570743 -0.773112 1.000000
40.899200 28.001801 -742.969604 0.486155 0.689973 -0.536274 1.000000
40.752201 27.999701 -743.122986 0.523273 0.664608 -0.533369 1.000000
40.595299 27.937000 -743.281311 0.317693 0.491555 -0.810829 1.000000
40.485298 27.861700 -743.389709 0.352685 0.520171 -0.777840 1.000000
40.376900 27.797899 -743.497314 0.328521 0.527236 -0.783643 1.000000
40.220901 27.743900 -743.655579 0.364630 0.424612 -0.828704 1.000000
40.060799 27.666300 -743.815979 0.364878 0.457292 -0.811017 1.000000
39.952000 27.602699 -743.924072 0.399626 0.547636 -0.735115 1.000000
39.471500 27.380899 -744.406616 0.115100 0.882434 -0.456138 1.000000
41.315102 28.459000 -742.520386 0.129750 0.440579 -0.888288 1.000000
39.652802 27.560301 -744.177979 0.443644 0.509613 -0.737207 1.000000
39.339298 27.163099 -744.471008 -0.150273 0.076911 0.985648 1.000000
42.772900 29.219500 -741.045227 0.860332 0.479602 -0.172657 1.000000
42.544601 29.307501 -741.291077 0.471671 0.736469 -0.484911 1.000000
39.798302 27.614799 -744.011108 0.371138 0.798508 -0.473964 1.000000
39.307701 27.336100 -744.499023 -0.071619 0.966231 -0.247526 1.000000
39.170898 27.212900 -744.631104 -0.473185 0.198529 0.858302 1.000000
41.189602 28.299601 -742.609314 0.104355 0.496045 -0.862003 1.000000
39.497700 27.518101 -744.294983 0.341876 0.382097 -0.858558 1.000000
42.643200 29.313801 -741.155029 0.696498 0.604290 -0.386943 1.000000
41.643002 28.763700 -742.150024 0.187141 0.801817 -0.567510 1.000000
40.912201 28.129400 -742.856873 0.345029 0.756473 -0.555611 1.000000
40.608398 28.066000 -743.168030 0.340258 0.717960 -0.607254 1.000000
40.072498 27.785299 -743.702393 0.218903 0.894711 -0.389324 1.000000
42.372898 29.335199 -741.367493 0.162629 0.706753 -0.688514 1.000000
42.213001 29.231600 -741.525085 0.145896 0.841481 -0.520215 1.000000
41.947102 29.068100 -741.788086 0.041898 0.893371 -0.447361 1.000000
41.837898 28.984800 -741.894714 0.028846 0.534339 -0.844778 1.000000
41.409801 28.721600 -742.317871 0.060711 0.831600 -0.552047 1.000000
40.993599 28.229500 -742.709229 0.094064 0.580303 -0.808950 1.000000
40.733898 28.133900 -742.971497 0.387014 0.832475 -0.396492 1.000000
40.429199 28.069000 -743.283081 0.176608 0.856325 -0.485300 1.000000
40.319500 27.996099 -743.391174 0.159543 0.827534 -0.538270 1.000000
40.203602 27.885300 -743.502380 0.180437 0.845517 -0.502538 1.000000
39.889500 27.770000 -743.819580 0.189525 0.728826 -0.657946 1.000000
39.311001 27.555401 -744.403625 0.031742 0.095226 -0.994949 1.000000
42.043598 29.222000 -741.563721 0.064899 0.682163 -0.728314 1.000000
41.664200 28.950600 -741.935303 0.174468 0.599259 -0.781313 1.000000
41.505501 28.864201 -742.093079 0.159682 0.819302 -0.550678 1.000000
41.232800 28.669901 -742.360413 0.164538 0.511402 -0.843442 1.000000
41.115501 28.539400 -742.471375 0.095595 0.515074 -0.851798 1.000000
40.994900 28.389000 -742.583984 0.181826 0.530452 -0.827986 1.000000
40.834099 28.298000 -742.743713 0.241307 0.555784 -0.795534 1.000000
40.632599 28.263100 -742.950378 0.480622 0.684929 -0.547608 1.000000
40.474998 28.196400 -743.108704 0.281621 0.587107 -0.758943 1.000000
40.042999 27.951300 -743.537476 0.334385 0.757616 -0.560539 1.000000
39.935501 27.895000 -743.644714 0.347441 0.792550 -0.501148 1.000000
39.720200 27.783501 -743.859192 0.326634 0.757855 -0.564771 1.000000
39.569801 27.769699 -744.014587 0.359507 0.839897 -0.406604 1.000000
39.415699 27.734200 -744.171875 0.858872 0.474835 -0.192018 1.000000
39.259800 27.688601 -744.330383 0.086585 0.227130 -0.970008 1.000000
39.146099 27.600100 -744.441101 0.173524 0.388636 -0.904904 1.000000
42.650902 29.323000 -740.777710 -0.660286 0.519156 -0.542678 1.000000
42.530602 29.423300 -740.911499 0.767212 0.631213 0.113825 1.000000
42.451900 29.552500 -741.004395 0.710095 0.685766 -0.159657 1.000000
42.309601 29.572001 -741.154114 0.231589 0.788025 -0.570424 1.000000
42.197399 29.463301 -741.261475 0.023397 0.557404 -0.829912 1.000000
42.087200 29.369900 -741.368225 0.301046 0.772525 -0.559085 1.000000
41.879902 29.277599 -741.575928 0.239752 0.808971 -0.536736 1.000000
41.718800 29.171200 -741.734375 0.058215 0.807917 -0.586414 1.000000
41.496601 28.982901 -741.949402 0.233927 0.642121 -0.730040 1.000000
41.341202 28.920500 -742.105713 0.279310 0.500886 -0.819206 1.000000
41.234200 28.857000 -742.211609 0.259028 0.335127 -0.905867 1.000000
41.061100 28.679300 -742.376526 0.157006 0.430686 -0.888740 1.000000
40.948101 28.579100 -742.485474 0.243469 0.531910 -0.811046 1.000000
40.831600 28.456600 -742.596313 0.150890 0.569200 -0.808235 1.000000
40.671501 28.371799 -742.755493 0.426475 0.783221 -0.452420 1.000000
40.469101 28.332100 -742.962708 0.374667 0.767175 -0.520641 1.000000
40.306999 28.237700 -743.123230 0.208771 0.620126 -0.756213 1.000000
40.150200 28.179399 -743.281311 0.460879 0.497221 -0.735093 1.000000
39.989300 28.095699 -743.441589 0.293579 0.461339 -0.837244 1.000000
39.880798 28.033300 -743.549072 0.346780 0.493802 -0.797435 1.000000
39.769402 27.953600 -743.658203 0.261854 0.794969 -0.547227 1.000000
39.559200 27.875500 -743.870178 0.231051 0.880976 -0.412911 1.000000
39.405399 27.841999 -744.027283 0.159798 0.891125 -0.424688 1.000000
39.248699 27.791401 -744.185974 0.097244 0.968654 -0.228587 1.000000
39.089001 27.724400 -744.346313 0.034159 0.309964 -0.950134 1.000000
42.582500 29.499100 -740.666077 0.579984 0.349290 -0.735945 1.000000
42.463501 29.583401 -740.797119 0.873068 0.438765 -0.212690 1.000000
42.382301 29.694500 -740.891113 0.684094 0.699607 -0.206314 1.000000
42.241100 29.722401 -741.040222 0.347763 0.674301 -0.651444 1.000000
42.135201 29.658100 -741.144714 0.157369 0.568026 -0.807825 1.000000
42.019299 29.524900 -741.253723 0.241307 0.555784 -0.795534 1.000000
41.908901 29.431000 -741.360474 0.126062 0.775651 -0.618445 1.000000
41.803001 29.369801 -741.465271 0.195756 0.735241 -0.648923 1.000000
41.651299 29.328800 -741.619385 0.237856 0.855979 -0.459047 1.000000
41.544998 29.267000 -741.724609 0.165348 0.412652 -0.895756 1.000000
41.435699 29.185400 -741.831177 0.205765 0.482122 -0.851598 1.000000
41.326900 29.108500 -741.937683 0.196163 0.542870 -0.816586 1.000000
41.216499 29.021900 -742.044983 0.228281 0.875824 -0.425230 1.000000
41.055698 28.925900 -742.203918 0.244190 0.322216 -0.914630 1.000000
40.887402 28.782200 -742.366577 0.196195 0.290814 -0.936448 1.000000
40.769699 28.652000 -742.477722 0.184891 0.465926 -0.865291 1.000000
40.653400 28.532101 -742.588379 0.246691 0.598658 -0.762071 1.000000
40.498600 28.483000 -742.745117 0.327439 0.875708 -0.354852 1.000000
40.347500 28.458799 -742.900024 0.356776 0.741248 -0.568562 1.000000
40.186501 28.372601 -743.059875 0.203170 0.548407 -0.811154 1.000000
40.028999 28.309700 -743.218323 0.325291 0.716935 -0.616596 1.000000
39.869301 28.234699 -743.377808 0.222416 0.479632 -0.848813 1.000000
39.706799 28.143600 -743.538879 0.199973 0.445866 -0.872476 1.000000
39.596500 28.071600 -743.647522 0.223718 0.560066 -0.797669 1.000000
39.486099 28.000700 -743.755981 0.324233 0.740412 -0.588781 1.000000
39.326000 27.928499 -743.916321 0.296319 0.787542 -0.540346 1.000000
39.172699 27.899599 -744.073120 0.126987 0.947723 -0.292738 1.000000
39.019001 27.868799 -744.230286 0.364623 0.928253 -0.073459 1.000000
38.906898 27.791000 -744.340088 0.240129 0.481787 -0.842745 1.000000
38.722099 27.577000 -744.513794 -0.344820 0.404110 -0.847227 1.000000
42.484901 29.757999 -740.519714 -0.585198 0.527859 -0.615555 1.000000
42.360401 29.836700 -740.655823 0.810263 0.173520 -0.559790 1.000000
42.219398 29.865900 -740.804810 0.628189 0.513667 -0.584401 1.000000
42.072300 29.851900 -740.956482 0.490619 0.490619 -0.720129 1.000000
41.962898 29.763500 -741.062500 0.367924 0.301304 -0.879686 1.000000
41.852402 29.668800 -741.169128 0.150527 0.567828 -0.809267 1.000000
41.738499 29.551001 -741.277283 0.279902 0.708552 -0.647773 1.000000
41.584099 29.490900 -741.432617 0.303667 0.740692 -0.599301 1.000000
41.429901 29.434099 -741.587830 0.303237 0.870092 -0.388570 1.000000
41.277500 29.390699 -741.742371 0.091322 0.216421 -0.972020 1.000000
41.157600 29.238501 -741.853882 0.222999 0.640928 -0.734494 1.000000
41.047798 29.156300 -741.960876 0.168175 0.598461 -0.783302 1.000000
40.938301 29.077600 -742.067871 0.219925 0.542893 -0.810494 1.000000
40.774799 28.965799 -742.228088 0.234083 0.550328 -0.801464 1.000000
40.659100 28.848600 -742.338196 0.176732 0.494554 -0.850989 1.000000
40.541698 28.721399 -742.449219 0.225561 0.529378 -0.817851 1.000000
40.385399 28.662300 -742.606506 0.388868 0.726871 -0.566074 1.000000
40.237598 28.659700 -742.759827 0.427989 0.490302 -0.759230 1.000000
40.083199 28.614599 -742.916382 0.337839 0.384119 -0.859254 1.000000
39.965698 28.493000 -743.028015 0.336574 0.492897 -0.802353 1.000000
39.857498 28.431700 -743.135071 0.307494 0.626258 -0.716413 1.000000
39.698299 28.359900 -743.294373 0.221266 0.828604 -0.514253 1.000000
39.540100 28.296801 -743.453186 0.175702 0.375689 -0.909938 1.000000
39.380001 28.223000 -743.613220 0.379308 0.456130 -0.805029 1.000000
39.265701 28.127800 -743.723816 0.315779 0.771013 -0.553013 1.000000
39.110298 28.085800 -743.881470 0.424946 0.715959 -0.553917 1.000000
38.954201 28.040400 -744.039795 0.304066 0.834234 -0.459998 1.000000
38.844398 27.975700 -744.148376 0.227594 0.908926 -0.349364 1.000000
38.701199 28.010000 -744.299988 0.040203 0.996375 -0.074973 1.000000
42.269501 29.816700 -740.483887 0.826594 0.428311 0.365092 1.000000
42.190800 29.946699 -740.576904 0.864126 0.349655 -0.361978 1.000000
42.055199 30.014999 -740.723572 0.411020 0.781426 -0.469506 1.000000
41.901901 29.957800 -740.877930 0.064127 0.807995 -0.585689 1.000000
41.793900 29.880199 -740.983215 0.260965 0.738611 -0.621572 1.000000
41.687801 29.816500 -741.087891 0.265122 0.649312 -0.712814 1.000000
41.579201 29.736099 -741.193787 0.304739 0.711058 -0.633664 1.000000
41.423599 29.668301 -741.349487 0.305231 0.771866 -0.557725 1.000000
41.317600 29.608101 -741.454285 0.355520 0.689742 -0.630762 1.000000
41.210400 29.540899 -741.559875 0.155423 0.632256 -0.759009 1.000000
41.103401 29.476299 -741.665283 0.114234 0.516222 -0.848802 1.000000
40.993500 29.392401 -741.772278 0.300949 0.677537 -0.671099 1.000000
40.884602 29.316401 -741.878784 0.202218 0.631351 -0.748668 1.000000
40.774899 29.236601 -741.985779 0.279813 0.551722 -0.785689 1.000000
40.619701 29.179800 -742.142090 0.222645 0.529743 -0.818414 1.000000
40.501801 29.048100 -742.253174 0.165306 0.463734 -0.870416 1.000000
40.385601 28.929501 -742.363525 0.316753 0.583662 -0.747667 1.000000
40.230999 28.881599 -742.519897 0.368995 0.806677 -0.461643 1.000000
40.079498 28.854401 -742.674927 0.448016 0.517450 -0.729059 1.000000
39.926800 28.820700 -742.830505 0.381171 0.406477 -0.830352 1.000000
39.813999 28.728800 -742.939819 0.296031 0.359144 -0.885088 1.000000
39.706299 28.670300 -743.046570 0.188262 0.461019 -0.867190 1.000000
39.588402 28.549000 -743.158386 0.303355 0.538416 -0.786183 1.000000
39.480099 28.488400 -743.265686 0.219907 0.804274 -0.552073 1.000000
39.319901 28.413500 -743.425476 0.373491 0.692686 -0.617001 1.000000
39.209900 28.344900 -743.533813 0.305231 0.557725 -0.771866 1.000000
39.050098 28.275000 -743.693726 0.336945 0.669006 -0.662495 1.000000
38.889999 28.204700 -743.853882 0.163386 0.816928 -0.553113 1.000000
38.779099 28.133499 -743.963013 0.270940 0.906550 -0.323663 1.000000
38.620701 28.076599 -744.122375 0.455466 0.857970 -0.237568 1.000000
42.171299 29.927900 -740.351013 0.073628 0.772371 0.630890 1.000000
42.092602 30.059000 -740.443909 0.755700 0.653232 0.046964 1.000000
41.957199 30.129400 -740.590515 0.483731 0.737979 -0.470523 1.000000
41.802799 30.065599 -740.745117 0.026353 0.811384 -0.583919 1.000000
41.645302 29.980900 -740.901184 0.223762 0.804002 -0.550919 1.000000
41.539398 29.919001 -741.005676 0.270317 0.763527 -0.586477 1.000000
41.383400 29.848499 -741.161377 0.253959 0.623066 -0.739793 1.000000
41.274799 29.770201 -741.267395 0.224342 0.787519 -0.574007 1.000000
41.168301 29.707399 -741.372375 0.185752 0.750683 -0.634012 1.000000
41.011600 29.636200 -741.528809 0.197364 0.797107 -0.570673 1.000000
40.900101 29.541401 -741.636414 0.246562 0.595204 -0.764813 1.000000
40.791698 29.469500 -741.742615 0.258429 0.724551 -0.638937 1.000000
40.684700 29.407301 -741.848328 0.334043 0.659939 -0.672975 1.000000
40.526100 29.328400 -742.005981 0.316613 0.567331 -0.760192 1.000000
40.416302 29.250601 -742.113098 0.276610 0.557961 -0.782410 1.000000
40.305099 29.164200 -742.221008 0.188156 0.610361 -0.769452 1.000000
40.194302 29.081200 -742.328796 0.289285 0.599348 -0.746388 1.000000
40.039101 29.030300 -742.485413 0.500920 0.688556 -0.524375 1.000000
39.890900 29.025400 -742.638672 0.444771 0.581367 -0.681316 1.000000
39.731300 28.948200 -742.797729 0.346074 0.444050 -0.826470 1.000000
39.570000 28.862499 -742.957581 0.192857 0.292754 -0.936537 1.000000
39.459400 28.786400 -743.065796 0.158727 0.358190 -0.920057 1.000000
39.338902 28.650000 -743.179016 0.242364 0.514058 -0.822802 1.000000
39.230999 28.593399 -743.286072 0.348731 0.556347 -0.754231 1.000000
39.119400 28.514601 -743.395081 0.387981 0.504863 -0.771093 1.000000
38.963402 28.468300 -743.552917 0.356095 0.517223 -0.778252 1.000000
38.806900 28.420300 -743.711121 0.364650 0.349264 -0.863160 1.000000
38.695301 28.344601 -743.820313 0.375582 0.350853 -0.857811 1.000000
38.580002 28.247700 -743.931580 0.361183 0.392454 -0.845888 1.000000
38.431000 28.247801 -744.086182 0.074567 0.964317 -0.254034 1.000000
42.037998 30.173000 -740.249512 0.731056 0.657491 -0.182381 1.000000
41.906101 30.270300 -740.394470 0.444884 0.893849 0.055781 1.000000
41.758400 30.253500 -740.546082 -0.552253 0.798045 0.241125 1.000000
41.600899 30.168400 -740.702026 0.235532 0.768989 -0.594290 1.000000
41.495098 30.107201 -740.806274 0.161393 0.779815 -0.604847 1.000000
41.338299 30.030399 -740.962219 0.223586 0.806451 -0.547400 1.000000
41.181499 29.955799 -741.118225 0.192181 0.761035 -0.619590 1.000000
41.074699 29.890900 -741.223328 0.181950 0.831555 -0.524797 1.000000
40.918701 29.824400 -741.379211 0.179386 0.821556 -0.541172 1.000000
40.806198 29.723101 -741.487000 0.213127 0.704720 -0.676718 1.000000
40.698200 29.653900 -741.592896 0.223271 0.657322 -0.719776 1.000000
40.542301 29.591700 -741.749084 0.330290 0.688240 -0.645937 1.000000
40.383900 29.514999 -741.906616 0.179632 0.683214 -0.707779 1.000000
40.276501 29.452801 -742.012573 0.182893 0.811683 -0.554726 1.000000
40.157799 29.317600 -742.123779 0.335367 0.578386 -0.743639 1.000000
40.000702 29.253500 -742.281189 0.315806 0.646187 -0.694773 1.000000
39.849701 29.230499 -742.435608 0.326347 0.770050 -0.548198 1.000000
39.692699 29.169901 -742.593018 0.310163 0.793698 -0.523300 1.000000
39.585602 29.114599 -742.699280 0.165577 0.833854 -0.526566 1.000000
39.477100 29.051399 -742.806213 0.092305 0.498449 -0.861991 1.000000
39.361801 28.945900 -742.916687 0.280300 0.505793 -0.815846 1.000000
39.251999 28.876699 -743.024414 0.154443 0.346453 -0.925266 1.000000
39.135899 28.768499 -743.135376 0.230754 0.552881 -0.800671 1.000000
39.026402 28.703199 -743.243225 0.291285 0.762434 -0.577795 1.000000
38.868900 28.647499 -743.401672 0.332133 0.724213 -0.604321 1.000000
38.759102 28.581800 -743.509827 0.301444 0.767167 -0.566204 1.000000
38.604599 28.547001 -743.666870 0.269787 0.310620 -0.911444 1.000000
38.496601 28.494499 -743.774170 0.278943 0.448466 -0.849158 1.000000
38.379799 28.388901 -743.886230 0.196251 0.965659 -0.170258 1.000000
38.237499 28.430201 -744.037109 -0.014323 0.992660 -0.120089 1.000000
41.986198 30.259001 -740.006592 0.254955 0.962167 -0.096089 1.000000
41.863701 30.345800 -740.140930 0.689795 0.723512 -0.026693 1.000000
41.728802 30.421499 -740.287109 0.486634 0.683963 -0.543491 1.000000
41.576401 30.371401 -740.440674 0.381443 0.731782 -0.564798 1.000000
41.422501 30.312901 -740.594971 0.161010 0.799029 -0.579334 1.000000
41.264999 30.230700 -740.750977 0.144493 0.799927 -0.582442 1.000000
41.109001 30.160299 -740.906372 0.232040 0.780216 -0.580879 1.000000
40.950100 30.071400 -741.063416 0.383450 0.712592 -0.587518 1.000000
40.792400 29.993000 -741.219910 0.219848 0.718795 -0.659545 1.000000
40.684502 29.923201 -741.325623 0.149239 0.758257 -0.634645 1.000000
40.577801 29.862200 -741.430786 0.288017 0.768575 -0.571260 1.000000
40.417198 29.768499 -741.589111 0.142159 0.782623 -0.606046 1.000000
40.309898 29.705601 -741.694702 0.197884 0.786933 -0.584447 1.000000
40.203098 29.646999 -741.800171 0.219592 0.643203 -0.733532 1.000000
40.041000 29.547701 -741.959595 0.196373 0.722095 -0.663338 1.000000
39.926201 29.438999 -742.068970 0.152551 0.735570 -0.660049 1.000000
39.774601 29.411699 -742.223694 0.418272 0.722470 -0.550532 1.000000
39.624802 29.396799 -742.377502 0.296543 0.843051 -0.448696 1.000000
39.472301 29.365299 -742.532715 0.262443 0.787328 -0.557887 1.000000
39.360500 29.281000 -742.641113 0.152417 0.762083 -0.629284 1.000000
39.251099 29.212400 -742.748474 0.346722 0.775690 -0.527340 1.000000
39.139702 29.132401 -742.856873 0.037140 0.518584 -0.854220 1.000000
39.021702 29.011801 -742.968811 0.176605 0.553967 -0.813592 1.000000
38.911701 28.942699 -743.076721 0.153611 0.864609 -0.478388 1.000000
38.751400 28.869400 -743.236389 0.253762 0.745524 -0.616279 1.000000
38.639198 28.788900 -743.345581 0.284397 0.770573 -0.570383 1.000000
38.531502 28.736700 -743.452576 0.264216 0.745183 -0.612284 1.000000
38.375198 28.691200 -743.610596 0.169213 0.927177 -0.334231 1.000000
38.267300 28.639799 -743.717773 -0.713271 0.507104 0.483827 1.000000
38.157398 28.576799 -743.826172 0.320110 0.311176 -0.894818 1.000000
38.039799 28.468300 -743.938721 -0.963234 0.268442 -0.010932 1.000000
41.837299 30.394501 -739.829285 0.418681 0.888421 -0.188188 1.000000
41.708698 30.516500 -739.973022 0.754002 0.656801 0.009720 1.000000
41.577702 30.620001 -740.117615 0.378668 0.879534 -0.288149 1.000000
41.427502 30.585300 -740.270081 0.224769 0.779716 -0.584399 1.000000
41.276199 30.544901 -740.423218 0.215996 0.741224 -0.635557 1.000000
41.169300 30.475401 -740.527893 0.247639 0.657743 -0.711372 1.000000
41.059200 30.385000 -740.633972 0.223221 0.811293 -0.540349 1.000000
40.906502 30.338100 -740.788025 0.244929 0.784709 -0.569421 1.000000
40.748199 30.253799 -740.944580 0.085417 0.794812 -0.600814 1.000000
40.637600 30.163700 -741.051270 0.064207 0.794739 -0.603545 1.000000
40.528999 30.088600 -741.157288 0.216347 0.745543 -0.630365 1.000000
40.374199 30.032801 -741.312622 0.269623 0.815102 -0.512750 1.000000
40.217999 29.968300 -741.468811 0.335590 0.775551 -0.534696 1.000000
40.111198 29.909100 -741.574219 0.304483 0.623465 -0.720126 1.000000
39.954102 29.841400 -741.731018 0.290556 0.563646 -0.773227 1.000000
39.843601 29.759100 -741.838318 0.223225 0.722751 -0.654066 1.000000
39.733299 29.679501 -741.945618 0.205628 0.613793 -0.762217 1.000000
39.578499 29.631100 -742.101685 0.399138 0.770580 -0.496886 1.000000
39.426899 29.604200 -742.256287 0.325540 0.771354 -0.546843 1.000000
39.319000 29.543200 -742.362671 0.250896 0.724286 -0.642232 1.000000
39.159698 29.469500 -742.521179 0.280619 0.765758 -0.578678 1.000000
39.001801 29.406200 -742.679199 0.204732 0.598803 -0.774287 1.000000
38.893902 29.347900 -742.785889 0.167425 0.921542 -0.350327 1.000000
38.784801 29.283600 -742.893188 0.046613 0.400872 -0.914947 1.000000
38.666801 29.164499 -743.005127 0.070264 0.447761 -0.891388 1.000000
38.557598 29.101299 -743.112671 -0.017100 0.422247 -0.906319 1.000000
38.441101 28.994200 -743.223999 0.233238 0.868249 -0.437886 1.000000
38.279400 28.914600 -743.384583 0.337449 0.836559 -0.431621 1.000000
38.120098 28.851999 -743.544006 -0.036851 0.869412 -0.492712 1.000000
37.966702 28.825399 -743.700623 0.357286 0.932109 -0.059328 1.000000
37.770901 28.816601 -743.902527 0.180000 0.882437 0.434633 1.000000
41.683800 30.631599 -739.671814 -0.086717 0.521726 -0.848694 1.000000
41.550800 30.678600 -739.813477 0.673162 0.738352 -0.041098 1.000000
41.418499 30.772699 -739.958618 0.606508 0.754591 -0.250480 1.000000
41.277500 30.803499 -740.107178 0.433157 0.786820 -0.439646 1.000000
41.123798 30.744699 -740.261230 0.127041 0.677056 -0.724883 1.000000
41.010601 30.630600 -740.368530 0.162389 0.657145 -0.736064 1.000000
40.851898 30.540300 -740.524902 0.236223 0.752472 -0.614805 1.000000
40.696999 30.477600 -740.679810 0.177261 0.801461 -0.571173 1.000000
40.536800 30.380501 -740.837219 0.219652 0.730616 -0.646494 1.000000
40.376999 30.288401 -740.994629 0.296968 0.711118 -0.637277 1.000000
40.222500 30.233400 -741.149780 0.389262 0.721039 -0.573217 1.000000
40.065701 30.164600 -741.306091 0.281847 0.801454 -0.527479 1.000000
39.910301 30.106600 -741.461914 0.195583 0.743832 -0.639110 1.000000
39.751598 30.028200 -741.619385 0.305146 0.686174 -0.660342 1.000000
39.635399 29.909000 -741.729309 0.155837 0.636965 -0.754977 1.000000
39.479401 29.851999 -741.885681 0.438807 0.726930 -0.528225 1.000000
39.328800 29.830200 -742.039795 0.404675 0.715200 -0.569848 1.000000
39.176601 29.799601 -742.194580 0.291947 0.519192 -0.803248 1.000000
39.068001 29.734400 -742.301392 0.276702 0.504942 -0.817600 1.000000
38.958199 29.662300 -742.408813 0.256790 0.807723 -0.530700 1.000000
38.798401 29.586500 -742.567627 0.247003 0.803149 -0.542164 1.000000
38.634899 29.489599 -742.728516 0.328248 0.786194 -0.523596 1.000000
38.525101 29.420900 -742.836182 -0.046047 0.542791 -0.838605 1.000000
38.410301 29.322300 -742.946472 0.055453 0.604296 -0.794828 1.000000
38.295399 29.224199 -743.056885 0.259243 0.848292 -0.461729 1.000000
38.186699 29.165199 -743.164307 0.204871 0.462081 -0.862850 1.000000
38.074402 29.085199 -743.273621 0.121846 0.811815 -0.571060 1.000000
37.917198 29.034700 -743.431885 0.178429 0.623740 -0.760994 1.000000
37.806400 28.966000 -743.540588 0.183171 0.806862 -0.561624 1.000000
37.685600 28.838600 -743.654480 0.094561 0.957264 -0.273319 1.000000
37.528702 28.793200 -743.812988 0.317350 0.885873 0.338406 1.000000
41.457802 30.738800 -739.647888 0.700287 0.709022 0.082986 1.000000
41.377201 30.856501 -739.741577 0.529358 0.715214 0.456343 1.000000
41.244701 30.948700 -739.886719 0.164570 0.986286 -0.012485 1.000000
41.097000 30.931400 -740.038086 0.247419 0.837535 -0.487154 1.000000
40.945400 30.887400 -740.191223 0.247116 0.859601 -0.447235 1.000000
40.836800 30.806101 -740.296570 0.219925 0.542893 -0.810494 1.000000
40.726002 30.710501 -740.402893 0.240302 0.617245 -0.749175 1.000000
40.618999 30.643101 -740.507690 0.373055 0.603133 -0.705025 1.000000
40.462799 30.572001 -740.663330 0.329303 0.538130 -0.775871 1.000000
40.356098 30.508101 -740.768188 0.305146 0.660342 -0.686174 1.000000
40.249298 30.445000 -740.873230 0.336148 0.712893 -0.615458 1.000000
40.096298 30.399700 -741.027588 0.326800 0.764679 -0.555399 1.000000
39.989700 30.339300 -741.132813 0.242890 0.769412 -0.590770 1.000000
39.833900 30.277800 -741.288574 0.267554 0.748835 -0.606351 1.000000
39.678101 30.218000 -741.444702 0.364191 0.736548 -0.569967 1.000000
39.516602 30.121799 -741.603516 0.297499 0.631984 -0.715605 1.000000
39.408501 30.056400 -741.709717 0.273035 0.688176 -0.672209 1.000000
39.301800 30.000299 -741.815186 0.406974 0.763281 -0.501771 1.000000
39.155102 30.004101 -741.967407 0.489818 0.718953 -0.493138 1.000000
38.998798 29.946899 -742.124207 0.261003 0.532946 -0.804889 1.000000
38.840500 29.878401 -742.282104 0.237856 0.855979 -0.459047 1.000000
38.726101 29.777399 -742.391785 0.164960 0.770319 -0.615952 1.000000
38.617802 29.716400 -742.498474 0.247639 0.629351 -0.736609 1.000000
38.506401 29.636801 -742.606873 0.245949 0.815189 -0.524382 1.000000
38.345501 29.557100 -742.766479 0.088948 0.637217 -0.765535 1.000000
38.232101 29.467501 -742.876099 0.055806 0.651073 -0.756961 1.000000
38.115299 29.357700 -742.987488 0.208325 0.779289 -0.591025 1.000000
38.004200 29.284500 -743.096130 0.253827 0.835322 -0.487656 1.000000
37.847500 29.236000 -743.254028 0.206260 0.808235 -0.551555 1.000000
37.684898 29.153400 -743.415222 0.130296 0.838872 -0.528504 1.000000
37.576099 29.096701 -743.522827 0.289419 0.602822 -0.743534 1.000000
37.444099 28.903000 -743.642578 0.014003 0.352623 -0.935661 1.000000
37.341702 28.829700 -743.742188 0.491964 0.777725 0.391298 1.000000
41.364799 30.907700 -739.513489 0.555297 0.616059 -0.558673 1.000000
41.261101 30.990299 -739.627930 0.591893 0.713223 0.375467 1.000000
41.127602 31.075001 -739.773376 0.763307 0.032332 -0.645226 1.000000
40.980099 31.059700 -739.924622 0.147955 0.856969 -0.493673 1.000000
40.824299 30.985500 -740.079529 0.212736 0.734484 -0.644420 1.000000
40.664299 30.884701 -740.236084 0.219658 0.749331 -0.624702 1.000000
40.558498 30.824499 -740.340393 0.257681 0.731940 -0.630765 1.000000
40.405102 30.771799 -740.494629 0.223225 0.654066 -0.722751 1.000000
40.297199 30.699301 -740.599915 0.237116 0.654817 -0.717629 1.000000
40.189301 30.627399 -740.705322 0.280126 0.689909 -0.667499 1.000000
40.034500 30.569500 -740.860413 0.286171 0.737010 -0.612310 1.000000
39.927601 30.506500 -740.965576 0.310030 0.753390 -0.579901 1.000000
39.770401 30.435499 -741.121887 0.382940 0.721506 -0.576876 1.000000
39.618801 30.402100 -741.275879 0.299454 0.741429 -0.600509 1.000000
39.461300 30.331600 -741.432678 0.267073 0.769612 -0.579974 1.000000
39.350101 30.244801 -741.540283 0.203341 0.700052 -0.684529 1.000000
39.195599 30.196600 -741.695923 0.484624 0.659022 -0.575177 1.000000
39.044201 30.169201 -741.850220 0.427310 0.737480 -0.523000 1.000000
38.888000 30.112301 -742.006897 0.288309 0.590954 -0.753426 1.000000
38.778900 30.043699 -742.113770 0.316613 0.760192 -0.567331 1.000000
38.616501 29.950399 -742.273621 0.230792 0.502852 -0.832992 1.000000
38.503700 29.860399 -742.382507 0.260294 0.601043 -0.755642 1.000000
38.345600 29.797100 -742.540588 0.319448 0.768922 -0.553816 1.000000
38.236401 29.731800 -742.647888 0.098659 0.426595 -0.899046 1.000000
38.120399 29.625601 -742.758728 0.150588 0.423081 -0.893490 1.000000
38.007999 29.542900 -742.867676 0.202989 0.807376 -0.554022 1.000000
37.898102 29.476101 -742.975708 0.341591 0.517999 -0.784215 1.000000
37.738098 29.407200 -743.135315 0.250612 0.858156 -0.448064 1.000000
37.626999 29.335699 -743.243896 0.309882 0.822682 -0.476621 1.000000
37.518101 29.277700 -743.351624 0.188952 0.429169 -0.883239 1.000000
37.405602 29.199200 -743.461182 0.077063 0.152941 -0.985226 1.000000
37.241199 28.813601 -743.597778 0.843735 0.402300 -0.355339 1.000000
41.249699 31.037500 -739.386475 0.435329 0.894454 0.102183 1.000000
41.143799 31.138000 -739.504700 -0.689576 0.139718 0.710608 1.000000
41.061199 31.240601 -739.599121 -0.495607 0.469087 0.730980 1.000000
40.915901 31.240200 -739.749329 0.636551 0.420489 -0.646523 1.000000
40.762600 31.184099 -739.902893 -0.709698 0.675682 0.199458 1.000000
40.606899 31.112000 -740.057617 0.238499 0.581438 -0.777849 1.000000
40.498100 31.029900 -740.162903 0.268971 0.724152 -0.635026 1.000000
40.340401 30.947201 -740.318726 0.236010 0.758047 -0.608000 1.000000
40.181099 30.855400 -740.475403 0.182070 0.763469 -0.619649 1.000000
40.074299 30.790600 -740.580322 0.384250 0.694290 -0.608534 1.000000
39.917000 30.715799 -740.736328 0.227112 0.725193 -0.650011 1.000000
39.758801 30.636200 -740.892883 0.397500 0.700985 -0.592126 1.000000
39.604099 30.581900 -741.048218 0.391525 0.692190 -0.606285 1.000000
39.450001 30.532400 -741.203186 0.287123 0.700966 -0.652845 1.000000
39.288399 30.435600 -741.361816 0.311088 0.604447 -0.733395 1.000000
39.178101 30.355101 -741.468811 0.363316 0.738037 -0.568598 1.000000
39.027802 30.334200 -741.622375 0.280074 0.696184 -0.660974 1.000000
38.874901 30.297701 -741.777283 0.256313 0.845678 -0.468116 1.000000
38.715900 30.223700 -741.935181 0.147394 0.814389 -0.561289 1.000000
38.607300 30.158501 -742.041809 0.159944 0.820648 -0.548593 1.000000
38.449501 30.094299 -742.199402 0.279856 0.814553 -0.508118 1.000000
38.337399 30.009001 -742.307922 0.221134 0.858963 -0.461824 1.000000
38.176899 29.930799 -742.466980 0.146772 0.867554 -0.475193 1.000000
38.068298 29.869900 -742.573975 -0.011928 0.889271 -0.457226 1.000000
37.957600 29.796900 -742.682007 0.159062 0.367390 -0.916364 1.000000
37.838100 29.670300 -742.794617 0.137995 0.483708 -0.864283 1.000000
37.730301 29.616899 -742.901428 0.277496 0.759546 -0.588291 1.000000
37.567101 29.529499 -743.062378 0.081568 0.822838 -0.562392 1.000000
37.410099 29.480200 -743.220520 0.271206 0.922675 -0.274076 1.000000
37.258801 29.466299 -743.375671 0.771066 0.139241 -0.621345 1.000000
37.107700 29.555700 -743.539673 -0.091680 0.609742 0.787280 1.000000
41.012699 31.273899 -739.386414 0.825244 0.527366 0.202132 1.000000
40.882099 31.379499 -739.530579 0.568606 0.774507 -0.277175 1.000000
40.737801 31.386299 -739.680420 0.298641 0.830252 -0.470633 1.000000
40.584202 31.327400 -739.834106 0.229952 0.749299 -0.621026 1.000000
40.425900 31.237801 -739.989807 0.225936 0.765066 -0.603015 1.000000
40.314602 31.137899 -740.096313 0.142159 0.782623 -0.606046 1.000000
40.159302 31.072399 -740.250977 0.291643 0.766558 -0.572130 1.000000
40.002602 30.998100 -740.406616 0.303871 0.718680 -0.625429 1.000000
39.893700 30.919600 -740.512207 0.281242 0.754745 -0.592674 1.000000
39.734798 30.833401 -740.669006 0.318391 0.728905 -0.606074 1.000000
39.581200 30.785200 -740.823486 0.408215 0.745935 -0.526253 1.000000
39.428398 30.743401 -740.977783 0.238300 0.789659 -0.565377 1.000000
39.273399 30.688000 -741.133301 0.216608 0.803446 -0.554577 1.000000
39.157501 30.569401 -741.242676 0.172442 0.749281 -0.639407 1.000000
39.049400 30.503000 -741.348694 0.256756 0.813838 -0.521292 1.000000
38.900600 30.491400 -741.501587 0.361733 0.757531 -0.543411 1.000000
38.749500 30.466200 -741.655579 0.324022 0.814007 -0.482082 1.000000
38.639000 30.387100 -741.762878 0.283153 0.721480 -0.631895 1.000000
38.531799 30.330601 -741.868713 0.369230 0.598973 -0.710563 1.000000
38.375500 30.274900 -742.025513 0.355916 0.742711 -0.567190 1.000000
38.214401 30.190901 -742.184570 0.232828 0.764112 -0.601601 1.000000
38.104198 30.118000 -742.292175 0.358286 0.714936 -0.600415 1.000000
37.990601 30.024900 -742.401611 0.153783 0.423982 -0.892519 1.000000
37.879299 29.947800 -742.509827 0.156383 0.826593 -0.540637 1.000000
37.764999 29.852699 -742.619629 0.218321 0.596125 -0.772639 1.000000
37.606300 29.789900 -742.778320 0.284111 0.473519 -0.833703 1.000000
37.497299 29.729401 -742.885681 0.309103 0.757543 -0.574964 1.000000
37.384102 29.644400 -742.995178 0.292381 0.480005 -0.827109 1.000000
37.275101 29.585800 -743.102783 0.140560 0.870891 -0.470948 1.000000
37.164501 29.518200 -743.211182 0.003697 0.952546 -0.304371 1.000000
37.056000 29.464199 -743.318726 0.294229 0.954015 0.057317 1.000000
36.866299 29.419300 -743.510925 -0.036854 0.203293 -0.978424 1.000000
41.006001 31.397100 -739.151428 0.207673 0.573793 -0.792234 1.000000
40.895500 31.417601 -739.267578 0.723455 0.689609 0.032436 1.000000
40.764000 31.516199 -739.412292 0.608552 0.718903 -0.335921 1.000000
40.620300 31.526600 -739.561829 0.306378 0.755519 -0.579071 1.000000
