ply
format ascii 1.0
element vertex 685
property float x
property float y
property float z
property float nx
property float ny
property float nz
property float label
element face 0
property list uchar int vertex_indices
end_header
106.221703 118.898697 -707.682678 0.888126 0.403425 -0.220184 0.000000
104.947502 119.779602 -706.933289 -0.520179 0.563948 -0.641386 0.000000
106.878799 118.994499 -709.181030 0.162783 0.982728 0.088023 0.000000
112.430199 66.241402 -760.070190 -0.041940 0.311371 0.949363 0.000000
113.858498 66.052498 -761.387695 -0.919712 0.356336 -0.164788 0.000000
114.927200 65.693001 -762.565613 -0.589088 0.514819 -0.622846 0.000000
104.679398 119.690498 -708.566772 -0.513143 0.566981 -0.644373 0.000000
105.206299 119.462303 -710.059570 -0.513143 0.566981 -0.644373 0.000000
102.244102 119.346298 -709.673218 -0.101259 0.903008 0.417520 0.000000
103.603104 119.711197 -710.429626 0.483977 0.871158 -0.082767 0.000000
103.907204 118.655098 -711.603394 0.782399 0.547520 -0.296772 0.000000
103.248199 117.338898 -712.785278 0.689050 0.701327 -0.182621 0.000000
100.964600 119.270897 -711.148315 -0.342623 0.939370 -0.013907 0.000000
102.342697 119.742798 -711.852478 -0.424290 0.755203 -0.499646 0.000000
102.227898 118.954002 -713.275879 -0.521303 0.565167 -0.639398 0.000000
99.633202 118.853104 -712.628174 -0.405555 0.793337 -0.454028 0.000000
101.419601 118.326202 -714.553589 0.720002 0.503835 -0.477230 0.000000
100.759399 119.511803 -713.563782 0.115898 0.993261 0.001083 0.000000
101.519897 122.232399 -712.790222 0.338271 0.899594 -0.276230 0.000000
98.585701 118.849602 -713.891724 -0.013748 0.948594 0.316198 0.000000
99.707298 119.440002 -714.853882 -0.082589 0.945180 -0.315934 0.000000
99.502701 118.925499 -716.386414 0.689064 0.685925 -0.233874 0.000000
97.366699 118.733398 -715.517822 0.637023 0.643676 0.424127 0.000000
98.645897 118.486900 -717.686523 0.480019 0.440700 -0.758528 0.000000
97.060799 120.187302 -716.648682 0.867154 0.492923 -0.071216 0.000000
97.135902 119.061699 -717.756226 0.168395 0.958658 -0.229388 0.000000
97.573898 118.155502 -718.982422 0.810770 0.460339 -0.361581 0.000000
96.846703 117.482903 -720.353821 0.776077 0.321632 -0.542454 0.000000
95.308502 118.419800 -718.572876 -0.116260 0.967134 -0.226133 0.000000
93.886497 117.876099 -719.763489 -0.013801 0.944762 -0.327467 0.000000
95.240501 118.511101 -720.415771 0.076180 0.992618 -0.094373 0.000000
95.580399 117.496101 -721.678772 0.896709 0.196200 0.396761 0.000000
93.586502 117.893997 -721.317017 -0.461421 0.753709 -0.467989 0.000000
95.886803 118.624603 -722.760681 -0.151295 0.987462 -0.045042 0.000000
91.708298 116.952599 -722.703125 0.132173 0.604433 0.785615 0.000000
93.036598 117.405197 -723.509277 0.154626 0.984091 -0.087501 0.000000
90.446198 116.425797 -724.652222 -0.315277 0.680675 -0.661273 0.000000
91.616302 116.422203 -725.739685 0.106238 0.953517 -0.281989 0.000000
88.628197 116.273399 -725.865173 0.723722 0.552271 0.413791 0.000000
89.557098 115.837097 -727.130493 0.539140 0.479050 0.692704 0.000000
87.353302 117.971802 -725.895020 0.388034 0.887573 -0.248282 0.000000
87.813797 115.285202 -728.859009 0.936739 0.312246 0.158186 0.000000
88.455803 112.549004 -734.590698 0.351453 0.922738 0.158224 0.000000
89.599098 112.405800 -735.737488 -0.640165 0.656706 0.398655 0.000000
85.663399 115.034897 -731.946228 0.674165 0.308790 0.670932 0.000000
83.165100 111.529999 -734.831726 0.757934 0.647794 -0.076808 0.000000
82.329903 110.344902 -736.600281 0.094919 0.778339 -0.620627 0.000000
80.664703 109.618103 -736.973083 0.237033 0.217851 -0.946761 0.000000
81.066704 108.654297 -738.173584 0.102314 0.438689 -0.892795 0.000000
109.815804 65.171600 -765.528320 0.410138 0.799367 -0.439089 0.000000
110.638802 64.349197 -766.783630 0.477297 0.850044 -0.222739 0.000000
109.546501 65.557701 -759.349915 0.250074 0.915012 -0.316568 0.000000
121.507896 65.461197 -762.588501 -0.256323 0.930409 -0.261987 0.000000
105.815498 121.565102 -706.380127 0.154983 0.957715 -0.242409 0.000000
122.964302 65.401001 -761.514221 0.240153 0.445567 0.862436 0.000000
110.159599 66.024498 -760.758118 0.319380 0.936208 0.146668 0.000000
111.437202 65.667503 -761.715515 0.001321 0.463513 -0.886089 0.000000
106.727798 65.641602 -761.176819 -0.226845 0.055178 0.972367 0.000000
108.123199 65.664200 -761.971375 0.072627 0.990266 -0.118740 0.000000
109.494400 65.522598 -762.851196 0.160143 0.986983 0.014765 0.000000
110.590401 64.861702 -763.884583 0.962460 0.200896 0.182513 0.000000
111.251198 63.737701 -764.945374 -0.223706 0.194236 -0.955106 0.000000
111.840897 63.269699 -767.288330 0.957704 0.227139 0.176664 0.000000
93.097397 115.382004 -724.479614 -0.470038 0.440558 -0.764835 0.000000
118.139603 65.524002 -762.448181 0.261585 0.872455 -0.412791 0.000000
97.199501 121.014198 -718.657104 -0.711743 0.086228 -0.697128 0.000000
98.723900 121.180702 -718.134277 0.098690 0.962552 -0.252494 0.000000
91.508797 114.988197 -726.748901 -0.425674 0.438622 -0.791462 0.000000
90.412804 118.907898 -725.015076 0.346682 0.836115 -0.425116 0.000000
90.528000 114.427696 -727.953186 0.731327 0.261755 -0.629798 0.000000
88.331200 119.798500 -724.994019 -0.448565 0.484713 -0.750895 0.000000
89.160599 114.325302 -729.071472 0.677656 0.261858 -0.687178 0.000000
88.845802 113.009102 -730.219971 -0.321936 0.710201 -0.626077 0.000000
86.633202 114.364304 -729.486023 -0.379236 0.864413 -0.330105 0.000000
87.638100 112.705803 -731.274170 0.628771 0.648785 -0.428632 0.000000
86.065201 113.495903 -730.736694 -0.043428 0.822323 0.567361 0.000000
88.359100 115.227600 -731.325623 0.645437 0.297770 0.703381 0.000000
86.646599 112.146500 -732.384827 0.235267 0.774355 -0.587388 0.000000
90.747398 112.030197 -734.709778 0.349467 0.881987 0.316184 0.000000
84.963303 112.380798 -732.833923 -0.160902 0.801502 -0.575939 0.000000
86.914803 112.287697 -733.952515 -0.315348 0.917244 -0.243350 0.000000
84.856400 111.571404 -734.213684 -0.257634 0.831526 -0.492128 0.000000
84.128502 110.426498 -735.448120 0.015325 0.675708 -0.737010 0.000000
84.949799 116.131897 -733.130981 0.551989 0.750640 0.363108 0.000000
82.742104 108.870300 -737.287720 0.555950 0.469135 -0.686172 0.000000
83.831001 114.703400 -734.922974 0.723389 0.159237 -0.671827 0.000000
82.218002 107.559898 -738.222412 0.106966 0.407028 -0.907131 0.000000
81.088501 106.727402 -739.273926 0.311030 0.623672 -0.717142 0.000000
79.497101 108.556099 -737.698425 0.164543 0.792524 0.587223 0.000000
79.828300 107.865303 -739.084229 0.716470 0.457144 0.526963 0.000000
80.228500 105.945396 -740.355774 -0.323679 0.478414 -0.816304 0.000000
79.579300 104.752403 -741.240417 0.365289 0.530887 -0.764672 0.000000
78.420998 107.195503 -739.426880 0.121891 0.903674 -0.410506 0.000000
78.587402 106.422401 -740.874878 0.913246 0.370696 -0.169014 0.000000
79.935898 107.464996 -741.025879 0.952707 0.212163 -0.217569 0.000000
76.748703 108.551498 -739.433289 0.665248 0.684577 0.297992 0.000000
77.953003 105.263702 -741.875610 0.364964 0.493585 -0.789415 0.000000
77.837700 103.688797 -742.675903 0.675513 0.020979 -0.737050 0.000000
77.526901 107.685799 -740.677124 0.421987 0.310694 -0.851702 0.000000
77.140198 102.575600 -743.566895 -0.437594 0.102059 0.893362 0.000000
76.201401 105.035004 -742.205627 -0.006835 0.570049 -0.821582 0.000000
76.553902 101.357002 -744.414612 0.440154 0.330507 -0.834883 0.000000
76.842903 110.040703 -739.962280 0.473309 0.367416 -0.800615 0.000000
78.478302 105.217598 -743.417603 -0.177317 0.948848 -0.261238 0.000000
75.736900 103.831703 -743.350281 -0.082143 0.993592 0.077642 0.000000
75.404602 100.757401 -745.360779 0.846714 0.203031 -0.491786 0.000000
75.847000 104.179298 -744.893188 -0.172938 0.684102 -0.708588 0.000000
74.151802 99.943001 -746.273621 0.605590 0.122895 -0.786230 0.000000
73.794899 98.210800 -747.022827 -0.962811 0.061670 0.263043 0.000000
74.159897 101.688301 -746.031982 0.504548 0.224074 0.833800 0.000000
74.976196 98.570900 -748.176025 -0.435399 0.428924 -0.791487 0.000000
72.781097 97.403297 -748.027283 -0.712432 0.098418 -0.694805 0.000000
72.439903 95.860603 -748.678772 0.729490 0.458206 -0.507831 0.000000
71.394897 94.596397 -749.737305 0.629272 0.264706 -0.730717 0.000000
70.500999 93.019302 -750.569702 -0.542866 0.610513 0.576689 0.000000
71.039597 97.140503 -748.885315 0.009739 0.685896 -0.727634 0.000000
70.256203 95.921898 -749.881775 0.038738 0.181953 -0.982544 0.000000
69.717003 94.671700 -750.812683 -0.216087 0.871800 -0.439626 0.000000
69.128998 92.672302 -751.566406 0.111781 0.387783 -0.914948 0.000000
68.757103 91.155403 -752.179199 0.853514 0.297881 -0.427529 0.000000
67.899399 89.301003 -753.032776 -0.929058 0.095738 0.357330 0.000000
66.682297 88.116203 -754.089783 -0.645066 0.269175 0.715147 0.000000
66.268600 86.582497 -754.688171 0.299676 0.944719 0.133040 0.000000
65.118698 85.977501 -755.632202 0.499729 0.617510 -0.607414 0.000000
67.017097 92.970596 -753.505615 -0.248199 0.794550 0.554155 0.000000
65.281097 88.723396 -754.842407 -0.183304 0.441395 -0.878391 0.000000
62.686798 82.138000 -757.605530 -0.550615 0.797066 -0.248011 0.000000
63.691200 86.337997 -756.489624 -0.916295 0.132493 -0.377954 0.000000
62.884102 85.148804 -757.249023 -0.727936 0.509058 -0.459313 0.000000
62.841702 83.739098 -757.990173 0.357010 0.904910 -0.231692 0.000000
63.857800 82.974800 -758.967407 0.771365 0.613758 0.168215 0.000000
63.528500 85.100197 -758.767883 0.087944 0.988487 0.123121 0.000000
61.273499 84.631699 -758.324280 0.032509 0.710961 -0.702480 0.000000
63.034901 87.110100 -758.673584 0.914203 0.274697 0.297952 0.000000
64.469597 89.247597 -758.304382 0.263491 0.771540 -0.579049 0.000000
64.315002 86.718300 -759.598572 -0.439138 0.429415 -0.789152 0.000000
61.743801 86.157204 -759.359314 -0.101498 0.045730 -0.993784 0.000000
65.195801 87.824600 -760.366577 0.592238 0.252919 0.765040 0.000000
57.127201 85.435402 -758.002014 -0.439646 0.433157 -0.786820 0.000000
58.539101 85.418602 -758.798828 -0.439646 0.433157 -0.786820 0.000000
60.113201 86.085602 -759.310120 -0.438526 0.432053 -0.788052 0.000000
63.166199 88.440903 -759.716980 0.082412 0.465140 0.881392 0.000000
63.921700 89.911102 -759.929810 -0.336250 0.825629 -0.453070 0.000000
65.382401 90.102997 -760.640076 0.478711 0.042279 0.876954 0.000000
55.488400 81.476700 -760.332886 0.009712 0.761664 -0.647900 0.000000
61.475601 91.380402 -758.211975 0.025376 0.970326 -0.240467 0.000000
58.734200 87.031799 -759.456177 0.237714 0.790828 0.563989 0.000000
67.844002 94.439102 -760.468384 -0.183809 0.913344 0.363343 0.000000
62.149399 90.779297 -759.631104 -0.442258 0.432538 -0.785696 0.000000
64.601799 91.926498 -760.373901 -0.286282 0.615746 -0.734097 0.000000
65.834999 91.533600 -761.283630 0.975427 0.037193 0.217161 0.000000
63.435200 97.610100 -757.013306 0.046935 0.905185 -0.422419 0.000000
60.286999 88.468300 -760.300415 0.276063 0.387695 0.879478 0.000000
60.466999 86.484001 -761.498718 -0.682292 0.104628 -0.723554 0.000000
66.261703 93.352898 -760.954529 -0.541082 0.454509 0.707568 0.000000
65.440804 96.555702 -759.288879 -0.466906 0.661032 -0.587398 0.000000
61.509602 95.480499 -758.190918 -0.439646 0.433157 -0.786820 0.000000
62.690800 92.559898 -760.474182 -0.491631 0.676202 -0.548680 0.000000
63.883701 93.890198 -760.406982 -0.479784 0.068143 -0.874736 0.000000
66.436798 95.499001 -760.949707 -0.429082 0.474764 -0.768432 0.000000
69.240196 96.694199 -761.862427 0.475738 0.498944 -0.724381 0.000000
62.767502 95.540100 -759.274902 -0.439027 0.435787 -0.785713 0.000000
67.677696 96.293404 -761.610779 -0.457684 0.438139 -0.773666 0.000000
61.209202 91.695297 -761.040894 -0.526929 0.310427 -0.791190 0.000000
64.511703 95.656403 -760.693420 -0.444275 0.367840 -0.816893 0.000000
68.104103 98.407799 -761.179199 -0.510750 0.855044 -0.089630 0.000000
68.444901 93.188499 -764.265076 -0.764459 0.301634 -0.569753 0.000000
64.077599 103.167000 -756.904419 0.299476 0.524479 0.797017 0.000000
65.283501 97.041603 -760.989624 -0.618267 0.721581 0.311555 0.000000
69.271500 98.672203 -762.320984 -0.452003 0.248069 -0.856828 0.000000
70.062897 97.711403 -763.299805 -0.440147 0.436898 -0.784468 0.000000
68.991501 108.033798 -757.510498 0.474733 0.874360 0.100615 0.000000
66.415199 98.014801 -761.651672 -0.707135 0.287023 -0.646203 0.000000
70.918098 99.494202 -763.359985 0.358305 0.626625 -0.692069 0.000000
68.888298 94.703300 -764.891174 0.848720 0.249264 0.466414 0.000000
63.765900 97.914703 -760.678101 0.536782 0.772128 -0.340123 0.000000
64.889000 99.039299 -761.153381 0.668779 0.240760 0.703398 0.000000
66.072800 100.904999 -760.775818 -0.199875 0.673996 -0.711182 0.000000
67.277802 99.036003 -762.499878 -0.084249 0.429531 0.899114 0.000000
69.348602 100.228203 -762.998291 -0.084149 0.431779 0.898045 0.000000
69.805801 95.502602 -765.900085 0.894341 0.376954 0.240955 0.000000
71.877701 98.786003 -765.229004 -0.442760 0.436273 -0.783345 0.000000
70.484100 101.200996 -763.519897 0.552372 0.069579 0.830689 0.000000
63.952301 100.298500 -760.731323 -0.767999 0.500585 -0.399490 0.000000
67.136002 101.466400 -761.868774 0.211504 0.977171 -0.020087 0.000000
68.575401 101.975601 -762.393372 -0.088189 0.962407 -0.256897 0.000000
72.060699 102.161598 -764.251526 0.078711 0.817161 -0.571011 0.000000
70.858101 96.244301 -766.894226 0.406974 0.763281 0.501771 0.000000
66.894302 106.161201 -759.528381 0.473692 0.097566 0.875270 0.000000
71.677902 100.493202 -765.408875 -0.381931 0.558963 -0.735995 0.000000
67.139603 100.554298 -763.226685 -0.485660 0.205992 -0.849530 0.000000
72.720703 101.831802 -765.649414 0.494375 0.534595 -0.685421 0.000000
72.672798 100.093102 -766.600586 -0.338906 0.591869 -0.731323 0.000000
67.754997 105.869797 -760.928284 0.501698 0.491697 0.711711 0.000000
66.602997 103.616096 -761.549194 -0.147465 0.805842 -0.573474 0.000000
69.249702 102.170998 -763.849915 0.429082 0.474764 0.768432 0.000000
71.057999 97.940399 -767.246887 -0.762757 0.589044 -0.266886 0.000000
72.127899 103.526497 -765.048096 0.448088 0.261512 0.854885 0.000000
67.004097 102.850403 -762.928772 0.828805 0.483599 -0.281451 0.000000
74.284500 100.549301 -768.321411 0.518484 0.599550 0.609683 0.000000
71.921402 98.262901 -768.564270 0.757379 0.646472 0.091936 0.000000
66.967903 100.383102 -764.793274 0.157719 0.853449 0.496740 0.000000
70.160896 102.922203 -765.153809 -0.744998 0.535416 -0.397878 0.000000
67.928596 107.936699 -761.363281 0.576853 0.242310 0.780081 0.000000
65.887802 101.549202 -764.200073 0.537932 0.842161 0.037337 0.000000
68.754997 103.772697 -764.556030 -0.123732 0.839925 0.528410 0.000000
61.380402 105.842003 -759.524292 -0.440008 0.443255 -0.780973 0.000000
70.718300 105.121399 -765.464722 -0.535440 0.630029 -0.562465 0.000000
65.525299 100.458000 -765.766724 -0.153620 0.952444 0.263158 0.000000
67.420303 109.917801 -761.689270 0.905706 0.286244 0.312667 0.000000
67.928398 105.270897 -764.791382 -0.574599 0.177383 -0.798981 0.000000
71.552399 106.273598 -766.278625 -0.538176 0.365829 0.759299 0.000000
69.276604 105.831703 -765.614624 -0.443742 0.443742 -0.778580 0.000000
62.515900 108.440697 -760.422424 -0.745176 0.648440 -0.155686 0.000000
96.961601 102.221298 -783.602783 0.983705 0.173179 -0.048302 0.000000
67.684898 108.136002 -763.880005 0.794893 0.480147 0.370950 0.000000
70.122597 107.310402 -765.918884 0.174001 0.109830 0.978602 0.000000
71.966202 101.836304 -770.096680 -0.279953 0.651092 -0.705483 0.000000
64.413101 112.285202 -759.990479 0.055984 0.891655 0.449241 0.000000
73.485497 102.644897 -770.654114 -0.720807 0.675283 0.156301 0.000000
64.805901 110.403900 -761.515015 0.419923 0.902210 0.098398 0.000000
64.597900 115.399399 -758.781311 -0.362101 0.683240 -0.634086 0.000000
62.486599 110.654800 -760.873413 0.527525 0.108396 0.842596 0.000000
70.911003 107.787697 -767.262573 0.964622 0.263299 -0.013347 0.000000
71.415604 105.493797 -768.857910 -0.471170 0.881587 0.028351 0.000000
70.345200 109.384903 -766.323425 -0.301684 0.896137 0.325463 0.000000
95.699997 100.351196 -785.809021 -0.936812 0.328493 0.120312 0.000000
72.652603 106.021103 -769.719604 0.549404 0.818867 0.166169 0.000000
80.432701 106.770897 -773.746704 -0.418195 0.386393 -0.822079 0.000000
67.974098 109.123901 -765.929626 -0.763527 0.586477 0.270317 0.000000
81.941399 108.865601 -773.915405 -0.394684 0.542076 -0.741875 0.000000
76.742203 103.855003 -774.052185 0.472707 0.291737 0.831527 0.000000
74.476799 104.306198 -772.846375 0.371195 0.122812 0.920398 0.000000
80.321503 105.170700 -775.932129 0.310153 0.930458 -0.195073 0.000000
77.586502 104.001602 -775.393311 -0.635358 0.547723 -0.544352 0.000000
75.407402 104.728203 -774.068787 -0.342379 0.927334 0.151090 0.000000
76.705101 105.272697 -774.923218 0.146457 0.921981 0.358471 0.000000
81.083603 107.136902 -776.281311 -0.594487 0.328831 0.733795 0.000000
82.523598 108.379097 -776.365784 -0.437383 0.443887 -0.782087 0.000000
78.566299 104.770500 -776.375977 0.244339 0.638434 0.729864 0.000000
79.515404 106.052902 -776.978516 -0.125138 0.414783 0.901274 0.000000
75.220200 105.109299 -775.611572 -0.367159 0.930052 -0.014072 0.000000
77.347900 105.995499 -776.263428 -0.132500 0.958988 0.250570 0.000000
79.948799 106.702202 -778.400085 -0.273364 0.939427 -0.206757 0.000000
77.063202 107.571899 -776.916077 -0.299471 0.247888 -0.921341 0.000000
77.419899 106.240700 -777.879517 -0.386795 0.758902 -0.523887 0.000000
82.640800 110.761200 -778.106201 0.449323 0.382164 -0.807502 0.000000
82.470001 109.346497 -778.830811 -0.426475 0.452420 -0.783221 0.000000
78.195099 106.642403 -779.231873 -0.457982 0.870313 -0.181131 0.000000
81.612900 107.282097 -780.723816 -0.008548 0.958627 0.284535 0.000000
83.278801 107.648399 -781.419128 -0.119419 0.788757 0.602994 0.000000
79.467003 107.342903 -779.934326 -0.642587 0.330241 -0.691391 0.000000
85.748001 106.712303 -783.731384 -0.435579 0.359551 -0.825224 0.000000
86.866302 107.906097 -783.643982 -0.426632 0.446098 -0.786754 0.000000
83.807297 106.898399 -782.772217 -0.310030 0.753390 -0.579901 0.000000
89.926498 101.054703 -789.532715 0.154184 0.950581 0.269488 0.000000
92.452698 101.865402 -790.437012 -0.017826 0.549857 -0.835069 0.000000
77.014603 107.713402 -778.970520 0.454873 0.809195 -0.371879 0.000000
81.920197 107.278297 -782.296570 -0.145427 0.981329 -0.125874 0.000000
90.858597 101.884102 -790.823181 0.240399 0.727481 -0.642635 0.000000
78.088303 108.074799 -780.729675 -0.001041 0.997849 -0.065552 0.000000
82.564003 107.115700 -783.734314 0.382761 0.763893 0.519578 0.000000
83.980797 107.081802 -784.526611 0.509507 0.463037 0.725259 0.000000
85.526497 107.855598 -784.913696 -0.102877 0.560752 -0.821567 0.000000
87.396698 104.401001 -787.967224 -0.522272 0.363812 -0.771280 0.000000
88.441101 103.561600 -789.030579 -0.424713 0.460512 -0.779454 0.000000
79.237503 108.329597 -781.806213 -0.032030 0.939124 -0.342082 0.000000
89.176598 103.008301 -790.358276 -0.424075 0.463071 -0.778284 0.000000
84.060204 106.632797 -786.091125 0.126922 0.739136 -0.661490 0.000000
86.858597 106.145500 -787.896973 -0.865413 0.291524 -0.407522 0.000000
77.560799 109.392799 -781.769409 -0.555399 0.612795 -0.562151 0.000000
86.957901 105.323502 -789.267212 -0.421405 0.463708 -0.779354 0.000000
87.942200 104.511101 -790.282227 0.225409 0.891324 -0.393361 0.000000
89.533096 103.202301 -791.919983 0.754451 0.632520 0.175277 0.000000
84.959900 108.103897 -787.482910 -0.067904 0.729608 -0.680486 0.000000
44.159401 75.624496 -789.594177 0.565760 0.822539 -0.057846 0.000000
42.732899 75.880699 -790.852417 0.618142 0.191732 0.762325 0.000000
44.087502 75.348503 -791.889587 -0.687161 0.244850 -0.684002 0.000000
41.432400 75.977303 -791.849915 0.188397 0.152512 0.970179 0.000000
43.682301 75.276604 -793.458923 0.709482 0.655517 -0.258715 0.000000
41.527802 75.920303 -793.478271 0.225639 0.969364 0.097062 0.000000
43.138599 74.781197 -795.016479 0.864440 0.233836 -0.445043 0.000000
39.950901 75.337402 -794.433716 -0.443048 0.708545 0.549247 0.000000
41.877102 75.935204 -795.068176 -0.020628 0.967088 0.253603 0.000000
42.637501 74.697197 -796.580322 0.470005 0.553636 -0.687446 0.000000
40.261101 76.015404 -795.846313 -0.282560 0.959249 -0.001213 0.000000
42.174999 74.121002 -797.992981 0.608974 0.205047 -0.766228 0.000000
41.496700 75.912804 -796.933105 0.119572 0.992776 0.009873 0.000000
38.640202 75.744003 -797.278381 0.284213 0.773251 0.566839 0.000000
40.174999 75.993896 -797.898987 0.154037 0.966940 -0.203226 0.000000
41.460999 75.465897 -798.867981 0.529025 0.485635 -0.695910 0.000000
42.301701 75.274803 -800.201721 -0.393526 0.477737 -0.785433 0.000000
37.979801 76.109398 -799.267212 -0.363069 0.648925 -0.668639 0.000000
39.357800 75.972198 -800.044617 -0.393526 0.477737 -0.785433 0.000000
40.862701 76.770103 -800.312988 -0.303458 0.251683 -0.919004 0.000000
42.335499 76.629097 -801.140320 -0.393915 0.481451 -0.782966 0.000000
43.897999 76.912498 -801.752808 -0.392916 0.480231 -0.784216 0.000000
35.277199 77.836098 -798.735413 0.565286 0.173354 0.806474 0.000000
36.696701 77.604599 -799.598816 0.387309 0.591676 0.707044 0.000000
38.052898 77.216003 -800.527527 -0.313553 0.520466 -0.794229 0.000000
38.540401 75.983200 -801.538208 -0.397032 0.484541 -0.779478 0.000000
41.125702 76.723000 -802.391724 -0.792753 0.480797 -0.374668 0.000000
42.594700 77.480400 -802.668030 -0.378448 0.448708 -0.809591 0.000000
39.263901 75.475700 -802.919312 0.650495 0.756757 -0.064619 0.000000
44.911098 77.558296 -802.780518 -0.713587 0.530616 -0.457428 0.000000
62.323002 110.666702 -758.857971 -0.842520 0.537159 0.040252 0.000000
63.424702 101.647598 -757.751587 -0.751459 0.528804 -0.394557 0.000000
65.385300 104.926804 -758.873718 -0.587085 0.597236 -0.546480 0.000000
63.991199 100.836502 -759.051270 -0.276575 0.959876 0.046304 0.000000
66.128899 104.421303 -760.245789 0.600808 0.699571 0.386821 0.000000
64.490799 101.862602 -761.081909 0.810840 0.015143 0.585072 0.000000
63.388302 100.548897 -765.439270 -0.563399 0.809792 -0.163761 0.000000
67.684502 104.960098 -762.267212 -0.996132 0.087863 0.001059 0.000000
66.409500 104.299896 -763.354492 -0.946390 0.287562 -0.147156 0.000000
62.237400 92.656303 -757.478516 -0.850543 0.524156 0.042873 0.000000
60.907299 88.017403 -754.610718 0.865776 0.486730 -0.116298 0.000000
59.267799 83.301903 -757.465515 0.806203 0.453589 0.379861 0.000000
61.871601 87.626701 -757.571777 -0.956081 0.268857 -0.116723 0.000000
65.188004 92.040802 -752.548523 0.937241 0.333867 0.100562 0.000000
63.847500 89.979103 -754.868896 0.359831 0.929674 -0.078922 0.000000
59.208099 84.985497 -756.640503 0.661039 0.674033 -0.329708 0.000000
65.436096 90.628998 -753.226929 -0.375515 0.726434 -0.575571 0.000000
65.649399 91.570801 -762.853271 -0.758694 0.341331 -0.554866 0.000000
66.423500 92.872299 -763.637695 -0.851185 0.523912 0.031627 0.000000
67.156799 94.101898 -764.322876 -0.851185 0.523912 0.031627 0.000000
68.370201 96.136902 -765.470886 -0.851185 0.523912 0.031627 0.000000
69.158096 97.444603 -765.991089 -0.851185 0.523912 0.031627 0.000000
70.421997 99.586601 -767.545776 -0.849958 0.525903 0.031582 0.000000
70.810097 100.300499 -768.928223 -0.851185 0.523912 0.031627 0.000000
79.726097 110.287598 -740.237122 -0.727189 0.652446 0.213330 0.000000
66.454002 90.031799 -761.808594 -0.798614 0.260995 -0.542307 0.000000
67.217903 91.329697 -762.816895 0.326331 0.302490 0.895549 0.000000
72.387199 100.084297 -769.157715 -0.906100 0.341068 -0.250312 0.000000
81.573196 110.463303 -734.538574 -0.882755 0.469832 -0.001323 0.000000
66.207901 87.195099 -762.176086 -0.852011 0.522731 0.028812 0.000000
69.864601 93.332001 -765.413879 0.490534 0.866564 -0.091887 0.000000
71.823502 96.677498 -768.095215 0.953974 0.291456 0.070617 0.000000
84.361702 112.868599 -731.115784 -0.870740 0.362681 -0.332075 0.000000
87.681801 116.685402 -727.130005 0.041250 0.958748 -0.281249 0.000000
68.281700 88.317703 -761.126282 0.988665 0.001112 0.150135 0.000000
68.458702 90.034599 -761.529175 -0.756480 0.566150 0.327432 0.000000
74.664902 103.714798 -769.131714 -0.978185 0.207705 -0.003481 0.000000
68.179398 94.263603 -750.846985 0.333779 0.756244 -0.562749 0.000000
67.303101 93.034698 -751.536377 -0.943578 0.285395 0.167960 0.000000
67.221497 94.812500 -762.159485 -0.901604 0.426932 -0.069564 0.000000
61.905300 112.142197 -758.136597 -0.791436 0.584842 0.177731 0.000000
61.610802 112.220200 -759.695129 -0.968966 0.196360 0.150158 0.000000
61.210098 112.197601 -761.392578 -0.897159 0.202772 0.392416 0.000000
63.473499 103.299202 -758.874878 -0.545242 0.831603 -0.105577 0.000000
66.586800 107.697304 -759.860718 -0.677583 0.162925 -0.717172 0.000000
64.628098 103.505600 -761.210327 -0.969988 0.162732 -0.180671 0.000000
63.381100 97.973900 -758.597473 -0.647274 0.755887 0.098339 0.000000
63.928600 95.566399 -757.568970 -0.457684 0.773666 0.438139 0.000000
105.120697 120.515297 -705.315796 -0.754116 0.591494 0.285384 0.000000
72.625397 99.271400 -747.177917 0.283182 0.858731 -0.427070 0.000000
69.013603 96.385696 -750.747925 0.489822 0.460136 0.740506 0.000000
61.871498 88.885101 -758.669922 0.454392 0.756227 0.470796 0.000000
67.322701 91.030098 -752.922913 -0.759916 0.451354 0.467767 0.000000
63.756199 87.423698 -754.862305 -0.809767 0.486494 -0.328027 0.000000
68.742203 94.237999 -762.110596 -0.752766 0.589747 0.292476 0.000000
59.813000 77.159698 -760.023315 -0.609192 0.785344 0.110095 0.000000
58.693501 76.674301 -761.533813 -0.318754 0.931207 0.176776 0.000000
53.655998 72.178299 -764.318420 0.843867 0.507511 -0.174131 0.000000
53.164902 72.623001 -766.122192 0.730267 0.625261 0.275242 0.000000
52.541199 73.125198 -768.304382 0.259283 0.961772 0.088131 0.000000
52.127998 73.484901 -769.797180 -0.063750 0.135614 -0.988709 0.000000
51.652500 73.775902 -771.301575 0.310105 0.950403 0.023854 0.000000
61.101299 75.931099 -755.838318 0.486599 0.848158 0.209403 0.000000
51.309101 73.950600 -772.903870 0.755214 0.655442 -0.006929 0.000000
50.703201 74.103203 -774.435730 -0.640214 0.682786 0.352036 0.000000
50.244202 74.419403 -775.943420 0.198943 0.957329 -0.209624 0.000000
61.473400 76.763199 -757.388794 -0.651599 0.026624 -0.758097 0.000000
61.304600 77.435303 -758.898804 -0.678370 0.605392 0.416310 0.000000
54.743500 71.156303 -761.747681 0.424011 0.897326 0.122555 0.000000
54.556900 71.270401 -763.314697 0.442573 0.889388 0.114532 0.000000
49.924599 74.212402 -777.980286 0.661374 0.667906 -0.341302 0.000000
60.855000 75.897202 -759.093811 -0.721339 0.597588 0.350085 0.000000
53.703999 72.250099 -767.627014 0.731685 0.681320 -0.020985 0.000000
49.435699 74.239899 -779.846619 0.560939 0.826721 -0.043364 0.000000
54.593700 71.541496 -765.476318 0.742091 0.667451 -0.061721 0.000000
53.336601 72.386497 -769.482788 0.684215 0.724890 -0.079898 0.000000
52.826099 72.654099 -770.981689 0.822532 0.543860 -0.166304 0.000000
52.346802 72.455101 -772.535400 0.575198 0.619054 -0.534714 0.000000
51.763100 72.653503 -774.052673 -0.720347 0.596206 0.354456 0.000000
51.186600 72.862099 -775.572510 0.814099 0.170043 -0.555273 0.000000
50.573002 73.032997 -777.104004 -0.391665 0.875575 0.282785 0.000000
55.783001 70.111397 -762.368530 0.001020 0.998945 0.045917 0.000000
60.924301 76.017197 -762.303284 -0.178311 0.831619 -0.525943 0.000000
55.497898 70.399498 -764.262085 0.947393 0.267771 -0.175342 0.000000
54.504101 70.807198 -766.901978 -0.932807 0.106645 0.344234 0.000000
53.600899 70.859200 -768.777222 0.879264 0.444735 -0.170603 0.000000
60.342098 75.620300 -763.724670 -0.717632 0.593395 0.364537 0.000000
63.127998 81.188904 -762.123413 0.321505 0.943518 -0.080048 0.000000
62.185600 78.520302 -757.934021 -0.759551 0.599149 0.253184 0.000000
61.599400 78.853401 -759.556030 -0.382214 0.720138 0.579063 0.000000
63.731701 81.297997 -755.200928 -0.551867 0.710964 0.435859 0.000000
73.088402 103.709801 -766.601074 -0.471589 0.793492 0.384675 0.000000
71.796898 103.101799 -767.365479 -0.123641 0.710562 -0.692686 0.000000
64.524803 92.151497 -758.591309 0.596176 0.746419 -0.295691 0.000000
64.788300 93.634697 -753.115601 -0.947931 0.216865 0.233232 0.000000
69.682297 99.162498 -748.247620 -0.914741 0.358190 -0.186944 0.000000
64.835403 103.284203 -763.954590 0.524877 0.811457 0.256987 0.000000
66.062698 107.000900 -763.209229 -0.540184 0.749078 0.383515 0.000000
62.743999 102.424202 -760.144287 -0.686184 0.586496 0.430319 0.000000
65.306503 105.376297 -764.494629 0.477621 0.877679 0.039462 0.000000
62.841099 99.434998 -759.939026 -0.551164 0.824541 -0.127870 0.000000
72.550499 100.774002 -745.720886 0.748029 0.442241 0.494850 0.000000
65.062798 83.085800 -754.620972 0.607917 0.311215 -0.730467 0.000000
62.702900 80.883904 -759.409912 -0.724551 0.638937 0.258429 0.000000
93.935997 63.067902 -756.861694 -0.279999 0.876321 0.391998 0.000000
95.516098 63.708199 -757.346375 0.643953 0.085764 0.760243 0.000000
96.724899 64.598198 -757.968994 -0.316250 0.932031 -0.176933 0.000000
95.950600 64.460800 -759.398315 -0.175889 0.819310 -0.545705 0.000000
98.691597 64.858597 -758.096375 -0.139375 0.975623 0.169510 0.000000
97.976402 64.826897 -759.604614 -0.061274 0.897328 -0.437090 0.000000
100.235603 65.406700 -759.027100 -0.219583 0.966935 -0.129695 0.000000
107.153397 69.996597 -757.163513 0.682299 0.491188 -0.541481 0.000000
106.563202 68.986504 -758.339172 0.449279 0.482193 -0.752089 0.000000
102.155701 65.450302 -759.938477 -0.948846 0.224619 -0.221896 0.000000
105.705597 67.915604 -759.431396 0.110615 0.507107 -0.854755 0.000000
108.650398 69.174301 -757.314087 0.082520 0.921244 -0.380132 0.000000
104.117302 65.910301 -760.302979 -0.008822 0.938908 -0.344056 0.000000
100.747803 64.797997 -760.512085 -0.106829 0.589754 -0.800486 0.000000
92.990303 63.979401 -758.500610 -0.125189 0.955388 -0.267509 0.000000
90.773201 63.142101 -758.913208 0.061796 0.460039 -0.885746 0.000000
107.438797 67.677101 -758.700684 0.931838 0.362873 0.001264 0.000000
124.517303 65.324898 -762.363892 0.067600 0.931824 -0.356559 0.000000
125.759201 65.116203 -763.387329 0.226659 0.938621 -0.260033 0.000000
106.282303 65.318604 -758.770813 -0.089077 0.728683 0.679033 0.000000
94.125900 63.935200 -759.698486 -0.524300 0.741252 -0.419112 0.000000
89.232101 62.489300 -758.714478 -0.488342 0.711679 -0.505009 0.000000
91.090599 63.708302 -757.112488 -0.200164 0.964188 -0.173999 0.000000
87.482697 62.002499 -758.719116 -0.003257 0.114005 -0.993475 0.000000
88.785797 63.155701 -756.333313 0.003032 0.999439 -0.033348 0.000000
85.829102 62.034901 -758.174194 -0.140564 0.366023 -0.919929 0.000000
87.023499 62.819302 -756.215027 0.166152 0.379168 0.910288 0.000000
84.308899 61.726898 -757.732727 -0.307223 0.817686 -0.486830 0.000000
82.286400 60.745300 -757.556824 0.671804 0.133164 0.728661 0.000000
81.333000 59.281200 -757.948730 -0.174414 0.967675 -0.182166 0.000000
85.371902 62.597000 -756.364075 -0.446401 0.105615 0.888578 0.000000
83.075104 61.906898 -756.749878 -0.841839 0.479956 0.246878 0.000000
80.357803 60.371399 -757.083496 -0.271288 0.537872 0.798183 0.000000
78.728500 59.793400 -756.926086 0.188322 0.155014 -0.969797 0.000000
81.714798 61.639999 -755.791992 -0.331359 0.483563 0.810166 0.000000
77.170700 59.290298 -756.823914 -0.558419 0.548296 -0.622527 0.000000
75.487503 58.754700 -756.768921 -0.021156 0.297429 -0.954510 0.000000
79.455002 61.060902 -755.169983 -0.006549 0.899842 -0.436168 0.000000
77.847504 60.588001 -755.089722 -0.140300 0.982103 -0.125660 0.000000
73.944099 58.682098 -756.176086 -0.075545 0.018088 -0.996978 0.000000
76.240799 59.998402 -755.006104 -0.066569 0.996348 -0.053473 0.000000
72.211098 57.924900 -755.833679 -0.772550 0.280783 -0.569498 0.000000
70.766800 57.074799 -755.865601 -0.535129 0.698501 -0.475114 0.000000
69.177597 56.507702 -755.537598 0.573149 0.818586 -0.037652 0.000000
74.631500 59.607601 -754.892822 -0.397303 0.088745 0.913387 0.000000
73.104599 59.139000 -754.736877 -0.310946 0.935602 -0.167220 0.000000
67.219597 55.737900 -754.903076 -0.641677 0.547362 0.537257 0.000000
70.976700 58.296299 -754.875488 0.216632 0.809682 -0.545422 0.000000
65.585899 55.477501 -754.844421 -0.363826 0.856153 -0.366923 0.000000
69.345901 57.895802 -753.905029 -0.684990 0.451660 0.571658 0.000000
63.849400 54.807598 -754.275574 -0.456273 0.822554 -0.339442 0.000000
62.286800 53.897202 -754.298218 -0.219951 0.709771 -0.669213 0.000000
67.063599 57.073898 -753.475098 0.098906 0.898511 -0.427663 0.000000
68.825996 59.320599 -754.744873 -0.553470 0.754732 0.352208 0.000000
60.913799 54.135399 -753.330078 -0.250754 0.940675 0.228588 0.000000
59.537601 53.226601 -753.065918 -0.407086 0.730118 0.548825 0.000000
61.923698 55.311298 -752.866272 -0.529365 0.807321 0.260779 0.000000
58.326698 53.563202 -751.894897 -0.482082 0.814007 0.324022 0.000000
56.454800 54.674801 -752.510071 -0.951284 0.209743 0.225981 0.000000
55.962601 54.940102 -753.991699 0.863477 0.246492 -0.440056 0.000000
95.405998 62.764599 -759.701904 -0.147678 0.294002 -0.944327 0.000000
97.187103 63.521400 -760.075012 0.838431 0.536423 -0.096355 0.000000
103.128799 66.109100 -758.552979 -0.133015 0.990221 0.042064 0.000000
105.610603 66.490196 -760.159180 0.309860 0.855582 -0.414688 0.000000
103.186699 64.766701 -761.048279 0.016858 0.919416 -0.392924 0.000000
107.573196 66.231400 -759.613525 0.015213 0.800736 0.598824 0.000000
123.071899 65.552101 -763.095825 -0.047545 0.944481 -0.325107 0.000000
126.386597 64.768600 -764.799194 0.063807 0.905512 -0.419495 0.000000
122.202499 66.584297 -760.130188 -0.077330 0.864690 -0.496318 0.000000
124.350098 65.539101 -764.054077 0.457180 0.776067 0.434403 0.000000
113.397400 64.553299 -761.717712 0.996381 0.084186 -0.011722 0.000000
115.665398 64.475998 -761.804382 -0.798336 0.526428 -0.292460 0.000000
103.528000 67.539803 -760.930908 0.913832 0.309453 -0.262963 0.000000
99.252403 64.077797 -760.422974 -0.753849 0.366341 0.545441 0.000000
92.645897 64.070000 -756.950378 -0.621145 0.693257 -0.365476 0.000000
94.394302 64.580399 -758.059082 -0.394455 0.917739 0.046485 0.000000
92.234802 62.694801 -759.367371 0.149994 0.033205 0.988129 0.000000
82.339401 61.116798 -754.321289 0.095508 0.712635 -0.695003 0.000000
74.163696 61.217602 -754.072571 -0.754732 0.553470 -0.352208 0.000000
71.710999 58.887299 -753.291077 0.415345 0.838526 -0.352651 0.000000
86.002800 116.638100 -728.667786 -0.420565 0.861010 -0.285984 0.000000
65.033096 82.570801 -751.672974 0.446549 0.657280 -0.607106 0.000000
64.388702 82.998299 -753.066772 0.284069 0.368237 -0.885272 0.000000
62.998699 79.834099 -754.871216 -0.853659 0.077605 0.515018 0.000000
66.105301 86.552597 -752.929199 -0.943272 0.006263 0.331962 0.000000
65.581703 85.267998 -753.714783 0.057018 0.510383 -0.858055 0.000000
62.518799 79.883698 -756.380371 -0.960566 0.220047 -0.169977 0.000000
75.777702 109.097397 -740.930176 -0.660652 0.566513 -0.492547 0.000000
62.466301 80.134102 -757.993225 -0.196249 0.653648 -0.730911 0.000000
65.824997 88.899597 -762.980713 -0.313890 0.419035 0.851987 0.000000
64.663300 87.887901 -762.612671 0.479626 0.017465 -0.877299 0.000000
66.377502 90.096100 -763.853088 -0.516122 0.653979 0.553108 0.000000
67.660896 91.900703 -764.832397 -0.691990 0.582466 -0.426478 0.000000
62.718601 87.740997 -763.128906 -0.651605 0.567418 -0.503436 0.000000
68.282898 93.371101 -765.929321 -0.592613 0.642977 0.485171 0.000000
65.750000 91.157402 -765.152771 -0.427050 0.830463 0.357714 0.000000
67.446899 92.097603 -767.085693 -0.628932 0.591837 -0.504157 0.000000
68.684303 94.743401 -767.096985 -0.598704 0.504260 -0.622315 0.000000
70.181198 96.675903 -768.266785 -0.644911 0.604709 0.467351 0.000000
109.139099 67.924004 -761.581970 0.425169 0.713026 -0.557517 0.000000
70.301102 58.669201 -752.234924 -0.555677 0.575945 -0.599591 0.000000
105.625702 67.854599 -761.019897 0.592186 0.468045 -0.655934 0.000000
84.209396 60.140301 -757.636780 -0.117934 0.543077 -0.831360 0.000000
80.721802 58.141800 -756.736206 -0.867796 0.476636 -0.140528 0.000000
87.642197 114.361198 -733.816895 -0.760313 0.649520 0.006925 0.000000
86.416496 118.256203 -727.155884 -0.933654 0.170638 -0.314917 0.000000
64.182999 83.004204 -755.937500 -0.710219 0.595403 -0.375612 0.000000
64.041199 84.356300 -760.492310 -0.709463 0.604600 -0.362105 0.000000
62.983501 83.184799 -760.361328 -0.707197 0.598903 -0.375750 0.000000
61.896099 81.928398 -760.309814 -0.730769 0.542716 -0.414048 0.000000
90.898201 102.061302 -793.470581 -0.704485 0.605955 -0.369485 0.000000
90.339104 102.826401 -795.124023 -0.928571 0.224723 -0.295390 0.000000
83.574699 104.287903 -782.736694 -0.748884 0.175400 -0.639068 0.000000
86.165100 106.830597 -786.313110 -0.287165 0.697859 -0.656148 0.000000
85.156998 106.342102 -787.526489 0.123236 0.173029 0.977177 0.000000
75.371498 105.494598 -770.534790 -0.758691 0.417854 0.499786 0.000000
74.637100 104.271896 -771.223572 0.336999 0.506297 -0.793785 0.000000
73.676102 108.537903 -770.693176 0.992146 0.050908 -0.114261 0.000000
62.382000 114.364601 -757.613525 -0.929691 0.300492 -0.213025 0.000000
64.603401 115.046204 -760.872070 0.948593 0.085046 -0.304858 0.000000
61.284000 113.661201 -760.439209 -0.142305 0.147254 0.978808 0.000000
60.510799 113.442902 -762.165405 0.026325 0.821608 -0.569445 0.000000
87.108597 103.471802 -786.278625 0.514556 0.747996 -0.419207 0.000000
85.330200 105.804497 -784.976379 -0.832958 0.037546 -0.552061 0.000000
78.489403 107.699402 -777.997986 -0.740506 0.489822 -0.460136 0.000000
82.002197 112.616600 -777.487915 -0.301474 0.694841 -0.652924 0.000000
69.606796 100.501701 -764.638184 -0.625190 0.520711 -0.581376 0.000000
67.900803 99.232002 -763.944519 0.567309 0.721880 -0.396294 0.000000
67.630402 97.455597 -764.161499 -0.625190 0.520711 -0.581376 0.000000
66.158699 96.702400 -762.621582 -0.625190 0.520711 -0.581376 0.000000
69.589401 98.744499 -764.840820 0.609304 0.339585 -0.716541 0.000000
76.074303 102.816399 -769.062378 -0.427608 0.526667 -0.734693 0.000000
89.719597 63.956100 -757.905273 0.660226 0.545989 -0.515749 0.000000
90.598000 61.553398 -758.764526 0.173780 0.392082 0.903367 0.000000
93.851700 62.339901 -759.461670 -0.109385 0.818202 -0.564428 0.000000
105.117996 65.608803 -761.502319 0.857831 0.491237 0.151037 0.000000
110.656197 67.849197 -762.268677 0.604892 0.457439 -0.651809 0.000000
113.195099 114.971001 -697.548828 -0.561786 0.761388 0.323550 0.000000
110.612099 116.202400 -698.563171 -0.206609 0.663323 -0.719247 0.000000
103.619400 120.600899 -707.303589 -0.573149 0.818586 -0.037652 0.000000
102.534500 120.569298 -708.713318 -0.937353 0.230497 -0.261230 0.000000
92.699501 118.597198 -722.435181 0.934003 0.357082 0.011437 0.000000
56.837299 58.342499 -752.218811 -0.799309 0.539651 -0.264351 0.000000
56.760899 57.529900 -753.650574 -0.964145 0.262949 0.035801 0.000000
64.337799 81.314697 -758.382324 0.466514 0.576872 -0.670510 0.000000
77.756500 108.589897 -737.527710 -0.572600 0.559087 -0.599625 0.000000
62.362301 53.236500 -750.907288 -0.636167 0.678906 -0.366577 0.000000
63.584400 54.519901 -751.568970 -0.172682 0.539069 0.824370 0.000000
65.004097 55.503502 -752.093628 -0.056244 0.963639 0.261220 0.000000
75.341003 102.654999 -744.512817 -0.146978 0.222418 -0.963809 0.000000
57.316399 84.475998 -755.781311 -0.600616 0.624170 -0.499672 0.000000
75.422096 108.154701 -780.841614 -0.771646 0.394758 -0.498727 0.000000
82.115501 109.422501 -784.154297 0.578545 0.734997 0.353646 0.000000
56.395100 82.974998 -756.848022 -0.591835 0.678527 -0.435124 0.000000
87.593803 108.363197 -781.606018 -0.897720 0.428616 -0.101918 0.000000
71.945900 91.837898 -765.531921 0.689258 0.721048 0.070804 0.000000
83.007004 112.165199 -733.287781 -0.820734 0.212443 -0.530344 0.000000
69.903297 99.052803 -746.398071 -0.744967 0.257812 -0.615270 0.000000
68.789597 96.323303 -748.072998 -0.815222 0.209541 -0.539913 0.000000
68.466003 100.225304 -748.796326 -0.540859 0.380726 -0.750013 0.000000
67.915298 94.973000 -749.389526 -0.813878 0.072949 -0.576438 0.000000
66.555603 93.237602 -749.965515 0.783907 0.174370 0.595890 0.000000
50.661301 33.461300 -745.111328 0.473167 0.499730 0.725522 0.000000
51.676102 33.816502 -746.386230 -0.792807 0.141839 -0.592739 0.000000
55.012299 50.466499 -749.115112 -0.451170 0.296129 -0.841875 0.000000
56.583199 52.141102 -750.819275 -0.793668 0.194212 -0.576518 0.000000
65.875000 77.883202 -757.167786 -0.792807 0.141839 -0.592739 0.000000
66.617401 83.870697 -759.598877 -0.642485 0.598869 -0.478089 0.000000
66.406303 79.139503 -760.413330 -0.791734 0.138665 -0.594919 0.000000
74.694504 107.359299 -771.112305 -0.811518 0.091133 -0.577176 0.000000
75.486603 106.641800 -772.319824 0.807343 0.119116 0.577934 0.000000
65.838097 108.798599 -761.853394 -0.790677 0.132027 -0.597829 0.000000
83.349098 108.630096 -787.584473 -0.416816 0.498545 -0.760077 0.000000
63.294399 107.047401 -761.882629 -0.789638 0.097793 -0.605730 0.000000
77.187202 110.648300 -779.420227 -0.789638 0.097793 -0.605730 0.000000
83.533096 107.142601 -788.270325 -0.071485 0.915814 0.395189 0.000000
71.005997 101.030800 -771.169189 -0.627862 0.506666 -0.590830 0.000000
73.713898 103.528000 -774.329590 -0.788684 0.082486 -0.609240 0.000000
75.963898 105.189796 -777.028381 -0.782458 0.043863 -0.621156 0.000000
49.670399 73.045998 -769.338379 -0.091470 0.608347 0.788383 0.000000
49.121601 73.237297 -771.589417 0.317071 0.122781 -0.940420 0.000000
48.623699 73.687401 -773.084778 -0.351430 0.665264 0.658726 0.000000
47.604099 73.955101 -774.657593 0.346901 0.872600 -0.343844 0.000000
45.472301 74.382004 -779.687927 0.475377 0.727145 0.495254 0.000000
46.211300 75.286102 -780.752319 -0.248719 0.928078 0.277144 0.000000
42.551498 75.214203 -787.830383 -0.152004 0.948346 -0.278451 0.000000
42.883099 76.225700 -792.436584 0.625935 0.694575 0.354642 0.000000
45.444500 74.890999 -790.257629 0.801082 0.501672 0.326485 0.000000
43.748001 75.465500 -785.670410 -0.207706 0.978191 -0.001160 0.000000
44.935398 75.939903 -787.256592 0.472101 0.874314 0.112677 0.000000
46.001499 75.033600 -788.277222 0.746625 0.402029 -0.530022 0.000000
44.001400 75.224197 -783.721924 -0.061015 0.967524 0.245305 0.000000
46.413898 75.451599 -786.705811 0.552752 0.762250 -0.336808 0.000000
45.551201 75.700401 -783.923523 0.298567 0.904526 0.304450 0.000000
47.078899 74.746803 -785.452881 -0.528454 0.095952 -0.843522 0.000000
44.591000 74.505096 -782.137695 -0.812743 0.516349 -0.269874 0.000000
47.159801 75.292000 -783.964783 0.696896 0.333016 0.635166 0.000000
46.106800 75.537498 -782.357910 -0.075738 0.982196 0.171914 0.000000
48.306198 74.199303 -783.496277 0.482903 0.617510 -0.620875 0.000000
47.650200 75.186996 -782.379822 0.766843 0.605729 0.212237 0.000000
46.720402 75.254501 -779.198975 -0.796447 0.394201 0.458560 0.000000
47.809299 75.227303 -780.507019 0.432166 0.898631 -0.075458 0.000000
48.998798 74.619301 -781.731323 -0.734511 0.110842 -0.669484 0.000000
46.307400 74.299103 -777.822876 0.591414 0.661781 0.460734 0.000000
47.729099 75.081802 -777.908630 0.290812 0.949453 0.118184 0.000000
47.344398 74.232697 -776.380676 -0.543830 0.725658 0.421510 0.000000
48.802898 74.857498 -775.377075 -0.083826 0.955618 -0.282430 0.000000
45.213100 76.061897 -785.552490 -0.195965 0.979827 -0.039193 0.000000
41.686600 75.250801 -789.194580 -0.095249 0.754666 -0.649159 0.000000
44.193901 78.544502 -801.765991 -0.730465 0.199218 -0.653249 0.000000
42.749802 78.260201 -800.810486 0.421276 0.895390 0.144233 0.000000
36.757801 78.726799 -796.710693 0.692835 0.535904 0.482480 0.000000
34.728100 79.493103 -799.218384 -0.254740 0.456092 -0.852694 0.000000
36.897598 75.750198 -802.199097 -0.462622 0.552808 0.693098 0.000000
37.732201 76.347801 -803.469604 0.734097 0.286282 0.615746 0.000000
38.819401 76.006203 -804.603882 0.734097 0.286282 0.615746 0.000000
37.164200 76.315498 -804.965515 -0.672880 0.398437 -0.623282 0.000000
38.335499 75.736801 -806.084229 0.733998 0.321023 0.598491 0.000000
38.391399 75.472504 -807.668579 0.675682 0.709698 0.199458 0.000000
35.670300 75.573502 -804.723816 -0.244675 0.658254 -0.711924 0.000000
36.836201 76.273903 -806.515503 -0.039320 0.997869 0.052072 0.000000
35.156700 75.375603 -806.424927 0.936322 0.230931 -0.264521 0.000000
36.258999 76.127197 -808.019470 0.719283 0.286752 0.632776 0.000000
37.375500 75.502800 -809.004028 0.699506 0.308558 0.644580 0.000000
34.441502 75.096100 -808.227905 -0.427300 0.758008 0.492787 0.000000
35.142101 75.976196 -809.411682 0.569848 0.715200 0.404675 0.000000
36.246498 75.638802 -810.503723 0.646023 0.095219 0.757356 0.000000
36.850201 75.127602 -811.966370 0.862546 0.253155 0.438095 0.000000
33.692600 75.239899 -810.321899 -0.382214 0.921336 0.071078 0.000000
34.630600 75.750900 -811.590698 0.655381 0.534077 0.534077 0.000000
35.146900 75.402199 -813.119507 0.710965 0.282788 0.643863 0.000000
33.051998 75.202400 -811.779724 0.674964 0.351373 0.648815 0.000000
35.724400 74.395203 -814.360107 0.764679 0.326800 0.555399 0.000000
33.550400 75.504997 -813.326477 -0.149627 0.986127 -0.071868 0.000000
34.247898 75.310204 -814.769897 0.229619 0.965941 -0.119300 0.000000
35.091999 74.296997 -815.810730 -0.006611 0.887154 -0.461426 0.000000
32.138699 74.932503 -813.977478 -0.996922 0.035489 0.069903 0.000000
32.721001 75.341003 -815.433594 0.673301 0.326105 0.663567 0.000000
33.869099 75.132896 -816.500610 -0.292061 0.476356 -0.829328 0.000000
33.735298 74.634201 -818.031311 -0.218932 0.324821 -0.920087 0.000000
30.902399 74.126099 -815.979980 0.655596 0.035247 0.754288 0.000000
31.669500 75.075897 -817.161499 -0.238314 0.949169 -0.205631 0.000000
32.307598 75.002899 -818.641174 0.090535 0.995888 0.003195 0.000000
33.685799 74.203598 -819.625671 0.381354 0.435605 -0.815363 0.000000
30.620501 74.792702 -818.445923 0.803122 0.486983 0.343283 0.000000
31.959499 74.796097 -820.209595 0.233732 0.972087 0.020377 0.000000
32.974998 73.874100 -821.076782 0.530525 0.834949 -0.146301 0.000000
30.307400 74.701202 -820.050781 0.285683 0.541377 0.790757 0.000000
31.522100 74.491501 -821.712219 0.653101 0.308006 0.691803 0.000000
32.398399 73.809601 -822.895630 0.648815 0.351373 0.674964 0.000000
29.776501 74.498703 -821.572388 -0.799109 0.575540 -0.173719 0.000000
30.337999 74.330498 -823.043091 -0.577953 0.503813 -0.641983 0.000000
30.959801 73.977402 -824.452515 0.599311 0.698371 0.391286 0.000000
28.500299 73.713699 -822.904175 0.128244 0.953234 -0.273675 0.000000
29.010500 74.221901 -824.353394 0.515498 0.727664 0.452511 0.000000
31.160200 73.410202 -825.973999 0.082677 0.873009 -0.480645 0.000000
29.553900 73.856201 -825.827393 0.104155 0.993394 -0.048158 0.000000
27.691000 73.863701 -825.217407 0.573296 0.761733 0.301819 0.000000
30.129801 73.601501 -827.334717 -0.795837 0.480718 -0.368175 0.000000
30.804100 73.554901 -828.776001 -0.820648 0.159944 -0.548593 0.000000
27.682899 74.556900 -826.679382 0.326847 0.930472 -0.165510 0.000000
31.883699 73.500099 -830.052979 -0.523499 0.536965 -0.661527 0.000000
33.036598 73.577499 -831.142090 -0.618944 0.461272 -0.635717 0.000000
26.127800 74.742500 -825.819580 0.429169 0.188952 0.883239 0.000000
28.362400 73.700500 -827.893311 0.289028 0.913562 0.286124 0.000000
33.497299 73.920502 -832.679077 -0.397912 0.917155 -0.022179 0.000000
30.234699 73.866898 -830.229614 0.638031 0.314977 0.702642 0.000000
24.451401 74.862900 -825.958008 -0.596125 0.218321 -0.772639 0.000000
26.231600 74.531998 -827.425781 0.638031 0.314977 0.702642 0.000000
28.920700 73.323402 -829.324707 -0.210475 0.971712 0.107128 0.000000
31.158899 73.737198 -831.542480 -0.492541 0.401510 -0.772135 0.000000
27.028500 72.789200 -827.931580 -0.357781 0.895196 0.265738 0.000000
33.652802 73.154602 -834.094604 0.637350 0.337421 0.692772 0.000000
31.750401 72.890900 -832.820801 0.636110 0.315627 0.704091 0.000000
24.531200 74.491699 -827.526001 0.023805 0.665131 -0.746347 0.000000
29.041300 72.296402 -830.604126 -0.084466 0.895889 -0.436175 0.000000
