ply
format ascii 1.0
element vertex 689
property float x
property float y
property float z
property float nx
property float ny
property float nz
property float label
element face 0
property list uchar int vertex_indices
end_header
14.847700 55.670502 -744.734009 0.100268 0.879815 -0.464621 1.000000
14.545300 56.642101 -743.581909 0.937307 0.348502 0.001258 1.000000
14.643000 55.498501 -745.302612 0.360259 0.877087 -0.317697 1.000000
14.657200 55.082100 -745.831116 0.411333 0.886062 -0.213775 1.000000
14.752200 54.899300 -746.469299 0.369662 0.846947 -0.382140 1.000000
14.802200 54.586399 -747.046570 0.420183 0.863286 -0.279613 1.000000
14.864500 54.309399 -747.640503 0.393366 0.883951 -0.252771 1.000000
14.913400 53.992802 -748.216492 0.057623 0.972232 -0.226813 1.000000
14.291600 56.388000 -744.119080 0.486534 0.725650 -0.486534 1.000000
14.312400 55.991199 -744.654724 0.589169 0.726261 -0.354154 1.000000
13.924400 56.700401 -743.460999 0.109510 0.579674 0.807456 1.000000
14.092400 55.810902 -745.214478 0.034132 0.949387 -0.312248 1.000000
14.110400 55.404701 -745.747070 0.051092 0.931450 -0.360265 1.000000
14.196900 55.196201 -746.373230 0.178389 0.936195 -0.302846 1.000000
14.260300 54.921101 -746.967590 0.469848 0.831989 -0.295021 1.000000
14.303200 54.586201 -747.534607 0.301886 0.875317 -0.377737 1.000000
14.356600 54.281898 -748.115784 0.093092 0.974366 -0.204803 1.000000
13.797000 56.389500 -744.499329 0.356793 0.834614 -0.419665 1.000000
13.531400 56.768902 -743.984924 0.947295 0.314042 0.063325 1.000000
13.390900 56.333401 -744.971924 0.547723 0.635358 -0.544352 1.000000
13.422500 55.968399 -745.523010 0.470901 0.798764 -0.374471 1.000000
13.465200 55.634899 -746.089783 0.553282 0.832013 -0.040416 1.000000
13.535000 55.379101 -746.693298 0.549866 0.794250 -0.258484 1.000000
13.573600 55.033298 -747.254822 0.472955 0.824922 -0.309542 1.000000
13.627800 54.732498 -747.837524 0.491236 0.841033 -0.226607 1.000000
13.087300 56.815701 -744.451294 0.359048 0.838823 -0.409220 1.000000
12.867500 56.395599 -745.310791 0.300279 0.417311 -0.857720 1.000000
12.893100 56.013401 -745.853577 0.301483 0.851881 -0.428260 1.000000
12.965200 55.763901 -746.460205 0.269741 0.930677 -0.247145 1.000000
13.018900 55.461498 -747.041504 0.173330 0.903894 -0.391067 1.000000
13.054500 55.106998 -747.598816 0.119682 0.860847 -0.494590 1.000000
12.527800 56.994900 -744.172424 -0.082016 0.804328 0.588498 1.000000
12.646500 56.820900 -744.908386 0.155513 0.900265 -0.406617 1.000000
12.312700 56.655300 -745.413879 0.253276 0.839650 -0.480458 1.000000
12.341200 56.112000 -746.151306 0.164418 0.982909 -0.082809 1.000000
12.448900 55.737598 -747.061279 0.184891 0.865291 -0.465926 1.000000
12.453900 55.296101 -747.577576 0.177841 0.788886 -0.588244 1.000000
12.035800 57.092999 -744.592590 0.437898 0.880189 0.183068 1.000000
11.661700 57.169899 -745.081909 -0.049328 0.807569 -0.587707 1.000000
11.729700 56.450699 -746.188416 0.289119 0.934399 -0.208110 1.000000
11.801800 56.141998 -746.857788 -0.076229 0.926786 -0.367772 1.000000
11.819000 55.733601 -747.389099 0.179489 0.664264 -0.725628 1.000000
11.286500 57.056702 -745.570679 0.193144 0.914214 -0.356243 1.000000
11.007000 57.166401 -744.956482 -0.733232 0.508131 0.451856 1.000000
11.225300 56.126099 -747.096924 0.177136 0.803923 -0.567742 1.000000
10.925800 56.576401 -746.725830 0.310212 0.879187 -0.361662 1.000000
10.630000 57.280800 -745.500916 0.090306 0.995543 -0.027201 1.000000
10.386200 56.896500 -746.492981 0.162356 0.895112 -0.415229 1.000000
9.916000 57.160400 -745.785583 -0.917310 0.371126 0.144249 1.000000
13.100500 54.628502 -748.149719 0.028252 0.466835 -0.883893 1.000000
13.646500 54.357800 -748.337891 0.287130 0.894121 -0.343664 1.000000
35.996700 46.095600 -746.497620 0.253491 0.863690 -0.435640 1.000000
36.076302 45.694500 -746.971130 0.280363 0.427438 -0.859473 1.000000
36.158199 45.299999 -747.449524 0.226749 0.373039 -0.899682 1.000000
36.228699 44.870701 -747.905823 0.405510 0.809416 -0.424743 1.000000
35.667000 50.281300 -742.150391 0.707533 0.602470 -0.369362 1.000000
35.775398 49.966801 -742.679321 0.327432 0.756480 -0.566150 1.000000
35.822601 49.478100 -743.084717 0.218916 0.427408 -0.877154 1.000000
35.862400 48.966801 -743.475525 0.158869 0.530057 -0.832947 1.000000
35.889599 48.417801 -743.841919 0.254861 0.558192 -0.789600 1.000000
35.933102 47.914398 -744.241821 0.082856 0.869290 -0.487308 1.000000
35.992100 47.454800 -744.673218 0.171480 0.836525 -0.520405 1.000000
36.073502 47.059898 -745.149170 0.179343 0.224511 -0.957826 1.000000
36.129200 46.589100 -745.574829 0.346074 0.826470 -0.444050 1.000000
36.566898 44.331699 -748.202026 0.416203 0.282043 -0.864423 1.000000
36.472900 46.207100 -745.982910 0.442870 0.837227 -0.320807 1.000000
36.564701 45.842499 -746.479797 0.330058 0.822775 -0.462712 1.000000
36.636200 45.417500 -746.937317 0.353276 0.779143 -0.517815 1.000000
36.720299 45.029499 -747.419495 0.282338 0.494481 -0.822055 1.000000
37.013199 44.552700 -747.829285 0.323359 0.571106 -0.754504 1.000000
36.316898 49.661999 -742.718994 0.301485 0.470191 -0.829474 1.000000
36.356400 49.148300 -743.105225 0.338054 0.574206 -0.745659 1.000000
36.391399 48.620201 -743.483215 0.237305 0.413419 -0.879074 1.000000
36.430599 48.102699 -743.870422 0.270836 0.803114 -0.530713 1.000000
36.494202 47.654499 -744.306824 0.283215 0.786358 -0.549027 1.000000
36.552502 47.189899 -744.732971 0.255047 0.459695 -0.850665 1.000000
36.609798 46.721600 -745.157898 0.266581 0.364873 -0.892078 1.000000
37.218201 43.974998 -748.091614 0.174140 0.576932 0.798013 1.000000
36.889099 46.205101 -745.487000 0.296563 0.926582 -0.231291 1.000000
37.159500 45.080700 -746.952820 0.425383 0.710075 -0.561108 1.000000
37.072601 45.891602 -745.990173 0.373334 0.845078 -0.382706 1.000000
37.156799 45.497898 -746.465881 0.329326 0.800247 -0.501148 1.000000
37.471001 44.645199 -747.403625 0.262101 0.847614 -0.461360 1.000000
36.855598 49.532299 -742.362793 0.873730 0.482010 0.065287 1.000000
36.960201 49.105499 -742.917419 0.264121 0.526679 -0.807991 1.000000
37.007500 48.605400 -743.314697 0.256187 0.573670 -0.777991 1.000000
37.054699 48.103401 -743.712280 0.094154 0.319593 -0.942865 1.000000
37.106499 47.613800 -744.119812 0.115585 0.812019 -0.572071 1.000000
37.161098 47.130798 -744.533325 0.273614 0.435642 -0.857527 1.000000
37.217300 46.651402 -744.950623 0.225945 0.279273 -0.933250 1.000000
37.690498 44.159599 -747.727173 0.209574 0.634932 -0.743600 1.000000
37.449001 45.937801 -745.437988 0.400382 0.779691 -0.481431 1.000000
37.669601 45.105598 -746.573425 0.332784 0.624984 -0.706151 1.000000
37.764000 45.556999 -745.937988 0.459148 0.766337 -0.449345 1.000000
37.445599 49.102901 -742.435608 0.344629 0.879031 -0.329447 1.000000
37.550999 48.766899 -742.948608 0.287497 0.397020 -0.871619 1.000000
37.615501 48.313400 -743.379883 0.271286 0.528458 -0.804448 1.000000
37.653198 47.781700 -743.758728 0.138155 0.285700 -0.948308 1.000000
37.698601 47.270599 -744.153320 0.258049 0.278008 -0.925269 1.000000
37.746399 46.764801 -744.553223 0.186376 0.438791 -0.879049 1.000000
37.821800 46.339001 -745.008179 0.307954 0.365600 -0.878351 1.000000
38.130299 44.743500 -746.799988 0.349789 0.727235 -0.590573 1.000000
38.193401 44.277599 -747.232727 0.407853 0.482599 -0.775083 1.000000
38.181301 45.134800 -746.219421 0.321207 0.920795 -0.221276 1.000000
38.099602 45.758999 -745.230530 0.246067 0.306505 -0.919514 1.000000
38.433701 45.292599 -745.583801 0.400224 0.857623 -0.322961 1.000000
38.679100 44.427700 -746.808594 0.395045 0.791702 -0.465991 1.000000
38.733299 43.930698 -747.222778 0.237895 0.453062 -0.859151 1.000000
39.137402 47.454601 -742.969727 0.802272 0.465990 -0.373112 1.000000
39.248699 47.031300 -743.535278 0.768539 0.432405 -0.471566 1.000000
39.314701 46.476200 -744.011902 0.329680 0.459028 -0.824988 1.000000
39.359402 45.951000 -744.403992 0.308739 0.350909 -0.884049 1.000000
39.522701 45.400101 -744.804688 0.152539 0.919433 -0.362455 1.000000
39.549099 44.816898 -745.163025 0.458910 0.869126 -0.184449 1.000000
39.666901 44.502899 -745.698914 0.483599 0.828805 -0.281451 1.000000
39.771198 44.149502 -746.208801 0.387145 0.859123 -0.334703 1.000000
40.007500 43.733601 -746.622681 0.194081 0.573074 -0.796190 1.000000
39.923801 46.508400 -743.544312 0.837059 0.479421 -0.263604 1.000000
39.990299 46.043301 -743.978394 0.436273 0.783345 -0.442760 1.000000
40.186298 44.250801 -745.452393 0.586853 0.771516 -0.245696 1.000000
26.112000 48.249001 -747.828186 0.296548 0.543936 -0.784980 1.000000
16.855700 52.547298 -748.831421 0.332363 0.803079 -0.494569 1.000000
38.004101 48.778500 -742.435486 0.536296 0.831775 -0.143308 1.000000
11.150200 56.692402 -746.152893 0.451308 0.848706 -0.275714 1.000000
36.263699 49.797199 -742.102722 0.289739 0.549395 0.783720 1.000000
19.987101 50.103699 -749.140930 0.543396 0.529937 0.651066 1.000000
40.509998 43.179100 -746.244202 0.742456 0.545779 0.388437 1.000000
39.604801 46.988201 -742.910217 0.463734 0.825289 0.322256 1.000000
40.335400 45.673801 -743.594727 0.073348 0.361406 0.929519 1.000000
40.474800 42.810799 -744.580078 0.016335 0.994271 -0.105634 1.000000
40.579201 43.396000 -744.160217 0.492989 0.859459 0.135245 1.000000
39.839001 43.654301 -744.522827 -0.046047 0.838605 0.542791 1.000000
40.398201 43.996300 -744.408020 0.073906 0.302107 0.950405 1.000000
39.220600 43.990299 -744.433777 -0.070023 0.350117 -0.934085 1.000000
39.725498 44.457500 -744.533813 -0.198266 0.036804 0.979457 1.000000
38.828999 44.738400 -744.388977 0.600957 0.670874 0.434487 1.000000
37.747002 45.034199 -744.591675 0.292712 0.734180 -0.612617 1.000000
39.662601 45.391300 -744.108521 0.168868 0.646567 -0.743932 1.000000
38.349899 45.239700 -744.558105 0.125810 0.785941 0.605367 1.000000
37.174198 45.690800 -744.440613 -0.183884 0.569888 0.800883 1.000000
35.214600 45.996300 -744.583618 0.348548 0.656187 -0.669278 1.000000
36.485802 45.944698 -744.681274 0.518893 0.152268 -0.841169 1.000000
38.131699 46.771900 -743.693115 -0.220439 0.708218 -0.670697 1.000000
36.417500 46.395500 -744.228577 -0.868676 0.424518 0.255315 1.000000
34.692600 46.232800 -745.040405 0.182440 0.535259 0.824751 1.000000
35.693699 46.398102 -744.811218 -0.070409 0.223580 0.972139 1.000000
37.989300 47.397202 -743.372986 -0.605560 0.595439 0.527967 1.000000
34.143200 46.947498 -744.724670 0.192678 0.975823 -0.103176 1.000000
34.848801 46.945499 -744.737305 0.058965 0.344618 -0.936889 1.000000
35.484798 47.089802 -744.533020 0.092586 0.856064 -0.508510 1.000000
33.219002 47.279800 -744.915100 -0.222664 0.812341 -0.539001 1.000000
33.135700 48.392300 -743.759399 -0.709510 0.240698 -0.662314 1.000000
31.740900 47.978298 -744.797729 0.526798 0.687346 0.500040 1.000000
31.819300 49.331600 -743.479980 0.575160 0.280450 0.768465 1.000000
32.630199 49.551102 -743.165588 -0.040635 0.587103 -0.808492 1.000000
29.788300 49.807301 -743.468811 0.380172 0.831331 0.405412 1.000000
30.688900 50.110298 -743.027588 -0.343670 0.264021 -0.901212 1.000000
30.049999 50.305302 -742.966492 -0.329575 0.465189 0.821571 1.000000
27.081600 46.711399 -747.830627 -0.198929 0.390598 0.898811 1.000000
31.549299 49.956001 -743.052429 -0.570941 0.648414 0.503573 1.000000
29.649401 48.843899 -744.839172 0.301428 0.877020 0.374135 1.000000
32.590199 48.390800 -744.300781 -0.232078 0.465672 -0.853985 1.000000
34.786400 47.908298 -743.854919 0.970006 0.144415 -0.195535 1.000000
34.492802 47.385101 -744.372986 0.216087 0.433665 -0.874781 1.000000
31.314400 47.809601 -745.445679 -0.188416 0.761322 0.620393 1.000000
32.326500 47.832600 -745.147827 0.346901 0.872600 0.343844 1.000000
25.768999 46.898899 -748.224792 0.031203 0.001007 0.999513 1.000000
12.755700 54.520599 -747.562195 -0.889027 0.150804 -0.432306 1.000000
12.176300 55.042099 -747.062683 0.940328 0.320597 -0.114020 1.000000
10.856500 55.897301 -746.609619 0.287158 0.911033 0.295904 1.000000
38.432598 46.191799 -744.875427 0.023387 0.999540 -0.019320 1.000000
14.993400 56.667801 -744.535095 -0.507383 0.691581 0.514081 1.000000
94.441399 33.122501 -768.939270 0.079928 0.710633 -0.699008 1.000000
94.587700 32.667301 -769.436584 0.104440 0.748734 -0.654591 1.000000
94.693802 32.222900 -769.856628 -0.006925 0.674516 -0.738228 1.000000
94.850098 31.784599 -770.362793 0.113870 0.764556 -0.634419 1.000000
95.001297 31.333900 -770.866211 0.315675 0.824523 -0.469586 1.000000
95.226898 31.035000 -771.422424 0.028132 0.965056 -0.260528 1.000000
95.457901 30.747299 -771.982422 -0.150269 0.917060 -0.369352 1.000000
95.644699 30.367399 -772.512024 -0.097739 0.602482 -0.792125 1.000000
95.789803 29.899099 -773.013916 -0.319185 0.845451 -0.428175 1.000000
95.957901 29.477100 -773.532288 -0.426318 0.695048 -0.578930 1.000000
93.629700 33.574100 -768.015381 0.789209 0.598247 -0.138746 1.000000
93.918800 33.423000 -768.606506 0.045680 0.856842 -0.513552 1.000000
93.521301 33.092400 -768.991882 -0.448840 0.592336 -0.669089 1.000000
93.672600 32.639500 -769.489075 -0.127073 0.683205 -0.719085 1.000000
93.758904 32.147400 -769.890808 -0.046395 0.575013 -0.816828 1.000000
93.906403 31.682699 -770.387085 -0.020403 0.858273 -0.512788 1.000000
94.110397 31.333700 -770.925598 -0.152122 0.843315 -0.515441 1.000000
94.301697 30.957600 -771.455078 -0.038027 0.629553 -0.776026 1.000000
94.448196 30.486200 -771.953125 -0.233317 0.545437 -0.805022 1.000000
94.547096 30.010599 -772.368896 -0.275047 0.618459 -0.736110 1.000000
92.155098 34.243500 -767.187683 0.467437 0.868935 -0.162650 1.000000
92.356300 33.937901 -767.697083 -0.132144 0.855307 -0.500986 1.000000
92.575600 33.621201 -768.244080 -0.351130 0.632033 -0.690827 1.000000
92.726601 33.165699 -768.738770 -0.113336 0.790408 -0.602005 1.000000
92.879700 32.712799 -769.236084 -0.143264 0.710289 -0.689177 1.000000
93.036797 32.266602 -769.737183 -0.162988 0.699173 -0.696126 1.000000
93.196098 31.822901 -770.240784 -0.139537 0.661674 -0.736694 1.000000
93.311897 31.384600 -770.664673 -0.111920 0.550880 -0.827046 1.000000
93.496696 30.991100 -771.188721 -0.354729 0.714362 -0.603203 1.000000
93.612701 30.549700 -771.614319 -0.195914 0.393280 -0.898303 1.000000
93.720398 30.089100 -772.034912 -0.263949 0.589539 -0.763397 1.000000
90.629997 34.734402 -765.620178 -0.179338 0.982203 -0.055820 1.000000
90.909103 34.530602 -766.215820 0.107050 0.991076 -0.079424 1.000000
91.204399 34.360802 -766.823608 0.011531 0.928856 -0.370261 1.000000
91.416000 34.024899 -767.364380 -0.176172 0.814608 -0.552609 1.000000
91.605499 33.644100 -767.888123 -0.292596 0.609174 -0.737085 1.000000
91.779800 33.231899 -768.400330 -0.209825 0.732056 -0.648126 1.000000
91.947197 32.804298 -768.907776 -0.067680 0.747362 -0.660961 1.000000
92.108597 32.363201 -769.411377 -0.212132 0.757170 -0.617814 1.000000
92.293602 31.969299 -769.933716 -0.126421 0.757036 -0.641026 1.000000
92.451599 31.518200 -770.436218 -0.126103 0.784805 -0.606777 1.000000
92.625900 31.099400 -770.951477 -0.266788 0.522655 -0.809726 1.000000
92.708702 30.585400 -771.351501 -0.103103 0.570698 -0.814661 1.000000
89.907898 34.440701 -765.897888 -0.139019 0.954597 -0.263474 1.000000
90.199402 34.258701 -766.504272 -0.405138 0.776109 -0.483237 1.000000
90.418701 33.933899 -767.052185 -0.616220 0.481894 -0.622937 1.000000
90.619598 33.572201 -767.585510 -0.308115 0.717859 -0.624295 1.000000
90.812202 33.193199 -768.112488 -0.274565 0.588807 -0.760211 1.000000
91.012199 32.828400 -768.645630 -0.447408 0.696892 -0.560507 1.000000
91.183197 32.403702 -769.156616 -0.104194 0.767517 -0.632504 1.000000
91.356697 31.982700 -769.669983 -0.061120 0.803086 -0.592720 1.000000
91.550697 31.603201 -770.199829 -0.169298 0.651264 -0.739726 1.000000
91.637100 31.096500 -770.600525 -0.234232 0.661823 -0.712128 1.000000
91.746902 30.636299 -771.020020 -0.373274 0.539535 -0.754698 1.000000
91.727303 29.901400 -771.343811 -0.290351 0.368580 -0.883088 1.000000
91.711700 29.270000 -771.624084 -0.250314 0.438429 -0.863205 1.000000
91.784599 28.722900 -772.020630 0.077718 0.512940 -0.854899 1.000000
91.902000 28.267799 -772.451111 0.128408 0.580051 -0.804396 1.000000
89.090797 34.287102 -765.758118 -0.285357 0.846816 -0.448859 1.000000
89.339203 34.016602 -766.331421 -0.309051 0.803533 -0.508746 1.000000
89.597397 33.766499 -766.912170 -0.389566 0.757941 -0.523224 1.000000
89.816597 33.438400 -767.461182 -0.579337 0.525288 -0.623251 1.000000
90.028999 33.096802 -768.004883 -0.267025 0.807321 -0.526242 1.000000
90.230698 32.733101 -768.540283 -0.138848 0.886050 -0.442309 1.000000
90.433296 32.370602 -769.076477 -0.417147 0.679733 -0.603284 1.000000
90.612297 31.959000 -769.594788 0.055930 0.681199 -0.729959 1.000000
90.717102 31.490200 -770.008484 -0.213030 0.635981 -0.741719 1.000000
90.841599 31.060499 -770.438477 -0.101140 0.763681 -0.637622 1.000000
90.927902 30.549101 -770.840027 -0.145472 0.509887 -0.847852 1.000000
90.987999 29.979900 -771.223022 -0.152293 0.399948 -0.903797 1.000000
91.013901 29.435301 -771.533081 0.141237 0.581303 -0.801336 1.000000
91.098297 28.911501 -771.937317 0.290673 0.510641 -0.809170 1.000000
91.213203 28.450300 -772.365417 0.195171 0.824559 -0.531046 1.000000
88.102303 34.373199 -765.105713 -0.135075 0.948197 -0.287535 1.000000
88.378304 34.154301 -765.703979 -0.257186 0.839321 -0.478952 1.000000
88.634697 33.897499 -766.285400 -0.070305 0.932532 -0.354177 1.000000
88.876900 33.613300 -766.854797 -0.278557 0.847982 -0.450923 1.000000
89.117599 33.326698 -767.422729 -0.104204 0.779331 -0.617887 1.000000
89.334000 32.991199 -767.970825 -0.067907 0.928068 -0.366167 1.000000
89.551804 32.658501 -768.520081 0.325378 0.872258 -0.365096 1.000000
89.735703 32.255798 -769.042480 0.173656 0.882871 -0.436328 1.000000
89.876297 31.762899 -769.531372 -0.232935 0.538373 -0.809874 1.000000
90.046600 31.329399 -770.044495 0.057761 0.832607 -0.550845 1.000000
90.201302 30.861900 -770.546082 -0.164225 0.577046 -0.800030 1.000000
90.255203 30.280100 -770.923218 -0.035291 0.647941 -0.760872 1.000000
90.373596 29.831499 -771.351074 0.307580 0.713393 -0.629654 1.000000
90.503197 29.203501 -771.885315 0.118407 0.559873 -0.820075 1.000000
90.596001 28.695299 -772.296082 0.275047 0.618459 -0.736110 1.000000
90.765701 28.248400 -772.814575 0.159404 0.829793 -0.534822 1.000000
86.953903 34.816700 -763.770630 0.013505 0.958847 -0.283603 1.000000
87.207497 34.550098 -764.352905 0.040641 0.966752 -0.252464 1.000000
87.468597 34.299099 -764.941101 -0.035738 0.964939 -0.260028 1.000000
88.021599 33.861698 -766.141479 0.006465 0.916701 -0.399521 1.000000
88.512100 33.304100 -767.288025 -0.086876 0.844552 -0.528379 1.000000
88.726501 32.963501 -767.835571 -0.068508 0.920151 -0.385523 1.000000
89.118401 32.303799 -768.854370 -0.092305 0.861991 -0.498449 1.000000
89.234703 31.858299 -769.276978 -0.012512 0.760471 -0.649251 1.000000
89.409302 31.433300 -769.793884 0.006881 0.796832 -0.604161 1.000000
89.572601 30.983400 -770.302612 -0.061602 0.775034 -0.628909 1.000000
87.598099 34.101700 -765.607117 -0.026064 0.956918 -0.289185 1.000000
88.114403 33.596199 -766.777527 0.075836 0.894864 -0.439849 1.000000
88.764297 32.589802 -768.427429 -0.090215 0.840575 -0.534130 1.000000
89.541100 30.561100 -770.794312 -0.043232 0.829767 -0.556432 1.000000
89.657799 30.109400 -771.219910 0.032394 0.745071 -0.666198 1.000000
89.864700 29.747999 -771.764893 -0.372162 0.921478 -0.111237 1.000000
89.913101 29.146799 -772.139282 0.370917 0.730397 -0.573533 1.000000
90.035698 28.701900 -772.572388 0.310255 0.856674 -0.412130 1.000000
93.132202 30.162001 -771.843079 -0.179667 0.557118 -0.810765 1.000000
92.438797 28.795401 -772.106873 -0.205851 0.642317 -0.738278 1.000000
92.621597 29.667900 -771.708008 -0.523800 0.334783 -0.783297 1.000000
92.746902 28.329000 -772.461670 -0.205385 0.429979 -0.879167 1.000000
88.559700 34.669899 -764.644104 -0.206547 0.961693 0.180235 1.000000
88.810097 34.414600 -765.214478 -0.082239 0.996484 0.016021 1.000000
87.706100 34.988400 -763.607971 -0.296000 0.825355 -0.480805 1.000000
87.938797 34.689201 -764.161072 -0.029536 0.979419 -0.199664 1.000000
87.043098 35.310299 -762.915283 -0.533016 0.690081 0.489573 1.000000
86.414299 35.723400 -762.372192 -0.355709 0.745528 -0.563613 1.000000
86.046097 35.348000 -762.791016 -0.012214 0.850895 -0.525194 1.000000
86.242302 35.000099 -763.289307 0.157508 0.938202 -0.308169 1.000000
85.985802 34.752201 -763.800720 -0.116974 0.850585 -0.512662 1.000000
86.224899 34.458302 -764.361023 0.184974 0.951873 -0.244382 1.000000
86.512199 34.274399 -764.972900 0.160884 0.969168 -0.186626 1.000000
86.774002 34.034500 -765.556824 -0.056568 0.876120 -0.478762 1.000000
87.043602 33.813900 -766.148499 -0.206964 0.844473 -0.493994 1.000000
87.271301 33.498001 -766.695129 -0.264351 0.799309 -0.539651 1.000000
87.511703 33.211899 -767.255005 0.031150 0.876276 -0.480801 1.000000
87.749603 32.920601 -767.812012 0.056443 0.879686 -0.472194 1.000000
87.944801 32.529099 -768.324219 -0.073931 0.734956 -0.674072 1.000000
88.129501 32.111599 -768.825684 0.088878 0.770765 -0.630890 1.000000
88.322304 31.712400 -769.336121 0.196250 0.849417 -0.489875 1.000000
88.517197 31.316999 -769.848816 -0.362226 0.608080 -0.706422 1.000000
88.707001 30.908600 -770.356812 -0.303120 0.525302 -0.795095 1.000000
88.887604 30.476299 -770.855774 -0.111818 0.835006 -0.538760 1.000000
89.056396 30.013500 -771.343506 0.129592 0.758190 -0.639025 1.000000
89.357101 29.544300 -772.084106 -0.259649 0.262487 -0.929345 1.000000
89.151100 29.103701 -772.479187 0.183343 0.810648 -0.556089 1.000000
85.324799 34.739399 -763.940613 -0.091387 0.917958 0.386006 1.000000
85.569603 34.454601 -764.506897 0.094867 0.911551 -0.400093 1.000000
85.822899 34.190102 -765.082092 0.067824 0.972972 -0.220738 1.000000
86.076500 33.927601 -765.657288 0.123730 0.976089 -0.178721 1.000000
86.335701 33.678902 -766.238220 -0.078967 0.890801 -0.447479 1.000000
86.590302 33.420799 -766.813477 -0.059945 0.955293 -0.289521 1.000000
86.813400 33.090801 -767.354980 -0.529028 0.593255 -0.606777 1.000000
87.021202 32.725101 -767.880127 -0.171707 0.776482 -0.606294 1.000000
87.235100 32.373299 -768.411804 -0.015143 0.585072 -0.810840 1.000000
87.423401 31.960600 -768.916687 0.175547 0.925486 -0.335647 1.000000
87.638901 31.611700 -769.450378 0.134296 0.822007 -0.553416 1.000000
87.820503 31.181200 -769.949097 0.042145 0.885044 -0.463595 1.000000
88.023697 30.801399 -770.470520 0.256899 0.841460 -0.475340 1.000000
88.202698 30.362200 -770.967407 -0.288157 0.587458 -0.756213 1.000000
88.413300 29.998600 -771.497070 0.116671 0.859910 -0.496933 1.000000
88.618401 29.620899 -772.021423 0.150634 0.806860 -0.571215 1.000000
85.977898 33.379101 -766.710999 -0.055781 0.893849 -0.444884 1.000000
86.398804 32.762199 -767.730225 0.104928 0.846611 -0.521766 1.000000
86.614197 32.411999 -768.263977 0.385963 0.881557 -0.271826 1.000000
86.818604 32.035900 -768.786316 0.441457 0.875532 -0.196367 1.000000
88.238800 29.358601 -772.438416 0.559121 0.465656 -0.685966 1.000000
84.599403 34.321800 -764.822510 0.084574 0.927629 -0.363802 1.000000
84.831100 34.006302 -765.375793 0.038922 0.955461 -0.292539 1.000000
85.074997 33.719002 -765.942200 -0.082593 0.975089 -0.205866 1.000000
85.331200 33.460400 -766.521484 -0.145504 0.778522 -0.610518 1.000000
85.575203 33.069599 -767.125427 -0.214568 0.829357 -0.515875 1.000000
86.004997 32.471500 -768.156311 -0.409766 0.685156 -0.602207 1.000000
86.431198 31.758900 -769.221619 -0.073401 0.778622 -0.623185 1.000000
86.631798 31.372499 -769.741272 0.082498 0.777218 -0.623800 1.000000
86.805000 30.919901 -770.232788 -0.035021 0.802692 -0.595365 1.000000
87.007698 30.536600 -770.755371 0.123149 0.850454 -0.511431 1.000000
87.231697 30.204000 -771.300171 0.160480 0.858346 -0.487328 1.000000
87.464203 29.892000 -771.853821 -0.006654 0.877010 -0.480426 1.000000
85.296600 32.751301 -767.644775 0.054983 0.913257 -0.403657 1.000000
85.670303 32.127899 -768.579285 0.077531 0.855657 -0.511703 1.000000
83.713501 34.213402 -765.110291 -0.023912 0.947654 -0.318402 1.000000
83.922997 33.866798 -765.633118 -0.160199 0.815968 -0.555457 1.000000
84.163002 33.567799 -766.196716 -0.011695 0.913481 -0.406713 1.000000
84.418602 33.305000 -766.776917 -0.059253 0.877771 -0.475402 1.000000
84.656799 33.003502 -767.338013 -0.036939 0.868743 -0.493884 1.000000
84.976501 32.466000 -768.138916 0.082748 0.756345 -0.648918 1.000000
85.330101 31.793100 -769.052917 -0.088973 0.660733 -0.745330 1.000000
85.540604 31.427601 -769.584412 -0.049416 0.800545 -0.597232 1.000000
85.755898 31.073099 -770.121216 0.073350 0.792463 -0.605493 1.000000
85.958397 30.687799 -770.644470 0.335127 0.905867 -0.259028 1.000000
86.197701 30.389799 -771.206421 0.201340 0.902407 -0.380952 1.000000
86.410301 30.028099 -771.740601 0.135001 0.985628 -0.101550 1.000000
82.995499 34.182800 -764.885376 0.006723 0.861949 -0.506950 1.000000
83.220703 33.917099 -765.408020 -0.024979 0.911070 -0.411494 1.000000
83.502800 33.603802 -766.055481 0.121536 0.957913 -0.260061 1.000000
83.779297 33.384399 -766.658813 -0.009465 0.850457 -0.525959 1.000000
84.003197 33.047798 -767.204529 -0.016362 0.945233 -0.325986 1.000000
84.224800 32.705898 -767.747681 0.026033 0.850852 -0.524760 1.000000
84.552803 32.183399 -768.557678 0.067356 0.892121 -0.446748 1.000000
84.921799 31.541800 -769.488403 0.006736 0.858186 -0.513295 1.000000
85.147102 31.208401 -770.035522 -0.006766 0.848511 -0.529135 1.000000
85.358299 30.842100 -770.567993 0.097999 0.906833 -0.409938 1.000000
85.582603 30.506300 -771.114075 -0.001308 0.898831 -0.438294 1.000000
85.787399 30.069401 -771.659729 -0.704434 0.612906 -0.357937 1.000000
82.201897 34.356400 -764.399780 0.072190 0.991178 0.111149 1.000000
82.878899 33.690899 -765.920288 0.081064 0.956044 -0.281795 1.000000
83.371498 33.110901 -767.060974 0.257656 0.804198 -0.535611 1.000000
83.595901 32.772701 -767.607300 -0.022945 0.875957 -0.481844 1.000000
83.808701 32.408298 -768.141113 0.169923 0.855526 -0.489083 1.000000
84.140602 31.890400 -768.955383 -0.129289 0.855632 -0.501177 1.000000
84.511200 31.247700 -769.888123 0.106248 0.819420 -0.563260 1.000000
84.738998 30.917500 -770.437988 0.927253 0.084785 0.364710 1.000000
81.543800 34.572399 -763.881226 -0.112104 0.912058 -0.394441 1.000000
82.054901 34.126499 -765.008789 0.220887 0.945285 -0.240094 1.000000
82.300499 33.831699 -765.579712 -0.019247 0.988410 -0.150583 1.000000
82.694298 33.447899 -766.463074 -0.256606 0.760372 -0.596648 1.000000
83.593002 32.092999 -768.651978 -0.069791 0.821825 -0.565450 1.000000
83.916702 31.554899 -769.458618 -0.066135 0.913748 -0.400862 1.000000
84.542702 30.643499 -770.971497 -0.265664 0.913131 -0.309216 1.000000
80.983803 34.756901 -763.229980 0.236081 0.870643 0.431562 1.000000
81.544197 34.309101 -764.452087 -0.114585 0.836908 -0.535215 1.000000
82.656898 33.103100 -766.992676 0.165269 0.838255 -0.519629 1.000000
82.889099 32.780701 -767.548523 0.041940 0.949363 -0.311371 1.000000
83.119102 32.453999 -768.101929 0.082677 0.873009 -0.480645 1.000000
83.889603 31.231800 -770.000977 0.009245 0.891465 -0.452996 1.000000
84.120499 30.907600 -770.554871 0.036704 0.879528 -0.474429 1.000000
82.130203 33.600601 -766.183411 -0.036145 0.900955 -0.432405 1.000000
83.333397 31.760000 -769.119995 0.093520 0.827295 -0.553928 1.000000
80.319397 35.082401 -762.673218 0.745504 0.549748 0.376830 1.000000
80.851700 34.564999 -763.862976 0.022688 0.890157 -0.455088 1.000000
81.407997 34.106300 -765.077209 0.188716 0.969254 -0.157905 1.000000
81.669899 33.843800 -765.665405 -0.006239 0.944596 -0.328175 1.000000
82.935799 32.133999 -768.666809 0.051770 0.840913 -0.538688 1.000000
83.322403 31.413900 -769.654175 0.192618 0.946697 -0.258190 1.000000
80.351196 34.859200 -763.309998 0.132007 0.857323 -0.497566 1.000000
80.885803 34.346100 -764.499084 -0.115419 0.816697 -0.565406 1.000000
81.852997 33.322300 -766.684387 -0.559893 0.739451 -0.373806 1.000000
82.078003 32.978802 -767.230286 0.152513 0.872954 -0.463348 1.000000
82.315697 32.664101 -767.789978 0.107282 0.901451 -0.419377 1.000000
83.365501 31.099899 -770.323425 -0.021729 0.348939 -0.936894 1.000000
79.740196 35.149502 -762.423828 -0.121295 0.550942 -0.825682 1.000000
81.470703 33.567600 -766.237183 -0.011568 0.924190 -0.381758 1.000000
82.371300 32.296398 -768.380676 0.103877 0.866594 -0.488082 1.000000
82.711899 31.787500 -769.201416 0.074474 0.858564 -0.507269 1.000000
80.196800 34.564400 -763.841797 0.189729 0.964347 -0.184495 1.000000
80.968300 33.938400 -765.508972 -0.069735 0.901092 -0.427984 1.000000
79.633003 34.875000 -763.035400 -0.191605 0.828279 -0.526538 1.000000
80.567200 34.173801 -765.030518 0.054034 0.961296 -0.270168 1.000000
82.580399 31.452600 -769.749512 0.258422 0.916747 -0.304620 1.000000
79.024200 35.131599 -762.381714 -0.707153 0.470881 -0.527453 1.000000
80.018501 34.444500 -764.481018 -0.066598 0.903824 -0.422691 1.000000
80.693604 33.606602 -766.034485 -0.030298 0.912902 -0.407052 1.000000
80.955399 33.339699 -766.617004 -0.030912 0.960737 -0.275733 1.000000
81.224098 33.089401 -767.206604 0.019628 0.912064 -0.409578 1.000000
81.452103 32.749401 -767.751221 0.043164 0.834049 -0.549999 1.000000
81.670502 32.387699 -768.285095 0.176918 0.848910 -0.498047 1.000000
81.909103 32.071899 -768.840881 0.109459 0.877091 -0.467687 1.000000
79.317902 34.683300 -763.592773 0.052929 0.943677 -0.326608 1.000000
80.180603 33.932098 -765.467407 -0.056761 0.927978 -0.368287 1.000000
81.892502 31.805500 -769.406494 0.016898 0.919014 -0.393863 1.000000
79.432404 34.508400 -764.251282 0.011632 0.918949 -0.394205 1.000000
79.749001 34.146099 -764.967224 -0.170258 0.965659 -0.196251 1.000000
80.339600 33.417400 -766.550415 0.128244 0.953234 -0.273675 1.000000
80.610703 33.171200 -767.140320 0.149985 0.934313 -0.323363 1.000000
79.969200 33.696201 -766.004883 0.110940 0.967858 -0.225706 1.000000
80.744797 32.873501 -767.729980 0.146431 0.832735 -0.533956 1.000000
80.962601 32.508801 -768.259216 0.167791 0.917915 -0.359552 1.000000
81.213203 32.219398 -768.824707 0.108264 0.890012 -0.442897 1.000000
78.671799 34.784302 -763.428284 -0.031691 0.841873 -0.538744 1.000000
79.545998 33.897900 -765.516785 0.008397 0.968028 -0.250704 1.000000
81.227203 31.798800 -769.350525 -0.471462 0.406657 -0.782530 1.000000
78.745003 34.600399 -764.071411 0.006688 0.868141 -0.496272 1.000000
79.034500 34.281399 -764.715088 0.238474 0.855166 -0.460240 1.000000
79.683701 33.505299 -766.530579 -0.034214 0.860831 -0.507740 1.000000
79.961800 33.272900 -767.123230 0.135781 0.914072 -0.382146 1.000000
80.331100 32.658100 -768.182922 0.213767 0.865531 -0.452946 1.000000
80.567902 32.333801 -768.727478 0.063900 0.901392 -0.428263 1.000000
80.126701 33.006401 -767.676270 0.147636 0.860969 -0.486761 1.000000
82.693398 31.120600 -770.263489 0.185203 0.610710 -0.769892 1.000000
77.667702 35.072701 -762.448975 0.368627 0.584888 -0.722509 1.000000
77.945602 34.956299 -763.013000 0.621206 0.696602 0.358955 1.000000
78.091400 34.756302 -763.667175 0.126359 0.917840 -0.376301 1.000000
78.851700 34.044498 -765.323181 0.201503 0.965914 -0.162502 1.000000
79.198997 33.779301 -766.062927 0.136134 0.944848 -0.297876 1.000000
80.529404 31.827000 -769.161011 0.341072 0.638083 0.690304 1.000000
78.309502 34.439400 -764.513672 0.080707 0.972207 -0.219771 1.000000
79.245796 33.461399 -767.000122 0.122749 0.922687 -0.365489 1.000000
79.503502 33.205700 -767.564026 0.110442 0.901708 -0.418001 1.000000
76.938698 35.146000 -762.421997 0.053446 0.883921 -0.464572 1.000000
77.207100 35.008801 -762.973511 -0.064899 0.931105 -0.358932 1.000000
78.206398 34.199600 -765.108093 0.109239 0.934602 -0.338506 1.000000
78.585701 33.900299 -765.916077 0.033313 0.963599 -0.265267 1.000000
79.591202 32.921902 -768.108398 0.232021 0.872697 -0.429612 1.000000
79.792099 32.528400 -768.600525 0.076932 0.741741 -0.666260 1.000000
77.394897 34.788399 -763.600403 0.029839 0.927615 -0.372343 1.000000
77.668404 34.560299 -764.186523 -0.113805 0.894985 -0.431335 1.000000
78.761703 33.666901 -766.524719 -0.052650 0.993624 -0.099698 1.000000
77.584999 34.329700 -764.809326 -0.003514 0.975710 -0.219037 1.000000
78.006798 34.026501 -765.702576 0.095559 0.951660 -0.291912 1.000000
78.822098 33.366501 -767.448792 0.217811 0.913076 -0.344747 1.000000
78.990402 33.129398 -768.014526 0.058222 0.799494 -0.597845 1.000000
76.255302 35.155701 -762.403687 0.248970 0.850776 -0.462810 1.000000
76.514801 35.005600 -762.947876 0.126870 0.991385 0.032560 1.000000
78.078300 33.837601 -766.293701 0.109854 0.983861 -0.141241 1.000000
76.551903 34.824799 -763.544495 0.161877 0.953868 -0.252849 1.000000
76.810097 34.566898 -764.113892 0.455409 0.874210 -0.168399 1.000000
77.404800 34.135399 -765.383911 0.092250 0.954984 -0.281948 1.000000
78.144501 33.629501 -766.955383 0.128629 0.962767 -0.237768 1.000000
75.564499 35.159401 -762.278076 -0.143996 0.812017 -0.565591 1.000000
75.858398 34.979401 -762.897522 0.895144 0.150384 0.419644 1.000000
76.721497 34.411499 -764.726074 0.147244 0.982032 -0.118038 1.000000
77.301697 33.948101 -765.976196 0.041459 0.956064 -0.290211 1.000000
78.023697 33.402302 -767.524170 -0.899724 0.055639 -0.432899 1.000000
75.799301 34.766201 -763.542603 0.142509 0.988294 0.054455 1.000000
76.078903 34.556999 -764.141907 0.176241 0.920684 -0.348253 1.000000
76.653099 34.181900 -765.358826 -0.128896 0.918904 -0.372828 1.000000
77.264099 33.797001 -766.650024 -0.040710 0.923203 -0.382151 1.000000
74.676003 35.271400 -761.735779 -0.005953 0.970335 -0.241691 1.000000
74.935799 35.116199 -762.283325 -0.180066 0.803488 -0.567435 1.000000
75.193398 34.958302 -762.827271 -0.057068 0.925029 -0.375586 1.000000
76.098000 34.374901 -764.744324 -0.115878 0.928387 -0.353087 1.000000
76.682503 34.028999 -765.975220 0.045044 0.972700 -0.227653 1.000000
73.988899 35.325500 -761.352783 0.138569 0.931565 -0.336132 1.000000
74.961998 34.767300 -763.399292 0.093211 0.949173 -0.300637 1.000000
75.224297 34.623199 -763.949280 -0.315273 0.803234 -0.505388 1.000000
75.869499 34.193501 -765.321228 -0.095557 0.991260 -0.090952 1.000000
76.425102 33.779202 -766.513672 -0.034405 0.944229 -0.327486 1.000000
73.947502 35.210899 -761.960693 0.082791 0.916130 -0.392239 1.000000
74.234200 35.009300 -762.574097 0.056845 0.926702 -0.371474 1.000000
75.199898 34.452000 -764.609009 0.030258 0.914313 -0.403876 1.000000
75.829102 33.989899 -765.959778 -0.090749 0.889336 -0.448158 1.000000
73.006798 35.569302 -760.536682 -0.053903 0.269517 0.961486 1.000000
73.290497 35.414200 -761.133118 -0.124392 0.991772 0.030257 1.000000
74.260803 34.844101 -763.182312 0.140666 0.958372 -0.248467 1.000000
74.604797 34.673500 -763.901001 -0.058916 0.886482 -0.458998 1.000000
75.238503 34.214802 -765.261108 -0.137663 0.950274 -0.279335 1.000000
73.102203 35.397400 -761.725525 -0.151242 0.941516 -0.301122 1.000000
73.384300 35.182201 -762.333618 0.204394 0.928937 -0.308706 1.000000
73.665802 34.968399 -762.940491 0.097426 0.967933 -0.231545 1.000000
74.409500 34.539001 -764.509705 -0.385169 0.877580 -0.285478 1.000000
72.431099 35.340801 -760.963928 -0.213502 0.867443 -0.449398 1.000000
73.699402 34.800999 -763.590271 -0.154065 0.855428 -0.494476 1.000000
73.749901 34.501701 -764.158081 0.893738 0.424704 0.144428 1.000000
72.490196 35.172001 -761.763611 -0.465895 0.805309 0.366632 1.000000
73.025101 34.998600 -762.858398 -0.362892 0.929164 -0.070452 1.000000
73.077301 34.699299 -763.401672 -0.612237 0.588625 -0.527907 1.000000
74.547600 34.172298 -765.021484 -0.064116 0.996521 0.053249 1.000000
75.230301 33.830299 -765.765686 -0.912990 0.006475 -0.407932 1.000000
72.609596 35.581001 -757.393799 -0.589390 0.548859 -0.592768 1.000000
72.837898 35.602001 -757.978394 0.636157 0.758898 0.139206 1.000000
73.080704 35.659000 -758.589172 0.186160 0.916590 0.353846 1.000000
73.343903 35.666199 -759.268188 0.137941 0.990257 -0.019065 1.000000
73.595398 35.650101 -759.924500 -0.008972 0.999900 -0.010966 1.000000
73.820198 35.475101 -760.561279 -0.232563 0.970860 0.057833 1.000000
76.921799 33.380501 -766.958130 0.999769 0.017081 -0.013062 1.000000
81.222702 35.482101 -760.787170 0.005690 0.984306 -0.176379 1.000000
81.473900 35.382702 -761.447388 -0.069101 0.978330 -0.195181 1.000000
81.688202 35.195599 -762.040222 -0.045303 0.986216 -0.159142 1.000000
81.907799 35.024101 -762.641785 0.153480 0.913839 -0.375955 1.000000
82.128601 34.858101 -763.244873 -0.156986 0.858289 -0.488565 1.000000
82.314301 34.606400 -763.784485 0.025697 0.872333 -0.488236 1.000000
82.831703 34.561600 -764.128906 0.312202 0.800315 -0.511885 1.000000
82.210800 35.320801 -761.656921 -0.123978 0.884947 -0.448886 1.000000
82.432701 35.154400 -762.261108 -0.166152 0.910288 -0.379168 1.000000
82.661697 35.008202 -762.877075 0.012061 0.875103 -0.483786 1.000000
82.845497 34.751202 -763.411926 -0.014728 0.879687 -0.475325 1.000000
83.432404 34.410000 -764.425781 0.050392 0.993285 -0.104144 1.000000
85.598503 34.953701 -763.137878 -0.396056 0.918071 -0.016881 1.000000
87.636200 35.141701 -762.680420 0.533100 0.836894 0.124147 1.000000
88.122597 35.020199 -763.059998 -0.877293 0.199721 -0.436427 1.000000
88.350098 34.862499 -763.658386 0.118390 0.948451 -0.293980 1.000000
88.839302 34.775299 -764.077820 -0.257761 0.872769 -0.414528 1.000000
89.390602 34.810699 -764.449829 0.181746 0.980949 0.068606 1.000000
89.632797 34.695702 -765.068787 -0.225409 0.891324 -0.393361 1.000000
93.712700 29.037701 -772.542175 -0.678864 0.409974 -0.609152 1.000000
94.109596 29.558399 -772.417480 -0.184599 0.408443 -0.893923 1.000000
94.231102 28.908300 -772.881104 0.280160 0.680389 -0.677187 1.000000
94.790901 28.966101 -773.190918 0.219652 0.730616 -0.646494 1.000000
94.957603 28.443800 -773.727173 0.345037 0.568582 -0.746769 1.000000
95.081596 29.810101 -772.682129 0.017310 0.890804 -0.454057 1.000000
95.334900 29.097500 -773.473816 0.379744 0.715102 -0.586877 1.000000
95.875801 28.960699 -773.891174 0.758022 0.593441 -0.270609 1.000000
95.300102 32.078300 -769.911316 0.001382 0.739501 -0.673154 1.000000
95.450996 31.626900 -770.388123 0.862964 0.442817 -0.243323 1.000000
95.857803 31.017599 -771.513428 -0.189392 0.960203 -0.205285 1.000000
96.088402 30.792601 -772.119812 -0.519728 0.466593 -0.715663 1.000000
96.282204 30.356501 -772.694519 -0.607777 0.671053 -0.424612 1.000000
96.449799 29.955999 -773.197327 -0.462573 0.515628 -0.721216 1.000000
96.635498 29.608700 -773.729370 -0.679719 0.525313 -0.511887 1.000000
96.419998 28.955700 -774.204712 -0.975365 0.098158 -0.197558 1.000000
98.319901 29.587900 -774.310486 -0.070313 0.615595 0.784920 1.000000
97.674301 29.548800 -774.336609 -0.070313 0.615595 0.784920 1.000000
97.003197 29.375900 -774.259583 -0.148858 0.774364 0.614981 1.000000
94.279800 28.440100 -773.478821 0.271302 0.488343 0.829408 1.000000
97.645798 30.317200 -773.328674 -0.151037 0.491237 0.857831 1.000000
96.998802 30.317600 -773.386414 -0.321160 0.731084 -0.601974 1.000000
93.082497 29.045200 -772.357483 -0.501046 0.290575 -0.815181 1.000000
97.346001 30.593300 -772.855225 0.024733 0.203751 -0.978710 1.000000
96.967697 30.843500 -772.424011 0.241649 0.922269 -0.301704 1.000000
94.998299 30.425400 -772.270813 -0.237045 0.493972 -0.836541 1.000000
86.905602 29.886200 -772.127319 0.613565 0.532433 -0.583141 1.000000
93.048401 33.861401 -767.896606 -0.080641 0.272643 -0.958730 1.000000
77.437500 33.611500 -767.264282 0.127766 0.826809 -0.547779 1.000000
84.744499 34.577000 -764.262085 -0.029737 0.932198 -0.360726 1.000000
84.123199 34.603298 -764.328003 0.019576 0.914870 -0.403274 1.000000
84.718903 34.849800 -763.635315 -0.032428 0.683816 -0.728934 1.000000
84.080299 34.826401 -763.662781 0.017643 0.210541 0.977426 1.000000
83.444901 34.817299 -763.701172 -0.284404 0.954508 -0.089607 1.000000
85.149803 35.242199 -762.805725 -0.048784 0.961921 -0.268938 1.000000
84.520699 35.251499 -762.858215 -0.095485 0.950930 -0.294304 1.000000
83.871696 35.199902 -762.864075 0.100841 0.870638 -0.481478 1.000000
83.228302 35.201801 -762.588074 -0.088980 0.995936 -0.013937 1.000000
81.286400 35.110802 -762.655212 -0.041162 0.912214 -0.407641 1.000000
78.407097 35.060799 -762.563721 0.061681 0.978433 -0.197138 1.000000
85.787697 35.733299 -762.200623 0.076419 0.926407 -0.368686 1.000000
85.131798 35.651501 -762.182373 -0.230358 0.862714 -0.450177 1.000000
84.534401 35.471500 -762.082703 -0.123492 0.757317 -0.641265 1.000000
83.876198 35.395100 -762.068970 0.093050 0.033936 0.995083 1.000000
80.829498 35.275101 -762.189697 -0.003920 0.902878 -0.429880 1.000000
83.343399 35.491798 -761.746521 -0.347134 0.705677 -0.617671 1.000000
80.284500 35.353699 -761.856323 0.029251 0.981661 0.188376 1.000000
78.529404 35.331299 -761.964172 -0.162493 0.727420 -0.666675 1.000000
85.221199 35.894299 -761.523621 0.499375 0.811287 0.304036 1.000000
84.604500 35.948002 -761.609985 -0.179386 0.815526 -0.550216 1.000000
83.929100 35.813499 -761.552124 -0.100932 0.776738 -0.621683 1.000000
82.748100 35.528599 -761.411377 -0.102100 0.960257 -0.259773 1.000000
80.803902 35.454300 -761.491577 -0.016563 0.936462 -0.350377 1.000000
79.698700 35.444698 -761.562988 0.118289 0.992979 0.001085 1.000000
79.053001 35.441002 -761.606201 0.097560 0.913762 -0.394361 1.000000
78.004700 35.347599 -761.607300 -0.178146 0.833844 -0.522463 1.000000
77.352898 35.336899 -761.645386 0.096177 0.995265 0.014048 1.000000
76.728203 35.403198 -761.742371 0.155268 0.986475 -0.052534 1.000000
76.089500 35.433899 -761.812317 -0.006710 0.865652 -0.500602 1.000000
83.344002 35.904800 -761.229614 -0.291737 0.831527 -0.472707 1.000000
82.141403 35.565201 -761.046692 -0.141719 0.979710 -0.141719 1.000000
80.288101 35.507000 -761.132324 -0.020130 0.476403 0.878997 1.000000
75.540802 35.435501 -761.413086 0.030308 0.991170 0.129088 1.000000
84.393997 36.135601 -760.858215 -0.247451 0.444805 0.860765 1.000000
82.800301 35.981499 -760.850281 -0.341722 0.904903 -0.253725 1.000000
79.750099 35.624500 -760.786072 0.191894 0.756831 -0.624807 1.000000
79.085403 35.569302 -760.789978 -0.042182 0.218141 -0.975005 1.000000
78.450401 35.603199 -760.862305 0.045752 0.932031 0.359479 1.000000
77.824097 35.663898 -760.955078 -0.012461 0.986712 -0.161998 1.000000
77.162399 35.628700 -760.974609 -0.314019 0.745593 -0.587778 1.000000
76.550499 35.479698 -760.900513 -0.181476 0.611529 -0.770129 1.000000
74.985802 35.535599 -761.056702 -0.010923 0.999928 0.004965 1.000000
83.826401 36.280701 -760.633972 0.459072 0.866146 -0.197594 1.000000
82.253799 35.915600 -760.458984 -0.492126 0.745595 -0.449332 1.000000
81.650703 35.748798 -760.370728 -0.320680 0.853597 -0.410532 1.000000
80.785599 35.630901 -760.340088 -0.013460 0.960555 -0.277765 1.000000
75.941101 35.549000 -760.626770 -0.101526 0.690086 -0.716571 1.000000
83.192398 36.303299 -760.444702 -0.049799 0.987870 0.147080 1.000000
80.127998 35.612301 -760.120422 0.123354 0.765391 -0.631633 1.000000
79.497299 35.657700 -760.202087 0.068897 0.997420 0.020139 1.000000
78.764000 35.675900 -760.269897 0.026321 0.951320 -0.307080 1.000000
78.126198 35.705601 -760.339722 0.001180 0.971447 -0.237255 1.000000
77.489403 35.740501 -760.413574 0.011231 0.947115 -0.320697 1.000000
75.284897 35.572201 -760.440613 0.035030 0.972390 0.230716 1.000000
74.653603 35.635300 -760.536377 0.090412 0.974713 -0.204355 1.000000
76.876198 35.773800 -760.200378 0.016978 0.988111 0.152801 1.000000
72.371498 35.516800 -760.322083 -0.323013 0.936330 -0.137655 1.000000
82.725998 36.317200 -759.885071 -0.107792 0.716151 -0.689572 1.000000
82.030899 36.145302 -759.798889 -0.337347 0.871607 -0.355665 1.000000
81.332497 35.972401 -759.712219 -0.403597 0.729769 -0.551857 1.000000
80.649300 35.854198 -759.667725 -0.123823 0.949312 -0.288921 1.000000
78.406998 35.786499 -759.775024 0.013297 0.999342 -0.033755 1.000000
77.761597 35.799400 -759.831604 0.019865 0.998489 -0.051231 1.000000
76.270699 35.797100 -759.936829 -0.014922 0.855958 -0.516830 1.000000
75.567001 35.663399 -759.881470 -0.290754 0.657007 -0.695560 1.000000
74.893898 35.617901 -759.893799 -0.100785 0.093834 0.990473 1.000000
74.275299 35.719398 -760.018494 -0.009814 0.993375 0.114494 1.000000
80.009399 35.875198 -759.442017 -0.038520 0.909873 0.413095 1.000000
79.350700 35.842400 -759.463013 -0.069538 0.940732 -0.331946 1.000000
77.109596 35.810101 -759.596985 -0.015297 0.652203 -0.757890 1.000000
72.927200 35.666801 -759.781616 -0.007824 0.989191 -0.146423 1.000000
72.013702 35.561699 -759.763428 -0.176705 0.566363 -0.804990 1.000000
74.494202 35.642799 -759.387878 0.006779 0.839260 -0.543688 1.000000
71.465897 35.373501 -759.388916 -0.136034 0.910165 -0.391273 1.000000
81.738098 36.112000 -758.949707 -0.010401 0.981145 0.192993 1.000000
81.092697 36.110600 -758.994202 -0.100900 0.986447 -0.129390 1.000000
80.428802 36.056900 -758.998596 0.001369 0.801148 -0.598464 1.000000
78.830299 35.986599 -759.056030 -0.055963 0.704562 0.707432 1.000000
78.175003 35.973202 -759.091614 -0.066674 0.904861 -0.420454 1.000000
77.502296 35.914600 -759.092773 -0.060021 0.973818 -0.219262 1.000000
76.647301 35.873901 -759.120972 0.036849 0.992680 -0.115012 1.000000
75.991203 35.871201 -759.165283 0.003008 0.999730 -0.023063 1.000000
75.300903 35.780300 -759.142212 -0.185775 0.969873 -0.157588 1.000000
72.454697 35.738602 -759.310425 -0.104759 0.983767 -0.145699 1.000000
79.792503 36.103001 -758.860718 0.034486 0.528319 0.848345 1.000000
74.033401 35.689301 -758.938293 -0.074454 0.977671 -0.196511 1.000000
71.913300 35.725300 -758.981323 -0.279992 0.956102 0.086449 1.000000
77.030403 36.007999 -758.627197 -0.238795 0.931160 -0.275533 1.000000
74.904404 35.844299 -758.646423 -0.032759 0.990686 -0.132167 1.000000
80.268700 36.247601 -758.183228 0.269528 0.821049 0.503223 1.000000
79.575203 36.393299 -758.346619 0.311720 0.914863 -0.256626 1.000000
78.945602 36.453800 -758.438171 -0.010420 0.980616 -0.195660 1.000000
78.277603 36.406101 -758.446899 -0.055469 0.618690 0.783674 1.000000
77.572701 36.259499 -758.379822 -0.055494 0.621822 0.781190 1.000000
76.477203 36.077400 -758.311890 -0.122574 0.941530 -0.313843 1.000000
75.787598 35.990799 -758.291321 -0.055593 0.620072 0.782573 1.000000
74.336998 35.895699 -758.316772 -0.055469 0.618690 0.783674 1.000000
73.720001 35.768101 -758.258789 -0.058511 0.629351 0.774915 1.000000
72.275200 35.719398 -758.320618 -0.019099 0.938389 0.345052 1.000000
71.595200 35.688702 -758.343628 -0.272608 0.789460 0.549943 1.000000
76.980598 36.421700 -758.052673 -0.223762 0.804002 -0.550919 1.000000
75.284103 36.155102 -757.958923 -0.055494 0.621822 0.781190 1.000000
71.954201 35.649899 -757.789124 0.129246 0.893362 -0.430348 1.000000
71.199203 35.440399 -757.675415 -0.080554 0.960258 0.267236 1.000000
70.688301 35.129601 -757.464600 -0.206260 0.551555 -0.808235 1.000000
78.970299 36.700500 -757.731995 0.288037 0.882206 -0.372487 1.000000
78.364197 36.834400 -757.879822 0.057370 0.996943 -0.053040 1.000000
77.687698 36.770100 -757.875488 -0.146632 0.466029 -0.872534 1.000000
76.371002 36.499001 -757.751404 -0.250568 0.834714 -0.490375 1.000000
74.651001 36.188400 -757.623779 -0.040583 0.580759 0.813063 1.000000
74.025803 36.041199 -757.550293 -0.111385 0.955293 -0.273877 1.000000
73.404602 35.910301 -757.489380 -0.302800 0.820541 -0.484794 1.000000
75.807602 36.511200 -757.486572 -0.224214 0.883491 -0.411306 1.000000
72.028099 35.592701 -757.020325 -0.073838 0.693499 0.716664 1.000000
71.219803 35.495499 -756.999207 0.133317 0.657596 -0.741481 1.000000
78.051399 36.863201 -757.325806 0.408619 0.216848 -0.886571 1.000000
77.296600 36.849300 -757.367004 -0.012203 0.852849 -0.522014 1.000000
75.172699 36.457401 -757.203430 -0.032786 0.392124 0.919328 1.000000
72.987701 35.972000 -756.969788 -0.238829 0.901102 0.361906 1.000000
76.741798 36.787498 -757.026794 -0.064802 0.707059 0.704179 1.000000
74.607101 36.390701 -756.859985 -0.298172 0.949684 0.095888 1.000000
73.950996 36.169201 -756.729980 -0.290042 0.943659 0.159319 1.000000
