ply
format ascii 1.0
element vertex 691
property float x
property float y
property float z
property float nx
property float ny
property float nz
property float label
element face 0
property list uchar int vertex_indices
end_header
52.669899 84.574303 -809.457581 0.267184 0.953091 0.142233 1.000000
54.209999 84.312798 -810.456177 -0.260410 0.919346 -0.294939 1.000000
56.339699 82.803596 -812.844727 0.129452 0.778202 -0.614527 1.000000
57.914398 87.959099 -801.916870 -0.830558 0.478389 0.285163 1.000000
52.600399 85.809502 -801.567383 0.842001 0.273457 -0.465032 1.000000
51.196602 83.627899 -806.279724 -0.003549 0.971308 0.237799 1.000000
53.430302 87.166603 -801.382080 -0.391268 0.259346 0.882977 1.000000
54.840801 87.234299 -801.442993 -0.082646 0.983373 -0.161700 1.000000
64.358200 85.436996 -803.529480 0.402599 0.684252 -0.608040 1.000000
59.457401 82.371902 -812.875916 0.570651 0.820571 0.031934 1.000000
51.149899 84.842400 -801.463379 -0.231694 0.964312 0.128143 1.000000
53.560299 84.990501 -804.670471 0.658695 0.297943 0.690905 1.000000
55.660400 86.017799 -801.629822 -0.346473 0.319239 0.882068 1.000000
54.207901 80.373199 -802.255676 0.258177 0.708007 -0.657321 1.000000
55.134201 79.963997 -802.331970 0.252010 0.781074 -0.571327 1.000000
52.956699 81.669098 -803.105225 0.095393 0.952627 0.288794 1.000000
53.609600 82.235603 -803.767578 0.367799 0.477014 0.798236 1.000000
54.652000 82.664497 -803.722290 -0.913582 0.068822 0.400789 1.000000
51.493698 85.280899 -802.722229 0.247743 0.667486 -0.702201 1.000000
55.098999 82.478600 -804.689819 -0.361612 0.701953 0.613595 1.000000
52.725899 85.673203 -803.020081 0.122655 0.972391 0.198525 1.000000
55.528400 83.665703 -804.127014 0.091421 0.391611 -0.915578 1.000000
50.710201 84.095299 -805.458008 -0.203631 0.953427 -0.222511 1.000000
53.771999 85.992699 -802.457214 -0.789737 0.524896 0.317490 1.000000
52.086102 85.347000 -803.921387 0.271518 0.801998 -0.532050 1.000000
53.527901 86.880402 -803.085876 0.110308 0.622138 0.775098 1.000000
51.556801 84.732803 -807.427002 0.249174 0.955390 -0.158565 1.000000
52.691700 84.771797 -807.943115 0.767961 0.623687 0.145777 1.000000
55.550400 87.097099 -803.859680 0.259057 0.786590 -0.560504 1.000000
54.164299 87.709801 -802.737122 0.216738 0.728179 -0.650215 1.000000
52.097301 86.541397 -802.933716 0.024231 0.939926 0.340516 1.000000
56.216499 82.599701 -805.069214 0.849950 0.324752 0.414875 1.000000
51.249500 82.908699 -796.455688 -0.935992 0.222456 0.272823 1.000000
50.325699 82.367599 -796.509888 0.320267 0.353660 -0.878837 1.000000
51.001701 85.630600 -796.834717 0.147559 0.145079 -0.978355 1.000000
50.567200 84.491203 -797.406189 -0.217047 0.307838 -0.926351 1.000000
50.158600 82.953400 -797.563904 -0.369856 0.929088 -0.001271 1.000000
49.842098 82.829597 -798.555176 0.496803 0.584375 -0.641633 1.000000
50.626099 86.035400 -795.674988 -0.573695 0.817760 -0.046288 1.000000
49.703098 83.951500 -797.161987 -0.058706 0.443710 -0.894246 1.000000
49.277500 83.630898 -798.377686 0.776039 0.531820 0.339015 1.000000
49.718300 83.876404 -794.320007 -0.738858 0.635761 0.223376 1.000000
49.727798 86.082703 -796.144104 0.008848 0.350140 -0.936656 1.000000
49.403599 85.190399 -796.531372 -0.322281 0.368103 -0.872144 1.000000
48.816399 83.494301 -797.165894 0.611907 0.329489 -0.719032 1.000000
48.430099 83.924797 -798.885071 0.125757 0.963274 -0.237253 1.000000
49.630798 87.315498 -794.742493 -0.688216 0.537512 -0.487277 1.000000
49.273399 86.703796 -795.484192 -0.081821 0.445159 -0.891705 1.000000
48.458801 84.461098 -796.450378 0.179666 0.174496 -0.968128 1.000000
48.067501 84.056801 -797.489380 -0.370538 0.878704 0.300967 1.000000
49.405399 88.277100 -793.610901 0.841115 0.396280 -0.368086 1.000000
48.381199 86.210403 -795.471802 -0.916653 0.270796 -0.293966 1.000000
48.042500 85.253700 -795.849976 -0.375919 0.394793 -0.838346 1.000000
47.335999 84.670197 -797.864075 0.285024 0.890887 0.353669 1.000000
47.140900 84.959198 -798.810791 -0.141893 0.988638 -0.049605 1.000000
48.504002 88.048500 -793.958374 0.897178 0.401483 -0.184074 1.000000
48.139301 87.170799 -794.496704 -0.955230 0.199620 0.218376 1.000000
47.117401 84.938202 -796.204102 0.055309 0.984979 -0.163575 1.000000
46.387501 85.425499 -799.253723 -0.324466 0.882849 0.339557 1.000000
48.153900 88.053596 -792.855225 -0.152669 0.724042 -0.672648 1.000000
47.355301 86.518204 -794.374512 0.052252 0.405957 -0.912397 1.000000
46.979401 85.713799 -795.017090 0.291636 0.303360 -0.907150 1.000000
46.448700 85.493103 -796.737488 0.471887 0.847563 0.242815 1.000000
46.169300 85.478996 -797.733887 0.371113 0.918748 0.134824 1.000000
47.335602 87.575401 -793.403015 -0.196367 0.435551 -0.878485 1.000000
46.203899 85.567200 -795.709290 0.143533 0.977271 -0.156014 1.000000
47.265900 87.899597 -792.049683 -0.183293 0.981158 -0.061098 1.000000
46.554100 87.095802 -793.917175 -0.091213 0.800643 -0.592158 1.000000
46.169498 86.139397 -794.454590 -0.106369 0.239652 -0.965014 1.000000
45.529999 85.817398 -796.493774 0.339015 0.776039 0.531820 1.000000
45.360699 86.192596 -797.449524 0.496962 0.867301 -0.028592 1.000000
46.599499 87.877998 -792.784119 0.030574 0.902610 -0.429371 1.000000
45.488400 86.056297 -795.192200 0.458286 0.888514 0.022714 1.000000
46.457199 88.410301 -791.697327 0.270271 0.959397 -0.080697 1.000000
45.798302 87.512604 -793.301086 -0.096283 0.891663 -0.442343 1.000000
45.399799 86.591301 -793.924377 -0.552881 0.230754 0.800671 1.000000
44.827801 86.445099 -795.897827 0.067950 0.972305 -0.223618 1.000000
44.535801 86.345200 -796.881714 0.357953 0.904380 0.232305 1.000000
43.965000 86.515198 -797.737671 -0.128503 0.170921 -0.976869 1.000000
45.709000 88.147598 -792.325317 0.059626 0.926184 -0.372328 1.000000
44.672501 86.537300 -794.678284 0.222418 0.963809 -0.146978 1.000000
45.769001 88.934998 -790.915710 -0.898255 0.014509 0.439235 1.000000
44.947300 87.656700 -792.797607 -0.189975 0.810054 -0.554727 1.000000
43.835098 86.606796 -795.978882 0.136538 0.928182 -0.346172 1.000000
44.397701 87.073997 -793.441223 -0.145504 0.610518 -0.778522 1.000000
43.371101 86.609200 -796.863525 0.100722 0.981736 -0.161398 1.000000
45.041901 88.530998 -791.544128 0.153947 0.985963 -0.064634 1.000000
43.721199 86.770401 -794.872498 0.066656 0.978025 -0.197544 1.000000
44.786201 88.967102 -790.573975 -0.142527 0.961078 -0.236674 1.000000
44.200901 88.136703 -792.023682 0.015061 0.833847 -0.551790 1.000000
43.466400 87.037804 -793.788025 0.278369 0.910894 -0.304603 1.000000
42.963299 86.901100 -795.593018 0.296647 0.921469 -0.250789 1.000000
43.454498 87.559601 -792.575378 -0.154940 0.609231 -0.777709 1.000000
42.818298 87.088501 -794.588013 0.041110 0.960476 -0.275311 1.000000
42.392300 87.269402 -796.424316 -0.020179 0.071157 -0.997261 1.000000
44.003799 89.019501 -789.945618 -0.337657 0.657372 0.673684 1.000000
43.689301 88.728302 -790.891479 -0.085495 0.878773 -0.469520 1.000000
42.994598 88.335098 -791.611511 -0.020215 0.871937 -0.489201 1.000000
42.520699 87.795700 -792.947815 0.299055 0.911754 -0.281550 1.000000
42.186600 87.421997 -793.896973 0.255901 0.941993 -0.217170 1.000000
41.911701 87.402901 -794.970398 0.952184 0.295862 -0.076226 1.000000
43.041401 89.183502 -789.439697 -0.044019 0.674491 0.736970 1.000000
42.747101 88.957901 -790.395691 -0.039719 0.944286 -0.326720 1.000000
42.098400 88.069000 -792.094727 0.334582 0.889718 -0.310576 1.000000
42.086498 88.558296 -791.055786 -0.192334 0.900934 -0.389007 1.000000
41.485901 87.963898 -792.882202 0.103809 0.934282 -0.341087 1.000000
41.167801 87.638298 -793.838074 0.437565 0.890707 -0.123198 1.000000
40.932701 87.680298 -794.843079 0.139688 0.925260 -0.352678 1.000000
41.983002 89.388298 -788.726013 0.864677 0.492682 0.097968 1.000000
41.712299 89.239899 -789.693787 -0.110730 0.968570 -0.222733 1.000000
41.113602 88.524399 -791.414124 0.304116 0.923770 -0.232727 1.000000
41.020199 88.807800 -790.372803 0.182116 0.829305 -0.528287 1.000000
40.449799 88.296700 -792.210327 0.177690 0.955252 -0.236475 1.000000
40.203201 88.251602 -793.198181 -0.658352 0.645152 -0.387751 1.000000
40.911499 89.453796 -787.861389 -0.829291 0.431231 0.355410 1.000000
40.681198 89.461601 -788.854675 0.022907 0.970523 -0.239918 1.000000
40.070999 88.830704 -790.752625 0.173765 0.976333 -0.128761 1.000000
40.036400 89.173203 -789.636475 0.011195 0.949120 -0.314715 1.000000
39.453300 88.655602 -791.556213 -0.052704 0.971952 -0.229199 1.000000
39.975399 89.702698 -788.076782 -0.071547 0.978623 -0.192814 1.000000
39.094101 89.011597 -789.967773 -0.017843 0.974236 -0.224824 1.000000
39.268200 89.465302 -788.828430 0.140388 0.950627 -0.276765 1.000000
39.577801 89.792999 -787.137817 0.084932 0.993137 -0.080402 1.000000
38.888500 89.708801 -787.915222 -0.064301 0.938269 -0.339877 1.000000
38.253101 89.447701 -788.948914 -0.232391 0.913684 -0.333430 1.000000
38.559799 89.804901 -786.527222 0.913872 0.317176 0.253451 1.000000
37.898701 89.653503 -788.009521 -0.329006 0.924888 -0.190626 1.000000
38.797401 89.075203 -790.919373 0.017811 0.974873 0.222048 1.000000
45.506500 85.816902 -798.400391 0.376868 0.607267 0.699427 1.000000
48.296101 86.990303 -792.996887 0.482510 0.590108 -0.647269 1.000000
48.615601 85.189400 -792.776184 0.122167 0.983386 0.134263 1.000000
48.827400 84.249802 -793.531616 0.956020 0.155569 0.248645 1.000000
49.382099 85.517899 -794.114929 0.990824 0.065443 0.118256 1.000000
49.743000 83.770203 -795.337524 -0.869412 0.492712 -0.036851 1.000000
51.460499 86.862297 -794.463379 0.340521 0.653345 -0.676155 1.000000
50.028999 81.789703 -795.275574 -0.955361 0.241847 0.169693 1.000000
51.177601 83.604500 -795.689880 0.793005 0.559310 -0.241485 1.000000
52.190498 84.737602 -796.773621 0.163252 0.939726 0.300438 1.000000
50.266499 81.949600 -797.554871 -0.549047 0.714923 -0.432935 1.000000
49.028801 82.181702 -798.447021 -0.934603 0.286388 0.210949 1.000000
43.665001 90.067596 -790.311829 -0.793706 0.468496 -0.387998 1.000000
39.432098 88.474098 -792.533020 0.010877 0.965594 -0.259828 1.000000
38.107399 88.938499 -790.143188 0.410366 0.763509 -0.498652 1.000000
37.644901 89.910500 -787.005127 -0.030935 0.997401 -0.065071 1.000000
48.331501 88.827103 -791.657227 -0.849368 0.523660 -0.065984 1.000000
48.929600 81.082199 -798.049377 0.900934 0.389007 -0.192334 1.000000
49.378502 81.361801 -798.972412 0.152151 0.616135 -0.772805 1.000000
51.217999 84.172798 -796.724426 -0.842468 0.309891 -0.440699 1.000000
49.166100 82.612801 -800.653320 0.077039 0.699167 -0.710796 1.000000
46.773602 84.038597 -798.965088 -0.939530 0.285584 0.189010 1.000000
44.928001 84.381401 -797.465820 -0.938710 0.286175 0.192166 1.000000
46.790699 89.333397 -791.149719 -0.939450 0.283634 0.192317 1.000000
40.189999 87.935402 -794.192688 0.156373 0.690776 -0.705958 1.000000
47.367100 86.058998 -795.886414 0.541966 0.695384 0.471927 1.000000
46.592098 81.427597 -794.274902 0.488158 0.704746 0.514815 1.000000
46.673901 82.314003 -794.776978 -0.250030 0.839057 0.483186 1.000000
42.761902 86.744499 -792.013916 0.616128 0.333262 0.713668 1.000000
44.053902 84.700401 -793.662781 0.247462 0.622596 0.742386 1.000000
47.489399 82.619003 -795.296692 0.186423 0.972696 -0.138232 1.000000
43.795700 86.129501 -793.487122 0.060542 0.402270 -0.913517 1.000000
39.188900 89.862801 -791.528381 0.290926 0.893665 -0.341651 1.000000
45.948898 86.656403 -792.227478 0.272450 0.686700 -0.673954 1.000000
46.771900 85.619797 -793.158081 -0.370756 0.343064 -0.863045 1.000000
47.461102 83.593399 -795.624207 0.153521 0.977295 0.146033 1.000000
48.403900 83.287102 -795.940613 0.354307 0.288528 0.889504 1.000000
49.104599 82.588501 -796.400391 0.828292 0.410187 0.381680 1.000000
41.287102 88.855698 -793.573425 -0.320011 0.250506 -0.913696 1.000000
44.253700 89.217102 -792.002808 0.075522 0.560002 0.825042 1.000000
42.252102 88.409798 -793.988586 0.394416 0.585848 -0.707968 1.000000
44.836201 88.792999 -792.817078 0.297612 0.836742 0.459663 1.000000
45.176399 88.149902 -793.930176 -0.794902 0.388583 -0.465977 1.000000
45.732498 88.618401 -793.210022 -0.071459 0.918184 0.389655 1.000000
46.530800 88.142403 -794.119873 0.537208 0.658459 0.527104 1.000000
43.771999 87.606102 -796.051270 0.516292 0.650830 -0.556653 1.000000
45.734100 88.045502 -794.799805 -0.343470 0.839070 0.421888 1.000000
51.012299 83.492699 -797.553894 0.341962 0.297164 0.891491 1.000000
47.553299 88.110901 -794.275879 0.536420 0.833288 -0.133738 1.000000
46.283501 89.132500 -793.902222 0.467351 0.644911 0.604709 1.000000
45.055401 87.456100 -796.824707 0.560091 0.826801 0.051938 1.000000
49.242001 88.244499 -794.659607 0.900830 0.433929 -0.014508 1.000000
47.350800 88.452797 -795.455017 0.248750 0.934569 -0.254371 1.000000
47.751598 87.373199 -796.455322 -0.898666 0.270932 0.344957 1.000000
48.393200 88.284798 -795.222412 0.060871 0.415276 -0.907656 1.000000
50.327801 86.567101 -796.914429 0.486374 0.379727 0.786923 1.000000
51.538601 85.881699 -797.666382 0.387921 0.748016 -0.538506 1.000000
49.599602 88.004204 -795.658325 -0.286452 0.843873 -0.453678 1.000000
44.547100 87.937698 -795.125000 -0.165566 0.915565 -0.366509 1.000000
40.475300 89.533096 -794.052917 0.319869 0.937830 0.134754 1.000000
43.293598 89.263496 -793.453979 0.300625 0.777808 0.551941 1.000000
43.875599 88.476898 -793.083801 0.223552 0.800161 -0.556567 1.000000
46.961800 84.737000 -795.231812 0.611826 0.390843 0.687685 1.000000
49.607899 81.635101 -796.519409 -0.387643 0.099993 -0.916370 1.000000
42.942600 87.929398 -790.573914 0.103070 0.986865 0.124395 1.000000
48.461102 80.446098 -795.015930 -0.184674 0.773799 -0.605913 1.000000
42.574699 88.026802 -795.739929 -0.582688 0.672846 -0.455799 1.000000
40.399300 89.526299 -792.557678 0.542818 0.469328 0.696477 1.000000
47.184502 85.719803 -798.093872 0.507409 0.857931 -0.080564 1.000000
46.653599 86.412399 -797.200623 0.286388 0.210949 0.934603 1.000000
45.600300 87.158600 -795.909485 0.027516 0.918526 0.394403 1.000000
45.708500 89.373497 -791.818604 0.239835 0.259471 0.935497 1.000000
44.798599 90.213699 -791.187195 -0.380559 0.607906 -0.696868 1.000000
47.244801 88.824898 -792.770691 -0.300302 0.939302 0.165921 1.000000
46.676701 89.644203 -792.629028 0.889870 0.384768 -0.245123 1.000000
45.601200 90.370499 -791.764771 0.746307 0.199324 0.635056 1.000000
48.185001 89.042702 -793.245300 0.508481 0.348077 0.787584 1.000000
48.676399 86.215302 -796.447327 0.371922 0.137903 -0.917964 1.000000
47.487801 87.048798 -795.463928 0.516185 0.850776 -0.098661 1.000000
42.382000 90.070099 -789.818420 0.512147 0.528938 0.676705 1.000000
96.337097 75.991096 -799.438416 0.978012 0.178829 0.107298 1.000000
96.276802 77.314102 -798.926270 -0.638799 0.732970 0.233860 1.000000
95.661400 76.412300 -800.120300 0.905337 0.361844 -0.222338 1.000000
95.396896 77.182800 -799.401123 0.049985 0.898384 -0.436358 1.000000
95.344902 77.896301 -798.532288 -0.916649 0.103071 0.386174 1.000000
94.931900 77.116997 -800.358826 0.643503 0.676251 -0.358593 1.000000
94.709503 77.924103 -799.366577 0.890436 0.327740 -0.315768 1.000000
94.847900 78.702400 -798.161316 0.139206 0.636157 -0.758898 1.000000
94.227303 77.829002 -800.299622 0.064838 0.881525 -0.467664 1.000000
94.449303 79.478699 -797.487671 -0.857679 0.260503 -0.443312 1.000000
94.152397 78.960403 -798.820801 0.366525 0.846906 -0.385241 1.000000
93.795799 78.647400 -799.751282 0.319622 0.915479 -0.244417 1.000000
93.320999 78.354301 -800.586670 -0.060685 0.236548 -0.969723 1.000000
93.839996 79.783401 -798.215210 0.315769 0.912383 -0.260473 1.000000
93.980400 80.218498 -796.932129 0.528901 0.616770 -0.582974 1.000000
93.354797 79.447899 -799.159729 0.479650 0.815246 -0.324515 1.000000
92.977501 79.239601 -800.137878 0.586586 0.640370 -0.495825 1.000000
92.580498 79.192299 -801.052185 -0.993723 0.016434 -0.110657 1.000000
93.370201 81.019402 -796.671082 0.863573 0.503410 -0.028649 1.000000
93.152603 80.678802 -797.658020 -0.899696 0.435935 0.022526 1.000000
92.923302 80.246803 -798.528320 0.969014 0.155711 -0.191744 1.000000
92.508301 80.009201 -799.468323 -0.384105 0.881181 -0.275651 1.000000
92.056999 79.856201 -800.346375 -0.032463 0.928434 -0.370075 1.000000
92.793900 81.847603 -795.856873 -0.433709 0.689613 -0.579940 1.000000
92.569397 81.552902 -796.954407 -0.019320 0.999540 -0.023387 1.000000
92.344200 81.201599 -797.932983 0.090073 0.951640 -0.293716 1.000000
92.102097 80.735001 -798.789185 -0.583040 0.812433 0.004096 1.000000
91.532600 80.775299 -799.653320 -0.196337 0.966084 -0.167732 1.000000
91.231796 80.221298 -800.758911 -0.201861 0.936913 -0.285389 1.000000
92.187103 82.650703 -794.993896 0.069751 0.991379 0.110916 1.000000
91.997704 82.455200 -796.015625 -0.936608 0.338034 0.092191 1.000000
91.789001 82.180298 -797.012329 -0.898901 0.429429 0.086990 1.000000
91.506599 81.700104 -798.128418 0.116406 0.189003 -0.975053 1.000000
90.945900 81.738197 -798.946777 -0.007328 0.997655 -0.068046 1.000000
90.687698 81.267899 -799.889099 0.028585 0.958218 -0.284607 1.000000
90.449402 80.831902 -800.754822 0.339728 0.923328 -0.179027 1.000000
91.630798 83.436600 -793.953979 0.638764 0.369465 0.674890 1.000000
91.400101 83.230797 -795.238770 -0.751320 0.656144 -0.070662 1.000000
91.199699 83.000000 -796.244812 -0.943023 0.303548 0.136259 1.000000
90.989403 82.727997 -797.238098 -0.557928 0.829278 -0.031842 1.000000
89.890900 80.916603 -801.602295 -0.772185 0.522884 -0.361001 1.000000
90.325996 82.610100 -798.020813 -0.961751 0.273924 -0.001207 1.000000
90.094597 82.257698 -798.991272 -0.754399 0.639959 -0.146061 1.000000
89.842300 81.821297 -799.940186 -0.405204 0.852325 -0.330684 1.000000
90.774300 84.122101 -793.645081 0.962406 0.267681 0.046066 1.000000
90.617500 84.042000 -794.624023 0.493559 0.869476 -0.020283 1.000000
90.408096 83.783096 -795.616882 0.336509 0.937703 -0.086455 1.000000
90.209702 83.570099 -796.623901 -0.021058 0.999766 0.005014 1.000000
89.171898 81.871300 -800.684082 -0.968233 0.137220 0.209036 1.000000
90.413498 84.554199 -792.663391 0.190941 0.970083 -0.149934 1.000000
89.502701 83.639801 -797.385620 -0.106738 0.988792 -0.104392 1.000000
89.265900 83.271896 -798.345886 0.992801 0.096224 0.071319 1.000000
89.015999 82.851898 -799.293823 0.991311 0.018914 -0.130172 1.000000
90.183701 85.460800 -791.799927 -0.293311 0.820331 -0.490944 1.000000
89.832901 84.981903 -793.343628 0.288182 0.945726 -0.150180 1.000000
89.627701 84.748100 -794.341003 0.981353 0.192129 -0.005752 1.000000
89.440201 84.587700 -795.360596 -0.996089 0.066698 0.057950 1.000000
89.231796 84.339600 -796.352600 0.985031 0.065038 -0.159639 1.000000
88.312897 82.903297 -800.023987 -0.044305 0.978307 -0.202367 1.000000
88.061096 82.432503 -800.872681 0.018950 0.990982 -0.132651 1.000000
88.568398 84.242401 -797.148376 0.074560 0.976610 -0.201678 1.000000
88.341400 83.925499 -798.120422 0.105007 0.983689 -0.146045 1.000000
88.105103 83.570900 -799.083008 0.096751 0.971281 -0.217376 1.000000
87.384399 82.321297 -801.679626 -0.440763 0.885833 -0.145007 1.000000
89.245796 85.673798 -792.052124 0.395505 0.907832 -0.139342 1.000000
88.954102 85.410599 -793.573120 0.337917 0.901605 -0.270039 1.000000
88.763100 85.248497 -794.589722 0.860770 0.500579 -0.092175 1.000000
88.556801 85.021896 -795.585327 -0.982060 0.161053 0.098085 1.000000
87.401398 83.279900 -800.222229 0.118012 0.960952 -0.250288 1.000000
87.138702 83.235703 -801.974304 -0.994800 0.058779 0.083177 1.000000
87.948601 85.017502 -796.412598 0.316137 0.948412 0.023931 1.000000
87.692001 84.642403 -797.452576 -0.952643 0.301565 0.039115 1.000000
87.459801 84.316299 -798.419922 -0.753865 0.647645 -0.110646 1.000000
87.213997 83.935097 -799.373718 -0.135639 0.987213 -0.083742 1.000000
86.758003 83.165802 -801.021606 0.049774 0.974834 -0.217304 1.000000
88.639801 86.404099 -790.965820 -0.214151 0.796517 -0.565420 1.000000
88.418602 86.217102 -792.114075 0.223951 0.972902 0.057517 1.000000
88.212196 86.005898 -793.114197 0.303090 0.920761 -0.245632 1.000000
88.012001 85.820396 -794.121521 0.286765 0.937876 -0.195333 1.000000
87.799004 85.580101 -795.111084 0.484070 0.857114 -0.176160 1.000000
87.226898 85.569702 -795.999878 0.387341 0.900895 -0.195847 1.000000
86.962601 85.124199 -796.928589 0.380045 0.921035 -0.085206 1.000000
86.750801 84.899300 -797.923218 0.306099 0.923993 -0.229218 1.000000
86.508598 84.548302 -798.882629 0.333520 0.903588 -0.268873 1.000000
86.245499 84.112396 -799.821228 0.259565 0.915001 -0.308867 1.000000
86.005699 83.773804 -800.788330 0.192857 0.936537 -0.292754 1.000000
88.073303 86.923599 -790.242798 -0.892870 0.444371 0.072915 1.000000
85.393097 83.524101 -801.637085 0.953158 0.265285 0.145307 1.000000
87.537697 86.888901 -791.085571 0.408837 0.905582 -0.113023 1.000000
87.360497 86.829201 -792.133423 0.451077 0.880536 -0.145555 1.000000
87.144897 86.602699 -793.125183 0.264729 0.915701 -0.302341 1.000000
86.941299 86.426903 -794.132324 0.250121 0.953670 -0.167193 1.000000
86.729103 86.213799 -795.127197 0.117869 0.962381 -0.244805 1.000000
86.162102 85.974403 -795.996582 0.368679 0.787266 -0.494255 1.000000
85.917603 85.633904 -796.953979 0.474560 0.854207 -0.212422 1.000000
85.701797 85.415298 -797.947388 0.472187 0.826719 -0.305902 1.000000
85.442001 85.011497 -798.889893 0.425545 0.787986 -0.444961 1.000000
85.192200 84.651802 -799.846802 0.391780 0.826386 -0.404469 1.000000
84.929298 84.238701 -800.791870 0.147041 0.945652 -0.290036 1.000000
87.173698 87.349297 -789.784424 0.024880 0.977448 -0.209707 1.000000
86.710899 87.308403 -790.711121 0.247586 0.957245 -0.149611 1.000000
86.559097 87.326202 -791.692688 0.307506 0.936308 -0.169611 1.000000
86.358597 87.190399 -792.710083 0.314998 0.906901 -0.279835 1.000000
86.146698 87.003197 -793.709778 0.353582 0.924860 -0.140046 1.000000
85.925201 86.774101 -794.695801 0.181703 0.908513 -0.376282 1.000000
84.143501 84.259399 -801.453308 -0.194942 0.977160 0.084597 1.000000
85.044601 85.922600 -797.357422 0.231321 0.906371 -0.353528 1.000000
84.828499 85.728699 -798.353516 0.767961 0.623687 -0.145777 1.000000
84.541801 85.233597 -799.268127 0.288618 0.850419 -0.439872 1.000000
84.275497 84.828102 -800.210327 0.208204 0.901246 -0.380008 1.000000
85.376198 86.504997 -795.524292 0.146764 0.918326 -0.367610 1.000000
84.804001 86.382202 -796.329407 0.304103 0.948854 -0.084836 1.000000
86.120903 87.877296 -789.471313 0.397641 0.917533 0.003861 1.000000
85.800400 87.681198 -790.902893 0.253882 0.963221 -0.088029 1.000000
85.601196 87.672096 -791.949280 0.297276 0.933699 -0.199580 1.000000
85.380203 87.552498 -792.958130 0.122059 0.925729 -0.357949 1.000000
85.139503 87.334503 -793.935425 0.225371 0.941583 -0.250259 1.000000
84.220299 86.437202 -797.577271 0.578477 0.783192 -0.227979 1.000000
83.938103 86.099098 -798.608826 0.447630 0.790221 -0.418542 1.000000
83.589996 85.452103 -799.562317 0.316616 0.857181 -0.406196 1.000000
83.318199 85.092102 -800.507813 0.174217 0.929620 -0.324740 1.000000
84.527100 87.200798 -794.764587 0.146687 0.920633 -0.361827 1.000000
85.237297 88.075104 -789.979797 0.227291 0.953547 -0.197703 1.000000
83.877296 86.953598 -795.570923 0.418132 0.905726 -0.069462 1.000000
83.665901 86.892303 -796.594116 0.327139 0.942004 -0.074887 1.000000
83.329201 86.623901 -797.990784 0.173613 0.918880 -0.354284 1.000000
82.976997 85.967400 -798.940186 -0.012228 0.843710 -0.536659 1.000000
82.403603 85.209602 -800.909607 0.300491 0.892502 -0.336370 1.000000
84.673401 88.172699 -790.835205 0.380431 0.913876 -0.141784 1.000000
84.472099 88.175797 -791.885010 0.418926 0.891485 -0.172499 1.000000
84.241203 88.028397 -792.885071 0.201514 0.928656 -0.311431 1.000000
83.989197 87.775703 -793.852478 0.301516 0.927198 -0.222244 1.000000
82.356003 85.848198 -799.732910 0.383870 0.829349 -0.405986 1.000000
84.719597 88.536903 -789.077087 0.273796 0.955011 -0.113973 1.000000
83.404900 87.628197 -794.647827 0.205111 0.880946 -0.426455 1.000000
82.827400 87.184700 -797.035522 0.272362 0.947169 -0.169379 1.000000
84.184196 88.514099 -789.947327 0.231789 0.955291 -0.183555 1.000000
82.849701 87.539597 -795.494873 0.313502 0.945752 -0.085262 1.000000
82.248596 86.997902 -797.856812 0.276874 0.906799 -0.317893 1.000000
81.938904 86.481598 -798.758606 0.304208 0.814899 -0.493353 1.000000
81.500298 85.917801 -800.258728 0.222907 0.844619 -0.486755 1.000000
81.241798 85.603203 -801.166077 0.272576 0.018335 0.961960 1.000000
83.698196 88.589699 -790.845825 0.114112 0.980378 0.160738 1.000000
83.530899 88.698196 -791.840271 0.236210 0.959358 -0.154395 1.000000
83.277000 88.452301 -792.809875 0.210288 0.916970 -0.339036 1.000000
82.996399 88.073898 -793.740784 0.130482 0.977995 -0.162792 1.000000
81.037498 86.552002 -801.714111 -0.468186 0.874806 0.124563 1.000000
83.879799 88.952400 -788.723022 0.255294 0.960268 -0.112744 1.000000
82.420403 87.779297 -794.567017 0.162892 0.913613 -0.372528 1.000000
82.123299 87.838097 -796.144226 0.448466 0.849158 -0.278943 1.000000
81.867996 87.593300 -797.114807 0.538352 0.820418 -0.192593 1.000000
81.138000 86.542000 -799.432983 0.274563 0.894928 -0.351738 1.000000
83.332802 88.902100 -789.599487 0.416102 0.894116 -0.165577 1.000000
81.268204 87.339996 -797.930176 0.025836 0.866191 -0.499045 1.000000
80.536400 86.303001 -800.259399 0.372586 0.866301 -0.332721 1.000000
82.715599 88.734596 -790.967285 0.042722 0.987214 0.153567 1.000000
82.551399 88.881699 -791.971619 0.326317 0.938666 -0.111458 1.000000
82.291901 88.629700 -792.939697 0.376466 0.845095 -0.379590 1.000000
81.690399 88.063599 -795.206177 0.180859 0.982314 -0.048466 1.000000
81.820801 88.292297 -793.744324 0.156376 0.893785 -0.420351 1.000000
81.222801 88.109901 -796.462402 0.393450 0.878855 -0.269837 1.000000
80.523201 87.078102 -798.609314 0.320185 0.907923 -0.270476 1.000000
82.979500 89.280098 -788.094604 0.213934 0.972086 -0.096333 1.000000
80.040001 86.892799 -799.492676 0.320161 0.888334 -0.329180 1.000000
79.710403 86.659798 -800.814270 -0.077356 0.962514 0.259968 1.000000
82.523499 89.241302 -789.030823 0.294123 0.935340 -0.196547 1.000000
82.291603 89.158997 -790.052673 0.151565 0.950971 -0.269598 1.000000
80.509598 87.909401 -797.144226 -0.017976 0.808904 -0.587665 1.000000
81.798401 89.117203 -791.299622 0.056911 0.977182 0.204639 1.000000
81.586502 89.142601 -792.346313 0.212513 0.919940 -0.329467 1.000000
80.971100 88.296204 -794.266296 0.340657 0.937792 0.067079 1.000000
80.821297 88.540604 -795.281799 0.320049 0.944470 -0.074460 1.000000
81.106796 88.838799 -793.218201 0.115746 0.907842 -0.403021 1.000000
79.824600 87.583900 -797.787415 0.300137 0.900412 -0.314922 1.000000
79.571404 87.405197 -798.772705 0.352897 0.861438 -0.365225 1.000000
83.210297 90.776703 -784.517578 0.554189 0.752462 -0.355916 1.000000
82.930099 90.461700 -785.459106 0.352355 0.863192 -0.361587 1.000000
82.645897 90.126297 -786.395020 0.077359 0.976200 -0.202607 1.000000
80.161400 88.485703 -796.103394 0.234765 0.917457 -0.321182 1.000000
79.090401 87.231903 -799.642578 0.379620 0.865287 -0.327364 1.000000
82.111801 89.892799 -787.258972 -0.067537 0.973756 -0.217345 1.000000
81.838097 89.624802 -788.216675 0.334776 0.925887 -0.175092 1.000000
81.565399 89.463699 -789.294373 0.237545 0.966693 -0.095272 1.000000
81.328201 89.391197 -790.310730 0.301705 0.927778 -0.219550 1.000000
80.767998 89.221100 -791.114685 0.153365 0.943261 -0.294514 1.000000
80.543098 89.218002 -792.145874 0.034070 0.994621 -0.097814 1.000000
80.140503 88.766800 -793.479187 0.106403 0.814787 -0.569913 1.000000
79.917603 88.769203 -794.507813 0.119187 0.992481 0.027847 1.000000
79.327202 88.308502 -796.694397 0.031791 0.838997 -0.543206 1.000000
78.913498 87.900398 -798.128479 0.407162 0.867698 -0.285166 1.000000
82.280098 91.005203 -784.880615 0.076010 0.970683 -0.228029 1.000000
81.980003 90.597099 -785.786194 0.180405 0.929995 -0.320254 1.000000
79.414902 88.738403 -795.380615 0.098475 0.981102 -0.166556 1.000000
78.390404 87.787804 -798.976013 0.391182 0.872168 -0.293767 1.000000
78.128700 87.594803 -799.950684 0.190198 0.849150 -0.492717 1.000000
81.189598 90.189796 -787.578674 0.924375 0.223616 -0.309074 1.000000
80.914497 89.932098 -788.533813 0.256928 0.943900 -0.207466 1.000000
80.669601 89.841499 -789.539001 0.214508 0.957959 -0.190526 1.000000
81.182899 90.531303 -786.454712 0.161809 0.945017 -0.284185 1.000000
80.116203 89.823196 -790.450012 0.329418 0.885969 -0.326410 1.000000
79.829597 89.509201 -791.386719 0.189364 0.857355 -0.478628 1.000000
79.562302 89.301201 -792.353882 0.159766 0.974952 -0.154734 1.000000
79.153000 88.842598 -793.680420 0.238608 0.930432 0.278141 1.000000
78.578499 88.618202 -796.005615 -0.067841 0.927161 -0.368470 1.000000
78.320000 88.455399 -796.983521 0.360544 0.926529 -0.107483 1.000000
81.272903 91.009598 -785.037720 0.086458 0.986571 -0.138570 1.000000
78.643303 89.025299 -794.553528 0.155165 0.963591 -0.217753 1.000000
77.755699 88.467697 -797.888306 0.323762 0.916606 -0.234547 1.000000
77.520203 88.428596 -798.892090 0.563737 0.803819 -0.189938 1.000000
77.296898 88.449600 -799.907288 0.129934 0.985830 -0.106093 1.000000
80.364197 90.535797 -787.096802 0.213191 0.960021 -0.181411 1.000000
80.091499 90.314903 -788.058289 0.140404 0.959206 -0.245378 1.000000
79.842598 90.227501 -789.059570 0.343439 0.939071 -0.013940 1.000000
76.767998 88.584000 -800.815613 0.040322 0.552001 -0.832868 1.000000
80.501198 91.070396 -785.701111 0.125189 0.955388 -0.267509 1.000000
79.357300 90.363197 -789.928772 0.472862 0.876970 -0.085592 1.000000
79.076797 90.105301 -790.875488 0.265045 0.943451 -0.199127 1.000000
78.776703 89.739502 -791.793396 0.202668 0.812195 -0.547051 1.000000
78.449501 89.228500 -792.674622 -0.057509 0.952101 -0.300327 1.000000
78.181900 89.046097 -793.645508 0.140798 0.990023 0.005543 1.000000
77.836998 89.073997 -795.176575 0.424618 0.880306 0.211569 1.000000
77.623100 89.173203 -796.213318 0.985505 0.144191 -0.089375 1.000000
77.057297 89.033600 -797.056885 0.074275 0.867479 -0.491898 1.000000
76.788200 88.847298 -798.021423 0.418310 0.900001 -0.122535 1.000000
76.584702 89.002800 -799.061279 0.570691 0.820970 0.017877 1.000000
79.672096 90.998199 -786.328186 0.044105 0.956442 -0.288571 1.000000
79.375099 90.664803 -787.250610 0.153876 0.913373 -0.376925 1.000000
79.096497 90.439102 -788.206116 0.135611 0.987015 -0.086084 1.000000
77.396500 89.259903 -794.239502 0.313847 0.949104 0.026469 1.000000
79.566399 91.029297 -785.070984 -0.348529 0.672515 0.652879 1.000000
78.534103 90.648399 -789.041809 0.045936 0.964656 0.259476 1.000000
78.300903 90.689003 -790.067871 0.193856 0.908970 -0.369045 1.000000
77.996300 90.321800 -790.979492 0.161767 0.953220 -0.255351 1.000000
77.670700 89.840897 -791.863403 0.015196 0.797081 -0.603682 1.000000
77.339104 89.220802 -792.630615 -0.054774 0.974979 -0.215445 1.000000
76.881104 89.660896 -795.014282 0.306856 0.937079 0.166500 1.000000
76.630096 89.590202 -796.002319 0.222992 0.916423 -0.332329 1.000000
76.773903 89.641998 -793.406372 0.372799 0.923186 0.093539 1.000000
75.902298 89.152199 -796.559204 -0.102881 0.939287 -0.327347 1.000000
75.658096 89.127502 -797.556519 0.167156 0.985877 0.010234 1.000000
74.315201 87.846901 -801.883118 -0.756264 0.295790 -0.583586 1.000000
78.574097 90.960098 -785.229187 -0.022438 0.906763 -0.421044 1.000000
78.313499 90.873001 -786.224182 -0.289235 0.956117 -0.046732 1.000000
78.052597 90.781303 -787.216125 0.047822 0.985610 -0.162130 1.000000
77.762398 90.515900 -788.156372 0.043955 0.980087 -0.193641 1.000000
77.550301 90.702301 -789.223389 -0.090453 0.987937 0.125695 1.000000
77.285202 90.578400 -790.200500 -0.137964 0.978176 -0.155365 1.000000
76.983002 90.242401 -791.120117 -0.133914 0.926355 -0.352042 1.000000
76.666801 89.717400 -791.908630 -0.128052 0.813937 -0.566665 1.000000
76.192101 89.998497 -794.160889 0.348842 0.928877 0.124489 1.000000
75.949303 89.989502 -795.160706 0.078261 0.995347 -0.056216 1.000000
74.425499 88.291100 -799.792114 -0.864642 0.373194 0.336335 1.000000
74.146599 88.094803 -800.754211 0.419950 0.904192 -0.077971 1.000000
76.013100 89.665199 -792.742981 0.052544 0.993871 0.097263 1.000000
75.237602 89.530197 -795.806824 -0.484985 0.585674 -0.649443 1.000000
74.901299 89.134598 -796.802002 -0.164755 0.960853 -0.222749 1.000000
74.608902 88.847099 -797.723572 -0.470701 0.855684 -0.215049 1.000000
74.343597 88.748497 -798.719727 -0.642859 0.753749 -0.136364 1.000000
73.330704 87.936096 -802.092529 -0.271023 0.938156 -0.215428 1.000000
77.341003 90.768700 -786.440613 0.113025 0.960065 -0.255931 1.000000
77.090500 90.756104 -787.453125 0.110706 0.989361 -0.094391 1.000000
76.782501 90.523697 -788.485413 0.021121 0.955431 -0.294457 1.000000
76.584999 90.692596 -789.458801 0.200390 0.947423 0.249465 1.000000
76.309402 90.524696 -790.421814 0.072518 0.550283 -0.831823 1.000000
75.710602 89.454002 -791.824280 -0.098312 0.862013 -0.497261 1.000000
75.461899 90.128601 -793.501587 0.156967 0.985468 0.064911 1.000000
75.217003 90.126701 -794.501526 0.001178 0.972119 -0.234487 1.000000
73.457497 88.431099 -800.040710 0.372700 0.897131 -0.237173 1.000000
73.188904 88.302101 -801.013489 0.228622 0.966856 -0.113673 1.000000
77.106598 90.893097 -785.470276 0.229653 0.968097 0.100235 1.000000
75.570000 90.171700 -791.014404 0.001354 0.832674 -0.553762 1.000000
74.469902 89.657700 -794.985779 -0.397963 0.708408 -0.582909 1.000000
74.192902 89.487701 -795.946716 0.073886 0.979897 -0.185320 1.000000
73.911499 89.294296 -796.902527 0.132878 0.966270 -0.220604 1.000000
73.621101 89.053200 -797.848816 0.310212 0.879187 -0.361662 1.000000
73.336998 88.847397 -798.803589 0.463515 0.862943 -0.201204 1.000000
76.388000 91.012100 -786.669128 0.272124 0.904628 -0.328020 1.000000
76.111603 90.858299 -787.637512 0.236712 0.958751 -0.157367 1.000000
75.795998 90.595398 -788.659180 0.044796 0.988956 -0.141279 1.000000
75.564697 90.703400 -789.696777 -0.029497 0.995242 0.092860 1.000000
74.751404 89.727501 -792.043579 -0.092464 0.995345 -0.027195 1.000000
74.657600 90.252197 -792.926086 0.201479 0.979118 0.027100 1.000000
74.401604 90.205002 -793.914307 -0.033348 0.999439 0.003032 1.000000
72.693604 88.966499 -799.621277 0.120249 0.978108 -0.169836 1.000000
72.417198 88.806801 -800.584229 0.134826 0.959487 -0.247399 1.000000
76.025497 91.517601 -785.219971 0.013715 0.315450 -0.948843 1.000000
74.839500 90.485001 -788.969116 -0.024939 0.914875 -0.402965 1.000000
74.568604 90.379898 -789.948181 -0.071893 0.986472 0.147323 1.000000
74.236900 89.919296 -790.835083 -0.413751 0.763722 -0.495520 1.000000
73.424301 89.834297 -793.989929 -0.350299 0.885520 -0.305196 1.000000
73.171898 89.825104 -794.985779 0.219655 0.967254 -0.127169 1.000000
72.884102 89.616898 -795.935791 -0.007883 0.987641 -0.156536 1.000000
72.612099 89.496399 -796.905090 -0.185208 0.967484 -0.172256 1.000000
72.342201 89.387100 -797.876282 0.237074 0.971163 -0.025272 1.000000
72.078598 89.310097 -798.853516 0.334449 0.920802 -0.200669 1.000000
71.437500 88.642502 -800.776917 -0.946733 0.247271 0.206287 1.000000
75.392303 91.360100 -786.032776 0.185260 0.920643 -0.343650 1.000000
75.073196 90.971901 -786.931885 0.258278 0.885312 -0.386671 1.000000
74.811096 90.930901 -787.929321 0.041410 0.980816 -0.190484 1.000000
73.587097 89.596100 -791.521606 -0.992440 0.080899 0.092294 1.000000
73.517799 90.172401 -792.332703 0.070715 0.997402 0.013721 1.000000
71.468903 89.394501 -799.703613 0.430520 0.896099 -0.107981 1.000000
75.725197 91.318100 -782.224182 0.735099 0.623961 -0.265144 1.000000
75.441498 91.165802 -783.192810 -0.560302 0.476675 0.677380 1.000000
75.169197 91.090599 -784.187683 0.305379 0.932871 -0.191036 1.000000
73.980202 90.805702 -788.570496 0.109307 0.963184 -0.245618 1.000000
73.656898 90.281197 -789.353088 -0.350223 0.904133 -0.244717 1.000000
73.341698 89.938202 -790.270386 -0.298670 0.877818 -0.374475 1.000000
72.693604 90.025398 -792.881104 -0.192450 0.654330 -0.731310 1.000000
72.394600 89.776604 -793.821228 0.008972 0.999876 -0.012960 1.000000
72.120399 89.669197 -794.794128 0.044694 0.989006 -0.140959 1.000000
71.872704 89.709801 -795.798279 0.240999 0.970053 -0.030276 1.000000
71.615303 89.692001 -796.787598 0.295575 0.953260 -0.062698 1.000000
71.350899 89.634003 -797.766907 0.227411 0.954051 -0.195116 1.000000
71.094803 89.619102 -798.753601 0.303932 0.946304 -0.110159 1.000000
74.642899 91.022202 -785.068604 0.453439 0.539808 -0.709225 1.000000
74.384201 91.033897 -786.083984 -0.158599 0.985664 0.057566 1.000000
74.075798 90.867897 -787.130798 -0.209100 0.972879 -0.098916 1.000000
72.760300 89.327003 -790.840576 -0.160012 0.980837 -0.111153 1.000000
72.674896 89.966499 -791.751892 -0.114528 0.963835 0.240637 1.000000
75.681602 92.049004 -781.206177 0.973185 0.153527 0.171291 1.000000
70.360703 90.363800 -799.186096 -0.303959 0.715672 0.628826 1.000000
72.672897 89.973198 -789.508789 -0.037727 0.811830 -0.582673 1.000000
71.712997 89.961800 -793.082886 0.293557 0.954378 0.054645 1.000000
71.473503 90.118797 -794.110779 0.346040 0.927829 -0.139243 1.000000
71.204399 90.094498 -795.095093 0.335951 0.940921 -0.042477 1.000000
70.925499 90.010696 -796.065002 0.276613 0.889648 -0.363335 1.000000
70.645500 89.918800 -797.032288 0.380197 0.919831 -0.096753 1.000000
70.390701 89.970299 -798.027283 0.319907 0.947077 -0.026554 1.000000
74.916702 91.890503 -782.351501 0.247207 0.924524 -0.290075 1.000000
74.547997 91.543900 -783.424927 0.358340 0.865860 -0.349112 1.000000
73.279701 91.080399 -787.729492 0.133193 0.977164 -0.165558 1.000000
72.945503 90.667999 -788.619873 -0.161052 0.880711 -0.445433 1.000000
72.099602 89.332901 -790.056274 -0.106242 0.876849 -0.468880 1.000000
71.812302 89.385803 -791.154114 -0.194732 0.980656 0.019823 1.000000
73.951797 91.382401 -784.247375 0.212562 0.909534 -0.357162 1.000000
73.646103 91.180099 -785.193726 0.141284 0.945929 -0.291987 1.000000
73.336998 90.955299 -786.133728 0.183280 0.948983 -0.256592 1.000000
71.523903 90.018402 -791.960327 0.911412 0.364851 0.190295 1.000000
74.716499 92.285301 -781.270081 0.358442 0.911220 0.202973 1.000000
73.999702 92.104202 -782.689575 0.447176 0.764950 -0.463556 1.000000
72.548302 90.770699 -786.811523 -0.262458 0.947841 -0.180865 1.000000
72.288498 90.900803 -787.843079 0.014073 0.994820 -0.100673 1.000000
71.932800 90.388603 -788.705383 -0.100703 0.869446 -0.483656 1.000000
71.181198 88.977203 -790.265930 -0.178885 0.983285 -0.033906 1.000000
70.896202 90.559601 -792.543823 0.286855 0.954019 0.086965 1.000000
70.626701 90.596901 -793.536316 0.475526 0.849263 -0.229407 1.000000
70.321198 90.408302 -794.477112 -0.023972 0.987405 -0.156387 1.000000
70.040100 90.368698 -795.449585 0.376163 0.922075 -0.090985 1.000000
69.751900 90.284203 -796.411499 0.379080 0.925363 0.001276 1.000000
73.385201 91.819702 -783.518372 0.297487 0.855469 -0.423881 1.000000
71.297302 89.734100 -789.275024 -0.609031 0.588786 -0.531426 1.000000
70.851303 89.724602 -790.848083 0.426315 0.860270 0.279626 1.000000
69.123299 90.069298 -797.241821 0.559237 0.782932 0.272530 1.000000
73.638397 92.376801 -781.697510 0.167980 0.201836 -0.964907 1.000000
72.732597 91.644699 -784.312012 0.234195 0.878605 -0.416181 1.000000
72.396599 91.273804 -785.204285 0.306266 0.844175 -0.439966 1.000000
70.402100 90.344002 -791.491821 0.172295 0.961434 0.214383 1.000000
72.947098 92.121902 -782.424500 -0.776997 0.547249 0.311118 1.000000
71.708397 91.086403 -785.949280 0.100818 0.910121 -0.401890 1.000000
71.345398 90.545403 -786.799072 -0.264351 0.805566 -0.530266 1.000000
71.009003 90.195099 -787.702820 -0.173646 0.958368 -0.226668 1.000000
70.386902 89.210197 -789.114807 -0.355021 0.379826 -0.854221 1.000000
70.119698 89.330399 -790.139893 -0.598869 0.478089 0.642485 1.000000
69.798897 90.617203 -792.250977 -0.179437 0.919790 0.348983 1.000000
69.529198 90.687302 -793.246582 0.053284 0.991993 0.114504 1.000000
69.412102 91.272400 -794.106018 0.957097 0.244900 -0.154883 1.000000
69.212601 91.619598 -795.069824 0.890957 0.388593 -0.234929 1.000000
72.245201 91.939301 -783.176270 -0.060592 0.991192 -0.117754 1.000000
70.294601 89.657600 -788.199585 0.308119 0.921492 -0.236464 1.000000
69.647598 90.104401 -790.785706 0.119165 0.974640 0.189409 1.000000
71.531502 91.768997 -783.933411 -0.075707 0.955956 -0.283579 1.000000
71.193298 91.406700 -784.825012 0.074154 0.948387 -0.308323 1.000000
70.717102 90.921402 -786.099426 0.117977 0.950441 -0.287651 1.000000
70.354599 90.401901 -786.955322 -0.110504 0.856766 -0.503727 1.000000
69.606102 88.904900 -788.401489 -0.024946 0.912495 -0.408325 1.000000
69.267097 88.573303 -789.318970 -0.123141 0.618673 0.775938 1.000000
68.951897 90.121201 -791.579529 -0.495708 0.809287 0.315163 1.000000
68.866402 90.946098 -792.499329 0.180892 0.844663 0.503808 1.000000
68.782501 91.613297 -793.294800 0.165648 0.913188 0.372354 1.000000
68.691299 92.222298 -794.070801 0.003557 0.971174 0.238347 1.000000
69.607300 89.853401 -787.438171 -0.009337 0.876375 -0.481539 1.000000
68.824097 89.446404 -789.818176 -0.020374 0.857075 0.514788 1.000000
70.518898 91.672203 -784.044983 -0.882250 0.470085 0.025592 1.000000
70.170601 91.254204 -784.920715 -0.416018 0.908284 -0.044143 1.000000
69.750099 90.674797 -785.921997 -0.284862 0.893362 -0.347502 1.000000
68.880501 89.189201 -787.777710 -0.350002 0.298929 -0.887773 1.000000
68.537201 88.347298 -788.319580 -0.317372 0.050111 0.946976 1.000000
68.126900 89.490799 -790.574585 -0.155584 0.920892 0.357424 1.000000
67.954903 90.093201 -791.612122 -0.129071 0.990302 0.051400 1.000000
67.753304 90.488800 -792.595581 -0.077549 0.984280 0.158678 1.000000
67.779503 91.567802 -793.313171 0.422452 0.242046 -0.873469 1.000000
69.049599 90.264603 -786.528625 0.063673 0.830580 -0.553248 1.000000
67.896500 88.549500 -789.167908 0.336097 0.770289 0.541936 1.000000
67.108597 90.649399 -793.400574 -0.021439 0.999444 0.025522 1.000000
66.806198 90.547501 -794.350891 -0.867487 0.484478 0.112902 1.000000
68.333702 89.648300 -787.036926 0.164885 0.405761 -0.898983 1.000000
68.004997 88.738098 -787.475403 -0.462701 0.728049 -0.505820 1.000000
67.679901 87.866402 -787.930115 -0.850027 0.524484 -0.048692 1.000000
67.446800 89.261299 -789.746521 0.343796 0.909538 0.233550 1.000000
67.330101 90.092201 -790.753479 0.216815 0.969960 0.110309 1.000000
66.746101 90.453598 -791.525330 0.332403 0.920172 0.206860 1.000000
66.539902 90.833000 -792.496826 0.161731 0.983565 -0.080267 1.000000
66.238800 91.053902 -793.671326 0.389326 0.919130 -0.060205 1.000000
65.950104 91.043198 -794.633972 -0.183034 0.809282 -0.558177 1.000000
68.196602 90.857399 -785.639526 0.943224 0.227865 -0.241675 1.000000
67.865303 90.655296 -786.600220 0.185327 0.247554 -0.950984 1.000000
66.873497 87.412598 -787.552185 -0.781015 0.370295 -0.502889 1.000000
66.769699 88.052399 -788.366028 -0.101897 0.925228 0.365472 1.000000
66.702003 88.755699 -789.105225 0.133973 0.007750 0.990955 1.000000
66.632797 89.758904 -790.068176 -0.217249 0.902533 0.371803 1.000000
67.266098 89.790703 -786.710022 -0.485959 0.203110 -0.850053 1.000000
66.972397 88.793602 -786.964294 0.573878 0.780287 -0.248628 1.000000
67.746002 91.130798 -784.757507 -0.049747 0.974317 0.219616 1.000000
65.967796 90.548698 -790.227722 0.800879 0.549926 -0.237011 1.000000
65.615898 91.000603 -791.719299 0.579380 0.813387 -0.052158 1.000000
67.076897 90.850098 -785.476990 -0.298193 0.867055 -0.399120 1.000000
66.050903 87.896004 -786.739319 -0.248319 0.123509 -0.960772 1.000000
65.717598 87.677299 -787.681580 0.512849 0.853801 0.089500 1.000000
65.692596 88.512299 -788.363586 0.869593 0.268618 -0.414309 1.000000
65.589798 89.147003 -789.158875 0.176953 0.979954 0.091527 1.000000
66.411301 90.094902 -785.831177 -0.324333 0.417443 -0.848852 1.000000
66.056503 89.027496 -786.232300 -0.114687 0.327870 -0.937736 1.000000
66.600700 90.935997 -784.581787 0.894028 0.447678 -0.017269 1.000000
65.044601 88.735703 -785.797913 -0.907609 0.234551 0.348184 1.000000
65.807899 92.227501 -784.484375 -0.816019 0.562212 0.134282 1.000000
65.084801 88.843597 -787.539612 0.806681 0.229819 0.544471 1.000000
71.747101 93.738899 -783.956116 -0.117049 0.979514 -0.163868 1.000000
72.092697 92.648598 -782.467285 -0.513585 0.631457 -0.580941 1.000000
75.523201 89.125702 -798.619629 -0.672956 0.724373 -0.149714 1.000000
76.313301 89.081902 -800.061707 -0.156955 0.971078 -0.179924 1.000000
85.538399 84.110901 -802.461792 -0.967682 0.244716 -0.060868 1.000000
84.659599 88.833801 -788.104614 0.374600 0.917700 0.132294 1.000000
81.529404 91.873001 -784.566895 0.752766 0.292476 -0.589747 1.000000
75.751503 92.889702 -785.279114 -0.952082 0.274869 0.134115 1.000000
70.595703 88.927200 -799.795593 -0.821639 0.500467 -0.272840 1.000000
70.913101 92.323402 -783.264526 -0.975614 0.017738 0.218774 1.000000
67.010300 89.654800 -793.109985 -0.792692 0.434285 -0.427827 1.000000
65.182999 89.712402 -788.187988 -0.395941 0.232819 -0.888272 1.000000
65.763702 90.652100 -785.138489 0.244676 0.497046 -0.832514 1.000000
65.443001 89.817299 -785.655396 0.826038 0.559666 0.066593 1.000000
65.679298 91.237503 -792.852783 -0.086271 0.980569 0.176187 1.000000
67.789803 91.051903 -789.119385 -0.583358 0.811689 -0.029238 1.000000
69.194901 91.176399 -785.074707 0.554571 0.520859 -0.648966 1.000000
68.456596 92.290100 -795.046021 -0.329942 0.819331 -0.468866 1.000000
77.670998 91.802696 -785.710571 -0.380994 0.920623 0.085419 1.000000
83.167900 84.414497 -801.234619 0.042513 0.972934 -0.227139 1.000000
78.599899 86.783401 -800.419983 -0.648345 0.631678 -0.425008 1.000000
72.320602 88.221001 -801.591370 0.325912 0.823440 -0.464464 1.000000
69.130798 90.561302 -794.769287 -0.943879 0.269875 0.190420 1.000000
70.698402 93.063904 -784.835083 0.077216 0.155619 -0.984795 1.000000
85.531799 88.251602 -788.306824 -0.485047 0.085762 -0.870273 1.000000
65.250397 89.804001 -790.582397 -0.041748 0.991807 0.120732 1.000000
68.482803 89.473602 -788.765930 -0.733167 0.653241 0.189056 1.000000
83.704300 88.544502 -787.761719 0.653389 0.569405 -0.498860 1.000000
66.547699 85.271500 -786.917480 0.216347 0.655268 -0.723752 1.000000
67.488297 84.947304 -786.884827 0.132382 0.889665 -0.437003 1.000000
66.813004 86.134804 -787.441284 0.420835 0.058186 0.905269 1.000000
68.218300 85.383003 -787.958618 0.206762 0.698017 -0.685581 1.000000
67.667397 86.627296 -787.072815 -0.214490 0.974397 -0.067411 1.000000
69.133499 87.337097 -785.949829 0.001382 0.667359 -0.744734 1.000000
68.026299 86.574600 -788.017517 -0.670180 0.739360 0.064856 1.000000
69.129898 87.211601 -787.023987 0.275633 0.715372 -0.642082 1.000000
70.342499 87.058502 -787.232727 0.326259 0.921788 -0.209433 1.000000
68.746201 87.320099 -788.191528 0.044872 0.998652 -0.026088 1.000000
69.282600 88.054901 -787.677124 0.455705 0.881411 -0.124283 1.000000
66.185097 91.262604 -785.821106 0.238780 0.781886 0.575880 1.000000
66.991501 91.382698 -786.637207 0.243791 0.943484 -0.224508 1.000000
67.471001 90.884102 -787.670471 -0.078989 0.951751 0.296532 1.000000
68.750099 91.229797 -786.797485 0.477737 0.785433 -0.393526 1.000000
76.377899 88.381798 -786.907288 -0.015043 0.011031 0.999826 1.000000
70.682503 91.866302 -785.746216 -0.917982 0.391117 -0.065858 1.000000
75.438400 92.131699 -783.609619 0.075415 0.989682 0.121825 1.000000
64.937103 90.680000 -789.522400 -0.310163 0.793698 0.523300 1.000000
78.352501 89.576202 -785.857605 0.029586 0.742478 0.669217 1.000000
71.509102 92.186600 -786.423401 0.347998 0.498744 -0.793821 1.000000
70.266098 90.665199 -789.370728 -0.166291 0.688048 0.706355 1.000000
71.040298 90.922997 -788.793030 -0.438792 0.774818 0.455104 1.000000
65.377800 89.617401 -792.944275 -0.623475 0.208856 0.753430 1.000000
70.959297 90.671799 -790.151672 0.186292 0.928660 -0.320759 1.000000
72.028900 90.637901 -789.997986 -0.455769 0.848620 -0.268551 1.000000
87.136597 85.780701 -790.186829 0.369984 0.688993 0.623218 1.000000
71.712402 90.421303 -790.935120 -0.262366 0.698051 -0.666250 1.000000
