ply
format ascii 1.0
element vertex 693
property float x
property float y
property float z
property float nx
property float ny
property float nz
property float label
element face 0
property list uchar int vertex_indices
end_header
68.594597 104.376198 -797.193726 0.208517 0.859571 -0.466539 0.000000
70.216599 102.507202 -799.071411 -0.861462 0.355989 0.362153 0.000000
43.247299 94.140099 -813.917786 0.124991 0.869193 -0.478415 0.000000
47.704201 96.291000 -810.695374 0.049772 0.775022 0.629972 0.000000
62.970901 107.369202 -795.379517 -0.157969 0.509338 0.845944 0.000000
66.442398 104.806801 -797.755371 -0.555399 0.326800 -0.764679 0.000000
48.365501 95.335297 -812.330688 0.049812 0.769944 0.636164 0.000000
69.164703 103.547302 -799.345886 0.218130 0.945228 0.242823 0.000000
71.098999 102.811798 -799.871216 -0.063484 0.183266 -0.981011 0.000000
42.694698 94.283897 -815.044006 -0.139966 0.540711 0.829483 0.000000
62.642700 108.781601 -794.862183 -0.131847 0.983409 -0.124589 0.000000
72.053299 102.393303 -800.661194 0.831455 0.389695 0.396006 0.000000
76.169098 101.801903 -801.032227 0.089131 0.699895 -0.708662 0.000000
39.834801 96.171898 -814.052429 -0.307550 0.889646 -0.337555 0.000000
40.940102 94.947701 -815.284790 0.434358 0.044377 0.899646 0.000000
70.070999 103.636497 -800.211487 -0.016835 0.920747 0.389796 0.000000
65.938904 106.649101 -797.789307 0.358041 0.701367 0.616353 0.000000
40.255100 94.377296 -816.818115 0.113776 0.755056 -0.645713 0.000000
41.557800 94.211098 -816.783813 0.113811 0.752337 -0.648872 0.000000
71.260902 103.969398 -800.240295 0.350081 0.059002 0.934860 0.000000
73.062103 102.896202 -801.174072 0.251559 0.551555 -0.795302 0.000000
63.715401 109.551498 -795.828430 0.114030 0.753781 -0.647156 0.000000
64.053001 107.775497 -797.839600 0.697411 0.503407 0.510097 0.000000
66.197998 106.288300 -799.192688 0.081950 0.369447 -0.925631 0.000000
72.127701 103.745399 -801.104126 0.493138 0.718953 0.489818 0.000000
45.788200 95.151199 -816.335022 -0.313799 0.293174 0.903094 0.000000
69.944298 105.272598 -800.167175 -0.242189 0.253388 -0.936557 0.000000
73.923500 102.955498 -802.157715 -0.820165 0.052052 -0.569754 0.000000
77.249100 101.063103 -803.769714 0.250027 0.959527 0.129595 0.000000
43.044899 96.445602 -816.139893 -0.523040 0.037261 -0.851493 0.000000
71.002502 105.198997 -800.773621 -0.391712 0.768795 0.505487 0.000000
73.039597 103.850800 -801.978577 0.358146 0.854278 0.376751 0.000000
74.963303 102.702599 -802.970276 -0.037918 0.999192 -0.013323 0.000000
75.707001 102.147202 -803.803101 -0.172548 0.679502 -0.713095 0.000000
77.857101 102.506798 -803.348022 -0.275445 0.496423 -0.823222 0.000000
73.859299 103.911499 -802.922424 0.220266 0.952686 -0.209456 0.000000
76.634102 103.024498 -803.448730 0.138146 0.487148 -0.862324 0.000000
77.757401 101.220299 -805.359985 0.440566 0.734276 -0.516469 0.000000
78.815697 100.727097 -805.742798 0.585308 0.762963 -0.274413 0.000000
72.545197 104.704300 -802.721497 0.398068 0.909272 -0.121516 0.000000
79.381203 100.229103 -806.713196 0.615253 0.100837 0.781854 0.000000
74.774803 103.802101 -803.829712 0.356285 0.933129 0.048288 0.000000
76.013199 104.110298 -803.976074 -0.775179 0.364124 0.516247 0.000000
40.558899 93.999496 -823.151123 -0.437904 0.571106 0.694319 0.000000
39.750900 93.593300 -824.636902 0.272237 0.708452 0.651139 0.000000
47.062401 93.740700 -823.369873 -0.589390 0.548859 0.592768 0.000000
75.505501 103.316299 -805.818481 -0.087807 0.925355 0.368791 0.000000
73.970100 105.651802 -803.934509 0.323725 0.900223 -0.291205 0.000000
75.618698 104.963799 -804.976379 0.189091 0.917020 -0.351169 0.000000
45.246498 95.349998 -823.657898 0.258496 0.642276 -0.721569 0.000000
34.712700 92.063400 -838.664001 0.046813 0.415968 -0.908174 0.000000
32.595402 92.856201 -839.429871 -0.101334 0.656466 0.747519 0.000000
34.680801 93.635101 -840.303101 0.091839 0.225195 -0.969976 0.000000
36.048401 92.967697 -840.798523 0.456686 0.580476 0.674155 0.000000
37.251701 92.881104 -841.216980 0.170174 0.811715 -0.558713 0.000000
37.518902 93.848000 -840.434204 -0.138298 0.893947 -0.426300 0.000000
34.878201 95.028702 -839.708374 -0.753027 0.052869 -0.655862 0.000000
39.292702 89.775497 -845.562317 0.413136 0.909963 -0.035867 0.000000
40.035900 89.163200 -846.459900 0.394106 0.871902 -0.290634 0.000000
40.494400 94.754700 -836.429199 -0.807298 0.418896 -0.415686 0.000000
37.558498 93.336304 -827.291870 -0.199331 0.977089 -0.074596 0.000000
45.436298 93.832603 -823.988525 -0.680882 0.621531 -0.387427 0.000000
75.144302 105.474998 -803.677002 0.139572 0.754889 -0.640830 0.000000
73.346001 104.626801 -803.761230 0.638031 0.702642 -0.314977 0.000000
71.390503 104.387802 -796.547974 0.152476 0.741246 -0.653686 0.000000
74.491501 100.856598 -799.844604 0.004122 0.605914 0.795520 0.000000
57.274799 105.205399 -798.035828 0.245655 0.511395 -0.823486 0.000000
44.278801 93.487701 -811.147217 -0.919034 0.088238 0.384175 0.000000
47.592602 95.042198 -808.624573 0.155810 0.736693 -0.658032 0.000000
57.008202 103.810898 -795.534729 0.156158 0.735305 -0.659501 0.000000
49.029400 94.833504 -806.152283 -0.048551 0.930338 0.363475 0.000000
61.243900 103.951897 -792.758911 0.238344 0.889720 0.389345 0.000000
62.482601 103.329697 -792.794617 0.159181 0.729201 -0.665528 0.000000
57.224899 101.529800 -795.135986 0.181725 0.762022 -0.621529 0.000000
63.101601 100.159103 -794.669617 -0.182544 0.716370 0.673418 0.000000
60.688702 102.364304 -792.605591 0.006749 0.854361 -0.519635 0.000000
61.449600 99.903900 -795.132690 0.556521 0.822366 -0.118316 0.000000
56.899799 103.054001 -791.915588 0.159181 0.729201 -0.665528 0.000000
62.244400 100.777802 -793.129700 0.114150 0.077253 -0.990455 0.000000
61.804699 98.717003 -795.113525 0.159533 0.727776 -0.667001 0.000000
56.205898 101.124397 -793.508911 -0.164363 0.904711 -0.393042 0.000000
57.389400 100.782700 -793.598083 0.198397 0.825391 -0.528553 0.000000
49.915199 94.020897 -802.452576 -0.298951 0.951209 -0.076356 0.000000
61.081600 99.346001 -793.955505 -0.733811 0.482029 -0.478716 0.000000
46.757401 92.463997 -804.116577 -0.463819 0.839218 -0.283876 0.000000
44.967300 92.730003 -803.201416 0.113334 0.902478 0.415559 0.000000
46.860100 91.867599 -803.054077 0.139333 0.198135 -0.970221 0.000000
56.704700 99.488297 -792.371704 0.246358 0.939500 -0.238007 0.000000
56.464500 98.305099 -789.083130 -0.260419 0.965367 0.015746 0.000000
49.033001 90.330200 -797.765015 0.168643 0.755097 -0.633552 0.000000
55.429699 96.856697 -789.178406 -0.193121 0.393502 0.898811 0.000000
55.947201 95.749397 -790.226990 0.019350 0.160491 -0.986848 0.000000
54.288502 91.571404 -794.270874 0.086228 0.697128 -0.711743 0.000000
49.209900 90.199203 -796.554626 -0.076898 0.871041 -0.485154 0.000000
54.033001 90.233704 -792.888977 -0.227291 0.713223 0.663062 0.000000
54.118099 92.754402 -788.825684 0.186162 0.160484 -0.969324 0.000000
57.212799 95.562500 -785.067688 0.176237 0.715676 -0.675831 0.000000
50.150101 88.065201 -792.917114 -0.469800 0.503001 0.725450 0.000000
54.839500 89.768501 -788.178711 0.247981 0.326290 -0.912162 0.000000
92.060097 87.815399 -776.096313 0.066490 0.254671 0.964739 0.000000
89.706497 87.916397 -775.130676 0.247201 0.545708 -0.800683 0.000000
59.305000 86.784897 -784.136475 0.213563 0.936607 -0.277772 0.000000
89.255600 86.658501 -776.090515 -0.053734 0.980340 0.189859 0.000000
91.354797 87.133598 -774.830811 -0.592485 0.144763 -0.792468 0.000000
58.988400 84.046997 -786.660828 0.300718 0.953706 0.003682 0.000000
86.951103 86.793503 -775.784180 0.399884 0.801374 0.444851 0.000000
59.840099 84.468002 -783.216614 0.175925 0.702171 -0.689932 0.000000
91.743103 85.191902 -773.690308 -0.022141 0.389417 0.920795 0.000000
58.848900 83.774498 -781.501892 0.207981 0.465338 -0.860352 0.000000
58.618000 83.760399 -780.218384 0.052680 0.778811 0.625042 0.000000
60.953999 81.458801 -779.700195 0.323249 0.071978 0.943573 0.000000
59.385101 81.395302 -779.810730 0.162641 0.700725 -0.694645 0.000000
57.845501 81.350998 -779.810120 0.135675 0.773794 -0.618737 0.000000
57.563702 77.276299 -783.177429 0.416847 0.649352 0.636066 0.000000
70.278702 82.852303 -774.046082 -0.011464 0.357931 0.933678 0.000000
61.539200 81.608498 -775.492188 0.471915 0.854875 0.215603 0.000000
51.453098 80.106499 -777.176575 0.451994 0.833608 -0.317490 0.000000
51.118099 76.774597 -775.454773 0.140027 0.697122 -0.703145 0.000000
52.638000 72.497803 -771.200012 0.297411 0.558242 -0.774540 0.000000
56.974998 68.469299 -770.800171 0.130036 0.689044 -0.712958 0.000000
56.856899 65.937798 -769.088623 0.123876 0.685051 -0.717886 0.000000
50.492199 68.767601 -766.929382 0.022327 0.910140 -0.413700 0.000000
50.515598 65.125298 -769.142822 0.089823 0.902379 -0.421479 0.000000
49.577702 53.320801 -766.357605 -0.050353 0.450453 -0.891379 0.000000
54.091999 52.926399 -766.117920 0.095441 0.931557 -0.350846 0.000000
57.215801 53.150299 -765.489075 0.098568 0.678209 -0.728229 0.000000
53.920399 51.000198 -763.685913 0.085982 0.674739 -0.733031 0.000000
53.599602 49.814999 -764.143616 0.092156 0.677275 -0.729936 0.000000
54.839100 49.802898 -764.000916 0.089254 0.677455 -0.730129 0.000000
53.448601 47.627201 -762.255676 0.979604 0.066434 0.189640 0.000000
55.108898 45.574799 -763.101807 0.015341 0.662466 0.748935 0.000000
53.216202 46.423500 -761.671082 -0.508478 0.410379 -0.756994 0.000000
53.157001 45.154800 -761.954285 0.373779 0.846086 -0.380035 0.000000
48.048100 42.912998 -761.424622 -0.930130 0.365548 0.035124 0.000000
62.226700 40.198002 -762.483398 0.058480 0.611902 0.788769 0.000000
63.558800 40.506901 -761.875122 0.282400 0.413678 0.865518 0.000000
52.820801 42.084301 -760.640503 0.166229 0.675591 -0.718292 0.000000
61.348099 39.270500 -762.045471 -0.380155 0.911524 0.156867 0.000000
62.340199 39.592701 -761.305298 0.053226 0.333638 0.941197 0.000000
45.701900 42.207199 -760.216675 0.113182 0.866777 -0.485682 0.000000
45.135399 42.844898 -759.176025 0.110550 0.859991 -0.498192 0.000000
60.593300 38.404499 -761.461121 0.995293 0.080461 0.054008 0.000000
59.605999 37.509602 -761.067017 -0.202313 0.530882 0.822942 0.000000
61.325100 37.704601 -760.733826 0.116920 0.235124 0.964908 0.000000
47.568501 39.353401 -760.108093 0.160867 0.312109 0.936328 0.000000
51.851101 36.599800 -758.523804 0.082115 0.799540 -0.594973 0.000000
56.121899 33.516998 -759.073486 0.280159 0.896806 0.342417 0.000000
53.965199 30.880400 -757.843628 -0.145994 0.924629 0.351776 0.000000
44.148701 32.195202 -753.398010 0.043061 0.364061 0.930379 0.000000
48.567299 28.658100 -752.465393 0.052770 0.657486 -0.751616 0.000000
44.070702 24.700100 -752.578796 0.049911 0.654548 -0.754371 0.000000
51.206501 17.351900 -750.703918 0.054417 0.041613 -0.997651 0.000000
49.227699 16.553900 -751.055725 -0.058487 0.899065 -0.433891 0.000000
43.795200 14.403300 -747.570313 -0.249001 0.957798 0.143604 0.000000
50.337700 11.496400 -747.893982 0.026599 0.642570 -0.765765 0.000000
44.030899 11.549200 -747.599609 0.071744 0.945716 -0.316978 0.000000
49.781700 10.766800 -747.090210 -0.157067 0.233620 -0.959558 0.000000
51.314602 10.284100 -746.939270 0.018092 0.641584 -0.766839 0.000000
51.825500 9.246300 -746.250183 0.012500 0.640271 -0.768047 0.000000
51.495701 8.718000 -744.374390 0.156631 0.376760 -0.912973 0.000000
50.373501 6.323900 -746.092529 -0.011437 0.934003 -0.357082 0.000000
49.315701 2.153100 -744.087708 -0.058616 0.627623 -0.776308 0.000000
48.398102 0.744000 -743.834290 -0.037396 0.973506 0.225583 0.000000
42.040699 1.161600 -741.383484 -0.012181 0.515651 -0.856712 0.000000
49.937599 1.405700 -742.122803 -0.091815 0.619387 -0.779699 0.000000
49.440498 -0.830400 -742.445313 -0.087933 0.569401 -0.817343 0.000000
49.328999 0.093000 -741.298584 -0.091771 0.616179 -0.782241 0.000000
40.342098 -1.091200 -740.897888 0.489219 0.336238 0.804741 0.000000
45.924900 -2.637900 -744.388123 0.324635 0.938883 -0.114498 0.000000
45.109402 -2.149200 -743.505615 -0.112819 0.087231 -0.989779 0.000000
44.112301 -1.393600 -743.673401 0.408065 0.210662 0.888315 0.000000
45.116100 -1.936500 -745.005615 0.565363 0.323755 -0.758649 0.000000
43.037601 -0.951400 -739.141418 0.801872 0.489413 0.342748 0.000000
45.281898 -1.530700 -747.542114 0.591488 0.800761 0.094464 0.000000
46.231098 -1.963900 -746.372681 0.205456 0.941788 -0.266127 0.000000
47.774502 -3.020500 -744.598022 0.634516 0.743113 0.212540 0.000000
40.475201 1.763800 -739.556213 0.685497 0.679135 -0.262429 0.000000
44.426998 -1.420300 -737.197876 0.579942 0.814648 0.004094 0.000000
45.516499 -1.139000 -744.055725 0.566724 0.647445 -0.509547 0.000000
44.064800 -0.084400 -743.936279 -0.234101 0.454609 -0.859376 0.000000
44.050900 0.878900 -745.460327 0.094464 0.940650 -0.325968 0.000000
45.310200 -0.023500 -745.012024 -0.187000 0.958873 0.213525 0.000000
44.044498 0.433900 -739.334229 0.668633 0.742452 0.041168 0.000000
46.401600 -0.457200 -745.880920 -0.665820 0.558484 -0.494753 0.000000
43.351299 0.351900 -736.952393 0.403330 0.880129 -0.250395 0.000000
43.932899 1.130600 -743.873291 0.585252 0.806698 -0.081964 0.000000
41.875099 2.029700 -737.669312 0.591876 0.802128 0.079205 0.000000
43.647099 1.294000 -738.503784 0.068188 0.997645 0.007343 0.000000
46.449902 0.300900 -744.633484 -0.361743 0.840934 -0.402458 0.000000
45.251801 1.205700 -744.877502 0.232028 0.226537 0.945962 0.000000
43.338699 2.214800 -740.718384 0.667839 0.648148 -0.365917 0.000000
44.507500 2.181700 -744.629578 0.163639 0.559975 -0.812189 0.000000
46.790298 1.104200 -746.009705 -0.076804 0.991574 -0.104316 0.000000
44.705002 2.099000 -740.041687 0.114451 0.844616 -0.522996 0.000000
45.627499 2.428000 -745.535583 0.544372 0.723071 0.425239 0.000000
44.210701 3.409000 -744.820984 -0.250568 0.834714 -0.490375 0.000000
48.239799 1.092000 -746.938416 0.050916 0.998581 -0.015587 0.000000
44.387798 3.398400 -740.521179 0.214403 0.971710 -0.099052 0.000000
45.277901 3.614700 -745.587524 0.365189 0.540480 0.757970 0.000000
47.390900 2.551500 -745.777588 0.726789 0.610761 -0.314244 0.000000
46.464600 3.848200 -747.655090 0.547799 0.833730 -0.069360 0.000000
45.764099 4.296400 -746.678772 0.810995 0.567845 0.140849 0.000000
44.964802 4.823900 -745.789673 0.731327 0.629798 0.261755 0.000000
45.177101 4.314600 -740.878723 0.135205 0.935510 -0.326404 0.000000
44.277100 4.902000 -739.786621 0.594660 0.801869 0.058189 0.000000
47.437599 3.854300 -746.553772 0.392694 0.913529 -0.106096 0.000000
47.480400 4.317000 -748.118286 0.231834 0.950382 -0.207430 0.000000
45.713299 5.529900 -746.580688 -0.406123 0.103956 -0.907886 0.000000
44.778702 5.880300 -741.168579 0.327496 0.882881 -0.336551 0.000000
46.960899 5.034600 -746.595825 0.552364 0.468926 0.689204 0.000000
44.612099 6.376000 -739.983276 0.269102 0.919552 -0.286371 0.000000
45.342201 6.693800 -746.486328 -0.283125 0.248979 -0.926202 0.000000
44.837399 7.302400 -742.299622 0.596040 0.801766 0.043681 0.000000
46.778198 6.621700 -747.616028 -0.003134 0.997687 -0.067905 0.000000
45.990002 7.630900 -747.258118 0.632592 0.642607 0.432299 0.000000
45.077099 8.280100 -746.699524 0.862308 0.172462 0.476112 0.000000
44.522499 8.473900 -742.315491 0.594766 0.802864 0.040776 0.000000
44.194500 9.037000 -741.294678 0.595304 0.802610 0.037819 0.000000
47.303600 7.620800 -748.146484 0.839168 0.276632 0.468265 0.000000
45.640701 8.657400 -743.091614 0.641442 0.347652 0.683879 0.000000
47.527699 7.863000 -751.262817 0.415426 0.902188 -0.116095 0.000000
46.203602 8.723800 -747.818726 0.514619 0.767870 -0.381500 0.000000
44.275501 9.977400 -742.810974 0.597735 0.801160 0.029260 0.000000
43.218601 10.748600 -742.364807 0.597735 0.801160 0.029260 0.000000
48.862801 7.485400 -747.896484 -0.383896 0.677172 -0.627744 0.000000
45.649799 9.878600 -747.742188 -0.542989 0.153227 -0.825642 0.000000
48.284901 8.411400 -750.104980 0.404555 0.892357 -0.200087 0.000000
47.072899 9.282100 -748.869202 -0.273256 0.958320 0.083388 0.000000
49.991901 7.543200 -750.421509 0.497417 0.863786 -0.080319 0.000000
45.243500 11.017600 -747.492981 -0.806700 0.389718 -0.444246 0.000000
46.517799 9.960700 -743.100586 0.470050 0.882186 -0.028284 0.000000
46.496799 10.428100 -748.580688 0.029739 0.212928 0.976615 0.000000
45.540798 11.062600 -744.749329 -0.901707 0.317295 0.293682 0.000000
47.921101 9.764000 -739.909424 0.860664 0.356936 0.363117 0.000000
45.997002 11.565800 -748.597412 0.570091 0.173900 0.802966 0.000000
45.406300 12.189100 -744.284729 0.641453 0.766062 0.041064 0.000000
47.804401 10.827900 -749.373413 0.372735 0.760120 -0.532247 0.000000
46.932098 12.046800 -749.516479 -0.310593 0.214153 -0.926105 0.000000
45.827301 12.880900 -749.736084 0.191380 0.867885 0.458421 0.000000
45.910198 12.860800 -743.223328 0.280300 0.815846 -0.505793 0.000000
45.655499 13.440700 -748.644470 -0.716257 0.206643 -0.666539 0.000000
45.735001 13.473000 -742.107910 0.166453 0.924582 -0.342697 0.000000
46.577599 13.186600 -744.231079 0.855516 0.517634 0.012164 0.000000
47.928200 12.530700 -751.404297 0.542761 0.839562 0.023359 0.000000
48.660999 12.014200 -749.727722 0.606288 0.794973 -0.020811 0.000000
47.138500 13.170400 -749.930725 0.035418 0.067617 -0.997082 0.000000
46.331100 14.095800 -749.751221 0.629254 0.185255 0.754798 0.000000
45.912399 15.169000 -745.564575 0.602198 0.797807 -0.029341 0.000000
46.450600 14.800100 -744.287476 0.395814 0.866512 -0.304120 0.000000
46.668098 15.179500 -750.321716 0.182589 0.250215 0.950817 0.000000
48.073399 14.528000 -751.138489 -0.150610 0.973269 -0.173391 0.000000
45.872799 16.261700 -750.121704 0.582849 0.313101 -0.749836 0.000000
46.576801 16.378700 -746.449280 0.755097 0.633552 0.168643 0.000000
46.921902 16.391600 -750.960022 0.628063 0.055543 0.776178 0.000000
48.286701 15.835600 -751.395020 -0.215483 0.070186 -0.973982 0.000000
46.262299 17.429701 -750.757629 0.785370 0.598449 0.158280 0.000000
48.004200 17.051300 -752.720520 0.667202 0.663939 -0.337679 0.000000
47.389099 17.585600 -751.760681 0.341667 0.239894 0.908688 0.000000
46.678600 18.429701 -747.009888 0.609851 0.790967 -0.049524 0.000000
46.845200 18.669500 -751.957397 0.602389 0.796064 -0.058388 0.000000
48.060200 18.447901 -752.377625 -0.094301 0.593373 -0.799385 0.000000
47.402000 19.616301 -752.708618 0.451737 0.517926 0.726420 0.000000
47.198601 20.132999 -747.623474 0.312526 0.899068 -0.306601 0.000000
46.830399 20.497900 -746.472778 -0.294281 0.852030 -0.432948 0.000000
46.775101 20.704201 -752.570374 0.712327 0.533000 0.456620 0.000000
48.238499 20.043699 -754.028687 -0.692835 0.482480 -0.535904 0.000000
47.640202 21.457500 -748.457520 0.608633 0.791081 -0.061291 0.000000
47.125401 21.955299 -747.120911 0.608737 0.791216 -0.058450 0.000000
47.512001 21.646099 -753.343201 0.473381 0.513244 0.715885 0.000000
46.659500 22.656099 -748.799194 0.606834 0.792454 -0.061397 0.000000
46.783298 22.613701 -753.217224 -0.600758 0.573681 -0.556759 0.000000
47.733299 22.639999 -748.068176 0.606725 0.792312 -0.064241 0.000000
47.971100 22.257099 -754.500916 0.776939 0.204619 0.595397 0.000000
50.024700 21.145500 -755.771118 0.607985 0.791096 -0.067236 0.000000
46.886700 23.726999 -753.745178 0.506112 0.154932 0.848438 0.000000
47.652302 23.773399 -749.539429 0.492517 0.832184 -0.254750 0.000000
47.972301 23.554399 -754.390930 0.403947 0.783559 0.472082 0.000000
49.150200 23.049801 -755.653503 0.460891 0.863611 -0.204343 0.000000
48.154099 24.699900 -754.775391 0.091444 0.221721 -0.970813 0.000000
49.417198 23.885300 -757.035889 0.607114 0.789683 -0.088387 0.000000
47.087101 25.956499 -754.580078 0.285820 0.729720 -0.621140 0.000000
47.300301 26.259501 -750.355286 0.545329 0.828959 -0.124271 0.000000
48.269299 26.131001 -749.441284 -0.726485 0.582821 -0.364059 0.000000
49.188599 25.161400 -755.620300 0.828859 0.537196 0.156248 0.000000
48.071301 26.045700 -755.425781 0.253272 0.185553 0.949433 0.000000
46.784000 27.146299 -754.492126 -0.696949 0.089128 -0.711560 0.000000
46.734299 27.910500 -751.307373 0.608347 0.788383 -0.091470 0.000000
47.382999 27.280600 -755.635620 0.450917 0.762460 0.464035 0.000000
46.701801 28.383801 -754.632385 0.654453 0.754260 -0.052755 0.000000
49.748699 26.435101 -755.856873 0.452441 0.834433 -0.314673 0.000000
48.701000 27.784500 -756.360718 -0.280304 0.251847 0.926284 0.000000
47.689999 28.572599 -756.290894 0.683435 0.434006 0.586989 0.000000
47.640400 29.666201 -756.820801 0.810175 0.020774 0.585819 0.000000
49.161900 29.040400 -757.204529 0.346793 0.142309 0.927083 0.000000
47.567001 30.905001 -756.938110 0.817737 0.555584 0.150440 0.000000
49.059601 30.259600 -757.636597 0.265933 0.670407 0.692701 0.000000
48.309700 31.333700 -757.905212 0.562810 0.370313 0.738994 0.000000
47.418800 32.136200 -757.013000 0.958032 0.054276 0.281477 0.000000
48.045898 32.520302 -757.984619 0.656090 0.230179 0.718724 0.000000
49.937801 31.310301 -758.444702 -0.501231 0.747738 -0.435495 0.000000
49.156502 32.452702 -758.566528 0.052992 0.011430 0.998530 0.000000
47.915901 33.675800 -758.333496 0.795932 0.079161 0.600188 0.000000
48.918201 33.562000 -759.075806 0.396937 0.253141 0.882248 0.000000
50.221901 32.761700 -759.166504 0.696220 0.512565 0.502548 0.000000
48.071499 34.823399 -758.686279 0.855828 0.001344 0.517259 0.000000
48.733601 35.222401 -754.075806 0.192946 0.913279 -0.358737 0.000000
50.154499 34.366798 -759.691895 0.373334 0.845078 -0.382706 0.000000
49.173302 35.118698 -759.695984 0.030446 0.047244 -0.998419 0.000000
48.238499 35.878201 -759.391174 0.812231 0.176310 0.556054 0.000000
48.131699 37.100101 -759.320374 0.751272 0.659957 -0.006918 0.000000
50.246601 35.877602 -760.464783 0.172728 0.242354 -0.954688 0.000000
49.302898 36.632599 -760.276611 0.265437 0.332896 -0.904833 0.000000
48.730499 37.783401 -760.341675 0.638246 0.209643 0.740738 0.000000
50.505501 37.152100 -761.043518 0.609240 0.788684 -0.082486 0.000000
49.876701 38.420200 -761.213379 0.286397 0.542730 0.789570 0.000000
48.925301 39.181000 -761.018188 0.597041 0.284987 0.749883 0.000000
48.481899 40.251801 -760.531189 0.947624 0.074094 0.310675 0.000000
51.095501 39.202801 -761.628174 -0.815925 0.541408 -0.202837 0.000000
49.951401 40.037800 -761.919678 0.553680 0.811558 0.186582 0.000000
49.073200 40.774502 -761.488770 0.470255 0.800879 -0.370747 0.000000
48.829201 41.980202 -761.420776 0.869789 0.422037 0.255642 0.000000
58.584099 35.199100 -760.722778 -0.595612 0.737654 -0.317982 0.000000
51.320599 40.554298 -762.171082 0.720794 0.123863 0.681993 0.000000
50.250099 41.364399 -762.241882 0.017960 0.238268 0.971033 0.000000
49.583401 42.480202 -762.388428 0.455037 0.084885 0.886418 0.000000
50.870602 42.651199 -762.931885 0.289869 0.249887 0.923868 0.000000
49.533901 43.716499 -762.630493 0.601974 0.321160 0.731084 0.000000
50.673801 43.845901 -763.227905 0.417030 0.465711 0.780512 0.000000
49.361198 44.921001 -762.728027 0.900353 0.180071 0.396155 0.000000
50.295799 44.973301 -763.575195 0.246013 0.176108 0.953133 0.000000
49.449799 46.019699 -763.241394 0.771087 0.061515 0.633751 0.000000
51.528599 44.618099 -763.754578 -0.135689 0.435635 0.889837 0.000000
51.876900 42.554199 -765.108887 -0.385458 0.788657 -0.479000 0.000000
51.536701 42.974400 -764.010681 0.366118 0.898387 -0.242608 0.000000
52.077099 40.943699 -763.178101 0.253562 0.877715 -0.406599 0.000000
51.126900 45.742199 -764.056396 0.537412 0.229440 0.811508 0.000000
50.268200 46.771900 -763.984619 0.368403 0.149882 0.917505 0.000000
49.534100 47.770401 -763.621216 -0.801968 0.128492 -0.583384 0.000000
51.488998 47.068501 -764.662170 0.430741 0.519859 0.737705 0.000000
50.534401 47.818199 -764.550110 0.205353 0.148525 0.967352 0.000000
49.865898 48.829201 -764.273987 0.824815 0.214970 0.522942 0.000000
51.238499 48.572601 -759.340088 0.585689 0.754853 -0.295238 0.000000
52.585701 47.330502 -766.011780 0.117329 0.987220 0.107848 0.000000
51.772400 48.432098 -765.398193 -0.464727 0.645920 0.605654 0.000000
50.814301 49.228901 -765.009888 0.477514 0.415583 0.774126 0.000000
50.112099 50.213902 -764.877075 0.713373 0.293365 0.636425 0.000000
52.324699 49.603600 -765.878418 -0.427024 0.679583 0.596504 0.000000
51.303501 50.427101 -765.628784 0.288949 0.240554 0.926630 0.000000
50.472000 51.413101 -765.581421 0.645179 0.326652 0.690683 0.000000
51.366600 51.804298 -761.210388 0.600158 0.787800 -0.138498 0.000000
52.459900 50.824699 -766.005127 -0.837833 0.316723 0.444660 0.000000
51.534599 51.564400 -766.264404 0.664941 0.745020 0.052909 0.000000
50.312302 52.617599 -765.691711 0.827046 0.111920 0.550880 0.000000
51.512402 52.730900 -766.593872 0.597478 0.310817 0.739197 0.000000
50.806499 53.708801 -766.379700 0.633448 0.226790 0.739804 0.000000
52.837700 53.130402 -767.056030 -0.769576 0.401872 -0.496238 0.000000
51.775799 53.929901 -767.099182 0.324854 0.447263 0.833322 0.000000
50.596802 54.929298 -766.559021 0.849649 0.123453 0.512694 0.000000
51.894600 55.113400 -767.555176 0.393303 0.421964 0.816859 0.000000
50.947498 55.893902 -767.242126 0.694416 0.012525 0.719465 0.000000
52.910000 55.565498 -768.177185 -0.846870 0.045890 -0.529816 0.000000
51.920399 56.366501 -767.914429 0.310403 0.216857 0.925539 0.000000
51.263199 57.458698 -767.894287 0.725239 0.139642 0.674187 0.000000
52.858501 57.203201 -768.669617 -0.801998 0.055359 -0.594756 0.000000
52.100899 58.362301 -768.678711 0.422690 0.314308 0.850025 0.000000
54.475101 56.347698 -772.553284 -0.433203 0.867916 -0.243016 0.000000
54.282799 56.733200 -771.345581 0.660485 0.738366 -0.136291 0.000000
54.252300 57.037800 -769.932495 0.470918 0.867017 -0.162841 0.000000
53.431599 58.253601 -769.197327 -0.730137 0.445367 -0.518215 0.000000
51.787399 59.558899 -768.865173 0.519371 0.168163 0.837839 0.000000
52.909698 59.331200 -769.418579 0.374307 0.073788 0.924364 0.000000
50.529999 61.765701 -766.309998 0.736933 0.640337 -0.216562 0.000000
52.445301 60.449699 -769.683289 0.446507 0.274655 0.851585 0.000000
51.696602 61.444302 -769.391296 -0.613074 0.046724 -0.788643 0.000000
53.675800 60.582401 -770.661804 0.322393 0.842582 -0.431414 0.000000
52.509102 61.737999 -770.251221 0.362849 0.501538 0.785366 0.000000
51.818699 62.708698 -769.888916 0.702468 0.114355 0.702468 0.000000
53.563301 62.070499 -770.878784 0.511089 0.308552 0.802236 0.000000
56.097900 60.285301 -771.271484 -0.369402 0.750195 -0.548407 0.000000
52.814098 63.033401 -770.687622 0.399176 0.206168 0.893394 0.000000
52.089500 63.999100 -770.486389 0.657559 0.192494 0.728397 0.000000
53.443901 63.634602 -771.616882 0.943876 0.167528 -0.284661 0.000000
55.777199 61.579102 -774.281372 0.290672 0.884065 -0.365976 0.000000
52.846100 64.697601 -771.429626 0.619202 0.300755 0.725351 0.000000
52.277599 65.937202 -767.583374 0.338777 0.869171 -0.360238 0.000000
51.895500 66.447601 -766.519409 0.362901 0.876124 -0.317348 0.000000
52.173000 65.657700 -771.030396 0.714629 0.086223 0.694169 0.000000
53.600300 65.337303 -772.167480 -0.678086 0.635398 -0.369417 0.000000
54.849201 64.862297 -773.368774 0.963693 0.160834 0.213137 0.000000
53.068501 66.453102 -772.085022 0.622323 0.384619 0.681749 0.000000
53.196301 67.499298 -766.723022 -0.882871 0.436328 -0.173656 0.000000
52.618401 67.585098 -771.992676 0.771255 0.256038 0.582761 0.000000
53.229698 67.940201 -768.208313 0.468251 0.860205 -0.201961 0.000000
53.991699 67.107399 -773.044983 -0.874904 0.478616 -0.073955 0.000000
52.528900 69.137199 -768.573792 -0.079929 0.962954 -0.257549 0.000000
53.432301 68.239502 -772.964783 0.417103 0.069291 0.906214 0.000000
52.849701 69.324799 -772.814026 0.801391 0.203795 0.562353 0.000000
52.278702 70.355003 -769.943726 0.549229 0.756608 -0.354812 0.000000
55.424900 67.678101 -773.898376 0.424015 0.623551 -0.656807 0.000000
52.215500 71.552101 -770.521973 -0.657290 0.529530 -0.536254 0.000000
53.784698 71.076500 -767.365723 0.699924 0.696887 -0.156382 0.000000
55.544300 67.826302 -778.131470 0.581253 0.795638 -0.170602 0.000000
53.327702 70.417397 -773.559387 0.635109 0.189149 0.748906 0.000000
55.353500 68.438599 -777.046387 -0.920750 0.073929 -0.383086 0.000000
52.976898 72.266197 -769.357422 0.872079 0.121719 0.473987 0.000000
54.330700 70.889297 -774.478088 0.568582 0.345037 0.746769 0.000000
53.397598 71.655602 -774.068970 0.674710 0.172885 0.717549 0.000000
54.648102 70.575302 -777.692200 0.241114 0.654002 -0.717039 0.000000
53.551800 73.178001 -770.244080 -0.678934 0.662730 -0.315972 0.000000
54.404701 72.011703 -775.112488 0.520158 0.334502 0.785839 0.000000
53.640900 72.950500 -774.743225 0.718621 0.297416 0.628592 0.000000
54.558601 73.413498 -770.953613 -0.934189 0.355943 -0.024415 0.000000
54.325802 73.559196 -775.672607 0.438479 0.316766 0.841068 0.000000
53.440601 74.312798 -775.143677 0.902781 0.207887 0.376522 0.000000
55.559700 73.126801 -777.563904 -0.664215 0.617604 -0.421169 0.000000
54.040401 74.707199 -776.184021 0.730340 0.423696 0.535803 0.000000
55.111099 74.731300 -776.946716 0.413139 0.658699 0.628834 0.000000
54.163502 75.736504 -776.821472 0.619454 0.445806 0.646169 0.000000
56.010399 74.460197 -778.007813 0.574599 0.798981 -0.177383 0.000000
57.292900 74.288101 -776.838806 -0.858918 0.509246 -0.054116 0.000000
55.035702 75.893799 -777.779785 -0.282656 0.637173 -0.717019 0.000000
54.082001 76.878502 -777.331604 0.662002 0.351433 0.662002 0.000000
55.422901 76.137802 -778.974609 0.383354 0.831389 -0.402285 0.000000
54.972198 77.054604 -778.239685 0.662073 0.344932 0.665343 0.000000
54.098499 77.994301 -778.142212 0.701565 0.710173 0.058822 0.000000
54.488499 77.847000 -779.859497 -0.458923 0.695895 -0.552377 0.000000
55.194302 79.259399 -774.286194 0.285939 0.794627 -0.535544 0.000000
54.263500 78.973503 -779.286499 0.809352 0.324691 0.489413 0.000000
54.382099 80.472000 -774.619629 0.830917 0.494850 -0.254362 0.000000
55.248600 79.367897 -780.488708 0.340334 0.910937 -0.233165 0.000000
54.235298 80.137802 -780.322876 0.586210 0.445921 0.676396 0.000000
53.417702 81.715302 -776.382507 0.587995 0.756904 -0.285233 0.000000
54.892502 79.671997 -782.444275 -0.635638 0.763062 0.117052 0.000000
55.738998 80.976898 -774.856201 0.571718 0.795501 -0.200791 0.000000
54.774101 80.891800 -781.713623 0.593252 0.768567 -0.239492 0.000000
54.030201 81.870201 -781.520386 0.838387 0.391667 0.379083 0.000000
54.050800 83.486099 -777.151489 0.268922 0.682648 -0.679465 0.000000
55.239700 82.920502 -777.413879 0.331934 0.784134 -0.524360 0.000000
55.169201 81.568398 -784.072815 0.286899 0.713241 -0.639513 0.000000
54.724201 82.137901 -783.078979 0.867610 0.493998 0.056734 0.000000
53.925400 84.496002 -776.495483 -0.009697 0.652470 -0.757752 0.000000
56.089699 81.076500 -782.146301 0.323455 0.852746 -0.410123 0.000000
54.031700 83.032501 -782.560486 0.812702 0.403956 0.419923 0.000000
53.554001 84.445099 -779.624390 -0.792295 0.385659 -0.472795 0.000000
55.931499 82.076698 -783.265015 0.568901 0.793994 -0.214301 0.000000
54.516499 83.199303 -784.150696 -0.838241 0.177809 0.515496 0.000000
56.565701 84.012901 -775.693604 0.607013 0.757590 -0.239982 0.000000
53.952499 84.169502 -783.612122 0.772301 0.633936 -0.040945 0.000000
55.664902 84.214104 -778.936584 0.813566 0.471012 0.340968 0.000000
55.400902 85.068604 -778.025879 0.568523 0.793466 -0.217240 0.000000
54.397202 84.090599 -785.088196 -0.747303 0.565746 -0.348525 0.000000
54.623199 85.361900 -780.421021 0.501122 0.237535 -0.832138 0.000000
56.146500 85.811302 -775.654175 0.849802 0.366428 0.378902 0.000000
53.688000 85.112602 -785.327881 0.754504 0.323359 0.571106 0.000000
55.728298 83.731102 -785.836121 0.224397 0.921885 -0.315871 0.000000
53.982498 84.784599 -786.554016 0.766233 0.557406 -0.319665 0.000000
54.138100 86.463203 -780.581299 -0.582974 0.430171 -0.689271 0.000000
53.522598 85.403900 -788.010315 -0.229407 0.849263 -0.475526 0.000000
53.062698 86.010597 -787.055420 0.555575 0.801813 -0.220075 0.000000
52.637299 86.456001 -788.149719 0.569435 0.789761 -0.228084 0.000000
55.421700 86.670502 -780.472473 0.934712 0.179165 -0.306941 0.000000
54.456299 87.504997 -779.996826 -0.236023 0.479660 -0.845115 0.000000
52.707199 86.534698 -789.769470 0.748597 0.638374 -0.179112 0.000000
54.274899 88.489998 -783.488281 0.754666 0.649159 0.095249 0.000000
55.495098 88.015404 -782.111328 0.200237 0.873627 -0.443488 0.000000
55.232601 88.945297 -781.281372 0.566927 0.790591 -0.231430 0.000000
54.736599 89.950302 -780.658020 -0.555599 0.747860 -0.363339 0.000000
55.456100 89.725800 -782.903870 0.565939 0.792315 -0.227926 0.000000
56.137199 88.569099 -786.876709 -0.430428 0.868407 0.246174 0.000000
55.255199 90.711800 -784.861206 0.565537 0.791752 -0.230863 0.000000
56.548199 90.200401 -783.450317 0.565537 0.791752 -0.230863 0.000000
56.615501 89.272697 -787.768982 -0.129794 0.654939 0.744452 0.000000
55.164299 91.713402 -783.915588 -0.200302 0.796622 -0.570326 0.000000
55.662800 91.920197 -781.981812 -0.288528 0.889504 -0.354307 0.000000
56.919998 90.519600 -784.565430 0.344625 0.752349 -0.561431 0.000000
57.176800 91.453697 -781.537781 0.100399 0.938398 -0.330648 0.000000
53.469101 91.625298 -791.096130 -0.812735 0.407166 -0.416746 0.000000
56.833900 90.469398 -787.530212 0.753279 0.198718 0.626962 0.000000
56.025398 92.061600 -784.820496 0.562438 0.794850 -0.227764 0.000000
53.352001 92.653801 -790.461121 0.875892 0.446042 0.184011 0.000000
55.493000 93.177902 -783.383484 0.926638 0.157459 0.341393 0.000000
57.964199 90.293800 -788.543274 0.101486 0.859060 0.501714 0.000000
39.350201 91.984200 -829.312378 -0.231963 0.950914 0.204833 0.000000
39.676102 92.280296 -828.164429 -0.203917 0.945682 0.253186 0.000000
39.999802 92.434799 -826.826782 -0.485321 0.860675 -0.153954 0.000000
57.261501 91.330803 -788.278992 0.599055 0.100571 0.794367 0.000000
40.435501 92.625298 -825.676697 -0.311442 0.947358 0.074277 0.000000
41.004398 92.630699 -824.239380 -0.839057 0.483186 -0.250030 0.000000
41.257999 92.915199 -822.603271 -0.504629 0.854543 0.122904 0.000000
41.833900 92.968803 -821.481628 -0.359583 0.931229 0.059272 0.000000
42.125999 93.093102 -820.306885 -0.127675 0.978018 -0.164862 0.000000
39.210999 93.158401 -829.020813 0.966682 0.138097 -0.215535 0.000000
39.549000 93.512100 -827.844177 -0.968862 0.129267 0.211179 0.000000
57.249100 91.723801 -789.680420 0.426033 0.871637 -0.242372 0.000000
41.304699 94.062897 -822.110413 0.959701 0.072647 -0.271469 0.000000
41.707600 94.116302 -820.905884 -0.961275 0.120646 0.247778 0.000000
58.600498 91.021797 -789.480286 0.747816 0.611849 -0.257704 0.000000
57.870998 92.576401 -789.066284 0.638944 0.088783 0.764113 0.000000
58.500301 92.567101 -790.128906 -0.750561 0.597580 0.282058 0.000000
39.477798 95.184898 -830.717529 0.901153 0.318141 0.294465 0.000000
56.739201 94.213600 -791.050720 -0.638384 0.721167 0.269045 0.000000
58.030602 93.649597 -789.838013 0.708726 0.347031 0.614229 0.000000
58.991402 93.317703 -791.134583 0.026303 0.986934 0.158962 0.000000
44.562801 95.961403 -819.049011 -0.751106 0.642294 -0.152639 0.000000
45.109200 96.463699 -818.069214 -0.788868 0.348644 -0.506097 0.000000
58.547001 94.446999 -792.705383 0.443855 0.546923 -0.709836 0.000000
59.010502 94.722397 -791.543030 0.625003 0.741502 -0.244019 0.000000
58.122700 95.501801 -790.958374 0.906733 0.209691 0.365875 0.000000
58.453999 95.596497 -792.206970 0.931798 0.362151 0.024487 0.000000
40.402901 97.433197 -831.916870 0.494929 0.811178 -0.311505 0.000000
58.862801 95.624298 -793.442200 -0.976887 0.158448 0.143476 0.000000
57.756199 96.783699 -792.022522 0.777847 0.286742 -0.559226 0.000000
58.996899 96.722900 -792.860718 -0.816244 0.538569 -0.209020 0.000000
57.435501 97.835503 -792.734985 0.891520 0.375299 -0.253660 0.000000
58.541100 97.697899 -791.864380 -0.257437 0.939296 -0.226823 0.000000
59.331699 96.910896 -794.181702 -0.451705 0.261836 -0.852880 0.000000
55.843800 100.264000 -790.766113 0.949061 0.082243 0.304170 0.000000
59.411201 97.849503 -793.365173 -0.965692 0.206655 -0.157266 0.000000
58.235001 98.727097 -793.116577 -0.467504 0.872771 0.140396 0.000000
60.071201 97.919098 -794.794128 0.727572 0.006929 0.685996 0.000000
59.174301 99.177498 -793.809814 0.328338 0.729461 0.600067 0.000000
58.232899 100.025902 -793.086975 0.532971 0.742880 -0.405058 0.000000
58.856998 99.742203 -795.029602 -0.944769 0.304202 -0.121949 0.000000
58.568100 100.603600 -794.157104 0.828462 0.162707 0.535888 0.000000
57.215801 100.978600 -796.622375 0.970509 0.141559 0.195122 0.000000
60.211201 99.754898 -795.242615 0.711598 0.684287 -0.159313 0.000000
58.520100 101.471703 -793.237610 0.675806 0.691633 0.254812 0.000000
58.032799 102.374397 -791.210083 0.436799 0.811198 -0.388799 0.000000
59.444599 100.819000 -795.270874 0.389101 0.411336 0.824259 0.000000
59.085899 101.772301 -794.338501 0.828666 0.037603 0.558479 0.000000
61.669399 100.151497 -796.453186 -0.933508 0.246401 -0.260481 0.000000
60.313400 101.172600 -796.098816 0.222713 0.078385 0.971728 0.000000
58.220901 102.820602 -795.864075 0.468970 0.882208 -0.042139 0.000000
59.791000 102.196701 -795.686401 0.891429 0.426336 0.153596 0.000000
58.243900 102.891197 -797.949524 -0.582967 0.572829 -0.576208 0.000000
58.254101 103.737999 -795.026794 -0.977134 0.001162 -0.212622 0.000000
60.170898 102.163803 -797.006409 0.571733 0.622329 -0.534629 0.000000
58.836800 103.348701 -796.856323 -0.539851 0.835104 -0.105654 0.000000
59.161499 104.768501 -791.899719 -0.951344 0.128703 -0.279963 0.000000
58.989601 102.725601 -799.786621 -0.955242 0.039015 -0.293243 0.000000
59.306400 102.865997 -798.589111 -0.350250 0.848384 -0.396950 0.000000
58.724800 104.329597 -796.067200 -0.649595 0.754698 -0.091965 0.000000
57.981701 103.503403 -801.703186 0.090232 0.964595 -0.247821 0.000000
59.653500 105.630402 -790.836975 -0.363212 0.514954 -0.776466 0.000000
60.612301 102.789902 -799.879028 0.172261 0.893154 -0.415454 0.000000
59.840000 105.770798 -792.468018 0.962891 0.171617 0.208299 0.000000
57.459400 105.965302 -807.172913 0.530266 0.805566 -0.264351 0.000000
59.749100 106.737396 -801.617371 -0.865082 0.474400 0.163029 0.000000
63.121201 110.354202 -792.279724 0.208911 0.912006 -0.352988 0.000000
71.655602 101.969299 -801.740417 0.528458 0.804448 -0.271286 0.000000
76.790001 103.945099 -805.157471 0.711237 0.702918 -0.006932 0.000000
78.305901 99.673599 -806.551086 0.146057 0.733298 -0.664034 0.000000
61.195000 107.054001 -800.646606 -0.649211 0.625846 -0.432251 0.000000
60.109100 104.404198 -804.042786 0.661850 0.693900 -0.283650 0.000000
63.751900 97.056297 -795.648010 0.539999 0.790203 -0.289794 0.000000
60.983101 98.104202 -796.279114 0.890830 0.370311 -0.263233 0.000000
62.551899 95.692596 -795.143982 0.804107 0.468396 -0.366084 0.000000
57.386398 96.165497 -795.177490 0.919500 0.330334 -0.213072 0.000000
58.077702 93.976700 -796.251404 0.547179 0.785083 -0.290243 0.000000
60.717602 93.107803 -793.627930 -0.457146 0.744307 -0.486852 0.000000
81.239998 85.410103 -775.780518 -0.196998 0.894515 0.401291 0.000000
58.532001 93.179100 -792.800598 -0.372348 0.868812 -0.326379 0.000000
57.224201 93.973503 -792.711609 0.930054 0.286496 0.230044 0.000000
59.013699 92.102600 -793.160522 -0.908283 0.418305 -0.006516 0.000000
58.727901 91.724602 -792.030823 0.551100 0.779798 -0.296990 0.000000
59.143101 91.555702 -790.858582 -0.124092 0.216202 -0.968431 0.000000
59.872101 92.955704 -782.569885 0.335416 0.885921 -0.320375 0.000000
51.268501 93.153702 -796.126221 -0.206192 0.873719 -0.440568 0.000000
53.019001 92.443901 -793.048279 0.538745 0.801090 -0.260784 0.000000
57.860600 91.747498 -785.808472 0.862722 0.453193 -0.224338 0.000000
57.165199 90.121902 -781.551575 -0.360739 0.800038 -0.479382 0.000000
50.455200 89.208702 -794.738770 0.562334 0.772611 -0.294707 0.000000
51.070099 88.232002 -794.291199 0.564506 0.771227 -0.294179 0.000000
50.969799 88.923599 -792.665283 0.564506 0.771227 -0.294179 0.000000
51.643501 87.672600 -792.910889 0.564506 0.771227 -0.294179 0.000000
52.082001 87.150497 -791.797180 0.565032 0.771946 -0.291270 0.000000
51.992199 87.661102 -790.624207 0.565032 0.771946 -0.291270 0.000000
55.906200 84.995796 -780.048523 0.572130 0.766558 -0.291643 0.000000
54.497200 86.290703 -779.406616 0.172304 0.654144 -0.736483 0.000000
59.402599 79.904503 -785.565002 -0.379363 0.923954 -0.048907 0.000000
54.077900 85.071098 -778.614197 0.138531 0.853061 -0.503087 0.000000
56.569302 82.631798 -775.377625 -0.781478 0.188105 -0.594902 0.000000
54.501400 71.290703 -776.667419 0.735397 0.656224 -0.169004 0.000000
53.851299 73.704399 -769.175293 -0.749687 0.557793 -0.356142 0.000000
56.330502 67.449699 -775.837585 0.918118 0.370322 0.141141 0.000000
54.472698 68.542297 -773.778320 0.524896 0.317490 0.789737 0.000000
55.629501 62.561501 -773.004089 -0.927187 0.228602 -0.296757 0.000000
53.464500 65.148102 -766.656677 0.598341 0.753878 -0.271396 0.000000
53.344700 59.934200 -771.671082 0.589757 0.376196 -0.714608 0.000000
52.926800 61.799702 -764.907776 0.136677 0.983352 -0.119744 0.000000
53.105801 47.303101 -767.604492 0.709540 0.642270 -0.289902 0.000000
62.391899 38.777699 -762.507813 -0.134546 0.922406 -0.362027 0.000000
50.996201 44.912300 -757.571777 0.569395 0.679600 -0.462529 0.000000
55.015701 30.796600 -758.452026 -0.348731 0.754231 -0.556347 0.000000
47.094398 29.418900 -755.644287 0.934180 0.205268 0.291844 0.000000
45.921001 15.268900 -743.258484 0.642327 0.746076 -0.175458 0.000000
44.799000 13.737100 -745.507629 0.475368 0.695538 -0.538750 0.000000
46.938702 11.667600 -740.352417 0.785370 0.598449 0.158280 0.000000
46.910099 8.583400 -749.887085 0.034147 0.864610 -0.501282 0.000000
48.861301 4.364200 -749.867004 0.230003 0.804239 0.547994 0.000000
45.566002 7.425100 -741.248474 0.648154 0.747407 -0.145872 0.000000
48.032398 3.096800 -748.684875 0.628113 0.758907 -0.171857 0.000000
43.672501 6.802600 -742.788391 0.649613 0.746075 -0.146201 0.000000
46.008598 1.809700 -747.290527 0.651633 0.744939 -0.142968 0.000000
44.509201 2.901900 -746.310791 -0.193741 0.575121 -0.794796 0.000000
48.877602 -1.107100 -745.558777 0.652178 0.745133 -0.139431 0.000000
46.315102 1.957700 -739.273987 -0.886772 0.335739 -0.317672 0.000000
44.627300 -0.018200 -735.843201 0.786214 0.587752 -0.190829 0.000000
43.582500 -0.071200 -738.262390 0.655381 0.747104 -0.110956 0.000000
44.826698 -3.274500 -743.985718 0.587462 0.801351 -0.112804 0.000000
43.827599 -2.899400 -743.196411 0.652709 0.752003 -0.091993 0.000000
42.842999 -2.755200 -742.119812 0.154438 0.938929 0.307509 0.000000
41.309799 -2.139100 -740.399597 0.399813 0.865495 0.301774 0.000000
39.722801 -1.809700 -739.086975 0.656543 0.749711 -0.082978 0.000000
2.291700 23.151300 -722.374573 0.583779 0.647709 -0.489567 1.000000
3.144800 23.010599 -721.514587 0.675633 0.419988 -0.605912 1.000000
5.995800 22.784401 -721.167175 0.606916 0.427336 -0.670102 1.000000
3.072100 23.247601 -724.705627 -0.504957 0.861070 -0.059816 1.000000
3.901700 23.203600 -723.814026 0.692878 0.355448 -0.627357 1.000000
4.782300 22.959101 -722.981079 -0.711276 0.407622 0.572652 1.000000
6.009200 22.928200 -722.782410 0.692878 0.355448 -0.627357 1.000000
7.163600 23.003000 -721.461914 -0.643731 0.707944 0.290562 1.000000
3.589400 23.360300 -725.898499 -0.919926 0.254815 0.298004 1.000000
4.405200 23.365601 -724.991272 -0.330476 0.796654 0.506091 1.000000
5.281700 23.125601 -724.158081 0.001377 0.756234 0.654300 1.000000
7.247600 22.972099 -722.715210 0.583775 0.597312 -0.549933 1.000000
6.503200 23.101101 -724.095703 -0.738900 0.107664 0.665158 1.000000
8.323300 23.147400 -722.044678 -0.494129 0.817274 0.296478 1.000000
4.259600 23.674801 -726.896729 0.725302 0.070938 -0.684766 1.000000
5.131300 23.564699 -725.989075 -0.644552 0.182189 0.742536 1.000000
6.243400 23.434999 -725.385071 -0.029723 0.994072 0.104581 1.000000
7.743300 23.128099 -723.887573 -0.043400 0.998204 0.041283 1.000000
8.854800 23.290199 -723.359497 -0.244468 0.969441 0.020473 1.000000
9.649200 23.384399 -722.415222 -0.005637 0.986530 0.163482 1.000000
5.355900 23.934299 -727.346130 -0.183341 0.978231 0.097208 1.000000
7.480500 23.325701 -725.324585 -0.153170 0.917617 0.366766 1.000000
6.431100 23.818300 -726.749023 -0.384921 0.662461 0.642636 1.000000
8.634800 23.542000 -725.008789 -0.241595 0.951533 0.190307 1.000000
7.652200 23.849400 -726.470886 -0.007969 0.984683 0.174169 1.000000
9.692800 23.597000 -724.341125 -0.081231 0.991940 0.097249 1.000000
10.566600 23.358700 -723.505615 0.465908 0.819682 0.333243 1.000000
6.079800 24.011299 -728.629517 -0.029840 0.993549 0.109412 1.000000
7.082900 24.100000 -727.865112 -0.080072 0.989874 0.117207 1.000000
8.907900 23.798401 -726.431396 -0.519561 0.389264 0.760612 1.000000
8.263900 24.118799 -727.530396 -0.566290 0.542624 0.620383 1.000000
9.927100 23.956600 -725.765686 -0.421015 0.811614 0.405006 1.000000
10.761400 23.865900 -724.886108 -0.174097 0.876335 0.449140 1.000000
11.624800 23.668600 -724.036926 -0.418075 0.792568 0.443902 1.000000
7.029900 23.957001 -729.640381 -0.514112 0.818541 -0.256279 1.000000
8.050900 24.226299 -728.968872 -0.684399 0.557225 0.470211 1.000000
12.741900 24.129900 -723.777771 -0.493797 0.778742 0.386943 1.000000
9.380600 24.340200 -727.984070 -0.050908 0.992146 0.114261 1.000000
10.240700 24.153799 -727.132324 0.048906 0.996601 0.066295 1.000000
11.039900 24.202299 -726.208618 -0.070173 0.990473 0.118489 1.000000
11.864100 24.153000 -725.315186 -0.164515 0.978431 0.124932 1.000000
8.036200 24.141701 -730.289673 -0.396181 0.867314 -0.301342 1.000000
9.221900 24.408600 -729.213318 -0.224169 0.968865 0.105119 1.000000
13.912100 24.500000 -723.901672 0.303931 0.200287 0.931403 1.000000
10.374500 24.617800 -728.801880 -0.647869 0.604343 0.463720 1.000000
11.198600 24.559099 -727.912781 -0.385740 0.720596 0.576148 1.000000
11.998500 24.588699 -726.997986 -0.674155 0.580476 0.456686 1.000000
12.798500 24.613300 -726.086182 -0.601922 0.681515 0.416205 1.000000
8.867800 24.187201 -731.447815 -0.902264 0.430596 0.022523 1.000000
9.608800 24.476500 -730.441589 -0.528725 0.748072 0.401045 1.000000
13.941000 24.980200 -725.270874 -0.722279 0.629392 0.286669 1.000000
15.022300 25.239100 -724.587891 -0.151960 0.878472 -0.452985 1.000000
10.810000 24.774500 -730.374878 -0.287432 0.953339 0.092343 1.000000
11.577800 24.925400 -729.416870 -0.424995 0.883813 0.195586 1.000000
12.394800 24.882601 -728.520386 -0.290814 0.936448 0.196195 1.000000
13.170200 24.989401 -727.580505 -0.445690 0.829960 0.335449 1.000000
13.939100 25.110901 -726.638916 -0.378816 0.884902 0.271011 1.000000
9.639200 24.658501 -732.590820 -0.533100 0.836894 -0.124147 1.000000
10.401400 24.850800 -731.611877 -0.229587 0.944470 0.235086 1.000000
15.127000 25.621599 -725.799194 -0.623658 0.779928 -0.052563 1.000000
16.201300 25.865900 -725.272217 0.845994 0.469657 0.252421 1.000000
10.744000 25.137600 -732.819214 -0.726136 0.396822 0.561479 1.000000
11.568400 25.070801 -731.924927 0.697680 0.354559 -0.622520 1.000000
12.335700 25.220699 -730.962585 -0.720002 0.477230 0.503835 1.000000
13.095600 25.387400 -729.998596 -0.722129 0.374983 0.581306 1.000000
13.868600 25.494699 -729.055786 -0.802268 0.393899 0.448563 1.000000
14.629800 25.636000 -728.105774 -0.784092 0.265554 0.560964 1.000000
16.193199 26.173599 -726.971680 0.414544 0.725040 -0.549973 1.000000
11.370000 25.221201 -733.900696 0.186371 0.703898 -0.685415 1.000000
12.674400 25.446100 -732.280579 0.409659 0.801647 -0.435363 1.000000
13.432000 25.622700 -731.311218 0.384608 0.815496 -0.432484 1.000000
14.200900 25.746500 -730.361816 0.473983 0.813222 -0.337654 1.000000
14.965500 25.876400 -729.413330 0.279258 0.877020 -0.390961 1.000000
17.282301 26.408800 -726.453674 0.509528 0.841245 -0.180800 1.000000
16.347099 26.311501 -728.313782 0.488158 0.704746 -0.514815 1.000000
12.522800 25.574100 -733.792175 -0.466172 0.876746 0.118325 1.000000
13.536600 25.761400 -733.091125 -0.218783 0.975653 0.015374 1.000000
14.282800 25.967600 -732.112488 -0.225024 0.974318 -0.008247 1.000000
15.037300 26.131001 -731.150879 -0.176425 0.959062 0.221526 1.000000
