ply
format ascii 1.0
element vertex 692
property float x
property float y
property float z
property float nx
property float ny
property float nz
property float label
element face 0
property list uchar int vertex_indices
end_header
59.791302 57.837101 -761.831482 0.343038 0.937111 -0.064402 0.000000
65.916496 59.068600 -760.631104 -0.091514 0.073437 -0.993092 0.000000
67.163002 58.459599 -761.530396 0.934613 0.097886 0.341932 0.000000
66.673103 59.184399 -760.929871 -0.148858 0.614981 -0.774364 0.000000
60.454601 57.939201 -762.343628 0.210787 0.943720 -0.254873 0.000000
67.885002 59.022202 -761.425415 -0.307280 0.788102 -0.533362 0.000000
61.514900 58.303600 -762.141479 0.278895 0.454553 0.845931 0.000000
67.428398 59.548401 -760.905212 -0.270565 0.296609 -0.915870 0.000000
68.329399 59.893002 -761.179504 -0.230863 0.565537 -0.791752 0.000000
59.658100 59.027401 -762.178528 0.052803 0.946584 -0.318104 0.000000
60.355598 58.768902 -762.577087 0.031759 0.321399 0.946411 0.000000
67.731400 60.437099 -760.875427 0.354374 0.369849 0.858854 0.000000
69.007698 59.936298 -761.642395 0.365353 0.908327 -0.203615 0.000000
61.172199 59.072300 -762.595276 0.029504 0.751640 0.658914 0.000000
59.688999 58.885799 -763.033325 0.165295 0.958710 -0.231413 0.000000
68.435699 60.896198 -760.942322 -0.207811 0.577252 -0.789680 0.000000
69.292900 60.930801 -760.955811 -0.096827 0.177721 -0.979306 0.000000
69.668800 60.505001 -761.554626 -0.330395 0.678693 -0.655907 0.000000
61.921902 59.237301 -762.939392 0.391478 0.459141 0.797455 0.000000
70.254402 61.107101 -761.304016 -0.129425 0.151612 -0.979930 0.000000
60.368099 59.421101 -763.062500 -0.221150 0.215723 0.951082 0.000000
71.070801 61.022400 -761.630371 -0.861914 0.480146 0.162985 0.000000
61.145000 59.820202 -763.008911 -0.054824 0.549642 0.833600 0.000000
62.493000 59.514702 -763.511414 0.688152 0.372818 0.622458 0.000000
59.507801 60.175201 -762.511780 0.133644 0.964052 -0.229660 0.000000
70.804100 61.714500 -761.215027 -0.219608 0.402368 -0.888748 0.000000
71.750504 61.480000 -761.594421 -0.343561 0.533891 -0.772610 0.000000
67.705002 61.697800 -761.267822 -0.292218 0.794516 0.532310 0.000000
61.876301 60.032799 -763.310425 0.256502 0.245289 0.934901 0.000000
71.510002 62.115601 -761.135803 -0.170930 0.318236 -0.932474 0.000000
59.861401 60.030300 -763.245422 0.111659 0.988472 -0.102256 0.000000
59.073200 59.948399 -763.541687 0.087980 0.921764 -0.377639 0.000000
72.649696 61.880100 -761.754089 -0.527479 0.801454 -0.281847 0.000000
63.429798 59.649101 -764.407288 0.506233 0.785866 -0.355166 0.000000
60.617599 60.331600 -763.516785 -0.429937 0.391578 0.813524 0.000000
64.718498 60.998501 -763.166077 -0.512750 0.815102 -0.269623 0.000000
72.003899 62.768200 -761.184875 -0.222166 0.476070 -0.850881 0.000000
73.359497 62.549301 -761.557678 -0.879784 0.112283 -0.461922 0.000000
61.386700 60.702900 -763.665771 -0.058770 0.675141 0.735344 0.000000
62.181702 60.823502 -763.546692 0.160166 0.299798 0.940462 0.000000
74.174004 62.849400 -761.751709 0.418025 0.303878 0.856103 0.000000
60.155399 61.182301 -763.517700 -0.648993 0.139391 -0.747916 0.000000
73.189003 63.339600 -761.289429 -0.271391 0.407844 -0.871786 0.000000
69.311302 62.934299 -761.757629 0.506709 0.764137 0.399176 0.000000
74.991302 63.144600 -761.774902 0.004159 0.694514 -0.719467 0.000000
74.480103 63.502602 -761.245972 -0.109304 0.820505 -0.561092 0.000000
63.079201 59.150501 -762.696716 -0.104571 0.858054 0.502800 0.000000
59.331200 56.763401 -760.880493 -0.142874 0.726400 -0.672258 0.000000
57.825100 54.211899 -759.593384 -0.259840 0.864615 -0.430028 0.000000
58.676998 55.180901 -757.395630 0.006946 0.707090 -0.707090 0.000000
62.230900 49.559601 -763.782227 -0.232390 0.762676 -0.603590 0.000000
58.703400 51.899200 -759.385681 0.408474 0.900921 -0.146595 0.000000
57.238201 51.027401 -758.134216 0.241037 0.502033 0.830580 0.000000
56.799900 48.426601 -756.120789 -0.678405 0.156322 -0.717865 0.000000
55.622299 47.629902 -756.276978 0.098109 0.907858 -0.407638 0.000000
56.308201 47.207100 -756.777100 0.515858 0.855128 -0.051447 0.000000
56.863201 46.753799 -757.200989 0.628317 0.644983 0.434989 0.000000
57.471802 46.781300 -756.631287 -0.067236 0.791096 -0.607985 0.000000
58.003101 46.238400 -757.118103 0.705444 0.708260 -0.026753 0.000000
55.980301 44.060799 -754.433777 -0.446363 0.164296 -0.879640 0.000000
57.181198 42.794998 -755.836670 -0.855022 0.313869 0.412823 0.000000
56.854301 41.631100 -755.212585 0.978248 0.145432 -0.147918 0.000000
55.233601 41.315300 -753.853088 0.268351 0.934310 0.234631 0.000000
56.544899 40.614498 -754.919495 0.712954 0.354030 -0.605277 0.000000
70.126701 36.438099 -762.018677 0.713265 0.315389 0.625926 0.000000
55.811501 40.896198 -754.270020 0.487967 0.805860 -0.335378 0.000000
59.759701 39.749001 -756.247314 0.371799 0.927542 0.037832 0.000000
42.794399 41.000801 -749.811218 0.244339 0.638434 0.729864 0.000000
56.128399 38.125198 -753.700684 0.855747 0.083453 0.510619 0.000000
59.261200 35.722099 -757.013000 0.103817 0.595119 -0.796904 0.000000
65.413902 34.847900 -758.898315 0.564955 0.241234 -0.789070 0.000000
44.666599 39.179798 -749.638428 0.159107 0.975940 -0.149085 0.000000
54.748100 37.265400 -752.974915 -0.088477 0.784692 -0.613539 0.000000
55.419300 37.026901 -753.375305 -0.088679 0.783573 -0.614938 0.000000
55.938301 36.624699 -752.854126 -0.293574 0.553824 0.779162 0.000000
48.664398 35.845200 -750.862671 -0.745393 0.271774 -0.608711 0.000000
49.239399 35.271000 -750.823914 0.023872 0.153466 -0.987866 0.000000
55.075802 34.928299 -752.136475 0.344621 0.793429 0.501704 0.000000
59.259998 33.756100 -753.976990 -0.029180 0.818426 -0.573871 0.000000
54.365898 33.821400 -751.287170 -0.091815 0.779699 -0.619387 0.000000
58.529202 31.695299 -753.898621 0.152674 0.933924 -0.323228 0.000000
58.212299 31.977301 -753.182922 0.160554 0.956692 -0.242822 0.000000
59.493599 31.495501 -753.987915 -0.094704 0.779487 -0.619218 0.000000
54.666302 31.945999 -750.945984 -0.677183 0.563483 0.473192 0.000000
58.643200 29.537100 -752.600891 0.500579 0.860770 -0.092175 0.000000
56.181301 29.185400 -749.475586 -0.110560 0.773920 -0.623558 0.000000
57.851601 27.034901 -751.089722 0.256042 0.905657 0.337976 0.000000
53.196499 27.705099 -749.106079 -0.491271 0.813519 0.311191 0.000000
55.075100 27.087299 -748.492371 -0.113520 0.771052 -0.626572 0.000000
52.880402 26.122700 -748.810791 -0.092213 0.712821 -0.695257 0.000000
54.673000 26.286600 -748.250488 -0.046986 0.693395 0.719024 0.000000
55.229301 25.634899 -748.359497 0.650798 0.223175 0.725710 0.000000
52.743900 25.254601 -748.583984 -0.241258 0.134322 -0.961120 0.000000
54.602200 25.231600 -747.883301 0.404124 0.181059 0.896605 0.000000
56.082802 23.744200 -749.995728 -0.116644 0.772214 -0.624563 0.000000
52.370201 24.268200 -748.000305 -0.043850 0.958443 0.281895 0.000000
55.118801 24.609400 -748.111206 0.704562 0.055963 0.707432 0.000000
51.957802 22.914499 -747.639282 0.220015 0.700616 0.678771 0.000000
56.097900 22.209801 -748.943909 -0.267763 0.908638 -0.320438 0.000000
54.411098 22.563801 -747.153870 -0.123252 0.770696 -0.625169 0.000000
53.865398 21.740299 -746.582886 -0.126229 0.767767 -0.628173 0.000000
55.778099 19.632000 -748.703674 -0.067279 0.797328 -0.599785 0.000000
54.160500 20.851999 -746.591797 0.692791 0.104879 0.713471 0.000000
51.104900 19.388000 -746.402100 -0.119938 0.427542 -0.896004 0.000000
53.668301 19.415300 -746.031372 -0.505070 0.077378 -0.859603 0.000000
50.767200 18.626200 -746.145630 -0.226537 0.945962 -0.232028 0.000000
54.127701 18.797701 -746.626709 -0.949714 0.117886 -0.290080 0.000000
54.439499 17.834299 -747.756714 0.410261 0.825274 -0.388085 0.000000
51.435699 18.267000 -745.742004 -0.017742 0.539085 0.842064 0.000000
50.396900 17.146000 -744.942627 0.074620 0.513889 -0.854605 0.000000
52.765099 17.081301 -745.130371 0.502641 0.042690 0.863441 0.000000
54.911400 15.139000 -747.351379 0.238973 0.847822 -0.473380 0.000000
55.516201 14.833800 -747.853210 0.143857 0.935758 -0.321966 0.000000
52.679699 16.185600 -744.851379 -0.425030 0.182573 -0.886576 0.000000
52.049400 15.485600 -744.480774 0.445815 0.117469 0.887384 0.000000
49.438099 14.332200 -744.632690 -0.824619 0.006815 0.565648 0.000000
49.181400 13.557400 -744.702087 -0.155472 0.902876 -0.400803 0.000000
49.996700 13.822000 -744.293884 -0.525665 0.404484 0.748377 0.000000
53.824699 10.322700 -747.544800 -0.034312 0.855044 -0.517419 0.000000
48.717999 11.709000 -743.654785 0.080550 0.982230 -0.169516 0.000000
47.504299 8.714300 -743.071594 0.610041 0.452935 -0.650154 0.000000
50.397301 7.489000 -744.265076 -0.303526 0.595811 -0.743560 0.000000
50.801899 7.086700 -744.843384 -0.319224 0.550220 -0.771592 0.000000
47.987701 8.252300 -742.568787 -0.265686 0.825025 0.498744 0.000000
44.659000 8.390900 -741.327209 -0.158787 0.754618 -0.636662 0.000000
45.228699 8.072400 -741.846985 0.224838 0.855591 -0.466274 0.000000
45.849602 7.458100 -742.730896 -0.191380 0.867885 -0.458421 0.000000
51.618401 7.308700 -744.049622 0.077822 0.960651 -0.266635 0.000000
46.078899 7.662200 -741.980591 0.569803 0.818288 -0.075688 0.000000
48.298401 9.152200 -740.480103 0.200581 0.972627 -0.117321 0.000000
50.193699 6.413800 -743.853210 -0.897817 0.243251 -0.367088 0.000000
50.964001 6.140000 -743.997314 -0.162416 0.754401 -0.636004 0.000000
46.596298 6.811300 -741.798584 0.413787 0.733606 0.539077 0.000000
47.095299 6.238600 -742.176575 -0.152612 0.985472 -0.074531 0.000000
50.790699 4.539800 -745.139587 0.134868 0.978718 -0.154665 0.000000
51.626499 4.475300 -745.430481 -0.355275 0.556435 -0.751106 0.000000
46.969501 5.384700 -741.976929 0.957704 0.176664 -0.227139 0.000000
46.083900 4.619800 -741.792419 0.656870 0.352187 0.666698 0.000000
44.498501 4.783000 -740.804382 0.214495 0.914122 -0.344055 0.000000
45.113201 4.513500 -741.287109 0.146292 0.936545 -0.318562 0.000000
45.395100 4.036400 -741.927124 0.104943 0.896916 -0.429568 0.000000
45.581001 3.687300 -741.131226 0.091051 0.960519 -0.262892 0.000000
49.385601 2.340700 -743.471008 0.246227 0.600668 -0.760638 0.000000
46.167000 2.901700 -741.350525 0.248719 0.928078 -0.277144 0.000000
47.847198 0.706000 -744.104187 -0.565692 0.252289 -0.785075 0.000000
44.843201 2.471100 -740.654602 0.517808 0.835998 -0.181608 0.000000
45.398499 1.850200 -741.330383 -0.530022 0.746625 -0.402029 0.000000
50.546902 3.113900 -741.120300 0.750295 0.058819 -0.658481 0.000000
45.926701 2.650100 -739.828674 -0.398411 0.489476 -0.775681 0.000000
50.165798 -0.473300 -743.999573 -0.206053 0.630552 -0.748296 0.000000
45.453800 0.779200 -740.905823 0.933947 0.194049 -0.300147 0.000000
48.239700 -0.718200 -742.261902 -0.871738 0.280472 -0.401757 0.000000
48.563801 -1.364100 -742.644409 0.547386 0.812694 -0.199743 0.000000
45.032501 -0.356800 -740.184875 0.599667 0.797171 0.070128 0.000000
48.400902 -0.927200 -741.389099 -0.098613 0.690289 0.716782 0.000000
46.615299 -2.311800 -742.395813 0.397181 0.802401 -0.445421 0.000000
48.473701 -1.390000 -740.018127 0.539887 0.486400 0.686977 0.000000
44.163200 -0.919600 -740.025513 -0.202534 0.752933 -0.626156 0.000000
46.785099 -1.504400 -742.200928 0.285999 0.171052 0.942839 0.000000
46.049500 -1.126800 -742.086182 0.476068 0.686540 -0.549566 0.000000
44.062801 -0.271200 -738.755005 0.131407 0.938818 -0.318358 0.000000
47.587002 -1.031200 -742.778625 -0.417169 0.757448 -0.502238 0.000000
46.837101 -0.692900 -742.327515 -0.350147 0.006320 -0.936674 0.000000
47.076599 -0.446300 -743.158508 0.168261 0.942536 -0.288643 0.000000
45.941299 -0.249600 -742.244324 0.011503 0.369382 -0.929206 0.000000
46.778099 0.118200 -742.421509 0.575510 0.382033 0.723076 0.000000
45.553501 1.000400 -739.247925 0.503831 0.861926 0.056907 0.000000
47.388302 0.673300 -743.159912 0.476752 0.833928 -0.277976 0.000000
46.798901 0.927700 -742.613403 -0.387480 0.057256 -0.920098 0.000000
45.930199 1.587000 -740.778320 -0.822012 0.548503 -0.153105 0.000000
47.668900 1.556000 -743.620728 0.824810 0.506028 -0.252240 0.000000
47.367401 1.928800 -742.926880 -0.177114 0.227719 -0.957484 0.000000
48.079102 2.450200 -743.208130 -0.019436 0.382241 -0.923858 0.000000
47.529099 3.159100 -743.084717 -0.200404 0.197749 0.959549 0.000000
45.479500 4.243200 -738.889587 0.485961 0.868496 0.097759 0.000000
48.947899 3.286300 -743.541809 0.416916 0.596307 -0.686002 0.000000
48.245399 3.662600 -743.395020 0.444389 0.738446 0.507165 0.000000
47.866001 4.472500 -743.523621 0.182032 0.466179 0.865761 0.000000
48.930599 4.342800 -743.784119 0.571454 0.808941 0.138039 0.000000
47.516800 4.750500 -740.197693 0.515128 0.853843 0.074799 0.000000
48.783501 5.207400 -743.798828 0.292920 0.543089 0.786925 0.000000
49.220600 5.911500 -743.830383 -0.063941 0.332753 0.940844 0.000000
46.821800 7.304300 -740.768127 0.652879 0.348529 0.672515 0.000000
51.598000 5.870700 -747.060791 0.097323 0.809085 -0.579578 0.000000
49.533401 6.741800 -744.302612 -0.088377 0.472747 0.876755 0.000000
51.210701 6.289800 -746.473999 0.097836 0.910843 -0.400991 0.000000
50.617802 6.630300 -745.930420 0.473294 0.879754 -0.045011 0.000000
48.599300 7.586000 -744.204712 0.380892 0.281529 0.880718 0.000000
48.399300 7.745500 -740.691895 -0.750730 0.654145 0.092195 0.000000
49.520302 7.756800 -744.460327 0.227097 0.376542 -0.898133 0.000000
49.918098 8.009100 -745.224426 -0.407290 0.909203 0.086395 0.000000
52.340199 7.076600 -747.783081 0.171052 0.942839 -0.285999 0.000000
51.841202 7.354500 -747.164978 0.095156 0.952868 -0.288076 0.000000
51.351898 7.568200 -746.518616 0.192660 0.952520 -0.235772 0.000000
51.069698 7.740200 -745.753784 0.248404 0.968656 0.001189 0.000000
48.497200 8.946800 -743.190002 0.960052 0.020897 0.279042 0.000000
50.756401 8.149200 -744.889526 -0.087995 0.572689 -0.815036 0.000000
50.308998 8.830200 -744.921082 0.081950 0.369447 -0.925631 0.000000
49.600101 9.217100 -744.791382 -0.795649 0.567881 0.210839 0.000000
50.631699 9.563300 -745.333801 -0.131555 0.366969 -0.920884 0.000000
49.954201 10.203900 -745.100830 -0.220482 0.677083 0.702102 0.000000
51.234299 9.947200 -745.787903 0.525707 0.814147 -0.246570 0.000000
50.906200 10.291100 -745.092590 -0.322589 0.711640 0.624103 0.000000
49.614601 11.508600 -742.436707 0.505039 0.861210 0.057043 0.000000
51.118500 11.758000 -745.602905 -0.111293 0.234100 -0.965822 0.000000
51.850300 12.543200 -745.975708 0.075248 0.336637 0.938623 0.000000
52.327000 14.673900 -746.517273 0.252784 0.467267 0.847208 0.000000
51.141899 15.211300 -743.270508 0.663570 0.689277 0.290814 0.000000
50.869900 16.086201 -743.462585 -0.792708 0.466584 -0.392318 0.000000
54.684601 15.211700 -750.144104 0.485257 0.871225 0.074117 0.000000
54.018299 15.478300 -748.929382 0.485257 0.871225 0.074117 0.000000
53.475201 15.731200 -748.352783 0.485154 0.871041 0.076898 0.000000
49.820499 17.821600 -745.555481 -0.095486 0.721283 0.686027 0.000000
52.153900 17.178600 -747.319214 0.265901 0.958539 -0.102469 0.000000
52.883301 17.487801 -747.680420 0.561479 0.726136 0.396822 0.000000
53.414501 18.120501 -748.613525 0.367335 0.857115 -0.361135 0.000000
51.863300 19.362801 -746.787720 -0.887070 0.276742 0.369488 0.000000
54.418999 18.387199 -749.197571 0.484175 0.872073 0.071161 0.000000
51.780602 20.113899 -744.989502 0.145179 0.852010 -0.502994 0.000000
51.091499 20.462400 -744.581787 0.120618 0.936480 -0.329327 0.000000
52.061600 20.154600 -746.714600 -0.469946 0.882646 0.009319 0.000000
50.595798 20.786501 -744.005310 0.412846 0.896178 -0.162549 0.000000
50.303501 21.032101 -743.281311 0.482999 0.872739 0.070988 0.000000
52.227200 20.519899 -747.478516 -0.941324 0.217016 -0.258484 0.000000
54.098900 20.487301 -748.817322 0.305695 0.245417 0.919957 0.000000
52.751701 21.201099 -748.349426 -0.337120 0.623753 -0.705183 0.000000
52.374699 21.351900 -747.595093 -0.973737 0.168410 -0.153215 0.000000
54.389198 21.348499 -749.450195 0.302875 0.248329 0.920108 0.000000
53.315300 21.896400 -748.822693 0.633430 0.079722 0.769682 0.000000
52.769402 22.155100 -748.252380 -0.596657 0.660167 -0.456267 0.000000
52.338902 22.628300 -745.429626 -0.130789 0.904272 -0.406430 0.000000
53.169201 22.701700 -748.890320 0.683195 0.111149 0.721727 0.000000
52.769100 22.826900 -747.630005 -0.945368 0.325946 -0.006244 0.000000
54.405701 22.737600 -749.931519 0.398498 0.626684 -0.669676 0.000000
52.945801 23.441799 -748.551575 0.903911 0.142872 0.403153 0.000000
53.224602 24.176300 -749.058472 -0.828877 0.006805 -0.559390 0.000000
54.844101 23.567801 -749.890991 0.522272 0.363812 0.771280 0.000000
53.338501 24.999500 -749.198792 -0.554988 0.755625 -0.347879 0.000000
55.117100 24.328899 -749.999878 0.057877 0.407829 0.911222 0.000000
53.627300 25.881500 -749.521484 0.891379 0.050353 0.450453 0.000000
53.984001 26.753799 -750.201416 -0.547492 0.457630 -0.700590 0.000000
53.619400 26.900999 -749.432922 -0.834349 0.497548 -0.237292 0.000000
54.033501 27.565399 -750.265076 -0.738720 0.451164 -0.500743 0.000000
55.278500 27.464500 -751.129272 -0.192250 0.184403 0.963865 0.000000
53.745201 28.227900 -749.784790 0.411494 0.911070 0.024979 0.000000
54.166599 28.341700 -750.594727 0.846837 0.083972 0.525181 0.000000
54.467899 29.008801 -750.976318 -0.749527 0.085868 -0.656381 0.000000
53.958599 29.246700 -750.351685 -0.329256 0.147408 -0.932664 0.000000
51.262001 31.114901 -750.019409 0.341272 0.918149 -0.201336 0.000000
56.910900 27.449301 -751.312988 -0.428604 0.340685 -0.836799 0.000000
53.107399 29.383600 -750.530273 0.375404 0.881974 -0.284945 0.000000
54.396000 29.817400 -750.854187 -0.891947 0.111317 -0.438223 0.000000
50.430401 32.305000 -750.637695 0.813150 0.557631 0.166838 0.000000
51.711700 31.647900 -750.761719 0.835283 0.507840 0.210716 0.000000
54.873901 30.161699 -751.481018 -0.829864 0.040447 -0.556497 0.000000
53.943100 30.556999 -749.606018 0.095740 0.963780 0.248923 0.000000
49.602100 33.006500 -750.574829 -0.500920 0.688556 0.524375 0.000000
52.856800 31.360201 -750.923401 -0.676993 0.603804 -0.420833 0.000000
54.630798 30.650400 -750.830994 -0.993920 0.038782 -0.103049 0.000000
52.355900 32.063202 -750.438782 0.031956 0.573822 -0.818356 0.000000
49.462502 33.877899 -750.622681 0.199743 0.896655 -0.395111 0.000000
55.014801 31.070999 -751.673584 -0.912590 0.126787 -0.388722 0.000000
51.316502 33.260101 -750.516174 0.483171 0.411590 0.772748 0.000000
48.729801 34.685101 -750.524719 0.683123 0.469334 0.559526 0.000000
56.678398 30.580000 -753.081482 -0.568722 0.615975 -0.545096 0.000000
46.274300 36.650200 -750.224182 0.645461 0.732559 0.216190 0.000000
55.208500 31.991100 -751.771790 -0.884434 0.332981 -0.326954 0.000000
50.289501 34.644699 -750.664795 0.710139 0.646306 -0.279268 0.000000
55.757599 32.110802 -752.755920 0.770748 0.119828 0.625770 0.000000
57.138802 31.709200 -753.218079 -0.651809 0.604892 0.457439 0.000000
55.356998 32.960899 -752.156128 0.964572 0.033176 0.261725 0.000000
48.784199 36.505402 -750.384216 0.568495 0.445127 -0.691864 0.000000
44.085201 39.545101 -750.080872 0.424057 0.653547 -0.626939 0.000000
43.417999 40.006302 -750.468079 0.517259 0.855828 0.001344 0.000000
55.906700 32.886398 -753.069580 0.614847 0.209079 0.760427 0.000000
48.233200 37.095001 -750.202271 0.001162 0.977134 0.212622 0.000000
55.243900 32.802399 -751.345581 -0.948558 0.316186 0.016247 0.000000
47.645802 37.899300 -750.472229 -0.129998 0.387200 0.912785 0.000000
43.719601 40.122700 -749.515076 0.837491 0.447597 0.313474 0.000000
46.840801 38.650101 -751.144226 0.857541 0.341471 0.384735 0.000000
58.155499 32.546101 -754.242920 0.003807 0.930297 -0.366788 0.000000
41.612202 42.022800 -750.266724 -0.028871 0.169759 -0.985063 0.000000
41.345600 42.583302 -749.709229 0.061112 0.903097 -0.425067 0.000000
56.106499 34.857399 -753.685913 0.765786 0.073550 0.638876 0.000000
55.809799 35.017700 -752.876221 -0.997599 0.024435 -0.064807 0.000000
44.298599 41.419399 -750.636230 0.262336 0.133145 0.955747 0.000000
40.797100 42.598801 -750.453979 0.613401 0.761729 -0.208587 0.000000
42.089298 41.295101 -750.179626 0.539815 0.768632 0.343226 0.000000
56.087502 35.690899 -753.543091 -0.947352 0.087791 -0.307922 0.000000
56.220699 36.489899 -753.836426 0.970152 0.020437 0.241636 0.000000
56.803799 36.363998 -754.606201 -0.287217 0.041389 -0.956971 0.000000
56.944302 36.408501 -751.529114 0.815194 0.032050 -0.578300 0.000000
56.349800 37.295399 -754.276306 -0.972723 0.164028 -0.164028 0.000000
57.103500 38.103100 -752.317383 -0.838940 0.499116 -0.216941 0.000000
56.721298 38.851700 -754.515503 -0.938526 0.262787 -0.223856 0.000000
56.853901 39.676601 -754.914917 -0.835348 0.549100 0.026148 0.000000
55.217800 41.186298 -751.487976 0.395774 0.509784 -0.763861 0.000000
57.683399 40.408798 -753.291382 0.339036 0.916970 -0.210288 0.000000
57.556301 41.132599 -752.297974 -0.471274 0.739156 -0.481196 0.000000
59.234600 41.369499 -757.613586 0.060442 0.997820 0.026510 0.000000
59.623402 41.304100 -758.330872 0.074531 0.985472 -0.152612 0.000000
58.781200 41.895302 -757.164124 0.214947 0.193586 0.957247 0.000000
57.537399 42.027000 -755.969116 0.986597 0.108039 0.122286 0.000000
60.494598 41.298500 -760.025574 -0.839321 0.478952 -0.257186 0.000000
60.079102 41.639400 -759.142883 0.815662 0.576176 0.052123 0.000000
57.787800 43.274502 -756.304199 -0.642394 0.743583 -0.185512 0.000000
67.986504 36.695202 -760.139893 -0.858367 0.468881 -0.208225 0.000000
66.879501 35.374802 -758.769897 -0.453645 0.803096 -0.386320 0.000000
57.666302 40.929100 -756.331116 -0.558750 0.012295 -0.829245 0.000000
57.891102 43.946098 -756.857971 -0.976541 0.001164 -0.215328 0.000000
59.500999 43.183800 -758.423828 -0.086513 0.907704 -0.410595 0.000000
60.911400 42.326099 -760.637512 0.624729 0.780563 0.020871 0.000000
58.116199 44.862202 -756.935181 -0.985237 0.167872 0.033574 0.000000
62.364101 42.367100 -761.210022 -0.237990 0.891354 -0.385810 0.000000
58.396999 46.097099 -757.880981 -0.936545 0.146292 -0.318562 0.000000
58.904900 46.574001 -758.584900 0.650376 0.186041 0.736478 0.000000
58.558701 46.901402 -757.798828 -0.977931 0.204683 0.041894 0.000000
58.800999 47.402401 -758.647217 0.869343 0.252487 0.424844 0.000000
59.751099 47.034000 -759.091614 0.425169 0.557517 0.713026 0.000000
61.143101 46.264400 -760.130188 -0.247743 0.667486 -0.702201 0.000000
59.987900 46.923901 -759.915710 -0.420914 0.830793 -0.364162 0.000000
58.876099 48.052502 -758.167786 -0.929881 0.360512 0.073167 0.000000
59.434101 47.806801 -759.231628 0.585476 0.422936 0.691624 0.000000
59.015999 48.432800 -758.900574 -0.867414 0.274959 -0.414718 0.000000
62.263901 46.542702 -762.026611 0.466469 0.870059 -0.159389 0.000000
62.039902 46.805302 -761.249695 0.466469 0.870059 -0.159389 0.000000
62.582001 47.151600 -760.100830 0.355482 0.509900 -0.783348 0.000000
59.419498 48.970901 -759.403320 -0.386053 0.476509 -0.789875 0.000000
59.162498 49.246399 -758.653381 -0.881749 0.451627 0.136205 0.000000
57.554001 50.774700 -755.023804 0.466469 0.870059 -0.159389 0.000000
57.087799 51.133301 -754.430298 0.466469 0.870059 -0.159389 0.000000
59.328400 49.793400 -759.317627 0.907586 0.049602 0.416926 0.000000
61.458401 48.687698 -760.974182 -0.488835 0.379129 -0.785685 0.000000
59.905201 50.225201 -760.133118 0.796404 0.141417 0.587999 0.000000
59.430801 50.587502 -759.542419 -0.961144 0.061887 -0.269019 0.000000
59.787800 50.819901 -757.273926 0.294212 0.930500 -0.218196 0.000000
59.278999 51.211102 -756.625671 0.084281 0.832807 -0.547110 0.000000
61.518101 49.183998 -763.986328 0.350249 0.912378 -0.211879 0.000000
60.959900 49.962299 -761.383972 0.015692 0.966893 -0.254700 0.000000
62.095798 49.620800 -762.942810 0.201909 0.943615 -0.262344 0.000000
61.238300 50.160000 -762.491089 0.497755 0.857647 -0.129155 0.000000
60.145000 51.125401 -760.441223 0.725520 0.064907 0.685133 0.000000
59.660599 51.494400 -759.844177 -0.959556 0.213088 -0.183970 0.000000
60.015202 51.673698 -757.898071 0.460257 0.872297 -0.165108 0.000000
62.679699 50.507900 -762.023376 -0.365068 0.607356 -0.705581 0.000000
62.252499 50.870602 -761.294617 -0.716748 0.009742 -0.697264 0.000000
60.108101 52.131802 -760.597595 0.460257 0.872297 -0.165108 0.000000
60.850601 52.220699 -758.057129 0.462777 0.871538 -0.162045 0.000000
60.290501 52.619900 -757.506104 0.460257 0.872297 -0.165108 0.000000
59.904701 53.381901 -757.247620 0.460257 0.872297 -0.165108 0.000000
60.383701 53.512699 -761.149780 -0.609742 0.091680 -0.787280 0.000000
61.964401 52.338902 -764.808472 0.399821 0.899235 -0.177538 0.000000
60.812000 54.220402 -758.001099 -0.074431 0.916175 -0.393806 0.000000
64.072304 51.341499 -764.933777 0.647576 0.747203 0.149441 0.000000
62.475700 52.074902 -765.463684 -0.120480 0.982096 -0.144820 0.000000
60.222900 54.290699 -760.859985 -0.911251 0.227451 0.343349 0.000000
60.958199 54.261101 -758.966492 0.457000 0.874577 -0.162067 0.000000
60.654499 54.209400 -761.592285 0.570084 0.137709 0.809963 0.000000
60.119598 54.927700 -759.236816 0.254437 0.928199 -0.271495 0.000000
59.967098 55.164799 -758.392578 -0.259772 0.892132 -0.369619 0.000000
60.800301 53.858501 -763.665771 0.455583 0.838086 0.300094 0.000000
60.414600 54.981800 -761.358215 -0.895112 0.162356 -0.415229 0.000000
63.794201 52.903999 -765.322083 0.452133 0.882872 -0.126940 0.000000
63.397800 53.232300 -764.660706 0.221036 0.897317 -0.382055 0.000000
63.015900 53.596802 -763.763306 -0.215514 0.878404 -0.426568 0.000000
62.658100 54.010899 -762.533081 0.147658 0.912667 -0.381098 0.000000
61.929100 55.005501 -759.214111 0.717974 0.681849 -0.139982 0.000000
61.788898 54.697102 -763.003906 0.683504 0.553154 0.476280 0.000000
60.823002 55.366001 -762.092285 -0.658345 0.126892 -0.741944 0.000000
60.742500 56.545700 -757.626770 0.721750 0.676546 -0.146158 0.000000
63.323601 54.519699 -763.446411 0.425030 0.886576 -0.182573 0.000000
60.658901 56.161201 -761.997620 0.447507 0.878980 -0.164718 0.000000
60.604000 57.117901 -757.021912 -0.600618 0.450045 -0.660847 0.000000
60.912701 56.757599 -762.696411 0.601684 0.188313 0.776218 0.000000
60.053101 58.392200 -758.779785 0.450986 0.877161 -0.164924 0.000000
62.268200 56.280499 -765.231995 -0.216282 0.928742 -0.301099 0.000000
59.773800 58.913700 -758.106018 -0.551867 0.435859 -0.710964 0.000000
63.404301 55.545101 -767.609619 0.450767 0.876735 -0.167761 0.000000
60.959999 57.655701 -763.104614 0.808590 0.338369 0.481341 0.000000
60.935200 58.526402 -761.608582 0.086043 0.716055 -0.692721 0.000000
61.025501 58.432800 -763.718628 0.292900 0.383957 0.875664 0.000000
60.922901 59.030800 -760.833679 -0.078190 0.936955 -0.340590 0.000000
60.854900 59.184299 -764.005371 0.664624 0.126951 0.736314 0.000000
61.358898 59.612900 -762.001099 0.011695 0.913481 -0.406713 0.000000
61.863300 58.157501 -765.758911 0.460443 0.887520 -0.017350 0.000000
61.438099 55.713902 -764.264282 0.446055 0.866578 -0.223778 0.000000
62.816200 52.123299 -763.216309 0.334703 0.859123 -0.387145 0.000000
61.828201 52.803799 -762.294006 0.363996 0.880537 -0.303581 0.000000
60.294102 51.926800 -762.460693 0.688540 0.718027 0.101733 0.000000
59.630299 52.448299 -757.055786 0.297741 0.929913 -0.215898 0.000000
61.981201 49.775501 -762.038208 0.457395 0.875585 -0.155369 0.000000
60.554401 51.346100 -757.376709 0.457395 0.875585 -0.155369 0.000000
59.170399 51.742199 -756.007080 -0.748096 0.247266 -0.615801 0.000000
61.658600 46.389599 -764.101379 0.463348 0.872954 -0.152513 0.000000
61.481499 46.975399 -759.809570 -0.411062 0.911599 0.003890 0.000000
60.746799 46.821301 -760.597473 0.078720 0.953674 -0.290361 0.000000
59.658699 46.854801 -760.689209 0.175633 0.960040 -0.217891 0.000000
58.234001 47.004398 -760.264771 0.114118 0.941135 -0.318187 0.000000
58.723701 44.860500 -753.893616 -0.778622 0.623185 -0.073401 0.000000
58.747002 37.160999 -756.327881 0.126384 0.960258 -0.248859 0.000000
56.277401 34.498199 -750.628601 0.610361 0.769452 0.188156 0.000000
55.843399 34.245602 -753.218872 0.963358 0.098511 0.249475 0.000000
45.188900 40.478401 -750.577515 0.781478 0.594902 -0.188105 0.000000
55.671600 34.351101 -752.391113 0.992817 0.100753 -0.064527 0.000000
57.499699 32.692600 -754.748474 0.490534 0.866564 -0.091887 0.000000
50.032299 35.457699 -750.602905 0.816259 0.012347 0.577554 0.000000
53.175800 30.118900 -748.715881 0.427409 0.424183 0.798367 0.000000
54.030300 26.150499 -747.609375 0.433755 0.894181 -0.110895 0.000000
53.311401 24.624201 -748.365784 0.908185 0.395659 -0.136580 0.000000
53.023602 23.741301 -747.753479 -0.798436 0.588865 -0.125447 0.000000
53.414200 23.631500 -746.346985 -0.335870 0.939118 0.072443 0.000000
52.945999 23.122801 -745.070984 0.471658 0.865440 -0.168974 0.000000
53.201401 22.780100 -746.027527 0.266763 0.937163 -0.224863 0.000000
53.772900 20.518200 -749.689575 0.797443 0.551837 -0.244052 0.000000
52.932701 21.392099 -745.508423 0.783320 0.445990 -0.433016 0.000000
54.261398 19.590799 -748.814819 -0.236912 0.375233 -0.896144 0.000000
52.454300 20.772900 -745.205994 -0.334880 0.296182 -0.894501 0.000000
52.799099 20.076200 -748.115112 -0.416886 0.194547 -0.887895 0.000000
51.103001 16.742001 -745.751221 0.198787 0.979987 -0.010462 0.000000
53.520000 14.746600 -746.991821 0.904381 0.420038 -0.075251 0.000000
50.659599 16.548800 -742.555420 0.556846 0.830480 -0.015050 0.000000
50.118401 16.927999 -741.953125 0.523755 0.849522 -0.063188 0.000000
51.535000 15.276800 -746.557007 -0.543589 0.176177 -0.820654 0.000000
52.938400 12.143700 -747.712708 0.194226 0.932005 -0.306011 0.000000
52.202900 12.425500 -747.415283 0.527904 0.847167 -0.060212 0.000000
50.088799 12.921600 -743.924622 -0.057175 0.384269 -0.921449 0.000000
50.320801 12.880200 -742.405396 0.880069 0.022841 0.474297 0.000000
51.843498 11.528700 -746.233887 0.232866 0.938434 -0.255176 0.000000
49.668499 12.028800 -744.169617 -0.788396 0.596177 0.151672 0.000000
49.142101 12.234500 -742.055176 0.528916 0.847102 -0.051636 0.000000
50.586201 10.235500 -746.285706 0.716027 0.615361 0.329600 0.000000
49.875301 9.612200 -741.603577 0.572533 0.809240 0.131668 0.000000
49.127102 9.822300 -741.231384 0.405680 0.903239 -0.139938 0.000000
49.657600 8.783800 -738.989380 -0.176303 0.904451 -0.388441 0.000000
47.530998 9.586400 -739.791016 0.517255 0.855822 -0.004031 0.000000
51.388500 5.102000 -748.053284 0.827118 0.462998 0.318605 0.000000
49.454800 6.251000 -746.104370 -0.194221 0.968533 -0.155634 0.000000
48.201698 6.959900 -741.098022 0.345348 0.934707 0.084004 0.000000
48.862598 6.337400 -744.548401 -0.363898 0.844930 -0.392010 0.000000
48.391998 5.951600 -743.925598 0.348077 0.787584 -0.508481 0.000000
47.600399 5.556800 -740.278076 0.518010 0.855192 0.017675 0.000000
47.256302 4.881000 -739.404724 0.515959 0.856301 0.023143 0.000000
46.599098 5.263800 -738.932007 0.515959 0.856301 0.023143 0.000000
46.916500 4.518800 -741.979187 -0.847464 0.484913 -0.216020 0.000000
48.304699 0.436700 -743.439575 0.134079 0.901856 -0.410704 0.000000
45.215302 1.495400 -738.413818 -0.386821 0.483931 -0.784972 0.000000
45.528301 -0.242600 -738.994873 0.262905 0.955177 -0.136076 0.000000
45.535301 -1.130000 -738.510986 0.454996 0.883061 0.114812 0.000000
45.944401 -2.580300 -741.955688 -0.289200 0.309752 -0.905769 0.000000
44.845001 -2.156900 -740.228577 0.114504 0.991993 -0.053284 0.000000
44.885101 -2.738700 -742.185181 -0.042580 0.940625 0.336767 0.000000
110.874100 69.180801 -763.711670 -0.730254 0.006928 0.683141 0.000000
110.854103 69.552597 -762.890625 0.674830 0.381139 0.631931 0.000000
110.028297 69.501701 -762.995789 -0.507498 0.833637 0.217934 0.000000
109.478203 69.951500 -763.410706 -0.330442 0.285988 0.899455 0.000000
106.745903 70.240097 -763.686218 -0.462622 0.693098 0.552808 0.000000
105.065804 70.396896 -763.019897 -0.485539 0.807109 0.335897 0.000000
99.117203 71.135498 -766.069580 -0.488648 0.863422 -0.125405 0.000000
101.789001 71.222702 -763.040588 -0.642840 0.079811 0.761831 0.000000
99.499199 71.846001 -765.260986 -0.648785 0.428632 0.628771 0.000000
100.285301 71.095703 -763.286316 0.166075 0.862710 -0.477650 0.000000
98.766899 71.195297 -763.727722 0.374237 0.852514 -0.364920 0.000000
99.500999 71.448402 -762.991577 0.729835 0.666371 -0.152616 0.000000
98.684196 71.040604 -765.068970 0.581118 0.793537 -0.180556 0.000000
103.216698 71.419998 -762.843506 -0.156988 0.566653 -0.808863 0.000000
103.961601 70.866699 -763.078125 0.300989 0.339923 -0.890987 0.000000
102.794403 70.667801 -764.087830 -0.624226 0.614131 0.482892 0.000000
99.584396 71.201302 -767.647827 -0.615180 0.733422 -0.289214 0.000000
108.572601 69.854599 -762.967285 -0.602356 0.797029 0.043731 0.000000
39.923801 45.651100 -749.215027 -0.250122 0.842434 -0.477226 1.000000
40.036701 45.105900 -749.937683 0.039683 0.488510 -0.871655 1.000000
39.184299 46.481701 -749.011780 -0.704761 0.572100 0.419540 1.000000
39.345600 46.007401 -749.735596 0.757603 0.386133 -0.526249 1.000000
39.755501 44.634602 -750.629028 0.572376 0.791453 -0.214448 1.000000
38.247299 47.618198 -748.304993 0.657280 0.627328 -0.417664 1.000000
38.540401 47.106800 -748.923096 0.955170 0.166988 -0.244470 1.000000
37.692402 48.555000 -747.918884 0.178918 0.828435 -0.530739 1.000000
38.453300 46.491001 -749.530029 0.151390 0.442636 -0.883830 1.000000
37.140301 49.190498 -747.351318 0.614948 0.706293 -0.350700 1.000000
37.427299 48.198601 -748.639221 0.441257 0.881057 -0.170386 1.000000
37.641201 47.452202 -749.091797 0.951352 0.308045 -0.006186 1.000000
36.411499 49.890400 -747.171814 0.373799 0.680084 -0.630683 1.000000
36.856899 49.009300 -748.093872 0.148135 0.173457 -0.973637 1.000000
37.658901 46.903702 -749.767273 0.276042 0.901935 -0.332136 1.000000
35.686901 50.494999 -746.971802 0.924622 0.125396 0.359652 1.000000
36.115898 49.523201 -747.854980 -0.267301 0.909992 -0.316963 1.000000
36.529598 48.456402 -748.709717 -0.032366 0.221764 -0.974563 1.000000
36.772900 47.767899 -749.213928 0.295904 0.911033 -0.287158 1.000000
37.269699 46.276600 -750.245422 0.510287 0.621439 -0.594493 1.000000
37.567101 45.754002 -750.853882 0.899897 0.309849 0.306884 1.000000
36.791199 47.199799 -749.860107 0.347196 0.924461 -0.157563 1.000000
37.659901 45.388599 -751.637207 0.293513 0.855952 -0.425671 1.000000
35.503899 50.033298 -747.640320 0.542535 0.784369 -0.300701 1.000000
35.920200 48.975700 -748.493591 0.205303 0.855678 -0.475044 1.000000
34.779400 50.981998 -746.944519 0.001266 0.365926 -0.930643 1.000000
35.892300 48.203499 -749.213379 0.142625 0.764169 -0.629050 1.000000
36.483299 46.626999 -750.420471 0.855849 0.483741 -0.183077 1.000000
36.827702 46.234200 -751.112976 0.308483 0.895644 -0.320405 1.000000
34.763302 50.428799 -747.610596 -0.991547 0.119258 0.051111 1.000000
35.072300 49.616199 -748.239075 0.214843 0.461236 -0.860874 1.000000
35.858601 47.664501 -749.835999 0.384504 0.851514 -0.356484 1.000000
36.832100 45.792000 -751.802307 0.513775 0.848529 -0.126624 1.000000
37.150101 45.321098 -752.441895 -0.483399 0.430963 -0.761969 1.000000
33.969700 51.666901 -746.827698 0.915673 0.174617 -0.362010 1.000000
34.958698 49.012600 -748.831116 0.488023 0.865847 -0.110199 1.000000
35.759899 47.046600 -750.450500 -0.314469 0.598298 -0.736987 1.000000
33.864498 50.977600 -747.451721 0.370367 0.927881 0.043188 1.000000
34.204800 50.056499 -748.138489 0.098906 0.427663 -0.898511 1.000000
34.886501 48.446201 -749.510193 -0.012548 0.723583 -0.690123 1.000000
35.732201 46.695900 -751.207214 0.982204 0.158654 0.100521 1.000000
36.043701 46.201099 -751.829285 0.087975 0.886731 -0.453838 1.000000
36.375900 45.591301 -752.494385 0.315936 0.841978 -0.437330 1.000000
33.153500 52.093601 -746.657288 0.323069 0.244837 -0.914156 1.000000
34.176899 49.337002 -748.714417 -0.270719 0.481107 -0.833815 1.000000
34.857800 47.857201 -750.077026 0.216232 0.401574 -0.889934 1.000000
33.184700 51.480000 -747.291382 -0.012118 0.504922 -0.863080 1.000000
34.905800 47.363998 -750.724182 0.247086 0.967235 -0.058357 1.000000
32.369202 52.421299 -746.392212 0.229388 0.958658 -0.168395 1.000000
33.097198 50.803299 -747.834717 -0.009664 0.611615 -0.791096 1.000000
33.327702 50.107101 -748.294189 0.121432 0.300244 -0.946101 1.000000
33.873001 48.846699 -749.375488 -0.037193 0.855438 -0.516569 1.000000
34.944099 46.997898 -751.490112 0.093136 0.838220 -0.537320 1.000000
35.220798 46.395599 -752.038208 0.871082 0.440771 -0.216650 1.000000
35.541801 45.918800 -752.670776 0.219556 0.815274 -0.535839 1.000000
32.323200 51.905499 -747.048706 0.157814 0.593683 -0.789072 1.000000
33.266102 49.480202 -748.915283 0.158046 0.849311 -0.503678 1.000000
33.834000 48.312801 -750.035278 -0.052874 0.440613 -0.896139 1.000000
34.159698 47.797798 -750.675171 0.285960 0.863996 -0.414412 1.000000
35.395199 45.155399 -753.113281 0.847759 0.043012 0.528635 1.000000
31.581499 52.721901 -746.205017 0.385536 0.762939 -0.518928 1.000000
32.289501 51.253799 -747.597595 0.134502 0.475818 -0.869199 1.000000
32.349201 50.566502 -748.138428 -0.024356 0.934515 -0.355090 1.000000
33.101700 48.988899 -749.613281 0.309303 0.901271 -0.303384 1.000000
34.030998 47.439899 -751.429077 0.270183 0.888171 -0.371689 1.000000
34.328098 46.889400 -752.010376 0.319922 0.877891 -0.356311 1.000000
34.635300 46.366199 -752.610901 0.479515 0.761005 -0.436964 1.000000
31.510300 52.223400 -746.844421 0.055731 0.767379 -0.638768 1.000000
32.482899 49.916901 -748.747192 0.169772 0.548380 -0.818814 1.000000
34.781799 45.856998 -753.227722 0.357160 0.722474 -0.592004 1.000000
33.250099 48.213799 -750.608704 0.330182 0.922527 -0.199810 1.000000
30.698601 52.950600 -746.011230 0.351797 0.750608 -0.559309 1.000000
31.417400 51.594601 -747.396729 0.043842 0.773591 -0.632167 1.000000
31.561399 51.015701 -747.963684 0.206163 0.325596 -0.922759 1.000000
32.324200 49.432598 -749.422974 0.156684 0.865424 -0.475910 1.000000
30.642300 52.425499 -746.691895 0.012399 0.800434 -0.599292 1.000000
31.636801 50.386101 -748.575928 0.241964 0.853721 -0.461101 1.000000
32.427299 48.896400 -750.073181 0.338406 0.885873 -0.317350 1.000000
33.100201 47.883400 -751.346924 0.350194 0.862372 -0.365621 1.000000
33.438499 47.380501 -751.987183 0.160936 0.976845 -0.140975 1.000000
33.769798 46.782200 -752.614685 0.220952 0.836569 -0.501332 1.000000
30.631001 51.869499 -747.349609 -0.195821 0.482826 -0.853541 1.000000
31.642300 49.862099 -749.248779 0.364920 0.852514 -0.374237 1.000000
32.456100 48.450699 -750.776978 0.217984 0.921803 -0.320565 1.000000
33.835499 46.291599 -753.366821 0.514056 0.814052 -0.270309 1.000000
29.477699 53.024200 -745.856995 0.282624 0.819765 -0.498105 1.000000
29.840000 52.648300 -746.533630 0.054606 0.838693 -0.541860 1.000000
30.601601 51.295101 -747.955872 0.347562 0.897745 -0.270655 1.000000
31.635099 49.355301 -749.885986 0.397032 0.484541 -0.779478 1.000000
30.698200 50.717098 -748.556030 0.265463 0.869201 -0.417156 1.000000
31.745399 48.814400 -750.506287 0.378831 0.906025 -0.188695 1.000000
32.312000 48.055099 -751.561584 0.175669 0.923319 -0.341501 1.000000
32.653400 47.548100 -752.197510 0.208467 0.856363 -0.472424 1.000000
32.979900 46.960800 -752.805725 0.226365 0.843170 -0.487671 1.000000
29.874800 52.091900 -747.136475 -0.028895 0.840693 -0.540740 1.000000
30.845200 50.155701 -749.199585 0.226997 0.643418 -0.731085 1.000000
29.839001 51.607800 -747.787292 0.062217 0.875189 -0.479764 1.000000
32.978199 46.447601 -753.545776 0.356361 0.746893 -0.561390 1.000000
28.546301 53.032799 -745.736328 -0.031837 0.999260 -0.021567 1.000000
28.931499 52.729000 -746.442688 0.124730 0.875978 -0.465946 1.000000
30.815399 49.711700 -749.889221 0.123350 0.891809 -0.435271 1.000000
31.594999 48.594501 -751.315979 0.241379 0.857729 -0.453913 1.000000
29.903400 51.097000 -748.509094 0.083490 0.858961 -0.505188 1.000000
29.020800 52.230000 -747.150513 -0.036237 0.895178 -0.444234 1.000000
30.127100 50.552399 -749.161316 0.279258 0.877020 -0.390961 1.000000
30.916000 49.208900 -750.593872 0.270173 0.956698 -0.108330 1.000000
31.774200 47.901199 -752.153625 0.311220 0.866203 -0.390941 1.000000
32.106701 47.316700 -752.757080 0.238973 0.847822 -0.473380 1.000000
32.266899 46.876099 -753.424683 0.362376 0.806167 -0.467737 1.000000
28.965099 51.775799 -747.854126 0.147423 0.891695 -0.427956 1.000000
30.077499 50.068001 -749.846313 0.420122 0.841806 -0.338909 1.000000
27.650101 53.049000 -745.588379 -0.060790 0.909145 0.412020 1.000000
28.103901 52.763199 -746.404114 -0.009010 0.922925 -0.384874 1.000000
29.099100 51.289398 -748.496582 0.428803 0.788027 -0.441748 1.000000
30.732800 48.902100 -751.333679 0.232935 0.870124 -0.434311 1.000000
31.077801 48.335201 -751.931213 0.250831 0.832514 -0.493968 1.000000
32.290298 46.352798 -754.048584 0.097263 0.052544 0.993871 1.000000
28.191999 52.373100 -747.203308 0.237284 0.933691 -0.268173 1.000000
30.143600 49.506401 -750.542786 0.318389 0.882737 -0.345550 1.000000
29.223600 50.892300 -749.193604 0.040238 0.933257 -0.356948 1.000000
31.361099 47.705898 -752.835510 0.310694 0.851702 -0.421987 1.000000
27.153999 52.984299 -746.226624 0.192900 0.897781 -0.395952 1.000000
28.157400 51.919300 -747.935974 0.154569 0.908977 -0.387130 1.000000
29.291401 50.360298 -749.854492 0.325864 0.344052 -0.880591 1.000000
31.455500 47.204498 -753.509277 0.428311 0.826594 -0.365092 1.000000
26.463499 53.406300 -745.613708 0.175977 0.973568 0.145592 1.000000
27.308300 52.677299 -747.053223 0.139877 0.974096 -0.177681 1.000000
28.293400 51.515598 -748.719727 -0.384197 0.172817 -0.906933 1.000000
29.350800 49.848499 -750.492493 0.781920 0.623028 -0.020907 1.000000
29.810801 49.235100 -751.268127 0.089998 0.841412 -0.532847 1.000000
30.225500 48.682201 -751.967224 0.430942 0.838378 -0.333784 1.000000
30.575899 48.096500 -752.553528 0.429240 0.888829 -0.160423 1.000000
27.343399 52.285301 -747.790527 0.004100 0.815937 -0.578126 1.000000
28.313999 51.039700 -749.421814 0.723980 0.576229 -0.379228 1.000000
30.614901 47.653099 -753.272217 -0.093294 0.833900 -0.543973 1.000000
31.135599 46.723499 -754.137329 0.369298 0.684432 -0.628627 1.000000
25.606899 53.940800 -745.602783 0.284261 0.902859 -0.322555 1.000000
26.005800 53.595798 -746.277222 0.548901 0.827011 -0.121490 1.000000
26.379801 53.143101 -746.904175 0.240239 0.945855 -0.218274 1.000000
27.346701 51.879601 -748.521484 0.598004 0.801463 -0.006874 1.000000
28.287701 50.477600 -750.088684 -0.441898 0.381276 -0.812007 1.000000
28.940399 49.647999 -751.181519 0.440522 0.808959 -0.389262 1.000000
29.390100 48.970299 -751.930176 0.173784 0.969329 -0.173784 1.000000
29.787100 48.315899 -752.588928 0.069231 0.843494 -0.532659 1.000000
26.380501 52.726501 -747.644775 0.443204 0.841310 -0.309465 1.000000
27.361200 51.508999 -749.281494 0.273004 0.952184 -0.137168 1.000000
28.299200 50.075500 -750.836182 0.341162 0.849010 -0.403474 1.000000
29.793800 47.858700 -753.315918 0.148470 0.787338 -0.598377 1.000000
30.147800 47.267601 -753.900574 0.056675 0.490720 -0.869472 1.000000
24.752199 54.703098 -745.655212 0.273860 0.956563 -0.099939 1.000000
25.157400 54.380501 -746.336121 0.549404 0.818867 -0.166169 1.000000
25.528299 53.653702 -746.941284 0.676937 0.732020 -0.076826 1.000000
26.427500 52.341801 -748.427185 0.910343 0.242468 0.335389 1.000000
27.364799 50.908298 -749.973511 0.429039 0.888414 -0.163237 1.000000
28.453199 49.314098 -751.771973 0.223494 0.868478 -0.442489 1.000000
28.896400 48.588699 -752.501221 0.193180 0.896179 -0.399431 1.000000
25.564600 53.228600 -747.656982 -0.530246 0.463758 -0.709766 1.000000
26.481701 51.973202 -749.166382 0.130400 0.881278 -0.454252 1.000000
27.405800 50.452999 -750.676086 0.420235 0.857403 -0.297089 1.000000
28.938101 48.087898 -753.186218 0.189981 0.927390 -0.322265 1.000000
24.126499 55.518700 -745.952576 0.156466 0.478171 -0.864217 1.000000
24.440800 54.806999 -746.453613 -0.142681 0.761468 -0.632304 1.000000
24.813299 54.077599 -747.052795 -0.693797 0.142973 -0.705836 1.000000
25.659401 52.772202 -748.429626 0.819844 0.383655 -0.425046 1.000000
26.512899 51.476398 -749.819580 0.310393 0.490011 -0.814583 1.000000
27.446100 49.967899 -751.335205 0.239492 0.768567 -0.593252 1.000000
28.109501 48.852299 -752.410583 -0.149127 0.399092 -0.904703 1.000000
28.974400 47.530102 -753.818726 -0.117249 0.373818 -0.920061 1.000000
26.625099 50.989799 -750.478882 0.445192 0.867900 -0.220348 1.000000
27.537201 49.355099 -751.945374 0.288105 0.801342 -0.524257 1.000000
24.767900 53.658501 -747.818970 0.508211 0.782483 -0.359781 1.000000
25.618000 52.342201 -749.190613 0.407152 0.847062 -0.341633 1.000000
28.007799 48.324902 -753.030701 0.162564 0.830715 -0.532433 1.000000
23.432199 55.976101 -745.988220 -0.302170 0.756225 -0.580359 1.000000
26.657000 50.426800 -751.129211 0.198217 0.525047 -0.827669 1.000000
28.211399 47.761200 -753.607605 -0.084850 0.576691 -0.812544 1.000000
23.610201 55.430801 -746.617615 0.543830 0.725658 -0.421510 1.000000
23.917801 54.667099 -747.091614 0.711632 0.484976 -0.508309 1.000000
24.798300 53.200901 -748.487000 0.293920 0.835105 -0.464984 1.000000
25.651699 51.853500 -749.843384 0.272734 0.307737 -0.911545 1.000000
24.081800 54.146400 -747.712891 0.215512 0.823837 -0.524260 1.000000
25.819300 51.299599 -750.454773 0.245416 0.825772 -0.507811 1.000000
26.648899 49.786800 -751.755493 0.085891 0.746812 -0.659465 1.000000
27.131701 48.904900 -752.512390 0.175340 0.635799 -0.751676 1.000000
22.695101 56.576900 -745.860779 -0.766093 0.641016 0.046904 1.000000
24.844999 52.679401 -749.220215 0.158046 0.849311 -0.503678 1.000000
25.889799 50.683300 -751.065918 0.201061 0.515502 -0.832966 1.000000
22.754801 55.954102 -746.436523 0.079106 0.806885 -0.585387 1.000000
24.001900 53.662899 -748.360718 0.150854 0.961533 -0.229561 1.000000
27.059299 48.278301 -753.092224 0.017930 0.575128 -0.817867 1.000000
22.901100 55.304100 -746.990112 0.001264 0.931838 -0.362873 1.000000
23.337500 54.533901 -747.660522 -0.034044 0.870160 -0.491593 1.000000
24.780600 52.214298 -749.892212 0.023793 0.659209 -0.751583 1.000000
21.872801 56.711498 -745.871887 0.274993 0.946898 -0.166622 1.000000
23.959700 53.213600 -749.070923 -0.374963 0.524299 -0.764535 1.000000
24.908400 51.662399 -750.527588 0.139043 0.778940 -0.611490 1.000000
25.691799 50.165199 -751.716370 0.011464 0.357931 -0.933678 1.000000
25.983500 49.511799 -752.152771 0.272802 0.649300 -0.709922 1.000000
23.237200 54.046299 -748.349915 0.953740 0.235408 -0.186982 1.000000
24.097799 52.664299 -749.668579 0.457530 0.490565 -0.741628 1.000000
25.045601 51.087101 -751.117188 0.142736 0.758752 -0.635549 1.000000
26.110800 48.857800 -752.715027 0.122759 0.599006 -0.791279 1.000000
26.660000 47.674702 -753.536621 0.505487 0.768795 -0.391712 1.000000
21.875700 56.118900 -746.530701 0.063734 0.421729 -0.904479 1.000000
21.074100 56.927399 -745.687073 0.128066 0.963731 -0.234141 1.000000
22.045700 55.514702 -747.170471 -0.436273 0.783345 -0.442760 1.000000
22.403200 54.918098 -747.711121 0.577644 0.815415 -0.037764 1.000000
26.076500 48.211601 -753.223328 -0.036976 0.497126 -0.866890 1.000000
22.494499 54.427601 -748.411804 -0.718527 0.563259 -0.407991 1.000000
22.934200 53.631001 -749.067627 0.185318 0.830163 -0.525820 1.000000
23.316099 53.116001 -749.649780 -0.450298 0.405107 -0.795688 1.000000
23.832800 52.365799 -750.433777 0.191605 0.828279 -0.526538 1.000000
24.121300 51.705799 -750.854126 0.136382 0.909682 -0.392274 1.000000
24.696501 50.638199 -751.710022 0.155998 0.539308 -0.827533 1.000000
24.965599 49.868900 -752.090881 0.114092 0.432422 -0.894424 1.000000
25.262800 49.219601 -752.526123 0.134180 0.558837 -0.818350 1.000000
20.838400 56.653000 -746.423218 0.824631 0.004089 0.565656 1.000000
21.173000 55.962200 -746.913330 -0.013865 0.336544 -0.941566 1.000000
25.322500 48.532501 -753.075806 -0.033177 0.415374 -0.909045 1.000000
20.209801 57.075298 -745.775391 0.187273 0.974071 0.126943 1.000000
21.536699 55.261700 -747.780518 0.122059 0.902113 -0.413877 1.000000
24.038700 51.117001 -751.507019 0.162549 0.412846 -0.896178 1.000000
21.675301 54.702900 -748.418518 0.245966 0.844840 -0.475127 1.000000
