ply
format ascii 1.0
element vertex 693
property float x
property float y
property float z
property float nx
property float ny
property float nz
property float label
element face 0
property list uchar int vertex_indices
end_header
44.364700 10.453700 -737.117493 -0.747516 0.652025 -0.126824 0.000000
44.269600 10.136000 -737.184814 -0.495389 0.708890 -0.502061 0.000000
44.185200 9.603200 -737.223694 -0.993471 0.091134 0.068632 0.000000
43.888699 9.900900 -737.539917 -0.906740 0.148530 0.394665 0.000000
43.783298 9.761100 -737.632019 -0.843448 0.168095 -0.510234 0.000000
43.679199 9.591700 -737.720520 -0.578922 0.474884 -0.662823 0.000000
43.632401 9.395300 -737.750183 0.905970 0.089360 0.413804 0.000000
43.593899 9.024100 -737.757385 0.047920 0.997801 0.045790 0.000000
43.444000 8.606600 -737.870300 -0.344024 0.353198 -0.869999 0.000000
43.396900 8.401300 -737.899719 0.521304 0.181780 0.833786 0.000000
43.359100 7.990400 -737.902771 -0.610159 0.708308 -0.354972 0.000000
43.308498 7.854400 -737.941406 -0.395875 0.560138 -0.727687 0.000000
43.198299 7.773900 -738.043213 -0.153042 0.680357 -0.716723 0.000000
43.152401 7.525000 -738.067688 0.188004 0.866004 0.463349 0.000000
43.132900 6.674500 -738.016602 -0.896763 0.292972 0.331639 0.000000
43.031300 6.371300 -738.091370 0.533080 0.096270 -0.840570 0.000000
42.916401 6.372000 -738.204529 -0.794033 0.116380 0.596630 0.000000
42.900799 5.378800 -738.137817 -0.684928 0.715035 0.139996 0.000000
42.787701 5.317200 -738.244019 -0.352776 0.802926 0.480478 0.000000
42.666302 5.456800 -738.374817 -0.120698 0.713757 0.689915 0.000000
42.558800 5.511600 -738.484985 0.064339 0.616226 0.784937 0.000000
42.427299 2.641500 -738.377319 -0.477650 0.202140 0.854979 0.000000
42.303299 2.808900 -738.513000 -0.700104 0.058941 0.711604 0.000000
42.183899 2.859800 -738.634583 -0.677717 0.149430 0.719980 0.000000
44.604500 12.614000 -736.747070 0.718953 0.493138 -0.489818 0.000000
44.535999 12.846400 -736.833679 0.805060 0.425830 -0.412975 0.000000
44.375099 12.554800 -736.967712 -0.742855 0.300030 -0.598455 0.000000
44.337399 10.741100 -736.854675 0.479084 0.345386 -0.806962 0.000000
44.216301 10.610500 -736.962891 -0.063852 0.574670 0.815890 0.000000
44.081699 11.033900 -737.130188 -0.258661 0.883635 0.390235 0.000000
43.974201 10.957700 -737.229614 -0.089799 0.931496 -0.352494 0.000000
43.862999 10.949900 -737.338318 -0.933647 0.014011 -0.357919 0.000000
43.754501 10.889600 -737.439880 -0.798336 0.526428 0.292460 0.000000
43.650299 10.742000 -737.530090 0.321546 0.202560 -0.924975 0.000000
43.606800 10.493300 -737.552185 -0.167527 0.172642 0.970633 0.000000
43.518700 10.010500 -737.598877 -0.309303 0.303384 0.901271 0.000000
43.471199 9.831800 -737.630676 -0.907519 0.249897 0.337580 0.000000
43.391998 9.141300 -737.651611 0.517417 0.598316 -0.611799 0.000000
43.348099 8.876700 -737.672729 -0.675806 0.691633 0.254812 0.000000
43.244099 8.681700 -737.758789 0.585760 0.122464 -0.801179 0.000000
43.135899 8.573500 -737.856201 0.492249 0.423563 -0.760451 0.000000
43.086601 7.157900 -737.787598 -0.080128 0.049394 0.995560 0.000000
42.979301 6.996800 -737.879578 -0.700104 0.058941 0.711604 0.000000
42.866699 6.955100 -737.986877 -0.700104 0.058941 0.711604 0.000000
42.730000 6.927400 -738.118896 -0.713354 0.415434 0.564394 0.000000
42.543800 5.053300 -738.146912 -0.738844 0.639295 0.213098 0.000000
42.429100 5.022800 -738.257080 -0.702723 0.064933 0.708495 0.000000
44.792999 13.257400 -736.244324 -0.644818 0.365889 0.671070 0.000000
44.682701 13.260900 -736.352905 0.694216 0.021037 -0.719460 0.000000
44.582401 13.096700 -736.437927 -0.265181 0.147915 0.952786 0.000000
44.502499 12.578900 -736.473328 0.528998 0.610122 -0.589841 0.000000
44.394100 12.541500 -736.576721 -0.560918 0.210536 0.800653 0.000000
44.294399 12.350000 -736.658691 -0.055309 0.163575 -0.984979 0.000000
44.132000 12.285600 -736.812927 -0.760994 0.623740 0.178429 0.000000
44.024502 12.227700 -736.913696 0.063062 0.951080 -0.302441 0.000000
43.922501 12.068300 -737.000671 -0.302039 0.804909 -0.510777 0.000000
43.817600 11.956500 -737.094421 0.485578 0.306433 -0.818726 0.000000
43.717499 11.751600 -737.175781 0.447763 0.756113 -0.477286 0.000000
43.675400 11.495100 -737.195923 -0.727321 0.628647 0.275331 0.000000
43.580002 11.187000 -737.263977 -0.944284 0.061047 0.323421 0.000000
43.539001 10.898200 -737.280273 -0.911718 0.242062 0.331929 0.000000
43.492001 10.724800 -737.312073 -0.934208 0.185171 0.304905 0.000000
43.445999 10.527100 -737.340820 -0.711259 0.210109 -0.670794 0.000000
43.403000 10.268100 -737.361572 -0.938380 0.192666 0.286920 0.000000
43.355000 10.105500 -737.395325 -0.463647 0.600900 -0.651115 0.000000
43.255199 9.849100 -737.471924 -0.497209 0.615191 -0.611820 0.000000
43.153599 8.437900 -737.454590 -0.451104 0.694134 0.560967 0.000000
43.104401 8.278500 -737.489685 -0.808133 0.277747 0.519402 0.000000
42.860001 7.402900 -737.657227 0.385504 0.123862 -0.914355 0.000000
42.726601 7.836000 -737.824219 -0.297230 0.291374 0.909261 0.000000
42.615299 7.778500 -737.928711 -0.755097 0.168643 0.633552 0.000000
44.645199 13.976800 -736.049011 0.572763 0.532214 -0.623450 0.000000
44.538898 13.922500 -736.148804 -0.982939 0.073032 0.168812 0.000000
44.439098 13.759900 -736.233276 -0.428376 0.503875 -0.750069 0.000000
44.393501 13.604700 -736.265076 -0.745743 0.149149 0.649324 0.000000
44.357201 13.290400 -736.274719 0.774066 0.594123 -0.218724 0.000000
44.251301 13.219400 -736.372681 -0.971353 0.037687 -0.234632 0.000000
44.175598 13.576900 -736.476929 -0.003097 0.998382 -0.056785 0.000000
44.061298 13.657300 -736.595886 0.112045 0.171146 0.978854 0.000000
43.956600 13.569600 -736.691406 -0.862905 0.492473 0.113427 0.000000
43.857899 13.370800 -736.771729 0.458928 0.149115 -0.875871 0.000000
43.766701 13.031700 -736.833130 -0.595437 0.113207 0.795386 0.000000
43.685101 12.504800 -736.869385 -0.401873 0.739775 -0.539658 0.000000
43.638401 12.344100 -736.901794 -0.949704 0.149105 0.275374 0.000000
43.600101 12.025400 -736.912903 -0.925856 0.377770 0.008964 0.000000
43.513100 11.571500 -736.960510 -0.897131 0.372700 0.237173 0.000000
43.466801 11.393400 -736.991089 -0.991547 0.051111 0.119258 0.000000
43.421700 11.189700 -737.018494 0.114528 0.240637 -0.963835 0.000000
43.383099 10.855600 -737.028625 0.074809 0.111638 -0.990929 0.000000
43.342400 10.557000 -737.043579 -0.606615 0.032222 0.794343 0.000000
43.294701 10.394600 -737.077026 -0.378085 0.390636 -0.839318 0.000000
43.180000 10.448500 -737.194214 -0.968653 0.126680 -0.213692 0.000000
43.140701 10.109100 -737.204407 -0.646551 0.035215 0.762057 0.000000
43.098000 9.835700 -737.223572 -0.956450 0.185421 -0.225439 0.000000
43.051399 9.637300 -737.252808 -0.144493 0.582442 -0.799927 0.000000
42.945202 9.505400 -737.346191 -0.700104 0.058941 0.711604 0.000000
42.835899 9.434600 -737.447571 -0.701415 0.061932 0.710057 0.000000
43.828602 15.389600 -736.175903 -0.086201 0.685225 -0.723212 0.000000
43.790798 15.109900 -736.189575 -0.199810 0.330182 -0.922527 0.000000
43.698799 14.821400 -736.255676 -0.937873 0.157914 0.308962 0.000000
43.658298 14.579600 -736.275208 -0.866004 0.188004 0.463349 0.000000
43.612400 14.428300 -736.307617 -0.928481 0.145291 0.341781 0.000000
43.575001 14.125600 -736.318970 -0.927986 0.222433 0.298939 0.000000
43.479401 13.879600 -736.392212 -0.715462 0.283304 0.638634 0.000000
43.331799 13.754100 -736.526428 0.713011 0.089309 -0.695442 0.000000
45.986099 22.882500 -732.439514 -0.411432 0.858307 0.306648 0.000000
45.879799 22.929800 -732.547424 0.387493 0.743922 0.544453 0.000000
45.717999 22.832899 -732.279419 -0.503086 0.700310 -0.506429 0.000000
44.889801 22.923100 -732.463806 -0.307409 0.943704 0.122158 0.000000
44.999599 22.949301 -732.565918 -0.509801 0.841696 0.177907 0.000000
45.115398 23.008900 -732.670593 -0.271059 0.962562 -0.001205 0.000000
45.273602 23.014299 -732.820618 -0.042184 0.999046 -0.011318 0.000000
45.432598 23.024900 -732.970825 0.260814 0.950011 0.171624 0.000000
45.579201 22.965799 -733.115479 0.444993 0.831807 -0.331779 0.000000
44.647099 22.723400 -732.648376 -0.327441 0.943802 -0.044943 0.000000
44.772301 22.831800 -732.757507 -0.890456 0.450045 0.067438 0.000000
44.890202 22.901699 -732.863220 -0.443543 0.888502 -0.117617 0.000000
45.052101 22.925600 -733.014771 -0.239742 0.960277 -0.142797 0.000000
45.212502 22.941799 -733.165588 -0.170865 0.951195 -0.256971 0.000000
45.359901 22.886700 -733.310486 0.096763 0.887691 -0.450156 0.000000
45.513199 22.806700 -733.463318 -0.271994 0.720546 -0.637834 0.000000
46.498699 22.196100 -734.453979 -0.558918 0.069687 -0.826289 0.000000
46.697498 22.442499 -734.620728 -0.814451 0.364989 -0.451056 0.000000
46.825901 22.583900 -734.729675 -0.189709 0.711024 0.677093 0.000000
46.962299 22.775700 -734.841980 -0.343893 0.431829 0.833823 0.000000
44.741699 22.785200 -733.075684 -0.610852 0.757706 -0.229655 0.000000
44.901299 22.793800 -733.226074 -0.343651 0.905192 -0.250061 0.000000
45.285099 22.587500 -733.608215 0.257096 0.050922 -0.965043 0.000000
45.373299 22.491800 -733.700378 -0.162626 0.743217 -0.648985 0.000000
45.489201 22.450001 -733.814026 -0.474628 0.732614 -0.487858 0.000000
46.089199 21.743401 -734.446228 -0.677031 0.614128 -0.405556 0.000000
46.232300 21.674299 -734.588013 -0.384954 0.302790 -0.871853 0.000000
46.409599 22.096300 -734.717590 0.611808 0.113516 -0.782819 0.000000
46.498798 22.312700 -734.782471 0.079429 0.469608 0.879295 0.000000
46.627701 22.454700 -734.891785 -0.338924 0.866480 0.366529 0.000000
46.765900 22.653601 -735.004578 -0.445631 0.859323 0.250953 0.000000
46.888802 22.763201 -735.111084 -0.562707 0.803650 0.193669 0.000000
45.196899 22.401899 -733.782715 -0.345873 0.745331 -0.569959 0.000000
45.288601 22.323900 -733.876282 0.359016 0.841884 -0.402913 0.000000
45.399200 22.255800 -733.987000 0.798045 0.241125 0.552253 0.000000
45.970901 21.695101 -734.578125 0.315871 0.921885 0.224397 0.000000
46.278198 22.255301 -734.817688 -0.157588 0.969873 0.185775 0.000000
46.402500 22.367300 -734.924988 -0.409607 0.904490 -0.118828 0.000000
46.543201 22.577299 -735.038879 0.677788 0.427989 0.597853 0.000000
46.665901 22.683300 -735.145325 -0.210219 0.805583 0.553935 0.000000
46.778198 22.728399 -735.247375 -0.529607 0.841310 -0.108230 0.000000
46.887100 22.753700 -735.348022 -0.454123 0.887415 0.079159 0.000000
44.512901 22.506901 -733.335327 -0.636065 0.730765 -0.247797 0.000000
45.186798 22.136900 -734.004822 0.003020 0.027180 -0.999626 0.000000
45.304298 22.077299 -734.120972 -0.003875 0.401697 0.915765 0.000000
45.662201 21.520500 -734.509216 0.045629 0.101273 0.993812 0.000000
45.786701 21.632601 -734.616516 -0.513021 0.839081 0.180978 0.000000
45.933899 21.871401 -734.733887 -0.860767 0.479845 0.169791 0.000000
46.014702 22.033600 -734.795471 -0.934849 0.354861 -0.011447 0.000000
46.089600 22.161900 -734.854614 -0.420311 0.880723 0.218324 0.000000
46.225300 22.338600 -734.966675 -0.382097 0.858558 0.341876 0.000000
46.349998 22.452900 -735.073975 -0.397437 0.874967 0.276544 0.000000
46.473000 22.558399 -735.180725 0.317525 0.481817 0.816719 0.000000
46.588799 22.622200 -735.284119 0.566662 0.173776 0.805416 0.000000
46.708599 22.710899 -735.389221 -0.722951 0.189601 -0.664375 0.000000
46.787601 22.869499 -735.449280 0.307135 0.879042 0.364628 0.000000
44.288200 22.257900 -733.379272 -0.804239 0.547994 -0.230003 0.000000
45.176300 21.752501 -734.263916 -0.999369 0.011229 -0.033687 0.000000
45.540699 21.409800 -734.639221 -0.437152 0.519633 0.734085 0.000000
45.637699 21.662100 -734.707886 -0.446919 0.855705 -0.260830 0.000000
45.733700 21.910500 -734.776123 -0.621657 0.608180 -0.493619 0.000000
45.852402 21.985300 -734.881409 -0.146372 0.987131 0.064404 0.000000
45.976002 22.090200 -734.988708 -0.328862 0.887476 0.322855 0.000000
46.112900 22.273600 -735.101379 -0.934050 0.347770 -0.081280 0.000000
46.230301 22.344999 -735.205872 -0.651042 0.736827 0.182292 0.000000
46.361198 22.496901 -735.315796 -0.542527 0.727217 0.420500 0.000000
46.487801 22.624399 -735.423828 -0.304357 0.697282 0.648972 0.000000
46.614498 22.754700 -735.531616 -0.144233 0.895390 0.421276 0.000000
46.686798 22.874001 -735.589111 -0.049132 0.568523 0.821199 0.000000
44.791302 22.009800 -734.122803 0.542210 0.315089 -0.778927 0.000000
44.874199 21.880899 -734.213013 0.333352 0.459742 -0.823112 0.000000
44.957001 21.451401 -734.330383 -0.387309 0.591676 -0.707044 0.000000
45.101700 21.367901 -734.474915 -0.012486 0.775502 -0.631222 0.000000
45.248100 21.293200 -734.620117 -0.060373 0.983717 0.169280 0.000000
45.378300 21.430700 -734.730774 -0.752641 0.338284 -0.564885 0.000000
45.510899 21.583599 -734.842407 -0.218167 0.968356 0.121204 0.000000
45.589600 21.732901 -734.903320 -0.966149 0.170344 0.193750 0.000000
45.715801 21.851700 -735.012024 -0.973787 0.163353 0.158288 0.000000
45.852798 22.034401 -735.124878 -0.501670 0.859803 -0.095218 0.000000
45.977001 22.144800 -735.232483 -0.405434 0.849704 0.337085 0.000000
46.109798 22.306601 -735.343384 -0.726789 0.610761 0.314244 0.000000
46.242699 22.471600 -735.454224 -0.468496 0.793706 0.387998 0.000000
46.373299 22.624001 -735.563782 -0.006441 0.395465 0.918458 0.000000
46.506500 22.794001 -735.674377 0.368924 0.256321 0.893418 0.000000
46.631500 22.917200 -735.781616 -0.574623 0.813690 0.087850 0.000000
42.652100 22.233801 -732.280396 0.526608 0.367816 -0.766417 0.000000
42.730801 22.090500 -732.367981 0.062601 0.923030 -0.379601 0.000000
43.026600 21.687901 -732.684998 0.241125 0.552253 -0.798045 0.000000
43.109501 21.563000 -732.775024 0.734925 0.610036 -0.296212 0.000000
43.255699 21.206100 -732.945984 0.464505 0.759949 -0.454657 0.000000
43.347099 21.122999 -733.040222 -0.393653 0.588009 -0.706599 0.000000
43.962601 21.853201 -733.556885 0.015280 0.626484 0.779285 0.000000
44.082699 21.928801 -733.663818 -0.449318 0.864074 0.226913 0.000000
44.200600 21.993700 -733.769714 -0.109063 0.935789 -0.335268 0.000000
44.286201 21.881100 -733.861023 0.167584 0.499785 -0.849783 0.000000
44.740601 21.754801 -734.303101 0.541907 0.233128 -0.807458 0.000000
44.899200 21.150801 -734.508423 -0.894675 0.302195 0.328990 0.000000
44.923302 20.985399 -734.546387 -0.536736 0.808971 -0.239752 0.000000
45.044800 21.071100 -734.653625 -0.876577 0.341819 -0.338781 0.000000
45.171200 21.186600 -734.762878 0.083686 0.970508 0.226077 0.000000
45.299099 21.312000 -734.872681 -0.097305 0.983861 0.150162 0.000000
45.384701 21.500700 -734.936584 -0.903752 0.330641 0.271860 0.000000
45.514400 21.639299 -735.046875 -0.078450 0.955544 0.284220 0.000000
45.654598 21.840799 -735.161377 -0.214993 0.973060 0.083263 0.000000
45.810101 22.135099 -735.281982 0.995790 0.062580 -0.066972 0.000000
45.927799 22.208599 -735.386780 -0.273924 0.961751 0.001207 0.000000
46.053398 22.330200 -735.494812 -0.775910 0.563288 0.284024 0.000000
46.175701 22.433100 -735.601318 -0.375041 0.790322 0.484495 0.000000
46.576302 22.954800 -735.933411 -0.282400 0.865518 0.413678 0.000000
42.795898 22.043100 -732.527527 0.687196 0.722064 0.079907 0.000000
42.930199 21.910000 -732.666870 0.731766 0.571334 -0.371613 0.000000
43.106499 21.434900 -732.877075 -0.036454 0.454999 -0.889746 0.000000
43.416698 21.095100 -733.202026 -0.479811 0.206063 -0.852830 0.000000
43.794701 21.697701 -733.505676 -0.841648 0.495890 -0.213824 0.000000
44.270699 21.687401 -733.957886 -0.035778 0.158114 0.986772 0.000000
44.620998 21.868299 -734.273499 0.380892 0.880718 -0.281529 0.000000
44.858002 20.802799 -734.594788 -0.909340 0.255433 -0.328413 0.000000
45.752499 22.001400 -735.333984 -0.853825 0.511725 0.095503 0.000000
44.714001 20.808701 -734.501770 0.652173 0.753849 -0.079888 0.000000
44.981098 20.881901 -734.748413 -0.837165 0.542528 0.069410 0.000000
45.056801 21.012600 -734.808289 -0.998373 0.034717 0.045237 0.000000
45.498600 21.738800 -735.161682 0.022582 0.217504 0.975798 0.000000
45.823898 22.106800 -735.437012 -0.753437 0.651028 0.092168 0.000000
45.949402 22.229601 -735.544983 -0.829547 0.547704 -0.108960 0.000000
46.459099 23.072500 -735.952209 -0.811564 0.085048 -0.578041 0.000000
42.504700 22.408300 -732.408691 0.846549 0.255649 -0.466903 0.000000
42.577900 22.237600 -732.493713 0.558761 0.822902 0.103044 0.000000
42.667999 22.153999 -732.586670 0.622544 0.778542 -0.079443 0.000000
42.758999 22.075399 -732.680420 0.688657 0.675934 -0.262421 0.000000
42.878300 21.864401 -732.812683 0.701435 0.629826 -0.333629 0.000000
42.959099 21.729300 -732.901611 0.795087 0.580035 -0.177191 0.000000
43.033501 21.559200 -732.987610 0.826496 0.547572 -0.130654 0.000000
43.134102 21.242701 -733.111572 -0.729921 0.488269 -0.478339 0.000000
43.209099 21.072300 -733.198181 -0.009691 0.776628 -0.629885 0.000000
43.345600 21.038200 -733.330994 -0.058635 0.893161 0.445899 0.000000
43.994801 21.889601 -733.872314 0.423902 0.616736 -0.663282 0.000000
44.087700 21.676800 -733.979614 0.275686 0.415813 -0.866658 0.000000
44.319199 19.711700 -734.375488 0.668831 0.622361 0.406609 0.000000
44.484299 19.845800 -734.520630 -0.728797 0.551122 0.406349 0.000000
44.571899 20.042500 -734.586304 0.697178 0.642180 -0.318664 0.000000
44.768002 20.560801 -734.726379 -0.872260 0.152900 0.464526 0.000000
44.907501 20.754499 -734.841797 -0.578736 0.678806 0.451981 0.000000
44.986401 20.906000 -734.903320 -0.223926 0.962488 0.153212 0.000000
45.077000 21.126101 -734.969727 0.228889 0.872173 -0.432347 0.000000
45.155800 21.278799 -735.031128 -0.994246 0.105864 0.016371 0.000000
45.297600 21.492500 -735.146790 -0.896224 0.343329 -0.280906 0.000000
46.525200 22.948299 -736.184021 -0.557919 0.826176 -0.078480 0.000000
42.471699 22.348101 -732.562500 0.875906 0.480863 -0.039504 0.000000
42.559299 22.253000 -732.654480 0.484727 0.863193 -0.141197 0.000000
42.728298 22.027500 -732.835571 0.628750 0.642092 -0.438624 0.000000
42.849098 21.825001 -732.968872 0.554988 0.755625 -0.347879 0.000000
42.936401 21.724701 -733.060974 0.730096 0.597351 -0.331862 0.000000
43.011002 21.555599 -733.147095 0.764433 0.625719 -0.155299 0.000000
43.092499 21.422701 -733.236572 0.919558 0.339682 0.197556 0.000000
43.164299 21.236200 -733.321716 0.553597 0.523309 -0.647826 0.000000
43.309200 21.137100 -733.468689 0.340362 0.688868 -0.640012 0.000000
44.983601 21.044201 -735.073914 0.019139 0.353435 0.935263 0.000000
45.139599 21.227400 -735.206482 -0.839431 0.533133 -0.105471 0.000000
42.601002 22.137800 -732.764709 0.283948 0.873103 -0.396313 0.000000
44.479301 20.194300 -734.724487 0.606632 0.489002 0.626797 0.000000
44.618198 20.385300 -734.840271 -0.537574 0.635315 0.554426 0.000000
44.360001 20.191299 -734.568726 0.862189 0.443975 0.243959 0.000000
44.814999 20.819000 -734.947815 -0.449728 0.670412 0.590163 0.000000
42.291100 22.450899 -732.617310 0.439456 0.836686 -0.326855 0.000000
42.379101 22.356300 -732.708618 0.595718 0.767710 -0.236098 0.000000
42.590900 22.073900 -732.933105 0.799991 0.536980 -0.267707 0.000000
42.678001 21.972601 -733.024170 0.804686 0.441694 -0.396721 0.000000
42.760300 21.844101 -733.112976 0.244938 0.960106 -0.134913 0.000000
42.844002 21.722500 -733.202515 0.539055 0.742225 -0.398147 0.000000
42.926800 21.595400 -733.291626 0.671852 0.628933 -0.391226 0.000000
43.010799 21.474300 -733.381470 0.613565 0.583141 -0.532433 0.000000
43.080502 21.272699 -733.464417 0.344493 0.916265 -0.204409 0.000000
43.169701 21.177601 -733.556885 0.326127 0.924733 -0.196241 0.000000
43.262699 21.036100 -733.656982 0.938060 0.327042 0.114398 0.000000
43.980099 21.140600 -734.329224 -0.505944 0.650499 -0.566455 0.000000
44.126701 21.192101 -734.463989 0.410445 0.653056 0.636438 0.000000
44.282700 21.175900 -734.613403 0.510750 0.855044 0.089630 0.000000
44.415199 21.021900 -734.752014 0.800879 0.470255 -0.370747 0.000000
44.623001 20.683800 -734.977295 -0.455439 0.695670 0.555535 0.000000
44.749901 20.808901 -735.087280 -0.313577 0.741327 -0.593383 0.000000
44.989300 21.033199 -735.295776 0.156533 0.986740 -0.042902 0.000000
42.157200 22.471701 -732.757690 0.369561 0.866398 -0.335825 0.000000
42.239799 22.348499 -732.846313 0.343015 0.837958 -0.424461 0.000000
42.321701 22.221001 -732.934692 0.280319 0.905535 -0.318478 0.000000
42.410400 22.129700 -733.026611 0.424050 0.870736 -0.248997 0.000000
42.493801 22.008301 -733.115784 0.417070 0.835713 -0.357263 0.000000
42.580002 21.902000 -733.206604 0.785210 0.480840 -0.390177 0.000000
42.658901 21.754400 -733.293823 0.528225 0.438807 -0.726930 0.000000
42.741600 21.627100 -733.382874 0.277335 0.871409 -0.404637 0.000000
42.826000 21.507999 -733.473022 0.796447 0.458560 -0.394201 0.000000
42.899799 21.329800 -733.557922 0.457144 0.716470 -0.526963 0.000000
42.973801 21.150801 -733.643005 0.431145 0.725182 -0.536866 0.000000
43.056599 21.019699 -733.732483 0.532898 0.532898 -0.657297 0.000000
43.145100 20.920200 -733.824890 0.162564 0.830715 -0.532433 0.000000
43.248001 20.832300 -733.929871 -0.436304 0.846213 -0.305879 0.000000
43.789902 20.964899 -734.433594 -0.625291 0.746919 0.226103 0.000000
43.949501 21.276199 -734.559326 -0.227525 0.963405 -0.141715 0.000000
44.104599 21.256500 -734.708313 -0.264385 0.857342 -0.441661 0.000000
44.246799 21.160700 -734.851318 0.012277 0.552453 -0.833454 0.000000
44.311501 20.917500 -734.932922 0.790040 0.411984 -0.453990 0.000000
44.375702 20.670000 -735.014526 0.579609 0.790654 0.197281 0.000000
44.738400 20.941200 -735.336426 0.770130 0.581141 0.263010 0.000000
44.842098 20.860800 -735.441589 0.461261 0.826491 -0.322725 0.000000
44.425301 18.175699 -735.268982 0.988098 0.026213 0.151577 0.000000
44.501701 17.882299 -735.365784 -0.375247 0.793978 -0.478319 0.000000
44.526798 17.628500 -735.410889 -0.660551 0.026646 -0.750308 0.000000
44.467701 15.984600 -735.491272 0.308552 0.511089 -0.802236 0.000000
44.563099 15.917300 -735.587585 -0.035397 0.720681 -0.692363 0.000000
44.641800 15.725300 -735.678284 0.249043 0.260299 -0.932857 0.000000
44.667099 15.540400 -735.717712 0.772582 0.364426 -0.519914 0.000000
44.739101 15.303600 -735.805786 0.902418 0.119293 -0.414018 0.000000
44.713902 14.449900 -735.852783 0.647070 0.325968 -0.689235 0.000000
44.735699 14.237800 -735.891174 0.807722 0.097159 0.581502 0.000000
44.867298 14.060000 -736.030884 -0.540970 0.402850 -0.738284 0.000000
42.219501 22.297100 -733.019104 0.889493 0.387575 -0.242049 0.000000
42.309200 22.211100 -733.111328 0.515917 0.803064 -0.298191 0.000000
42.507301 21.849899 -733.329224 0.899660 0.291982 -0.324589 0.000000
42.668999 21.573999 -733.505493 0.125718 0.862685 -0.489866 0.000000
42.870800 21.221500 -733.726074 0.360343 0.817519 -0.449239 0.000000
43.068298 20.838301 -733.945313 0.318435 0.772885 -0.548860 0.000000
43.177799 20.710800 -734.059692 -0.009556 0.825872 -0.563777 0.000000
43.758900 21.082600 -734.580078 -0.770562 0.630724 0.091768 0.000000
43.914001 21.125401 -734.723572 0.359803 0.517923 0.776078 0.000000
44.063099 21.068701 -734.869812 -0.534549 0.169199 -0.828027 0.000000
44.143299 20.917101 -734.958374 -0.981314 0.103617 0.162130 0.000000
44.248402 17.780399 -735.318115 0.984344 0.138217 0.109372 0.000000
44.355999 17.685400 -735.427979 -0.900518 0.248267 0.356975 0.000000
44.373299 17.459299 -735.463074 -0.941596 0.011345 -0.336554 0.000000
44.380501 17.170601 -735.494019 -0.998710 0.023952 -0.044781 0.000000
44.396301 16.933001 -735.528625 0.762676 0.211941 0.611069 0.000000
44.427101 16.787300 -735.569885 -0.535908 0.017727 0.844090 0.000000
44.436901 16.510700 -735.602173 0.820331 0.293311 -0.490944 0.000000
44.438801 15.843300 -735.659180 -0.029172 0.812636 -0.582042 0.000000
44.517799 15.652300 -735.750122 0.533884 0.464030 -0.706855 0.000000
44.642399 15.400000 -735.889221 0.687192 0.533368 -0.493240 0.000000
44.657200 15.146500 -735.924316 0.676436 0.159609 -0.718999 0.000000
44.568001 14.232400 -735.915283 0.909245 0.206057 -0.361681 0.000000
44.726101 13.826500 -736.098999 -0.296110 0.387220 -0.873144 0.000000
44.780899 13.464700 -736.181030 0.917428 0.255724 -0.304846 0.000000
42.011200 22.487700 -732.897583 0.602883 0.776880 -0.181628 0.000000
42.100601 22.400101 -732.989502 0.490217 0.858978 -0.147797 0.000000
42.355000 22.058399 -733.258423 0.304101 0.931922 -0.197596 0.000000
42.552799 21.690399 -733.476074 0.368328 0.490567 -0.789733 0.000000
42.714199 21.408501 -733.652100 0.249234 0.587815 -0.769646 0.000000
42.911499 21.025200 -733.870422 0.398906 0.549932 -0.733790 0.000000
44.099701 20.419901 -735.045227 -0.869560 0.371359 0.325512 0.000000
44.423199 16.241600 -735.695618 -0.333214 0.495835 -0.801945 0.000000
44.523701 15.496100 -735.852112 -0.073931 0.674072 -0.734956 0.000000
44.580002 14.454200 -735.991089 0.693443 0.341011 -0.634704 0.000000
42.169998 22.249701 -733.152893 0.848704 0.482597 -0.216336 0.000000
42.374298 21.919100 -733.373230 0.450327 0.647869 -0.614387 0.000000
42.735500 21.271900 -733.767822 0.564460 0.725734 -0.393312 0.000000
43.911201 21.014099 -734.900879 -0.443644 0.509613 -0.737207 0.000000
44.048901 18.105900 -735.269470 0.753475 0.295951 0.587102 0.000000
44.168301 18.043699 -735.387512 0.273193 0.934461 0.228361 0.000000
44.257401 17.256201 -735.536316 0.942441 0.119313 0.312360 0.000000
44.271900 17.008900 -735.570313 -0.994937 0.074315 -0.067660 0.000000
44.338699 16.405300 -735.682922 0.988036 0.028490 0.151567 0.000000
44.400799 16.108999 -735.765930 0.655160 0.474195 0.588136 0.000000
44.498798 15.340000 -735.921570 0.018050 0.623407 -0.781689 0.000000
44.524101 14.799400 -735.989929 -0.873098 0.088575 0.479431 0.000000
44.697800 13.777000 -736.237915 0.642275 0.571473 -0.510785 0.000000
41.837002 22.613001 -733.024780 -0.160639 0.271332 -0.948986 0.000000
41.915798 22.468000 -733.111328 -0.133704 0.904967 -0.403928 0.000000
41.997898 22.339600 -733.199585 0.352111 0.825802 -0.440533 0.000000
42.133999 22.217300 -733.338501 0.501727 0.282905 0.817456 0.000000
42.202999 22.014900 -733.420471 0.583113 0.495730 -0.643608 0.000000
42.280899 21.860201 -733.506897 0.321415 0.608912 -0.725203 0.000000
42.363998 21.733299 -733.596008 0.535611 0.804198 -0.257656 0.000000
42.649601 21.253401 -733.905884 0.488544 0.763044 -0.423187 0.000000
42.738201 21.063700 -734.005310 0.907150 0.303360 0.291636 0.000000
43.010101 20.269800 -734.328003 0.082997 0.915692 -0.393217 0.000000
43.094002 20.137199 -734.418396 -0.683826 0.061904 -0.727015 0.000000
43.974899 17.684099 -735.453979 0.267185 0.959028 -0.094225 0.000000
44.049301 17.474001 -735.541687 0.856383 0.447273 -0.257983 0.000000
44.118500 17.230101 -735.627319 0.799824 0.125666 -0.586932 0.000000
44.119701 16.898600 -735.655579 0.268645 0.420422 0.866646 0.000000
44.138401 16.675200 -735.691711 -0.999721 0.023063 0.005014 0.000000
44.165901 16.506201 -735.731628 -0.972562 0.015475 0.232129 0.000000
44.224800 16.189301 -735.813416 -0.163041 0.338624 0.926688 0.000000
44.233898 15.901800 -735.845703 0.932974 0.334669 0.132501 0.000000
44.264900 15.751200 -735.887512 -0.963474 0.133564 -0.232116 0.000000
44.287701 15.547500 -735.925720 -0.961996 0.090948 -0.257472 0.000000
44.313900 15.365000 -735.965576 0.929702 0.109936 0.351522 0.000000
44.343102 15.199900 -736.006714 -0.831527 0.291737 -0.472707 0.000000
44.374298 15.047700 -736.048828 -0.787412 0.327423 -0.522280 0.000000
44.392502 14.811200 -736.085388 0.322701 0.909697 0.261373 0.000000
44.406502 14.546100 -736.120483 -0.450074 0.339530 0.825926 0.000000
44.426701 14.319700 -736.158203 0.647827 0.686794 -0.329596 0.000000
44.500000 14.077700 -736.247620 0.397032 0.484541 -0.779478 0.000000
44.571999 13.823800 -736.336487 0.575612 0.445474 -0.685729 0.000000
44.598301 13.633000 -736.377075 0.811218 0.233322 -0.536177 0.000000
44.653000 12.895100 -736.489624 0.757170 0.212132 -0.617814 0.000000
44.672600 12.655100 -736.527771 0.724545 0.176158 -0.666336 0.000000
44.830200 11.987100 -736.731873 0.958178 0.213962 0.190041 0.000000
41.964901 22.198500 -733.495117 0.636047 0.615908 -0.464868 0.000000
43.749802 17.316999 -735.590515 -0.229505 0.747844 -0.622943 0.000000
43.817600 17.064501 -735.675720 0.692674 0.405024 -0.596790 0.000000
43.879601 16.773199 -735.758484 -0.098620 0.693281 -0.713888 0.000000
43.903099 16.579399 -735.796814 -0.540394 0.199413 -0.817441 0.000000
43.927601 16.390800 -735.835571 -0.670589 0.080005 -0.737502 0.000000
43.994999 16.127899 -735.921326 -0.588771 0.252779 -0.767757 0.000000
44.021301 15.948400 -735.960999 -0.397431 0.572234 0.717354 0.000000
44.050098 15.784100 -736.001892 0.515191 0.083736 0.852975 0.000000
44.107700 15.452500 -736.083801 0.223012 0.940531 -0.256257 0.000000
44.134201 15.271500 -736.124023 0.259932 0.025627 -0.965287 0.000000
44.156502 15.061800 -736.162415 0.713280 0.666457 -0.216950 0.000000
44.175800 14.832800 -736.199707 0.824406 0.238847 -0.513135 0.000000
44.201801 14.644900 -736.239807 0.528725 0.401045 -0.748072 0.000000
44.234200 14.497800 -736.282715 0.652882 0.089096 -0.752202 0.000000
44.266899 14.352000 -736.325684 0.855684 0.215049 -0.470701 0.000000
44.322201 13.992100 -736.407898 0.870912 0.341324 0.353569 0.000000
44.339802 13.745600 -736.444885 -0.772650 0.353258 0.527467 0.000000
44.351898 13.461300 -736.479919 0.788025 0.570424 -0.231589 0.000000
44.409500 13.108700 -736.563721 -0.945191 0.018879 -0.325971 0.000000
44.418900 12.803100 -736.597778 0.983159 0.166454 -0.075443 0.000000
44.470100 12.401800 -736.679504 0.419776 0.598968 -0.681928 0.000000
44.466099 12.002600 -736.708679 -0.781369 0.158080 0.603716 0.000000
44.491699 11.799200 -736.749817 0.479443 0.721653 -0.499351 0.000000
44.498100 11.465800 -736.783386 -0.691342 0.199515 0.694435 0.000000
44.601002 11.400200 -736.886414 -0.487233 0.331700 -0.807824 0.000000
44.698502 11.092000 -737.004272 0.936812 0.120312 -0.328493 0.000000
43.667000 16.086300 -735.923828 0.868277 0.045409 0.493996 0.000000
43.734600 15.822800 -736.009583 -0.279163 0.152393 -0.948074 0.000000
43.766399 15.677600 -736.051819 0.932190 0.348394 -0.098196 0.000000
43.935902 15.008300 -736.267700 0.893161 0.084469 0.441734 0.000000
43.963100 14.829200 -736.308228 0.950048 0.235134 -0.205232 0.000000
43.983200 14.604100 -736.346008 -0.333695 0.138696 -0.932422 0.000000
44.006699 14.399400 -736.385071 -0.457395 0.155369 -0.875585 0.000000
44.029099 14.186700 -736.424011 -0.640240 0.603271 -0.475559 0.000000
44.102798 13.945900 -736.513672 0.663631 0.488903 -0.566187 0.000000
44.133301 13.783500 -736.556030 0.259783 0.314933 -0.912869 0.000000
44.191299 13.436500 -736.639771 -0.122506 0.270041 -0.955024 0.000000
44.216400 13.235900 -736.680115 0.907881 0.109836 -0.404584 0.000000
44.237301 13.006400 -736.718872 0.609843 0.596329 -0.521999 0.000000
44.253502 12.745200 -736.755920 0.774915 0.058511 -0.629351 0.000000
44.275799 12.522600 -736.795410 -0.986286 0.012485 -0.164570 0.000000
44.306000 12.351500 -736.838196 -0.837361 0.087315 -0.539632 0.000000
44.329102 12.132900 -736.878174 0.769261 0.291459 -0.568585 0.000000
44.391102 11.796400 -736.964783 -0.469435 0.185108 -0.863346 0.000000
44.491100 11.333300 -737.097900 -0.812189 0.573053 -0.109361 0.000000
44.495800 10.983400 -737.131287 0.110279 0.358066 -0.927161 0.000000
44.578701 10.778100 -737.226807 -0.206991 0.445255 -0.871150 0.000000
44.677399 10.678400 -737.328430 -0.370060 0.685845 -0.626635 0.000000
44.826099 10.620000 -737.474121 0.088230 0.805645 -0.585792 0.000000
44.204601 4.644900 -738.641174 -0.444618 0.577837 -0.684412 0.000000
44.321602 4.637300 -738.752075 -0.249255 0.815884 -0.521732 0.000000
43.481300 2.225300 -739.181274 -0.492119 0.582816 -0.646641 0.000000
43.649200 2.213000 -739.336304 0.448915 0.720583 0.528427 0.000000
43.131901 3.751100 -738.785400 -0.651246 0.308655 -0.693261 0.000000
42.911598 8.976100 -738.237000 -0.785255 0.187546 0.590085 0.000000
42.902802 3.477400 -738.764526 -0.584948 0.419240 -0.694315 0.000000
43.176102 3.383700 -739.010620 0.722404 0.307303 0.619433 0.000000
43.621601 2.322500 -739.454712 0.556637 0.733972 0.389153 0.000000
43.814602 2.275400 -739.636475 0.659894 0.376847 0.650020 0.000000
43.702202 2.378600 -739.268311 -0.641007 0.395867 -0.657570 0.000000
43.827099 2.390400 -739.381226 -0.615013 0.317999 -0.721551 0.000000
43.538502 7.387200 -738.345886 -0.664323 0.143108 -0.733618 0.000000
43.569401 7.184900 -738.397522 -0.361353 0.216231 -0.907010 0.000000
43.658100 6.966500 -738.503723 0.823781 0.493646 0.278746 0.000000
43.680302 6.700500 -738.554810 -0.619365 0.511355 0.595738 0.000000
43.583698 5.588700 -738.594788 0.314636 0.902548 -0.293956 0.000000
43.696400 5.415900 -738.717773 0.754039 0.563511 0.337461 0.000000
43.709202 4.893400 -738.613403 -0.473350 0.879859 0.042288 0.000000
43.868500 4.920700 -738.755676 -0.555357 0.738837 -0.381705 0.000000
43.997299 4.975000 -738.867126 -0.426150 0.765765 -0.481664 0.000000
43.720600 5.086000 -738.488220 -0.646880 0.710769 -0.276322 0.000000
43.869499 5.063100 -738.626892 0.658618 0.381305 0.648714 0.000000
42.656502 4.309100 -737.475098 -0.671704 0.085966 -0.735815 0.000000
42.792000 4.248700 -737.606018 -0.671704 0.085966 -0.735815 0.000000
42.881599 4.025200 -737.713684 -0.671870 0.083073 -0.735996 0.000000
44.008999 6.410000 -738.470886 -0.160521 0.948288 -0.273830 0.000000
44.131199 6.425300 -738.580994 -0.649773 0.219707 -0.727684 0.000000
43.976398 4.434600 -738.668274 0.140722 0.868993 -0.474392 0.000000
44.088501 4.399600 -738.774780 -0.467398 0.517298 -0.716898 0.000000
43.927502 7.379800 -738.048828 -0.933270 0.330276 0.141155 0.000000
43.975800 6.875200 -738.150818 0.280380 0.931312 -0.232476 0.000000
44.010700 6.697300 -738.203186 -0.864589 0.086036 -0.495059 0.000000
44.130299 6.695400 -738.312805 0.569695 0.502474 0.650360 0.000000
44.251301 6.703500 -738.422485 0.373856 0.634072 0.676893 0.000000
44.375599 6.735800 -738.532471 0.732958 0.202997 0.649280 0.000000
42.634201 1.283100 -737.041626 -0.786895 0.272811 -0.553507 0.000000
42.734200 1.430100 -737.116211 0.649240 0.240518 0.721553 0.000000
43.041199 1.835100 -737.350708 -0.608692 0.790005 -0.073388 0.000000
41.875099 22.076200 -733.531616 -0.707055 0.130050 -0.695097 0.000000
41.963402 21.959400 -733.625610 -0.347196 0.461343 -0.816466 0.000000
43.744701 16.304199 -735.899902 -0.961391 0.013437 0.274858 0.000000
43.806900 15.976200 -735.994202 -0.204145 0.106456 -0.973135 0.000000
43.935001 15.706300 -736.142212 0.628932 0.541252 0.558114 0.000000
43.973400 15.213100 -736.233521 0.028732 0.513076 0.857862 0.000000
44.412998 11.181200 -737.095215 -0.293331 0.115474 -0.949012 0.000000
41.702900 22.571301 -733.138184 -0.020727 0.584507 -0.811124 0.000000
41.924000 22.288700 -733.372681 0.260079 0.814500 -0.518602 0.000000
42.139801 22.089800 -733.593018 -0.104154 0.781889 -0.614656 0.000000
43.736198 19.779800 -735.317627 -0.553336 0.600716 -0.577026 0.000000
43.847000 19.752100 -735.422180 -0.326112 0.666826 -0.670071 0.000000
44.044498 15.612300 -736.073792 -0.231759 0.586398 -0.776160 0.000000
44.232601 14.214800 -736.405029 -0.911936 0.269072 0.309796 0.000000
44.400799 12.228000 -736.784912 0.736999 0.661948 0.136592 0.000000
44.468700 11.494400 -736.930481 0.976528 0.205521 0.064453 0.000000
44.601002 11.200700 -737.085022 0.780810 0.513564 -0.355792 0.000000
44.706501 10.902300 -737.215576 -0.574768 0.273925 -0.771107 0.000000
43.782501 19.949400 -735.191223 -0.295091 0.767237 -0.569446 0.000000
43.918301 19.893600 -735.322021 -0.199115 0.646738 -0.736263 0.000000
43.337399 10.183100 -735.892029 0.009927 0.991588 -0.129050 0.000000
43.452999 10.172300 -735.999329 -0.676063 0.067750 -0.733723 0.000000
44.943100 1.638600 -738.334900 0.662495 0.669006 0.336945 0.000000
42.496799 21.497200 -733.639526 0.220377 0.256414 -0.941109 0.000000
42.580700 21.351101 -733.733093 0.790371 0.109977 0.602676 0.000000
42.831799 20.901100 -734.014526 0.419406 0.738484 -0.527958 0.000000
42.967899 20.849400 -734.145203 0.751772 0.491859 0.439219 0.000000
44.258701 16.671801 -735.802979 0.993522 0.086835 0.073302 0.000000
44.616001 12.147500 -736.643372 0.549933 0.597312 -0.583775 0.000000
44.673100 11.738400 -736.742004 0.138241 0.990168 0.021354 0.000000
43.665501 20.967699 -734.553223 -0.806815 0.521688 0.277294 0.000000
44.238899 20.751600 -735.103516 0.640586 0.758940 0.116874 0.000000
44.418800 15.925500 -735.813721 -0.356056 0.387153 -0.850492 0.000000
44.495201 15.683400 -735.911194 0.024535 0.370611 0.928464 0.000000
44.559200 14.971400 -736.050171 -0.796261 0.023624 0.604491 0.000000
44.686199 13.506900 -736.332275 0.852813 0.098566 -0.512830 0.000000
43.548801 20.971701 -734.116089 -0.452990 0.613459 -0.646890 0.000000
43.709400 20.956200 -734.264893 -0.589268 0.676072 -0.442368 0.000000
44.648201 20.710400 -735.152588 0.043863 0.621156 -0.782458 0.000000
44.763599 21.107901 -735.213501 -0.398661 0.736621 0.546314 0.000000
42.460400 22.230200 -732.866089 0.738409 0.558309 -0.378210 0.000000
43.673302 21.064301 -734.109070 -0.425008 0.631678 -0.648345 0.000000
43.841499 21.097900 -734.259583 -0.512226 0.769152 -0.382137 0.000000
44.451698 20.839500 -734.847778 0.496044 0.596934 -0.630564 0.000000
44.798199 20.976299 -735.149902 0.277351 0.838250 0.469482 0.000000
43.753101 21.372999 -734.019226 0.377417 0.295568 -0.877608 0.000000
43.780998 21.211201 -734.062988 -0.501102 0.409696 -0.762263 0.000000
43.942699 21.763399 -733.979797 0.467951 0.494408 -0.732518 0.000000
43.413601 20.807100 -733.419312 0.202356 0.743004 -0.637964 0.000000
43.513199 20.750200 -733.516785 0.575669 0.769145 0.277527 0.000000
43.585602 19.190100 -733.758728 -0.870651 0.146804 0.469483 0.000000
43.688400 18.803801 -733.896179 0.811689 0.029238 -0.583358 0.000000
43.763401 18.583900 -733.989685 -0.073554 0.055989 -0.995718 0.000000
43.950100 18.712999 -734.146118 0.612310 0.286171 0.737010 0.000000
44.703201 20.351700 -734.651123 -0.870059 0.159389 0.466469 0.000000
45.599899 21.959000 -735.290894 -0.138622 0.007763 -0.990315 0.000000
43.136700 21.099600 -732.963684 0.793850 0.268808 0.545477 0.000000
43.499298 20.987900 -733.308228 0.661850 0.693900 0.283650 0.000000
43.559200 20.032200 -733.470520 0.774366 0.550838 0.311343 0.000000
46.280800 22.549400 -735.678589 -0.397512 0.893301 0.209757 0.000000
46.407299 22.683201 -735.779419 -0.320502 0.819413 0.475228 0.000000
43.462399 21.527800 -733.043701 -0.804600 0.372707 -0.462285 0.000000
45.039101 21.219900 -734.521973 -0.672500 0.126746 -0.729163 0.000000
45.033501 21.707500 -734.241882 -0.310895 0.255946 -0.915334 0.000000
45.160400 21.483400 -734.383179 0.481126 0.422412 0.768170 0.000000
45.253399 21.385799 -734.479126 0.435124 0.591835 -0.678527 0.000000
45.439602 21.541500 -734.632080 -0.068808 0.315478 -0.946435 0.000000
45.593399 21.840099 -734.739380 -0.178293 0.960140 0.215272 0.000000
45.193401 21.965401 -734.090515 -0.111781 0.387783 0.914948 0.000000
45.419601 21.339199 -734.367126 0.103221 0.389488 -0.915229 0.000000
45.493198 21.114599 -734.459473 -0.547774 0.494169 -0.675085 0.000000
45.579102 21.320601 -734.515015 -0.908033 0.249235 -0.336686 0.000000
44.616402 22.615101 -733.236816 -0.729732 0.607304 -0.314123 0.000000
45.831100 21.722401 -734.445679 0.428195 0.857924 -0.283928 0.000000
46.083500 21.813101 -734.666199 -0.186866 0.294833 0.937099 0.000000
46.163399 21.985399 -734.719971 -0.051545 0.959243 0.277841 0.000000
44.321999 22.498800 -732.804016 0.859696 0.356535 -0.365795 0.000000
44.444901 22.481100 -732.918213 -0.761989 0.646919 -0.029469 0.000000
46.344398 21.891399 -734.719421 -0.046651 0.603636 0.795894 0.000000
46.282600 21.864901 -734.569275 -0.503269 0.847690 -0.167756 0.000000
46.512699 21.964199 -734.768677 -0.179725 0.918439 -0.352375 0.000000
44.430698 22.572500 -732.717896 -0.059536 0.277411 -0.958905 0.000000
45.061001 22.810499 -733.267578 -0.149666 0.981956 -0.115596 0.000000
45.220699 22.803101 -733.414490 0.057137 0.998340 -0.007272 0.000000
45.313599 22.712700 -733.509521 0.442073 0.774851 -0.451860 0.000000
44.890301 22.850300 -733.029297 -0.398044 0.903089 -0.161215 0.000000
46.284302 22.039600 -734.327515 -0.279075 0.613965 0.738352 0.000000
46.418598 22.003000 -734.454407 -0.344446 0.625227 -0.700320 0.000000
46.535801 22.068001 -734.554382 -0.944754 0.314918 -0.090918 0.000000
45.396400 22.990400 -733.183289 0.075893 0.955734 -0.284276 0.000000
45.511501 22.919201 -733.296814 0.012304 0.827118 -0.561893 0.000000
44.609001 22.718201 -732.481995 0.359858 0.932535 0.029666 0.000000
45.025700 22.975599 -732.836121 -0.297875 0.942590 -0.150978 0.000000
45.034100 22.979200 -732.314087 0.558262 0.384726 0.735072 0.000000
45.195702 22.987200 -732.461975 0.910634 0.160034 0.380965 0.000000
45.310101 23.034800 -732.562195 0.043063 0.091646 -0.994860 0.000000
45.471600 23.043501 -732.710022 0.128200 0.940585 0.314428 0.000000
45.630001 23.033600 -732.856873 0.302828 0.952980 0.011124 0.000000
45.721401 22.937099 -732.951721 -0.382140 0.369662 -0.846947 0.000000
45.814701 22.795799 -733.053101 0.392563 0.919458 0.022171 0.000000
43.590000 0.367300 -737.567871 -0.287200 0.694736 -0.659438 0.000000
43.695801 0.367600 -737.694885 0.714285 0.265669 0.647470 0.000000
43.808800 0.378300 -737.812622 0.338470 0.781208 0.524549 0.000000
43.980400 0.472800 -737.854004 -0.512694 0.849649 -0.123453 0.000000
42.790401 0.441900 -737.746277 -0.388249 0.296897 -0.872419 0.000000
42.966801 0.542500 -737.783020 -0.174686 0.982757 0.060605 0.000000
43.091301 0.644400 -737.754517 -0.872862 0.403907 0.273809 0.000000
43.265598 0.742500 -737.793213 0.193092 0.957470 0.214399 0.000000
43.386299 0.764100 -737.900879 0.347048 0.887901 0.301976 0.000000
43.498299 0.773500 -738.019897 0.599103 0.061191 0.798330 0.000000
43.694698 0.903500 -738.028870 -0.894515 0.401291 -0.196998 0.000000
43.889500 1.031600 -738.039429 -0.545056 0.809140 -0.219558 0.000000
44.050900 1.112200 -738.093018 -0.460894 0.856809 -0.231203 0.000000
44.195599 1.168900 -738.168274 -0.114249 0.993423 -0.007617 0.000000
42.330700 1.155500 -736.955322 -0.442870 0.837227 -0.320807 0.000000
42.450100 1.175800 -737.064209 -0.442870 0.837227 -0.320807 0.000000
42.574799 1.203600 -737.166321 -0.459958 0.820337 -0.339831 0.000000
42.698799 1.230500 -737.269287 -0.454235 0.811247 -0.368169 0.000000
42.797901 1.222100 -737.404175 -0.435074 0.814369 -0.384076 0.000000
42.874599 1.181800 -737.567993 -0.076356 0.951209 0.298951 0.000000
43.027000 1.249000 -737.634277 -0.344688 0.787171 -0.511421 0.000000
43.213902 1.365500 -737.655823 0.494727 0.736300 0.461635 0.000000
43.362999 1.428400 -737.725586 -0.281430 0.944898 0.167227 0.000000
43.511902 1.491200 -737.795471 0.673624 0.080020 0.734730 0.000000
43.581902 1.441200 -737.968384 0.917045 0.296054 0.267171 0.000000
43.620300 1.345800 -738.182983 -0.869201 0.417156 -0.265463 0.000000
43.697102 1.305000 -738.347778 -0.405534 0.840818 -0.358561 0.000000
43.823002 1.334700 -738.448120 0.867597 0.023010 0.496736 0.000000
42.985199 1.548600 -737.646484 -0.683775 0.583954 -0.437549 0.000000
43.147499 1.645500 -737.672729 0.126461 0.436219 0.890910 0.000000
43.298401 1.711500 -737.739685 0.275533 0.238795 0.931160 0.000000
43.424400 1.742100 -737.838989 -0.707545 0.052887 -0.704686 0.000000
43.535599 1.751500 -737.957581 -0.707717 0.497900 -0.501230 0.000000
43.612900 1.712300 -738.120972 -0.866143 0.450274 -0.216910 0.000000
43.599701 1.618200 -738.271179 0.463319 0.297960 0.834599 0.000000
43.585701 1.447200 -738.556091 0.003631 0.962200 -0.272321 0.000000
43.708801 1.548900 -738.526428 -0.514597 0.374991 -0.771085 0.000000
43.869999 1.629800 -738.579529 -0.449472 0.623245 -0.639954 0.000000
42.959499 1.730200 -737.526917 -0.770948 0.471045 -0.428667 0.000000
43.352699 1.864700 -737.768799 -0.459041 0.311772 -0.831913 0.000000
43.508801 1.938900 -737.828003 -0.601043 0.260294 -0.755642 0.000000
43.622101 1.952000 -737.943176 -0.803378 0.151101 -0.575979 0.000000
43.688801 1.897700 -738.120483 -0.944021 0.210240 -0.254212 0.000000
43.728100 1.804000 -738.334412 -0.890987 0.300989 -0.339923 0.000000
43.803600 1.762000 -738.500610 -0.992573 0.118931 -0.025565 0.000000
43.827202 1.648400 -738.730225 -0.191268 0.981537 0.001145 0.000000
43.189899 1.835500 -737.692688 0.211117 0.283820 0.935348 0.000000
43.858898 1.950000 -738.310303 -0.423259 0.866239 -0.265485 0.000000
43.820900 1.583300 -738.911804 -0.135669 0.957585 -0.254214 0.000000
43.154400 2.127600 -737.564697 -0.052393 0.909484 0.412425 0.000000
43.349998 2.210500 -737.657471 0.118640 0.186078 0.975346 0.000000
43.492901 2.267100 -737.732178 0.584620 0.517229 0.625055 0.000000
43.603699 2.277100 -737.849915 0.866594 0.317495 0.384982 0.000000
43.686600 2.220800 -738.050781 0.720408 0.668182 -0.185862 0.000000
43.714199 2.147400 -738.214417 0.900265 0.406617 -0.155513 0.000000
43.734299 2.066300 -738.382019 0.841648 0.495890 -0.213824 0.000000
43.810101 2.018900 -738.558411 0.789101 0.472815 -0.392130 0.000000
42.900398 2.164600 -737.582214 0.340936 0.754582 -0.560685 0.000000
43.055801 2.213200 -737.685974 -0.931068 0.185655 -0.314078 0.000000
43.250999 2.345000 -737.691284 -0.538717 0.832296 0.130643 0.000000
43.408298 2.422400 -737.746582 -0.675449 0.507844 -0.534661 0.000000
43.542900 2.466900 -737.832275 -0.737085 0.292596 -0.609174 0.000000
43.650398 2.462700 -737.970825 -0.668389 0.275970 -0.690722 0.000000
43.752998 2.462800 -738.095825 -0.902716 0.140297 -0.406718 0.000000
43.685101 2.295600 -738.308105 0.973381 0.013042 -0.228822 0.000000
43.697899 2.212500 -738.470581 0.820490 0.517635 0.242593 0.000000
43.040798 2.570700 -737.435730 0.204959 0.899782 0.385206 0.000000
43.127800 2.535700 -737.603577 -0.139500 0.941286 -0.307442 0.000000
43.266399 2.586000 -737.683777 0.136256 0.839513 0.525978 0.000000
43.418900 2.656400 -737.745300 0.247679 0.708330 0.661003 0.000000
43.554298 2.702300 -737.829529 0.669709 0.340558 0.659932 0.000000
42.881302 2.615500 -737.612488 -0.755418 0.312753 -0.575786 0.000000
43.014599 2.683400 -737.655212 -0.155160 0.987889 0.001116 0.000000
43.223598 2.835300 -737.641479 -0.439025 0.465138 0.768702 0.000000
43.410599 2.956000 -737.656311 0.503343 0.207081 0.838906 0.000000
43.527401 2.975100 -737.765076 0.791096 0.067236 0.607985 0.000000
43.635601 2.981700 -737.885376 0.818605 0.127861 0.559944 0.000000
43.698002 2.943800 -738.028625 0.927881 0.043188 0.370367 0.000000
43.746700 2.891400 -738.180725 -0.992474 0.080717 -0.092085 0.000000
43.690899 2.736500 -738.386475 -0.924946 0.377610 0.043419 0.000000
43.674500 2.549000 -738.697876 0.400786 0.452293 -0.796744 0.000000
42.853500 2.940300 -737.545410 0.907111 0.265246 0.326794 0.000000
42.986900 2.927000 -737.731628 0.318884 0.678236 0.662049 0.000000
43.160099 3.027500 -737.765076 -0.033892 0.181148 0.982872 0.000000
43.293201 3.145100 -737.719482 0.724071 0.676100 -0.136419 0.000000
43.418400 3.251300 -737.684326 -0.636157 0.139206 -0.758898 0.000000
43.531101 3.264900 -737.797913 -0.894674 0.078577 -0.439755 0.000000
43.630699 3.259300 -737.929321 -0.838653 0.260059 -0.478571 0.000000
43.698898 3.227300 -738.069214 -0.816015 0.331160 -0.473764 0.000000
43.766602 3.193600 -738.211304 -0.800096 0.449148 -0.397633 0.000000
42.856800 3.201900 -737.672913 -0.597952 0.438054 -0.671239 0.000000
43.077000 3.321100 -737.730530 0.496132 0.042604 0.867201 0.000000
43.220402 3.453400 -737.671082 0.944563 0.207611 0.254358 0.000000
43.405998 3.572400 -737.686890 -0.287833 0.771266 -0.567715 0.000000
43.537399 3.613200 -737.774902 -0.744497 0.073727 -0.663542 0.000000
43.647800 3.623600 -737.891113 -0.785594 0.107193 -0.609386 0.000000
43.751499 3.624100 -738.016479 -0.817745 0.235621 -0.525143 0.000000
43.745701 3.815600 -738.236511 -0.976187 0.192260 0.100472 0.000000
43.617001 3.598300 -738.464111 -0.717158 0.092395 0.690759 0.000000
42.906200 3.915400 -737.543823 0.442887 0.303028 -0.843816 0.000000
43.119598 4.023600 -737.612122 -0.581343 0.725451 0.368457 0.000000
43.297600 4.131900 -737.637085 -0.903908 0.339517 0.260149 0.000000
43.490200 4.261700 -737.642029 -0.595236 0.116108 -0.795118 0.000000
43.612900 4.290300 -737.740479 0.699671 0.340865 0.627910 0.000000
