30.951401 54.611900 -890.160217
29.556499 54.006599 -890.563293
25.125401 51.902901 -891.786621
23.689501 51.290798 -892.204895
50.221802 67.912399 -885.532471
49.614700 66.525497 -885.351685
48.710499 65.279999 -885.342102
36.215099 57.831699 -888.304504
34.837502 57.244598 -888.705383
33.355801 56.642399 -889.145630
32.102100 55.687401 -889.377075
28.051800 53.601002 -890.441223
26.721300 52.934299 -890.796692
47.329300 64.124397 -884.895630
44.950500 62.304001 -885.329407
40.706699 59.970402 -886.393982
37.952599 59.482601 -887.411194
23.808901 52.461700 -891.199585
46.123402 63.113701 -884.430908
39.135700 60.125301 -886.451172
36.370201 59.351398 -887.381104
33.499699 57.784599 -888.102905
30.794399 56.133301 -888.727417
29.402300 55.477402 -889.110474
28.083700 54.745499 -889.438171
26.757799 54.090801 -889.793579
25.345900 53.632900 -890.248291
49.655499 69.423798 -884.358215
48.261299 66.955101 -884.162476
47.252102 65.794403 -884.221130
34.876301 58.832401 -887.260925
31.993500 57.327301 -888.006226
22.876699 53.565201 -890.682312
44.653599 63.043400 -883.893982
40.490501 61.371700 -885.130127
37.767700 60.669300 -886.063721
23.995300 54.216000 -889.857483
38.905499 61.324100 -885.230225
36.173302 60.663502 -886.180603
33.352699 58.964901 -886.835571
30.563200 57.832401 -887.658875
29.180201 57.324200 -888.084412
27.784000 56.670101 -888.468384
26.458599 55.898701 -888.784729
25.121901 55.130600 -889.106995
48.573200 70.363701 -883.485413
46.722900 66.778198 -883.119385
45.238499 63.987999 -882.853516
43.152000 62.981800 -883.416687
34.712898 60.239899 -886.121094
31.830700 58.731800 -886.861023
22.682301 55.040501 -889.561829
47.282600 69.112099 -883.104797
45.494499 65.863503 -882.817322
40.151199 62.365200 -883.956726
37.476299 61.864899 -884.929626
29.541500 58.954601 -887.357117
28.067699 58.321400 -887.778015
23.813000 55.922199 -888.809692
44.184898 65.083298 -882.604919
35.926102 61.782398 -885.040222
33.210602 60.169601 -885.670898
30.690300 59.717800 -886.593079
26.599300 57.735100 -887.687378
25.269199 57.000999 -888.014282
47.396999 71.110298 -882.812805
46.051102 68.357399 -882.494629
41.928501 63.527500 -882.682129
38.610401 62.764999 -883.840881
34.433102 61.469101 -884.926514
31.729099 60.568600 -885.780029
28.365900 59.744301 -886.732300
26.971701 59.179600 -887.139282
23.761900 57.264599 -887.878479
44.551102 66.893799 -882.041687
42.789101 64.979301 -881.958801
39.708500 63.472599 -882.773193
37.035500 63.044601 -883.762024
25.487600 58.678699 -887.226074
46.132500 69.972198 -881.801514
35.532600 62.883801 -883.991516
32.841900 61.404499 -884.650330
30.190901 60.942001 -885.618896
46.451801 71.818298 -881.846313
44.928299 68.744003 -881.499207
43.083000 66.545998 -881.570129
41.267700 64.632202 -881.719788
38.206600 63.941101 -882.789001
23.939501 58.555401 -887.074829
33.981899 62.946301 -883.877625
31.365700 61.781700 -884.607178
28.686501 61.231201 -885.561523
27.298901 60.736099 -885.988098
25.893900 60.042400 -886.357971
49.053799 76.984398 -881.778198
43.623299 67.945396 -881.156128
39.708302 64.681503 -881.757080
41.577801 66.104599 -881.288086
36.265301 63.984100 -882.847290
47.687698 76.304001 -881.889587
32.495300 62.628799 -883.639282
29.844999 62.084900 -884.582825
24.414801 59.735901 -886.118408
46.424099 75.345497 -881.535217
38.229599 65.194901 -881.724304
34.651402 64.036201 -882.862488
49.526798 77.131302 -880.308472
44.509499 71.014801 -880.453003
43.596298 69.583603 -880.376282
42.258400 67.824699 -880.373474
40.118198 66.308098 -880.788818
30.934200 62.988899 -883.602722
28.316299 62.273998 -884.479675
26.842400 61.786400 -884.945923
48.174301 76.396698 -880.166809
36.725300 65.449699 -881.464722
35.328701 65.043701 -881.924927
33.143799 64.055199 -882.529907
25.381100 61.266998 -884.914612
40.720001 67.624702 -880.088501
38.586498 66.531998 -880.637817
29.394600 63.318100 -883.490601
23.891500 60.905701 -885.039673
46.798801 75.669098 -879.784973
44.753300 72.827400 -879.726318
42.106400 69.471802 -879.755127
31.622200 64.330704 -882.522583
45.416698 74.732399 -879.747925
43.291801 71.212196 -879.500610
33.846600 65.339699 -881.585327
27.260201 62.974998 -883.602478
49.426800 77.328400 -878.593323
39.229099 67.640404 -879.745178
37.074501 66.844597 -880.396118
30.039301 64.388397 -882.567627
25.797001 62.562901 -883.764771
48.048698 76.639099 -878.548218
40.777000 69.031403 -879.136108
35.531799 66.432800 -880.502319
32.284599 65.315498 -881.508179
24.292200 62.315102 -883.902588
46.050201 75.345299 -878.482178
43.591599 73.030296 -878.763672
41.860802 70.942299 -878.812195
28.466900 64.431900 -882.340271
39.257000 68.904701 -878.822388
37.871201 68.415604 -879.247620
34.022800 66.486504 -880.241089
30.760000 65.660698 -881.348877
26.945999 64.019798 -882.422424
48.504398 77.569199 -877.364990
44.682598 74.551804 -877.989380
40.405602 70.338303 -878.414185
36.382702 68.093201 -879.376770
25.384199 63.813702 -882.617188
47.147301 76.747704 -877.267883
42.291599 72.662300 -877.976807
34.912800 67.699097 -879.462402
32.457500 66.606796 -880.140198
29.219700 65.557602 -881.162170
43.291801 73.978699 -877.596497
40.931900 71.966103 -877.931030
27.503901 65.098000 -881.338623
45.798199 76.197304 -876.830872
39.059299 70.133698 -877.674927
37.604301 69.677101 -878.137329
33.360901 67.512901 -879.212524
30.909300 66.783203 -880.004700
25.926001 65.036003 -881.528320
18.170900 61.795300 -883.728027
47.750401 78.087700 -876.103271
44.487701 75.455299 -876.608582
36.013500 69.495300 -878.210327
29.391500 66.741898 -880.089111
22.575399 65.679802 -882.607117
21.328400 64.769302 -882.831726
20.071400 63.901199 -883.074524
16.721701 61.035702 -883.539673
15.341200 60.305901 -883.880127
46.466400 77.299698 -875.892212
42.072102 74.149803 -876.699402
40.919102 73.096703 -876.836426
39.605400 72.113998 -877.064087
34.580002 68.968903 -878.138184
31.929701 68.058899 -878.951904
27.801600 66.574203 -880.197083
19.058901 62.781601 -882.619995
13.974100 59.652901 -883.724487
12.584400 59.047199 -884.108704
38.362701 71.240997 -876.880981
23.819799 66.194702 -881.321716
45.115501 76.705200 -875.488586
43.195202 75.285202 -875.824585
36.900299 70.775597 -876.974487
33.006599 68.918999 -877.994019
30.386299 68.166801 -878.844482
26.290300 66.750397 -880.094177
17.653099 62.174301 -882.204529
46.698601 78.855904 -875.263184
35.417000 70.501801 -877.228210
28.848900 67.889503 -879.115112
21.723600 65.601501 -881.342285
20.461700 64.566200 -881.528870
15.693700 61.254700 -882.431580
24.906900 67.418297 -880.258118
14.185600 60.688702 -882.512329
40.880901 74.359901 -875.697815
39.606899 73.502403 -875.945496
33.865898 70.103996 -877.213684
31.488100 69.241402 -877.917297
19.019501 63.936600 -881.351013
12.726200 60.016800 -882.677612
11.295100 59.650200 -883.151123
38.249500 72.604103 -875.956970
45.194801 77.912003 -874.531311
43.796799 76.634499 -874.690430
41.849899 75.522003 -875.129517
23.436701 67.040901 -879.948120
16.404699 62.371700 -881.321594
36.900200 71.822601 -875.634827
35.486900 71.554497 -876.128601
32.348900 70.036400 -876.924011
29.995701 69.614601 -877.754211
27.887899 68.800201 -878.355530
25.935499 68.476097 -879.052917
21.939100 66.435402 -880.030884
20.599899 65.512100 -880.280518
17.597601 63.403198 -880.827515
45.646301 79.446198 -874.161621
14.850500 62.067299 -881.122620
13.066100 60.981400 -881.500183
39.882702 74.850197 -874.656006
38.557701 73.838600 -874.867676
33.938499 71.294197 -875.926819
24.445000 68.256699 -878.818970
19.047300 65.196602 -880.028015
43.837299 78.245697 -873.866028
42.400101 76.881104 -874.007202
30.848499 70.430496 -876.617981
28.526400 69.899399 -877.392883
26.512899 69.500702 -878.085083
37.131100 73.155899 -874.765930
16.172701 63.424999 -880.138123
41.061199 76.000000 -873.898621
22.956100 67.790497 -878.593079
20.729401 66.435898 -879.057983
17.649200 64.640800 -879.726685
35.705299 72.572502 -874.702209
32.434799 71.238098 -875.598694
13.544400 62.055000 -880.295288
44.385300 79.628098 -873.205811
29.362600 70.957001 -876.482483
24.990999 69.276001 -877.710876
14.740300 62.962399 -879.817322
42.358898 78.258797 -873.317688
38.613499 75.001900 -873.773987
34.190899 72.319000 -874.692322
27.146299 70.393303 -876.921204
21.446400 67.575996 -878.313721
19.184200 66.161903 -878.769714
30.905800 71.684799 -875.567383
23.518999 68.836304 -877.626770
39.692101 76.003799 -873.230591
37.201302 74.431801 -873.723572
16.400499 64.466202 -878.871216
41.052700 77.497902 -873.054199
17.720100 65.547997 -878.488770
44.766800 82.135101 -872.791626
35.799301 73.814598 -873.697815
32.632999 72.358002 -874.498108
28.072901 71.779503 -876.143188
25.581100 70.310799 -876.668518
19.926600 67.232697 -877.943115
12.893900 63.158501 -879.448486
43.072701 79.690804 -872.439392
29.512100 72.395798 -875.512207
22.082600 68.435204 -877.207520
14.906600 63.964699 -878.635681
24.131800 69.780998 -876.464478
38.187000 75.942299 -872.653015
34.308899 73.381897 -873.366028
31.140400 72.775101 -874.427185
26.712000 71.149300 -875.659912
18.515800 66.713898 -877.481323
41.786301 78.974297 -872.002808
39.688499 77.261299 -872.280518
20.637199 68.071198 -876.851013
16.396700 65.475502 -877.691223
43.273800 81.652496 -872.098877
13.364200 64.173103 -878.272278
36.780701 75.339600 -872.510315
22.559099 69.519096 -876.238098
32.783699 73.303200 -873.271179
28.135300 72.763100 -874.917297
35.260399 74.764000 -872.534485
29.637899 73.257004 -874.239807
25.222300 71.194504 -875.301086
14.934500 65.040298 -877.346985
40.315300 78.490097 -871.580627
19.206499 67.598396 -876.308716
17.279100 66.306602 -876.646606
42.725601 80.489998 -871.108521
23.735300 70.831703 -875.379822
21.038300 69.209297 -875.907593
38.392799 77.045601 -871.482971
31.310699 73.900497 -873.208923
26.787300 72.228798 -874.417114
33.771900 74.247902 -872.138184
43.425999 82.442001 -870.776611
41.364700 79.819099 -870.739014
36.870998 76.502899 -871.406982
22.152599 70.647301 -875.158691
17.670799 67.638702 -875.918213
15.803900 66.292099 -876.205505
28.332500 73.432198 -873.423828
25.265499 72.339897 -874.241028
19.569500 68.945900 -875.333130
38.997200 78.570900 -870.825684
35.406399 75.983101 -871.372620
32.223801 74.570198 -872.130676
29.847000 74.213699 -872.914307
23.725300 71.953300 -874.337585
20.664801 70.525703 -874.796326
42.278301 81.774002 -869.890198
39.883999 79.721497 -870.149292
37.584202 77.914803 -870.448975
33.895100 75.490402 -871.075989
26.765499 73.519402 -873.125916
18.014900 69.132301 -875.034119
16.271500 68.093399 -875.363281
30.816401 75.079903 -871.764221
22.214600 72.156097 -874.053223
19.136299 70.807999 -874.779419
41.054001 80.793404 -869.442688
36.131802 77.365402 -870.204529
28.532400 74.412697 -872.100525
25.189100 73.483398 -873.048279
18.722200 72.259399 -875.058289
17.303200 72.567802 -875.676819
32.320301 75.627899 -870.814819
23.622700 73.192703 -873.263123
20.685200 72.362602 -874.087708
38.474499 79.720596 -869.555725
34.668999 76.828499 -870.061218
27.046000 74.731598 -871.882996
14.116800 73.686996 -876.267090
41.875999 82.432404 -868.463806
39.632900 80.747002 -868.763123
37.018902 79.181198 -869.233276
33.189899 76.399498 -869.773010
29.759100 75.629997 -870.782593
25.513399 74.610100 -872.011230
22.128599 73.629700 -872.939575
19.485001 73.338097 -873.809509
18.052900 73.541397 -874.390930
35.679600 78.318497 -869.072205
31.048500 76.103203 -870.070129
28.193701 75.594101 -870.946228
23.926100 74.494202 -872.152771
40.516300 81.856400 -868.064697
20.633900 73.969704 -872.820496
38.209202 80.578102 -868.225891
34.230202 77.796097 -868.808289
26.668900 75.862900 -870.700623
22.467600 74.880302 -871.904724
18.532101 74.382004 -873.160522
32.066601 77.022499 -868.924377
29.661501 76.735497 -869.694214
24.570000 75.480103 -871.128723
36.674000 80.220398 -868.031372
41.307098 82.955597 -866.967712
39.150501 81.717697 -867.357422
35.223999 79.394402 -868.046326
28.141899 76.693001 -869.734802
19.710400 75.019501 -872.207214
21.015400 75.231400 -871.456177
33.190899 78.133102 -867.711182
30.743000 77.662804 -868.427429
25.555201 76.610001 -869.928406
23.252501 75.974701 -870.544678
17.825701 75.400703 -872.272095
39.728699 82.849602 -866.520325
37.625999 81.581802 -866.875427
35.694901 80.587502 -866.921875
29.201401 77.846298 -868.359314
27.042900 77.491402 -869.002319
21.699400 76.261497 -870.489624
34.262699 79.768799 -866.901001
31.678699 78.453598 -867.403687
24.069000 76.793800 -869.539429
19.902700 76.078201 -870.765930
18.375299 76.325897 -871.031982
38.405899 82.437897 -865.764221
30.118099 78.682899 -867.479004
25.513500 77.623001 -868.728882
32.835899 79.110603 -866.491516
22.586399 77.321297 -869.419006
36.536400 81.837502 -865.813171
27.955900 78.522400 -867.727600
20.616501 77.110397 -869.772888
35.023899 81.337898 -865.745300
24.000000 78.024597 -868.461914
19.052401 77.308403 -869.899780
17.486000 77.482597 -870.468689
33.745899 80.432800 -865.625671
31.371201 79.630501 -866.184021
26.376101 78.719902 -867.577576
29.775999 79.747101 -866.331299
22.531300 78.420799 -868.341797
35.598900 82.304001 -864.695374
28.174101 79.543999 -866.355530
24.828699 78.999603 -867.299622
21.010401 78.549103 -868.425110
19.527901 78.586899 -868.921692
33.997002 81.691803 -864.655518
32.379002 80.549698 -864.865723
30.838600 80.533699 -865.032288
26.675100 80.023903 -866.251282
23.322701 79.302299 -867.146423
29.249500 80.597000 -865.126770
25.106400 80.193199 -866.270081
21.367300 80.250000 -867.442322
35.006901 83.165398 -863.514526
27.712700 80.737000 -865.230408
19.900801 80.591103 -867.717529
33.617100 82.347504 -863.300171
32.209400 81.675201 -863.577881
23.633900 80.703796 -866.092529
18.073500 81.049202 -867.979980
30.716400 82.018303 -863.592529
29.194799 81.692299 -863.998474
26.351101 81.278900 -864.808594
22.064501 81.009598 -866.122681
24.797001 81.404198 -864.931213
20.515600 81.316002 -866.293823
33.997398 83.535896 -862.213684
27.677299 81.942596 -863.850830
17.007200 81.968498 -867.319519
32.596699 82.942802 -862.196777
31.018000 83.030502 -862.330811
29.530800 82.814903 -862.758972
26.323099 82.493599 -863.268188
24.830799 82.306099 -863.705811
33.775299 84.112801 -860.745972
28.088900 83.183701 -862.357971
32.221600 84.393898 -860.762085
30.701599 84.037498 -861.165771
26.551300 83.728600 -861.960327
29.194599 84.023399 -861.544006
42.263901 71.105400 -880.631775
29.177500 37.903301 -904.014526
49.221100 66.384399 -887.001709
42.076000 74.564201 -878.339478
33.363300 78.684799 -870.606995
29.827101 69.791496 -879.279175
27.357100 67.798103 -879.406311
24.936899 60.603600 -887.479004
25.173800 83.333900 -862.509583
26.026800 64.296898 -884.007629
30.194799 78.878502 -869.157715
33.190102 83.426498 -865.231018
30.436199 72.395103 -876.889526
27.218901 61.553699 -887.315125
38.215900 76.362198 -874.413818
39.580502 74.371902 -877.242126
36.986500 64.224403 -884.912170
43.820301 72.810799 -880.982483
45.551399 70.033501 -883.469482
47.710800 63.796902 -887.766724
40.829300 75.521500 -876.729370
38.485401 66.744003 -882.181091
33.043201 47.817200 -897.634888
31.476000 57.848598 -889.391785
29.228399 65.355499 -883.592773
29.417601 85.768204 -862.290283
27.386801 85.078499 -862.499878
25.462900 69.995903 -879.152588
17.482800 77.339600 -872.020325
36.192101 45.512001 -898.074280
45.968899 72.887901 -880.861877
43.131901 83.092903 -869.429321
37.407001 83.036102 -864.713928
39.438301 83.874100 -864.968872
36.601700 83.902802 -863.715820
35.528400 84.413597 -862.693176
28.181101 85.108299 -861.033813
31.067400 85.365303 -860.305908
48.652302 68.521103 -883.619324
53.681301 125.152702 -711.137024
54.575001 125.324799 -712.433411
52.473499 124.433998 -712.225830
53.314999 124.751297 -713.458679
47.841000 116.968002 -707.587524
48.448601 118.041397 -708.559998
49.340900 118.535400 -709.879700
51.645100 123.745300 -713.681274
55.486599 126.413696 -719.417297
56.261299 127.420403 -720.620911
44.339500 111.894699 -704.411072
45.148602 112.569504 -705.630798
46.506901 115.309700 -707.841370
47.358002 115.976997 -709.120178
48.022301 116.956902 -710.164917
48.724201 118.668297 -711.337280
49.398201 120.101501 -712.441711
51.133099 123.648903 -715.270325
52.035198 123.951599 -716.584412
52.875900 124.421700 -717.828186
53.715302 125.023003 -719.083618
54.817699 126.317596 -720.783630
42.813801 111.008797 -703.916199
44.903801 113.226799 -707.127075
45.643501 114.112297 -708.273682
49.142899 120.613197 -713.939270
53.464199 125.492401 -720.608215
54.549198 126.686699 -722.279419
42.858002 111.197403 -705.514771
43.597401 111.926003 -706.648010
45.619202 114.806900 -709.841187
46.335300 115.601997 -710.948181
47.116798 117.668503 -712.284180
47.826801 118.688904 -713.406677
48.993198 121.313400 -715.351624
49.618599 122.420601 -716.362488
50.676800 123.509697 -717.989075
51.511398 123.983498 -719.230896
54.446602 127.198601 -723.763428
55.190800 127.918900 -724.902405
43.689800 112.426201 -708.124023
44.359200 113.360199 -709.183105
47.861500 119.375099 -714.848022
51.605301 124.411003 -720.750977
52.371799 125.224602 -721.935730
53.069000 126.049500 -723.022583
55.237400 128.427902 -726.382385
56.221298 133.637802 -728.359802
41.623001 110.730400 -706.343018
42.358101 111.459297 -707.474915
44.425598 114.250298 -710.741211
45.084099 115.287102 -711.797974
45.744801 116.508904 -712.878418
46.390400 117.601501 -713.923218
47.513802 120.888802 -715.895630
48.075001 122.086899 -716.831421
49.040001 122.464401 -718.252625
49.822300 123.229500 -719.455872
53.064800 126.728302 -724.480286
53.806099 127.487701 -725.624512
56.276001 133.039307 -729.773987
42.987999 112.800499 -709.901917
46.325298 118.433197 -715.311707
49.885502 123.688698 -720.997681
50.654301 124.576599 -722.197571
51.411900 125.327202 -723.366211
53.824699 127.956596 -727.114380
54.670601 128.325195 -728.366089
56.320499 132.296707 -731.174500
39.667000 108.155296 -705.638184
40.964001 109.934196 -707.698120
42.778400 114.059196 -710.767578
43.195702 115.535004 -711.534119
44.256901 115.575500 -713.057007
44.907902 116.767601 -714.125427
46.446400 119.244904 -716.611023
47.220299 121.056801 -717.926392
48.278999 122.389099 -719.594116
51.594601 126.208099 -724.776428
52.335300 126.892197 -725.914612
58.830700 132.867004 -735.893921
38.781898 106.978897 -704.908081
40.034698 108.978203 -706.936523
56.045502 131.506104 -732.504822
57.799500 131.861603 -735.058105
40.787701 111.731003 -708.915222
41.678600 111.916603 -710.215515
42.944401 114.204903 -712.305115
44.881401 117.597702 -715.489624
48.316601 122.888496 -721.050415
49.148102 123.752899 -722.346619
49.910198 124.714203 -723.554810
52.383202 127.429497 -727.427429
53.168598 127.994301 -728.621704
54.008701 128.391495 -729.874329
54.813099 131.917206 -731.449829
56.590000 130.979706 -733.887085
37.678699 105.925201 -704.418030
40.668201 110.143898 -709.218628
45.902000 119.869102 -717.908813
46.836300 121.117500 -719.400513
36.471699 104.328300 -703.543396
38.323700 107.491096 -706.586975
42.701801 114.805199 -713.762024
43.232399 116.220901 -714.696899
44.568199 118.421898 -716.882202
46.989399 121.914200 -720.781982
49.676201 125.113403 -725.025818
50.422199 125.853600 -726.185913
51.775101 128.580994 -728.460815
53.814602 128.718201 -731.399170
54.920200 130.770004 -733.236328
56.456299 130.653000 -735.422180
38.468800 108.398300 -708.049683
39.148201 109.267403 -709.129517
40.117001 110.511497 -710.669983
40.468498 111.863899 -711.341919
41.275700 113.015297 -712.639771
43.337299 117.157700 -716.105530
45.338100 120.298599 -719.358582
47.251499 122.820297 -722.409302
48.021000 123.619202 -723.609070
50.591400 126.465599 -727.639526
51.932400 127.612999 -729.699829
54.749802 128.776703 -733.872314
55.574699 129.341400 -735.121887
34.976002 103.342400 -703.547974
35.858601 104.539101 -704.956909
36.836201 106.228302 -706.564087
41.795101 115.658897 -714.826599
43.853001 119.114304 -718.196716
45.404900 121.115501 -720.661072
48.195999 124.291702 -725.039429
52.211399 127.918800 -731.217529
53.292801 128.601395 -732.843872
33.666801 101.761101 -702.910400
36.675900 107.249901 -707.876221
37.602402 108.460701 -709.343201
38.223598 109.432297 -710.347412
39.197601 110.641800 -711.881287
39.867599 111.543198 -712.945313
42.499298 117.127296 -717.390076
43.910301 119.647903 -719.711670
45.457901 121.646301 -722.158813
46.502300 122.610497 -723.760376
48.243999 124.891800 -726.518372
48.999699 125.652496 -727.685486
49.870998 126.366600 -729.009888
50.672298 126.926598 -730.215515
54.060299 128.958405 -735.268616
54.892101 129.469696 -736.510681
33.507702 102.445000 -704.303101
34.168499 103.413300 -705.358887
34.889099 104.302902 -706.488281
35.216202 105.794197 -707.143799
39.696800 112.315102 -714.296387
40.842701 114.793999 -716.232178
42.385201 117.948700 -718.814087
43.784500 120.324203 -721.092285
46.432701 123.244797 -725.197327
50.716599 127.157997 -731.731018
51.510101 127.950798 -732.950195
52.359699 128.444595 -734.208923
31.957500 101.423698 -703.477600
35.101002 106.466904 -708.543030
36.281101 108.079102 -710.407104
36.970402 108.905998 -711.480591
37.532799 110.056900 -712.419922
38.158901 111.220001 -713.450012
40.784500 115.750397 -717.723328
42.368401 118.569000 -720.312378
43.817501 120.716698 -722.623779
44.556400 121.633598 -723.778687
46.458900 123.720703 -726.715576
47.168400 124.596001 -727.823914
47.931099 125.279701 -728.980774
48.686901 125.967400 -730.128723
52.433300 128.836899 -735.746826
53.212799 129.458801 -736.919128
53.985001 130.110596 -738.085083
31.954800 101.974098 -704.904114
32.689301 102.832802 -706.040771
33.431499 103.884903 -707.214478
34.160801 104.870697 -708.361206
38.163502 111.982002 -714.886292
38.906200 112.958397 -716.050476
39.669998 114.546303 -717.326904
40.931301 117.050102 -719.418884
42.411999 119.253700 -721.774719
44.650002 122.167297 -725.278625
48.703499 126.647598 -731.516602
49.512100 127.264000 -732.723328
50.313801 127.896896 -733.922607
54.186600 130.154999 -739.607483
34.436600 106.577499 -710.571106
35.407799 108.207199 -712.133972
36.107300 109.134697 -713.225708
36.674301 110.327003 -714.171326
39.496601 115.244598 -718.737976
40.812901 117.558502 -720.870483
42.292400 119.839798 -723.223694
42.918400 120.947601 -724.238770
44.403400 123.117203 -726.583984
45.125900 123.895203 -727.686890
45.904800 124.662003 -728.865784
46.674500 125.297401 -730.013977
50.367199 128.106293 -735.489624
51.226002 128.562500 -736.735901
52.013302 129.237106 -737.913574
30.256500 101.138298 -705.652893
30.856800 102.224899 -706.626587
31.598200 103.115097 -707.766418
32.198002 104.170799 -708.735229
32.926998 105.081001 -709.860718
34.301899 107.059601 -712.019897
36.555801 111.225197 -715.687988
37.121498 112.576897 -716.651306
37.742001 113.800301 -717.671814
39.287601 115.997101 -720.095398
40.598400 118.320503 -722.214783
42.821602 121.573402 -725.713623
46.561501 125.980499 -731.451172
47.383900 126.467598 -732.645813
48.200001 127.185600 -733.863892
52.075199 129.372406 -739.477722
52.986599 129.660400 -740.766418
32.954601 105.898201 -711.271179
34.263199 108.068604 -713.360901
34.925098 109.446404 -714.457581
37.869202 114.421700 -719.172180
39.213100 116.871002 -721.349609
40.523800 119.390198 -723.491577
41.284401 120.255997 -724.650085
42.795700 122.569801 -727.036072
43.465599 123.472801 -728.076477
44.251598 124.097801 -729.235291
45.096802 124.893097 -730.499084
48.392200 127.496803 -735.355713
49.261002 128.023895 -736.613403
50.124599 128.461700 -737.851318
28.134001 100.548698 -704.970520
29.352100 101.932602 -706.819824
30.097601 102.763298 -707.949219
31.498899 104.489403 -710.096130
35.685699 112.058403 -716.861084
36.370701 113.022400 -717.927979
50.500801 128.781601 -739.336487
52.585800 129.231705 -742.222778
30.446400 103.524399 -709.276123
32.591900 106.613602 -712.628296
37.553001 115.152397 -720.587585
38.822399 117.636803 -722.668884
40.958099 121.351700 -726.101196
44.799099 125.522003 -731.899719
45.629902 126.180702 -733.117615
46.452999 126.749298 -734.311523
51.039200 128.882996 -740.810486
27.293501 97.607201 -702.776184
27.864401 98.835503 -703.745300
27.037399 96.264999 -700.715210
29.158800 99.617104 -704.156128
28.163700 97.351799 -701.004517
28.842699 98.214401 -702.078430
30.351900 100.001801 -703.196228
31.643200 105.071198 -711.617493
33.312901 108.393799 -714.530212
33.664299 110.438904 -715.413208
36.106800 113.624001 -719.337891
37.669899 116.417900 -722.001099
38.791401 118.525299 -723.932495
39.498901 119.519699 -725.083923
40.947800 121.970802 -727.524597
41.625900 122.864197 -728.616089
42.484001 123.332397 -729.864319
43.081699 124.474701 -730.897522
46.461201 126.746300 -735.899475
47.335800 127.228996 -737.172607
48.204700 127.687202 -738.433472
49.067200 128.150101 -739.686584
50.967701 128.767807 -742.367126
27.067200 100.436096 -707.376770
27.791599 101.585297 -708.577271
28.497900 102.576599 -709.722290
29.135700 103.766296 -710.814819
29.819300 104.627098 -711.903320
30.440201 105.793602 -712.968384
31.116800 106.827698 -714.082214
31.714701 107.825203 -715.082825
33.052101 110.557999 -717.421021
33.844601 112.078796 -718.786987
34.477901 113.153503 -719.850525
35.445202 114.757896 -721.467529
36.118599 115.603699 -722.539490
36.786999 116.603500 -723.635315
37.387001 117.961304 -724.710388
38.036598 118.850502 -725.758972
38.617001 120.040199 -726.774475
39.251099 121.072098 -727.830627
39.939201 121.963203 -728.931274
40.681499 122.760696 -730.086121
41.351799 123.775803 -731.187378
42.076199 124.630600 -732.329529
42.854900 125.364403 -733.520386
43.692699 125.796700 -734.730713
44.588699 126.087700 -735.991089
45.481602 126.332603 -737.237915
46.363098 126.754700 -738.504822
47.241402 127.115402 -739.755310
48.042301 127.739998 -740.954224
48.969501 128.074997 -742.265198
49.902599 128.230392 -743.548218
27.324200 103.149803 -711.253479
27.963100 104.322998 -712.338928
28.803801 105.460098 -713.687317
29.661200 107.182198 -715.172791
30.396000 108.047798 -716.325989
30.990400 109.039703 -717.316284
31.514900 110.165901 -718.239319
32.033501 111.306900 -719.157288
32.680000 112.455200 -720.247986
33.439499 113.206100 -721.411926
34.647900 115.400200 -723.459717
35.358398 116.207298 -724.569092
36.165001 117.917801 -725.984375
36.887501 119.266899 -727.216125
37.532501 120.304802 -728.283081
38.294300 121.234802 -729.485229
38.984001 122.146500 -730.587219
39.727798 122.944504 -731.739380
40.397598 124.192299 -732.880615
41.249500 124.716499 -734.123596
42.094700 125.223198 -735.354187
43.002399 125.374901 -736.598816
43.836102 125.866402 -737.811218
44.732101 126.112701 -739.058594
45.621300 126.422096 -740.309387
46.500198 126.855003 -741.570679
47.375401 127.242897 -742.818176
48.250801 127.532501 -744.046570
28.027100 106.401199 -715.417480
28.941299 107.886002 -716.926880
29.694401 109.190002 -718.185730
30.288300 110.220200 -719.178772
30.952499 111.500397 -720.314575
31.722000 112.207397 -721.479614
32.423302 113.117104 -722.592712
33.057201 114.294998 -723.668030
34.635300 117.203598 -726.340271
35.241100 118.562103 -727.413208
36.089298 119.649200 -728.757019
36.608898 120.791397 -729.672729
37.308601 121.658401 -730.775513
38.062500 122.351501 -731.916870
38.745701 123.311996 -733.015808
39.483601 124.056000 -734.145630
40.340302 124.487198 -735.373474
41.256699 124.660202 -736.630920
42.164001 125.059196 -737.919983
43.066898 125.396698 -739.191406
43.888302 126.197899 -740.443970
44.864700 125.875603 -741.685303
45.746700 126.355103 -742.956421
46.629902 126.686203 -744.200012
27.409000 107.155899 -716.692993
27.995899 109.067001 -717.844971
28.536100 110.221497 -718.788513
32.919998 116.073601 -725.764893
25.684900 106.171501 -715.792725
28.004000 108.926102 -719.414978
28.538200 110.031799 -720.340698
29.258400 110.829102 -721.454224
32.534901 116.952400 -727.004517
33.147202 118.091904 -728.040771
33.689701 119.402802 -729.017273
34.472198 120.224098 -730.218628
35.057899 121.291000 -731.205322
35.884602 121.863899 -732.417419
36.704102 122.652702 -733.661621
37.452301 123.450302 -734.812622
38.382301 123.695801 -736.098572
39.307999 123.899803 -737.370911
40.164600 124.270401 -738.583618
41.083401 124.380600 -739.828613
41.927101 124.866402 -741.046326
42.832199 125.147102 -742.306091
43.735901 125.348602 -743.548584
44.562401 125.842003 -744.744873
25.328300 106.842697 -717.193970
26.019899 107.891403 -718.316589
30.388800 116.054199 -725.706482
28.746799 115.951599 -725.462830
29.958500 116.460403 -727.168030
30.722200 117.921097 -728.463806
31.459600 118.771797 -729.606506
32.189499 119.674896 -730.749390
32.910400 120.562302 -731.877319
34.263000 122.244904 -733.996826
35.084400 122.749603 -735.183716
35.962601 123.074898 -736.411072
36.898998 123.264702 -737.689514
37.831600 123.425499 -738.956970
38.761002 123.553398 -740.214111
40.836800 124.420700 -743.134277
41.678501 124.895500 -744.342285
28.298599 116.068901 -726.974121
29.064800 117.233704 -728.213074
26.316401 115.297699 -726.491577
27.301100 116.581596 -728.038086
28.200899 117.772003 -729.454712
28.882601 118.638802 -730.521118
32.106499 122.030602 -735.427612
32.999100 122.384201 -736.672913
33.886398 122.621101 -737.888489
34.834000 122.647301 -739.142883
35.776600 122.842102 -740.423279
24.881800 115.445999 -727.099792
25.592600 116.362503 -728.208923
26.358999 117.190002 -729.373779
31.229700 122.083397 -736.706970
32.125801 122.286201 -737.921875
30.109600 119.144600 -731.286682
39.983799 123.767998 -741.150513
42.915798 125.135803 -745.235413
34.182301 121.156799 -732.521423
24.088200 106.064796 -716.401428
30.215900 111.889801 -722.056824
34.319401 114.030502 -722.403992
34.304100 111.678902 -717.369873
38.993401 120.705200 -724.184814
27.011999 99.442497 -706.175293
26.644199 98.442200 -704.773010
40.039200 113.886902 -715.065002
32.505199 101.071899 -701.869873
41.245800 113.640602 -714.028015
46.327099 113.979797 -706.748108
54.602402 125.160103 -714.252014
55.892399 125.908501 -713.936218
60.569698 133.770096 -735.910828
59.073502 132.574005 -734.344971
58.178299 132.116104 -733.201294
58.097301 132.485199 -731.683716
57.836700 133.184494 -729.873718
57.371498 128.349899 -722.726379
56.136398 128.122101 -723.656616
57.627800 128.051697 -721.106506
57.490898 127.661102 -719.235413
57.759201 127.535500 -717.601013
56.476299 126.778503 -718.138916
57.606998 126.919701 -716.134277
55.181400 125.945099 -717.966980
56.202499 126.211098 -716.395996
54.807701 125.440804 -716.369995
53.491901 124.492302 -716.375488
52.783798 124.222397 -714.848328
41.880798 115.947403 -716.619324
35.067001 110.805199 -716.063599
32.660000 109.381401 -716.026917
35.160801 102.395401 -702.336914
31.711300 99.756104 -701.875916
30.622601 98.594002 -701.321716
29.689400 97.503998 -700.577209
56.020500 125.803902 -712.297485
49.789700 126.360298 -723.978882
55.835899 127.487000 -722.135376
33.118099 122.655098 -739.217590
37.373798 122.885002 -740.450989
28.438700 100.112000 -706.693115
26.905399 105.349701 -715.391174
42.403900 109.793198 -704.928589
55.697102 129.475601 -728.336975
42.300301 112.802101 -711.499329
27.691200 101.614403 -710.605225
31.091600 100.520500 -704.502502
96.666199 122.433502 -752.241089
97.473297 121.671700 -753.397400
98.287399 121.026604 -754.571594
99.105598 120.312798 -755.747375
99.929703 119.785301 -756.943909
101.280502 116.809700 -760.885986
102.125801 116.139999 -762.107422
102.916603 115.423897 -763.244385
95.206200 122.316200 -754.100525
95.948196 121.273300 -755.146179
96.700500 120.408401 -756.217896
97.459297 119.576797 -757.301270
98.224297 118.787697 -758.396606
99.054802 118.136497 -759.598328
99.830597 117.355202 -760.710083
102.615097 114.957802 -764.725586
103.468102 114.545799 -765.975220
104.267799 113.952904 -767.134277
105.126503 113.569504 -768.393982
105.992401 113.046402 -769.656128
106.805603 112.408699 -770.832581
107.625397 111.721703 -772.015991
93.508797 123.011497 -753.390930
99.653099 116.829002 -762.194824
100.497398 116.212196 -763.418274
90.513199 127.621002 -750.734497
91.391403 124.619301 -751.867981
92.098602 123.702599 -752.868713
93.464600 122.311096 -754.823914
94.209198 121.449600 -755.883484
95.022202 120.753304 -757.054810
95.778702 119.915398 -758.133606
96.541397 119.089401 -759.222229
97.370796 118.467903 -760.422485
98.144402 117.602898 -761.525085
100.493797 115.916298 -764.929016
101.342003 115.562599 -766.172974
102.195396 115.058998 -767.415710
102.994301 114.447998 -768.571106
103.797699 113.831001 -769.732788
104.665298 113.250099 -770.992310
105.480904 112.539101 -772.166626
90.114502 126.266701 -751.472412
92.152397 123.069603 -754.323181
98.173500 116.984497 -762.941528
99.016800 116.418503 -764.165222
90.005898 125.158600 -752.559204
90.721603 124.070099 -753.562927
92.243401 122.160500 -755.720276
93.055199 121.640404 -756.900330
93.866898 120.954300 -758.070496
94.621902 120.137001 -759.148499
95.383301 119.375397 -760.239319
96.149399 118.527702 -761.331970
99.205704 116.191200 -765.752380
100.052902 115.789703 -766.992004
100.846901 115.112999 -768.136292
101.701500 114.665001 -769.384277
102.563004 114.074203 -770.634216
103.375198 113.230797 -771.796082
96.517403 117.737801 -762.690918
80.991699 133.623596 -742.706604
81.872299 133.030197 -743.931702
82.686699 132.294403 -745.047302
88.514297 125.469704 -752.883972
89.302696 124.626900 -753.951721
90.039902 123.583900 -754.926208
90.854698 122.916397 -756.048706
91.673302 122.226898 -757.174683
96.811302 117.236504 -764.180115
97.666901 116.702499 -765.374512
82.494598 131.677094 -746.495178
83.331902 131.128601 -747.654785
91.556900 121.902397 -758.680420
92.321602 121.020302 -759.703186
93.153702 120.210098 -760.830322
93.931396 119.423203 -761.880981
94.714500 118.613098 -762.937317
97.584297 116.480598 -766.887573
98.445099 116.091103 -768.096191
99.309998 115.628197 -769.303772
100.181999 115.016296 -770.507629
101.054398 114.542603 -771.724976
101.927902 114.137299 -772.950500
79.829498 132.875305 -744.625916
80.650703 132.176102 -745.741882
83.044502 130.433304 -749.023804
83.739304 129.352600 -749.920715
86.971100 125.512001 -754.207581
87.769302 124.619102 -755.271790
88.646004 124.107002 -756.486023
89.456596 123.256798 -757.572083
94.571999 118.478600 -764.483276
95.424698 117.809601 -765.647827
80.181801 131.676407 -747.148499
81.017197 131.066299 -748.288574
83.282501 128.818893 -751.322205
84.119202 127.954002 -752.439209
84.900597 127.045097 -753.472595
89.045898 123.341797 -759.063782
89.803703 122.476799 -760.067627
90.566399 121.544701 -761.071716
91.400101 120.923698 -762.208313
92.237099 120.200897 -763.339783
93.080200 119.699600 -764.501709
94.169899 118.647598 -765.963928
95.023598 117.977699 -767.124390
95.821899 117.252502 -768.200073
96.684097 116.681000 -769.382507
97.550201 116.121300 -770.571777
98.418701 115.632103 -771.771484
99.345596 115.107803 -773.051392
77.952599 132.161499 -746.580505
79.177696 131.287094 -748.248230
80.005096 130.533096 -749.358276
80.837997 129.792496 -750.477783
81.675903 129.057098 -751.604675
82.454300 128.237900 -752.638184
83.302299 127.509499 -753.780273
84.094803 126.763298 -754.841370
84.889603 125.960602 -755.899902
85.760803 125.448097 -757.096680
86.630699 124.812599 -758.279480
87.439796 123.997002 -759.357300
88.257401 123.289299 -760.457825
89.141403 122.664597 -761.661926
89.969902 122.046303 -762.786926
90.802002 121.380203 -763.912476
91.576897 120.470802 -764.932312
92.358597 119.589600 -765.964417
93.206703 119.003700 -767.120728
94.059097 118.390602 -768.280579
94.916603 117.726501 -769.442627
95.777199 117.178398 -770.620728
96.642601 116.586098 -771.801270
74.468597 133.925797 -744.567871
75.346497 133.249496 -745.754211
76.421700 132.098602 -747.175415
77.252800 131.451508 -748.297913
78.085602 130.783203 -749.420715
78.921600 130.107300 -750.547180
79.760300 129.414200 -751.676025
80.600700 128.682495 -752.803284
81.445702 127.948997 -753.937012
82.302902 127.357399 -755.102173
83.156998 126.631104 -756.249573
84.027000 126.161499 -757.445190
84.890999 125.473297 -758.610596
85.765099 124.948997 -759.806580
86.576401 124.200798 -760.890686
87.456802 123.633400 -762.091614
88.339699 122.994904 -763.288818
89.228500 122.450897 -764.503723
89.997902 121.565598 -765.514526
90.834099 120.749702 -766.627625
91.676697 119.918800 -767.748230
92.525101 119.194801 -768.887573
93.378197 118.552696 -770.042114
94.236801 117.857597 -771.199097
73.249397 133.414795 -745.407227
74.143204 132.872498 -746.625488
74.952103 132.023697 -747.692383
75.769699 131.211899 -748.775085
76.615997 130.694504 -749.928406
77.457901 130.089905 -751.066711
78.308701 129.566299 -752.225586
79.154099 128.923004 -753.364807
80.003899 128.292496 -754.511780
80.875198 127.987000 -755.721802
81.752800 127.796700 -756.952209
82.616898 127.320503 -758.134888
83.472397 126.566299 -759.277527
84.268097 125.651199 -760.318787
85.140701 125.088501 -761.504883
86.013298 124.383904 -762.676880
86.831596 123.691200 -763.772705
87.654800 123.000999 -764.875610
88.480598 122.119301 -765.963318
89.314697 121.462402 -767.085083
90.153503 120.841202 -768.217285
90.997002 120.125099 -769.346680
91.845100 119.532402 -770.494873
92.639099 118.746101 -771.546814
93.552498 118.449898 -772.817627
94.325798 119.141197 -773.987793
72.531700 132.804703 -746.645325
73.340599 131.969101 -747.711426
74.174103 131.351700 -748.834473
75.065903 130.686493 -750.035828
75.912300 130.153305 -751.185913
77.699600 129.508499 -753.663513
78.623100 129.184006 -754.944275
79.544899 128.822906 -756.219177
80.402702 128.345795 -757.391296
81.326401 127.970398 -758.667419
82.192101 127.584000 -759.859924
82.985603 126.778801 -760.906982
83.779602 125.810402 -761.938477
84.648697 125.163399 -763.109314
85.460098 124.389801 -764.185181
86.340302 123.840500 -765.381775
87.163300 123.171097 -766.484802
87.990097 122.353302 -767.578003
88.823196 121.649803 -768.692017
89.661400 121.037102 -769.822327
90.504097 120.396103 -770.956421
91.350700 119.846001 -772.104919
92.258400 119.481201 -773.359375
75.641899 130.149200 -752.714172
70.124100 131.642303 -746.612610
71.002296 131.524200 -747.853271
71.915100 131.150497 -749.116028
72.799896 131.152603 -750.379211
73.714401 130.817398 -751.648376
75.594101 130.020996 -754.245972
76.509003 129.670502 -755.514099
77.430298 129.427505 -756.802979
78.343697 129.032303 -758.064392
79.255600 128.569397 -759.316406
80.110001 128.071304 -760.482605
80.967102 127.572701 -761.652588
81.820503 126.843903 -762.792603
82.680496 126.175201 -763.948486
83.545700 125.533997 -765.114929
84.419502 125.190903 -766.325317
85.233200 124.491898 -767.411804
86.111099 123.872101 -768.598572
86.934799 123.047997 -769.685974
87.822701 122.459801 -770.890320
73.813599 130.605103 -753.171021
68.279404 131.858093 -746.795715
69.154800 131.738998 -748.033325
70.080399 131.545395 -749.334473
71.003403 131.339996 -750.630615
71.922699 131.103699 -751.917908
73.919701 130.416794 -754.695129
74.820198 129.881699 -755.922180
75.664597 129.336594 -757.067993
76.581100 129.029099 -758.343323
77.495399 128.656998 -759.608398
78.408096 128.206406 -760.862427
79.322304 127.732002 -762.116028
80.180496 127.235497 -763.286926
81.039902 126.658401 -764.450623
81.901100 125.941498 -765.601074
82.771599 125.624496 -766.809814
71.992599 130.847397 -753.429077
82.847504 125.470802 -768.349487
65.783096 132.785202 -745.831726
66.669296 132.308105 -747.044800
67.551399 132.295105 -748.305481
68.467400 132.028397 -749.585388
69.357498 131.447800 -750.792297
70.273102 131.175598 -752.070984
72.336098 130.645004 -754.961792
73.241997 130.236206 -756.210876
74.146400 129.771698 -757.451477
75.053902 129.333206 -758.699524
75.960098 128.818207 -759.937073
76.805099 128.129898 -761.067017
77.719299 127.657898 -762.320679
78.579201 127.238403 -763.502930
79.498497 126.779999 -764.765625
80.360199 126.162598 -765.927490
81.287201 125.857101 -767.218811
83.203300 125.224899 -769.887817
70.358200 130.917801 -753.632324
81.317398 125.631897 -768.723083
83.232597 125.108597 -771.408203
63.800400 132.664505 -746.190674
64.678299 132.561798 -747.435486
65.581802 132.122101 -748.675415
66.464798 132.117798 -749.939697
67.383301 131.870605 -751.224976
68.278198 131.322205 -752.439026
70.214699 130.582306 -755.121521
71.133499 130.354401 -756.409424
72.045097 130.007095 -757.672424
72.959000 129.695694 -758.943115
73.868797 129.276306 -760.194397
74.776802 128.763504 -761.431702
75.628502 128.223801 -762.585083
76.545502 127.835197 -763.850586
77.399002 127.109100 -764.983521
78.321404 126.736099 -766.258728
79.187202 126.334099 -767.449280
81.216003 125.548302 -770.258179
83.130898 124.829597 -772.912476
68.587402 130.877396 -753.911621
79.543800 125.890297 -768.945129
81.581100 125.275803 -771.779724
82.790100 125.085999 -774.377686
62.340199 132.368393 -747.416321
63.224998 132.442001 -748.676575
64.144302 132.039307 -749.923889
65.061302 131.605606 -751.164001
65.950699 131.551193 -752.414307
66.864799 131.082901 -753.645813
68.126099 130.468307 -755.349121
69.047096 130.056198 -756.597717
69.972603 129.704407 -757.860474
70.911797 129.604706 -759.175293
71.840897 129.335999 -760.453918
72.762802 128.898499 -761.700623
73.690598 128.574402 -762.969971
74.554604 128.064194 -764.125305
75.483597 127.689499 -765.390015
76.353104 127.201797 -766.555908
77.224899 126.686798 -767.721680
79.272903 125.802696 -770.502197
81.330002 125.159798 -773.327087
77.462700 126.339600 -769.207581
79.525101 125.511299 -771.996887
61.540401 131.925003 -748.885376
62.440201 132.062195 -750.161072
63.363800 131.588196 -751.388489
64.292397 131.158600 -752.629028
65.237602 130.927902 -753.919189
66.169998 130.542297 -755.170776
67.096397 130.061203 -756.401123
68.087898 129.636200 -757.730225
69.020302 129.209198 -758.976196
69.962303 128.942001 -760.257019
70.904099 128.678101 -761.537903
71.911400 128.570999 -762.931274
72.861000 128.568802 -764.258118
73.733498 128.059494 -765.409424
75.605904 127.055000 -767.892212
77.727203 125.984001 -770.713806
79.802101 125.325104 -773.525513
80.691597 125.213203 -774.753723
81.631302 125.247200 -776.071472
75.941803 126.745598 -769.354980
60.778801 131.459305 -750.298523
61.702000 131.482803 -751.573914
62.568501 130.922302 -752.690613
63.513199 130.534607 -753.938904
64.419800 130.433502 -755.174316
65.360603 130.004105 -756.411499
66.300400 129.546204 -757.643372
67.303703 129.113297 -758.966309
68.256203 128.834503 -760.240479
69.272301 128.625793 -761.611816
70.226196 128.404205 -762.895813
71.244301 128.304794 -764.284973
72.211899 128.557098 -765.653076
73.148399 127.897003 -766.852478
77.184303 125.997902 -772.152283
78.080704 125.694099 -773.345825
60.231098 130.429794 -751.892212
61.155300 130.372406 -753.142700
62.116001 130.067001 -754.407410
63.026699 129.909302 -755.625122
64.530899 129.520493 -757.618225
65.474197 129.009995 -758.830200
67.513199 128.417099 -761.522583
68.540199 128.283600 -762.902100
69.564903 128.148499 -764.278320
70.540604 128.356094 -765.636414
71.513702 128.643494 -767.002075
63.071098 129.590103 -757.131104
65.549400 128.464096 -760.303223
78.806503 125.495598 -774.749878
79.740097 125.410599 -776.003479
61.238602 129.279007 -756.285889
62.989201 129.222504 -758.629517
63.959400 128.812698 -759.852417
67.706902 127.779800 -764.686279
68.610901 127.916000 -765.929626
61.212799 128.890503 -758.857788
62.153400 128.957794 -760.133484
63.076599 128.718094 -761.324707
64.004501 128.633301 -762.552979
61.458500 128.989899 -762.009216
88.998901 121.661400 -771.481812
95.053398 118.031303 -772.923523
78.408699 132.980804 -745.279480
87.900597 126.712303 -752.141785
88.661903 127.741302 -750.781799
94.476799 123.082497 -751.903076
100.904297 120.332497 -755.824829
90.102997 120.715500 -772.555481
100.511002 120.698799 -754.143982
86.341103 125.208199 -755.589478
86.477600 126.725700 -752.851196
87.166000 127.947899 -751.182373
69.872498 128.031799 -767.004272
87.823799 129.386703 -749.690979
85.656502 128.089996 -751.579773
87.795097 130.292007 -748.446777
86.239799 129.392197 -749.800415
87.653099 131.367401 -747.322571
86.275200 130.470200 -748.512512
84.947403 130.015900 -749.237488
86.135803 131.472397 -747.188599
62.570301 128.822098 -763.116882
76.869698 132.958801 -745.777222
79.412697 133.723801 -742.995422
77.998398 133.855103 -743.654907
76.583801 133.758606 -744.440674
60.308399 132.668106 -751.098083
85.528503 133.610397 -742.655884
84.306900 133.224197 -743.536682
85.858597 132.874207 -744.125916
84.628700 132.406403 -744.994202
84.116203 131.732300 -746.268127
84.920303 130.996902 -748.022827
94.079597 130.595795 -749.315674
93.046501 129.517807 -749.855530
92.070099 128.328796 -750.319214
91.972702 127.091103 -751.293701
94.409798 129.646698 -750.534119
72.218803 127.752602 -768.066284
93.598999 128.315506 -751.232788
92.918503 123.981499 -751.397827
87.263199 124.828400 -756.873779
88.153999 124.125504 -757.953430
67.075401 127.876701 -763.013184
98.204002 116.438499 -773.635986
-20.577499 97.411797 -744.051514
-22.065800 96.790100 -743.475586
-19.109600 100.168198 -749.966919
-23.586500 95.676903 -744.366577
-22.730600 96.081299 -745.572510
-22.140200 97.052399 -746.598083
-21.294100 97.496803 -747.802673
-20.649000 98.369102 -748.870422
-17.682301 102.344704 -753.770508
-16.587200 104.738602 -755.838684
-15.792700 105.378601 -757.031982
-20.646099 99.082703 -750.369507
-17.540800 102.460602 -755.291626
-16.510000 103.660301 -756.947510
-15.530100 103.708603 -758.214783
-25.014799 95.508904 -744.968689
-24.054600 95.371498 -746.159302
-23.203501 95.875603 -747.391113
-22.349701 96.533401 -748.669617
-22.052099 97.828903 -749.415588
-20.052601 99.962997 -752.577026
-19.304199 100.649803 -753.728577
-18.561501 101.372101 -754.883118
-17.259501 102.191902 -756.781128
-21.673300 97.642403 -750.946777
-20.976500 98.530800 -752.090088
-16.994900 102.448700 -758.295593
-20.298401 99.355499 -753.963013
-19.492599 100.008499 -755.183899
-18.629101 100.502800 -756.433594
-17.014799 103.530899 -759.369629
-24.543501 94.754799 -748.181030
-23.712400 95.194298 -749.376099
-23.069799 96.359200 -750.536682
-21.124500 97.984802 -753.505188
-18.279800 100.824997 -757.979126
-28.804800 90.514000 -742.956177
-28.137800 91.397003 -744.068298
-27.411400 92.150200 -745.219788
-26.618999 92.877602 -746.448792
-25.907600 93.612099 -747.575684
-22.999901 96.186096 -752.058289
-22.182501 96.798203 -753.286499
-21.071301 97.873901 -755.026001
-20.272200 98.488098 -756.231323
-19.612499 99.401604 -757.342712
-18.514299 101.661003 -759.405090
-18.005400 103.062202 -760.462280
-17.309999 103.908203 -761.600525
-27.231300 91.414703 -746.888977
-25.945200 93.171402 -749.051392
-25.156401 94.237503 -750.374512
-24.331900 94.737099 -751.581177
-22.237000 96.699303 -754.845886
-19.819599 99.848297 -758.866577
-29.959900 87.988602 -744.244873
-29.124201 89.166397 -745.661316
-28.249300 89.943802 -747.013611
-27.351999 91.266899 -748.551086
-26.080200 93.002502 -750.690125
-25.251801 93.541801 -751.914429
-24.491301 94.335297 -753.123596
-23.614300 94.641701 -754.344177
-22.866699 95.488701 -755.552124
-22.331600 96.597603 -756.560181
-21.597401 97.535103 -757.776672
-21.078100 98.599503 -758.751892
-20.073299 100.031197 -760.458984
-19.770100 101.459900 -761.258972
-19.140699 102.384804 -762.336487
-18.647800 103.763100 -763.367188
-30.970699 86.153603 -744.371887
-30.030800 86.544197 -745.699219
-29.237101 87.118500 -746.889587
-28.574699 88.123001 -748.032715
-27.855801 88.933998 -749.193909
-27.198700 90.114502 -750.380188
-26.561501 91.059097 -751.473572
-25.857300 92.027603 -752.660522
-25.090799 92.948898 -753.914673
-23.972000 93.932503 -755.642273
-23.143299 95.209801 -757.078308
-21.429100 98.842499 -760.330627
-19.451401 102.333199 -763.883484
-31.515900 84.759499 -745.161621
-30.653200 85.118301 -746.380981
-29.483500 86.912903 -748.405273
-28.105301 88.870399 -750.745789
