21.849300 37.080502 -796.006409
18.643999 36.972599 -800.169495
20.872900 36.817200 -797.041382
19.136200 36.683701 -799.270020
29.543200 42.266201 -787.428589
27.738701 40.523102 -789.169189
27.230600 40.227699 -789.729492
26.708700 39.749100 -790.241882
26.291500 39.394299 -790.661682
25.872101 39.029900 -791.080872
24.115601 37.977299 -793.006470
23.612600 37.854301 -793.621887
21.313101 36.977200 -796.322815
20.056101 36.727501 -797.881775
29.024799 41.965698 -787.699524
28.615400 41.595501 -788.103516
25.387800 38.655701 -791.281799
24.967699 38.316799 -791.711182
19.506001 36.733601 -798.309814
28.085600 41.199001 -788.341675
24.440901 38.134998 -792.019714
22.981600 37.760799 -793.799500
22.569599 37.561001 -794.268127
22.154400 37.336102 -794.731812
21.696800 37.185501 -795.278015
20.238400 36.876400 -797.080017
18.528999 36.934399 -799.343689
29.162500 42.007198 -786.928711
27.584801 40.823799 -788.571228
27.163601 40.339802 -788.948975
26.653400 40.021702 -789.503418
26.132799 39.574902 -790.025085
25.712099 39.181499 -790.435120
23.908100 38.119801 -792.418091
23.455500 38.004700 -792.969971
21.154800 37.086800 -795.656372
20.651600 36.978500 -796.277222
18.869200 36.844299 -798.566284
28.486200 41.738998 -787.409912
25.216000 38.840500 -790.651672
24.843000 38.468601 -791.006470
19.624599 36.840000 -797.260620
27.949301 41.394699 -787.653687
24.307199 38.274899 -791.304688
22.845600 37.861000 -793.072815
22.383301 37.645302 -793.601318
21.929300 37.523102 -794.152771
21.525801 37.416401 -794.643616
20.001200 36.929600 -796.468018
19.057699 36.834000 -797.671082
28.543200 41.902401 -786.681519
27.426100 41.087399 -787.852905
27.010500 40.669102 -788.247070
26.639200 40.206799 -788.567200
26.229300 39.927799 -789.004272
25.816799 39.626099 -789.436523
25.397600 39.246799 -789.849487
23.744600 38.202999 -791.641724
23.343599 38.111698 -792.134888
20.953501 37.249298 -794.960327
20.547701 37.125000 -795.448120
27.953199 41.601700 -786.934570
24.839600 38.829102 -790.019897
24.462200 38.393101 -790.357727
22.757099 37.989399 -792.451477
19.966999 37.066898 -795.782715
19.363199 36.929501 -796.526184
18.966499 36.890800 -797.033325
27.424801 41.264702 -787.181274
23.932899 38.192902 -790.654419
22.188299 37.910599 -792.844177
21.777399 37.713902 -793.312683
21.374599 37.608200 -793.803589
20.968100 37.467300 -794.286499
18.408100 36.913300 -797.449097
26.894300 40.875401 -787.551270
26.429800 40.465000 -788.012817
26.105301 39.975899 -788.261780
25.648800 39.740002 -788.776123
25.232100 39.384201 -789.194580
23.393600 38.243698 -791.056580
22.996500 38.195499 -791.560974
20.414900 37.352200 -794.648010
20.009001 37.222198 -795.134216
27.865999 41.834702 -786.354370
24.754400 38.945202 -789.396973
19.336901 37.073898 -795.840576
24.313700 38.522800 -789.681580
27.368500 41.486599 -786.553772
22.396799 38.164501 -791.888672
18.812000 37.080700 -796.211914
23.760900 38.325401 -790.018188
20.744499 37.529900 -793.697876
18.349600 36.973801 -796.646729
21.555599 37.811501 -792.719727
21.149500 37.666302 -793.200928
26.848700 41.078800 -786.940491
26.283899 40.706799 -787.422424
25.497499 39.839600 -788.142517
25.087200 39.536301 -788.564026
19.347700 37.161400 -795.205627
25.816500 40.222500 -787.614075
24.621000 39.173100 -788.806702
23.184601 38.361401 -790.402283
22.735901 38.290501 -790.966919
21.778601 38.013401 -792.125793
20.151501 37.414299 -794.049377
19.743099 37.258801 -794.530273
24.229900 38.761101 -789.100403
18.756001 37.240398 -795.521729
27.089001 41.616100 -785.918030
26.683201 41.308399 -786.341187
26.316900 40.835400 -786.652527
23.662001 38.398899 -789.267822
22.113400 38.124001 -791.209229
18.200100 37.209599 -796.035583
25.805799 40.511902 -787.000000
25.281700 39.918598 -787.475281
24.865700 39.537601 -787.885071
23.161100 38.350101 -789.700073
21.109600 37.935799 -792.252991
20.705900 37.814400 -792.740784
20.302900 37.702400 -793.231323
24.348700 39.184700 -788.143494
23.925400 38.737701 -788.538818
22.612900 38.313801 -790.114014
21.510700 38.073101 -791.478699
19.553600 37.609901 -793.888916
19.146900 37.464001 -794.371826
18.745399 37.372799 -794.867615
22.086100 38.283199 -790.462219
18.169901 37.329399 -795.277283
26.186199 41.247299 -785.846130
25.772301 40.807999 -786.231689
25.207100 40.326900 -786.801697
24.678200 39.669498 -787.259399
23.365400 38.404800 -788.529297
22.961500 38.279202 -789.016418
20.870300 37.994400 -791.671021
19.668600 37.730801 -793.159973
24.240601 39.186199 -787.366882
23.825600 38.859699 -787.795227
21.460600 38.174099 -790.665527
20.354000 37.871399 -792.015076
19.955099 37.803299 -792.516479
25.219700 40.519600 -786.064270
24.653200 40.045200 -786.637573
23.323200 38.449001 -787.807312
22.826300 38.172100 -788.164429
24.164200 39.658199 -786.760315
23.674601 38.896000 -787.127014
24.323900 40.162399 -785.812012
23.674801 39.282501 -786.622925
29.538300 38.798901 -795.149170
32.194698 41.577599 -792.275818
30.416599 38.832001 -795.554871
31.815001 40.648499 -794.269592
31.517700 40.139599 -794.623108
31.219500 39.576199 -794.969604
33.155201 42.076698 -792.938599
32.765598 41.931301 -793.480713
32.428398 41.466499 -793.898621
31.112900 39.149502 -795.453430
30.588200 38.604599 -796.130676
33.241699 42.466400 -793.490784
32.364601 40.984100 -794.535278
32.113602 40.443802 -794.816772
31.815500 39.953602 -795.173828
31.167700 38.889099 -796.047729
32.918499 41.949501 -794.097778
31.701000 39.401402 -795.471191
33.588902 42.681599 -794.005798
33.005798 41.660000 -794.691284
32.629398 40.880199 -795.116089
32.376999 40.323898 -795.395996
31.779100 39.122601 -796.076172
31.341400 38.707100 -796.643188
27.036301 32.197701 -814.151001
23.965401 39.709000 -786.117004
34.187500 42.742001 -794.284424
34.593899 43.131901 -794.953674
33.943401 42.928600 -795.029480
33.529900 42.421101 -794.786499
35.167900 43.408100 -795.887817
34.520599 43.331001 -795.640198
34.159000 42.769501 -795.725281
33.747002 42.236000 -795.476990
33.334099 41.759701 -795.239075
35.554298 43.504002 -796.677917
34.709999 43.252300 -796.327820
34.439499 42.661999 -796.437012
34.155300 42.012699 -796.211670
33.746399 41.579399 -795.983093
33.268600 41.140999 -795.728821
35.773399 43.407799 -797.381592
35.125801 43.252201 -797.120972
32.932301 40.530602 -795.817627
35.018600 42.642899 -797.316406
34.674900 42.063400 -797.082397
34.331001 41.566101 -796.864197
33.917900 41.048901 -796.617493
33.504299 40.601601 -796.384094
32.549198 39.993698 -795.927185
36.024700 43.219799 -798.165283
35.379002 43.157902 -797.923706
33.299999 40.005100 -796.572571
35.215401 42.544601 -798.157898
34.867802 41.851799 -797.899170
34.441101 40.901299 -797.562073
34.024399 40.350300 -797.306396
32.991001 39.493000 -796.771729
32.505100 39.124401 -796.526978
35.910198 42.659901 -798.871277
34.761002 41.283199 -798.193970
33.977402 39.772701 -797.620300
33.559898 39.345901 -797.388489
34.760502 38.773102 -798.151428
33.222401 38.799400 -797.612671
32.615501 38.734600 -797.385376
35.377399 38.630100 -798.796326
35.852901 38.602901 -799.416016
34.741798 38.550301 -799.015625
35.193401 38.422901 -799.607605
34.242199 38.108002 -799.211792
18.902901 37.633099 -793.733704
36.459202 38.311199 -800.429016
34.683300 37.976799 -799.739624
34.105202 37.677700 -799.818481
36.622398 38.082901 -801.107910
35.503201 36.970200 -802.025879
18.247700 36.922100 -798.753479
18.086901 36.981201 -799.863892
21.235800 35.703400 -802.292297
21.189199 35.466499 -803.607605
18.187901 37.091301 -800.613586
35.704700 42.039902 -798.943726
35.219200 41.731602 -798.651978
34.289799 39.039700 -797.744385
36.249199 42.911201 -797.431396
24.784100 40.630699 -785.567383
21.102400 34.887798 -805.884583
35.196800 43.763302 -797.925781
18.300400 37.792702 -794.705688
8.998900 30.225599 -816.444885
10.061100 30.946699 -815.210876
10.771500 31.234800 -814.189087
9.556500 30.774401 -815.602112
8.466400 30.209999 -816.817383
14.044000 33.743900 -810.558228
13.628000 33.248299 -810.924500
11.454100 31.721300 -813.209106
11.050100 31.732000 -813.736328
10.259700 31.331400 -814.620728
7.900100 30.052401 -817.232300
14.747900 33.992599 -809.521423
14.339000 33.939201 -810.032898
11.791200 31.818701 -812.596313
8.951100 30.584600 -815.847717
7.281200 29.759001 -817.515808
9.601400 31.000500 -814.694885
8.342300 30.337799 -816.096313
6.811200 29.414801 -817.759583
14.971400 34.168701 -808.565002
13.012100 33.250900 -810.786072
12.285600 32.148899 -811.343628
11.856700 32.155201 -811.902222
10.814000 31.728001 -813.105591
10.380000 31.583200 -813.617981
9.079500 30.671801 -814.986694
14.434600 34.138199 -808.975525
13.500200 33.641300 -810.014282
11.172600 31.903999 -812.427429
9.947500 31.860399 -814.001770
8.522600 30.332600 -815.316772
15.140000 34.328201 -807.823425
13.933400 33.821301 -809.211975
12.517500 32.604000 -810.623718
9.867400 31.159300 -813.557495
9.448800 30.842699 -813.989929
7.303200 29.562901 -816.326782
6.201700 29.279200 -817.657104
13.457200 33.267502 -809.286011
12.996800 33.235401 -809.872681
11.664600 32.239399 -811.253723
11.259700 31.961300 -811.682007
10.625800 31.551600 -812.361572
10.220500 31.289200 -812.796082
8.907000 30.565500 -814.248230
8.528500 30.206499 -814.613770
7.906100 29.919201 -815.321472
6.762300 29.610600 -816.698975
15.289500 34.381901 -806.928406
14.506200 34.162102 -807.869385
14.085400 34.031799 -808.370605
12.563400 32.744400 -809.896484
11.891200 32.364601 -810.636719
9.691100 30.894800 -812.979980
7.348700 29.423100 -815.507629
6.667000 29.120701 -816.287415
6.229400 29.005199 -816.815674
13.660000 33.417301 -808.431885
12.917800 32.886200 -809.210693
10.713000 31.564699 -811.614685
9.193200 30.527100 -813.227112
8.792800 30.309200 -813.671387
8.028100 29.812901 -814.491821
6.886000 29.008101 -815.694580
5.729600 29.157101 -817.252319
15.489600 34.605701 -806.329285
14.700000 34.334301 -807.261414
10.185300 31.222300 -812.040894
11.997800 32.345299 -810.005615
11.335200 32.025501 -810.755981
13.145400 33.049801 -808.639526
8.274000 29.972601 -813.902893
6.313500 28.678801 -816.001587
5.690400 28.668800 -816.810120
15.688900 34.737999 -805.677124
14.116900 33.915401 -807.437073
12.337200 32.554699 -809.278015
10.808500 31.618000 -810.941284
9.605400 30.878500 -812.249512
7.529900 29.412201 -814.439026
7.031200 28.981600 -814.937500
14.848600 34.552700 -806.378479
13.632000 33.483101 -807.588806
13.213500 33.068001 -807.988403
12.638100 32.629200 -808.584595
11.472700 32.009399 -809.887390
10.186500 31.332199 -811.327820
9.072900 30.545500 -812.503784
8.657900 30.244900 -812.939270
7.762400 29.593700 -813.878418
6.489000 28.641001 -815.204285
5.712900 28.391600 -816.129822
16.135799 35.218601 -804.576111
15.718000 35.072399 -805.070374
15.065800 34.694099 -805.788574
14.379600 34.116402 -806.480286
11.761800 32.225700 -809.230713
10.914400 31.716101 -810.157288
9.656300 30.937300 -811.525330
8.115800 29.818800 -813.141724
7.012300 28.918400 -814.264282
5.969400 28.366100 -815.431519
5.145000 28.236601 -816.463196
13.896100 33.755901 -806.705322
12.058400 32.346401 -808.606689
10.393100 31.498199 -810.482727
9.162000 30.610201 -811.776611
14.536500 34.265800 -805.835876
13.442600 33.344700 -806.938782
13.036500 33.004501 -807.348877
12.643000 32.750500 -807.773315
11.230000 31.854500 -809.302673
8.650400 30.253300 -812.107178
7.568100 29.426399 -813.228516
6.457200 28.508900 -814.354980
5.428400 28.040300 -815.534119
5.006100 27.760401 -815.986816
16.283300 35.566101 -803.723694
15.075800 34.924400 -805.075317
9.787900 31.187099 -810.662476
8.121200 29.914101 -812.389587
7.077300 29.040600 -813.443970
5.933400 28.235100 -814.653687
16.441700 35.168800 -803.051819
15.729400 35.377201 -804.059875
15.321100 35.289101 -804.563477
14.650200 34.452000 -805.142883
13.975100 33.947899 -805.846924
12.026100 32.432701 -807.858215
11.462400 32.080502 -808.470825
10.624800 31.623199 -809.404602
9.251800 30.766500 -810.896912
7.623200 29.457001 -812.562073
6.628800 28.592100 -813.555420
16.541901 35.829201 -802.899719
13.524000 33.529900 -806.031921
12.952400 33.084801 -806.621826
12.488900 32.704102 -807.092896
10.104300 31.448601 -809.769226
8.743200 30.400101 -811.177673
5.337000 27.905600 -814.749084
16.832800 36.177399 -802.442627
10.866700 31.785700 -808.687988
8.264500 30.051600 -811.477173
7.060900 29.129200 -812.724121
6.057100 28.234800 -813.718994
1.459100 24.451900 -818.389221
17.306900 36.493000 -801.750000
15.166800 34.948101 -804.000488
14.777700 34.664600 -804.408813
14.094300 34.091801 -805.098816
11.467500 32.101799 -807.827515
9.570300 31.092800 -809.952026
7.783200 29.714800 -811.799683
5.582700 27.972300 -814.058411
2.812300 25.503099 -816.803223
2.366300 25.154699 -817.262817
1.979000 24.839899 -817.657410
15.926800 35.833698 -803.171387
11.912100 32.397999 -807.199890
6.437600 28.386999 -812.935303
4.767100 27.314199 -814.739624
15.490400 35.307400 -803.359985
13.564900 33.717400 -805.314087
12.987500 33.222099 -805.893494
10.087000 31.523500 -809.087524
9.025700 30.699600 -810.183411
4.166000 26.701300 -815.120789
3.602700 26.021099 -815.615173
0.821800 24.185600 -818.603088
0.415100 23.804100 -818.999512
17.519699 36.729401 -800.915222
14.245700 34.299500 -804.337830
12.472800 32.849201 -806.142822
12.041200 32.660900 -806.641479
10.815000 31.946199 -807.993713
8.495700 30.310200 -810.448914
7.232200 29.306999 -811.746216
6.828900 28.818100 -812.099487
5.863700 28.111300 -813.112000
5.069700 27.517099 -813.940308
3.078600 25.991199 -816.004517
1.364400 24.668200 -817.778076
-0.104400 23.586201 -819.316528
-0.501000 23.258699 -819.719177
16.667999 36.549702 -801.646790
16.248199 36.346500 -802.124390
15.864000 35.706001 -802.397705
14.966700 34.953098 -803.303772
14.570200 34.613701 -803.701721
13.730100 33.982101 -804.576416
13.034400 33.355598 -805.263489
11.257700 32.293701 -807.211975
10.250000 31.705799 -808.322327
9.468500 31.287901 -809.197083
9.098000 30.920900 -809.551025
7.953800 29.964300 -810.707581
7.538600 29.661900 -811.143311
6.322600 28.427799 -812.294128
5.354900 27.726900 -813.311279
4.561500 27.150700 -814.144714
2.544400 25.779800 -816.297302
2.159600 25.464199 -816.688416
1.755600 25.068100 -817.075928
-1.090800 23.083200 -820.095215
-1.523900 22.764099 -820.548523
15.372700 35.310501 -802.598816
8.573900 30.498301 -809.780029
4.046100 26.866501 -814.408630
3.557100 26.528400 -814.927979
0.760000 24.343000 -817.808289
0.210200 24.027599 -818.415588
-2.074700 22.489500 -820.857605
17.410000 36.770901 -800.138977
16.882799 36.652302 -800.787476
16.125700 35.898701 -801.508179
14.002800 34.268700 -803.703491
13.201900 33.588699 -804.508179
12.386200 33.167400 -805.425598
11.836100 32.861301 -806.036377
11.398200 32.638802 -806.530273
10.657000 32.118999 -807.314392
9.634700 31.463699 -808.418274
8.064100 30.090401 -809.982117
7.014300 29.143000 -811.016724
6.580200 28.759800 -811.447571
5.694800 28.194201 -812.404297
4.773700 27.482901 -813.355286
2.991800 26.200399 -815.228821
2.579800 25.750700 -815.606812
1.242500 24.707001 -816.983582
-0.454200 23.555500 -818.792603
-2.631400 22.276501 -821.185608
15.600400 35.552299 -801.743774
14.821700 34.935699 -802.542725
14.432400 34.641800 -802.947205
13.474100 33.880100 -803.929321
10.138900 31.854099 -807.572815
9.097000 31.104799 -808.668884
8.677400 30.747499 -809.090515
7.252000 29.393400 -810.471313
6.053100 28.509701 -811.724915
5.152300 27.878500 -812.678589
4.269900 27.117300 -813.561279
2.068400 25.381201 -815.822327
-0.963800 23.230801 -819.023499
-1.383300 23.036501 -819.503723
-1.804700 22.837799 -819.984680
17.680500 36.668598 -799.046326
16.571600 36.283699 -800.362671
16.172001 35.867298 -800.736572
15.087000 35.148602 -801.900696
12.546700 33.427601 -804.612488
10.824500 32.378700 -806.493713
8.136400 30.321501 -809.277588
7.517400 29.735100 -809.878113
3.714400 26.699900 -813.771729
3.289800 26.417900 -814.227112
2.886300 25.997101 -814.604370
1.556900 24.959400 -815.973999
1.373300 25.553301 -816.429871
0.721400 24.294500 -816.830078
0.280400 23.986200 -817.297485
-0.161300 23.681000 -817.766907
-2.366000 22.479200 -820.225891
17.140900 36.774399 -799.389587
15.602700 35.537201 -800.961975
13.900100 34.341400 -802.765076
13.504700 34.019798 -803.168091
12.853300 33.661499 -803.893982
11.977700 33.166698 -804.864929
11.540300 32.933399 -805.354980
11.093700 32.651699 -805.839600
10.250800 32.115398 -806.752502
9.509500 31.613899 -807.544617
9.103900 31.317900 -807.970093
6.665100 29.136600 -810.383301
6.258100 28.888700 -810.828125
5.467800 28.270300 -811.642273
4.600900 27.558100 -812.522827
2.368000 25.612000 -814.750793
1.973600 25.247000 -815.136597
1.029100 24.549500 -816.124512
-0.689000 23.293501 -817.926514
-1.115100 23.065901 -818.403687
-1.517900 22.941401 -818.887695
-2.938600 22.149799 -820.467224
16.630301 36.403599 -799.599976
16.119699 35.880798 -800.081177
15.092100 35.207500 -801.187012
14.505600 34.901001 -801.846313
8.596100 30.839001 -808.136475
8.174900 30.474199 -808.557617
7.566900 29.935200 -809.160828
6.956800 29.405300 -809.770020
5.708900 28.522100 -811.089111
4.970900 27.921801 -811.840881
4.039700 27.163500 -812.789124
1.452600 24.842300 -815.345825
-0.242800 23.655399 -817.142578
-2.038500 22.587000 -819.114197
-3.483600 21.929199 -820.774292
14.038100 34.514099 -802.138489
9.665000 31.815901 -806.906494
3.588400 26.779900 -813.064819
3.145900 26.407600 -813.511108
2.677000 25.919600 -813.950195
0.463800 24.221600 -816.242615
-2.496200 22.254700 -819.418884
17.464399 36.972500 -798.387878
12.909300 33.805698 -803.225586
12.209900 33.465401 -804.021423
10.486800 32.390999 -805.896179
0.003000 23.926600 -816.603699
15.530300 35.647301 -800.327515
-3.055300 22.042999 -819.826904
16.948900 36.859001 -798.765625
13.376200 34.115799 -802.469788
10.927600 32.775501 -805.204224
8.937600 31.397800 -807.322083
6.057400 28.997000 -810.239502
4.392500 27.597300 -811.921570
2.128900 25.469900 -814.127197
0.884100 24.580500 -815.441895
-0.854900 23.441000 -817.315918
-1.258600 23.074600 -817.713989
-1.691600 22.817801 -818.190308
16.530701 36.424198 -798.975098
16.139700 36.050701 -799.353882
14.466800 34.956600 -801.157715
11.640100 33.288399 -804.271118
11.248800 33.022598 -804.689514
9.907700 32.169998 -806.144226
7.591900 30.193899 -808.473572
6.944000 29.716200 -809.152527
5.129000 28.261600 -811.012390
1.628900 25.156099 -814.489807
-2.149700 22.504101 -818.498413
-3.598400 21.822201 -820.156677
-4.084400 21.590900 -820.712280
14.987900 35.341599 -800.476624
13.990400 34.559299 -801.504822
8.000100 30.619600 -807.954712
6.291900 29.360100 -809.744385
5.535100 28.618200 -810.470581
3.870100 27.247299 -812.163025
12.271800 33.691700 -803.429626
8.396200 31.096701 -807.568481
-0.528300 23.587000 -816.573120
15.640700 35.786098 -799.681030
4.627200 27.884501 -811.294495
3.041500 26.453199 -812.860229
2.584800 26.013100 -813.300903
-2.674100 22.132601 -818.807312
1.096900 24.849300 -814.804199
-4.580300 21.469900 -821.088013
9.058100 31.643900 -806.735779
3.390900 27.033600 -812.518372
17.251301 36.896801 -797.677185
13.418500 34.314602 -801.784119
12.733300 34.037701 -802.585327
10.313000 32.570099 -805.237671
2.115000 25.639400 -813.512329
0.307500 24.322901 -815.413330
-0.109000 24.113001 -815.885193
-3.222100 21.926201 -819.188599
16.788900 36.792599 -798.155090
-5.116900 21.312700 -821.389221
16.074301 36.092701 -798.638916
15.055200 35.422298 -799.738586
14.403400 34.966702 -800.432312
11.618100 33.508900 -803.573486
10.620000 32.855801 -804.651794
9.817600 32.218201 -805.478027
9.323200 31.957800 -806.034973
6.964900 30.000500 -808.432922
6.324800 29.559999 -809.116577
4.046500 27.558800 -811.393188
1.599900 25.245501 -813.778381
-1.096900 23.278500 -816.618774
-1.532000 23.000099 -817.091125
-2.056600 22.569099 -817.625977
-3.716400 21.652901 -819.480774
-4.179400 21.514000 -820.040527
15.582200 35.795601 -798.973206
13.944800 34.587101 -800.692871
12.145500 33.786499 -802.774109
11.108300 33.176601 -803.919983
8.456500 31.347099 -806.751587
7.906200 30.787001 -807.273682
7.430300 30.381500 -807.753784
5.775700 29.116100 -809.475830
4.972800 28.388700 -810.270081
4.597300 28.038200 -810.637878
3.352700 26.959499 -811.887085
2.475800 25.962299 -812.681091
1.116600 24.966101 -814.111206
0.544500 24.503500 -814.697510
-0.586000 23.680000 -815.888794
-2.557300 22.258900 -817.971680
-4.712500 21.313999 -820.469604
16.287001 36.388599 -798.046082
13.427200 34.468899 -801.117493
12.792500 34.184700 -801.850586
-0.208200 23.967600 -815.271973
-3.051400 21.986000 -818.299011
17.057899 36.731602 -796.857910
16.657700 36.664700 -797.360779
14.450000 35.123299 -799.708984
10.003500 32.566399 -804.637817
8.700400 31.654400 -806.023071
6.302300 29.803400 -808.509583
5.194000 28.779600 -809.597595
4.058500 27.680700 -810.693970
3.493700 27.172800 -811.253418
2.909700 27.365601 -812.093079
1.932000 25.620501 -812.746521
-1.157000 23.262899 -815.958984
-1.612100 22.893200 -816.424316
-3.584800 21.758200 -818.610718
-5.347700 21.134899 -820.706787
15.806500 35.961201 -797.894287
15.387500 35.755699 -798.371704
14.961600 35.501801 -798.840576
13.921700 34.718601 -799.926025
12.133900 33.981701 -802.014282
11.484400 33.619400 -802.738525
11.044300 33.340599 -803.216980
10.492100 32.991299 -803.817688
9.432500 32.301498 -804.963074
9.037000 32.028999 -805.385193
7.917200 31.054600 -806.506104
6.760900 30.231800 -807.730530
5.750000 29.426399 -808.769592
2.908600 26.686899 -811.516724
2.558000 26.233999 -811.813782
1.421500 25.277000 -812.963074
0.986700 24.954300 -813.418823
0.543800 24.600901 -813.873779
0.153700 24.255501 -814.262085
-0.734100 23.576900 -815.185181
-2.404100 22.299700 -816.921082
-2.795200 21.994200 -817.325317
-4.112700 21.410400 -818.849304
-4.512500 21.313000 -819.340881
-5.895500 20.940901 -821.028625
16.132999 36.310299 -797.305481
13.397200 34.559502 -800.275330
12.773400 34.346100 -801.020081
7.407000 30.749399 -806.786194
5.231900 29.112801 -809.057983
4.637500 28.400101 -809.581787
4.208700 28.038000 -810.015320
2.070200 25.866100 -812.043396
-0.347100 23.861401 -814.500183
-3.334800 21.935301 -817.738281
-5.034500 21.109200 -819.678772
16.928900 36.517200 -796.039673
16.488501 36.531200 -796.625977
14.352000 35.147099 -798.939270
12.240900 34.167999 -801.367188
9.889700 32.754101 -803.952881
8.127100 31.472900 -805.810425
6.852700 30.519699 -807.143677
6.152300 30.004101 -807.879395
3.575300 27.451000 -810.346680
3.178100 27.005199 -810.707886
-1.282900 23.216900 -815.209717
-2.001400 22.617599 -815.938721
-3.837600 21.609200 -817.993225
-5.556800 20.941099 -820.017517
15.627900 35.912800 -797.242310
15.212000 35.731201 -797.724426
14.780100 35.425400 -798.182373
13.809100 34.784698 -799.228882
11.494800 33.823399 -801.930176
10.404800 33.188202 -803.135681
9.339600 32.444199 -804.268677
8.437300 31.829201 -805.233887
5.604000 29.781799 -808.222595
4.744100 28.716700 -808.967224
2.605000 26.452200 -810.960510
2.256700 26.010000 -811.258179
1.478500 25.522100 -812.106323
0.848600 25.009399 -812.749573
0.313800 24.464500 -813.255676
-1.005100 23.246201 -814.549805
-2.558000 22.252501 -816.234924
-2.976800 21.822500 -816.630005
-3.386800 21.672501 -817.116028
-4.481000 21.130699 -818.361328
-4.891000 20.992399 -818.851501
-6.076400 20.772800 -820.335022
-6.472000 20.699200 -820.830017
13.308000 34.620602 -799.612305
12.738900 34.442001 -800.297302
10.984700 33.629700 -802.312988
8.850600 32.108299 -804.570374
7.576300 31.099701 -805.881592
6.270800 30.286400 -807.305481
5.099200 29.157200 -808.437073
4.084600 28.118799 -809.394775
3.681700 27.627001 -809.746216
-0.140900 23.963900 -813.446289
-5.409900 20.760700 -819.221680
15.935600 36.174900 -796.518372
1.717000 25.717501 -811.438293
-0.798300 23.256399 -813.853882
-2.437800 22.104200 -815.593872
-3.919600 21.255899 -817.237183
-4.349000 21.031000 -817.721130
16.989401 35.802101 -794.808472
16.846300 36.308701 -795.182495
16.269100 36.432800 -795.988708
14.185700 35.086102 -798.242798
12.145700 34.267399 -800.632690
11.609200 33.982498 -801.235779
9.813800 32.959702 -803.228577
7.916700 31.450399 -805.177429
7.019800 30.921900 -806.166504
3.153400 27.118000 -809.872314
2.766800 26.730000 -810.239990
-1.824400 22.620600 -814.789429
-2.884600 21.703899 -815.851807
-3.438900 21.392300 -816.468689
-4.897800 20.681700 -818.132080
-5.964700 20.514400 -819.477417
10.417800 33.383801 -802.442017
9.304700 32.638100 -803.636414
6.510300 30.658899 -806.596008
5.678900 29.974701 -807.441711
4.211000 28.378099 -808.792786
2.339500 26.177500 -810.455017
0.990200 25.189699 -811.872375
0.289800 24.343901 -812.486389
-1.442800 22.681499 -814.162170
-5.384300 20.475300 -818.550720
-6.461200 20.273701 -819.896423
-6.900700 20.247000 -820.465881
15.381500 35.799400 -796.632385
14.972800 35.682701 -797.127930
14.536900 35.346699 -797.579224
13.669400 34.745399 -798.501892
8.249000 31.812799 -804.568115
5.224200 29.549900 -807.724670
4.565800 28.747200 -808.298401
1.878500 25.808100 -810.763428
-3.951100 20.929800 -816.658020
-4.369400 20.756001 -817.145325
13.175000 34.687199 -798.996521
12.659600 34.541599 -799.621399
11.015900 33.805500 -801.514771
8.770800 32.199501 -803.882019
3.795500 27.898899 -808.857178
-0.589500 23.327700 -812.957214
-2.001000 22.138599 -814.379883
-4.871600 20.446400 -817.538391
-5.908700 20.188499 -818.808594
-2.493400 21.854700 -814.819885
-6.373400 20.036699 -819.257874
17.044100 36.305302 -794.322083
7.279000 31.312201 -805.336304
4.365400 29.499001 -808.504822
3.273500 27.523199 -809.220276
1.248200 26.219900 -811.407288
-5.391100 20.246099 -817.956909
16.240400 36.439800 -795.330017
15.757600 36.093399 -795.838013
12.120400 34.339401 -799.976379
9.799100 33.113899 -802.578979
5.927800 30.420900 -806.683105
4.719600 29.094700 -807.787170
-1.106800 23.181101 -813.287170
-2.930800 21.456400 -815.055115
-3.344300 21.295900 -815.539673
-3.781900 21.032900 -816.018677
10.463800 33.600601 -801.808289
2.623200 26.801800 -809.624878
1.280500 25.565500 -810.937317
11.504900 34.132198 -800.613586
13.969600 35.055000 -797.596375
9.265400 32.791199 -802.945618
2.244300 26.328501 -809.811523
7.646200 31.613600 -804.578491
6.704100 31.122801 -805.636780
-0.085000 23.875500 -811.919678
-1.468500 22.508400 -813.239685
16.504700 36.621601 -794.709229
3.997400 28.493999 -808.187988
-2.132700 21.851601 -813.831421
-4.460700 20.612400 -816.439270
-5.965800 19.977301 -818.185486
14.782200 35.573601 -796.503723
8.775400 32.464600 -803.267822
8.138600 31.940300 -803.914307
6.243800 30.882200 -806.020020
5.384000 30.039600 -806.844177
1.819200 25.910299 -810.031189
-2.593600 21.556999 -814.250977
15.163600 35.867699 -795.971619
14.307500 35.320702 -796.898315
13.443800 34.752602 -797.827393
13.050200 34.777100 -798.353516
12.523900 34.547901 -798.961914
10.906600 33.992001 -800.885498
4.958000 29.636499 -807.123413
0.920900 25.063999 -810.771179
0.567200 24.641300 -811.082703
-0.738800 23.176201 -812.267883
-1.148200 22.753000 -812.652527
-4.941500 20.687799 -816.888306
-6.495800 19.849600 -818.626892
15.719200 36.074600 -795.170105
9.854700 33.340500 -801.888916
4.266300 28.685699 -807.548279
3.284100 27.566000 -808.433594
2.901000 27.186100 -808.799622
-1.870900 21.888201 -813.152283
-3.106700 21.159700 -814.512878
-3.527600 20.966600 -814.996216
-4.247500 20.651800 -815.828613
-5.368400 20.254801 -817.158203
16.892500 36.528099 -793.668579
11.984900 34.370300 -799.341370
11.504100 34.125500 -799.884888
10.392800 33.660099 -801.177917
1.320200 25.515600 -810.157898
15.992200 36.238701 -794.609985
7.005600 31.412701 -804.688721
5.721000 30.412800 -806.016785
16.359200 36.425201 -794.089172
9.327900 33.035400 -802.118408
8.234900 32.128300 -803.228577
4.450400 29.252800 -807.168701
2.430800 26.725201 -808.911011
-0.067900 23.920401 -811.183472
-0.468400 23.520300 -811.565796
-1.634300 22.283600 -812.652283
-5.905100 20.060200 -817.469482
13.713300 35.035801 -796.986572
10.940800 33.950100 -800.244080
8.788400 32.561798 -802.575073
7.494300 31.690800 -803.963318
3.413000 28.164499 -808.059021
1.868200 26.050301 -809.326416
-2.393300 21.563400 -813.310608
15.124300 35.858002 -795.281921
14.593100 35.536900 -795.864624
6.464900 31.105801 -804.956116
6.059500 30.805901 -805.380920
0.521200 24.674601 -810.446411
-1.164000 22.673300 -811.938477
-2.907400 21.297001 -813.733887
-4.113000 20.727900 -815.114380
-5.054900 20.393000 -816.232727
16.979799 36.320400 -792.901184
14.149100 35.303001 -796.259521
12.426900 34.602402 -798.273010
5.048100 29.779301 -806.239075
0.898600 25.070801 -809.994324
-6.440300 19.870199 -817.770874
13.198300 34.762299 -797.245728
12.792600 34.690399 -797.753784
9.780500 33.401501 -801.252075
3.223200 27.611099 -807.785583
2.823700 27.139601 -808.140625
11.941600 34.360699 -798.626587
10.356400 33.676800 -800.468628
7.670800 31.813900 -803.333618
3.625700 28.137501 -807.333130
1.234300 25.406000 -809.494873
-3.648100 20.888700 -814.293274
16.400600 36.448002 -793.217102
15.778700 36.156502 -793.932190
15.368300 36.007999 -794.420105
11.432200 34.157001 -798.944214
11.003200 33.925400 -799.426514
9.219800 32.957600 -801.429382
8.813500 32.586601 -801.830872
8.298000 32.169701 -802.359924
6.961600 31.361601 -803.830627
4.542900 29.387300 -806.306274
4.045900 28.617500 -806.682373
0.075800 24.199400 -810.317505
-1.050000 22.852301 -811.314209
-1.674700 22.155800 -811.885620
-2.254100 21.946501 -812.574585
-4.714100 20.545401 -815.313171
-5.657000 20.203899 -816.434082
-7.017900 19.713499 -818.052673
14.608700 35.613201 -794.995728
13.550500 35.021500 -796.178284
10.452100 33.707001 -799.793396
9.845300 33.295300 -800.445190
7.772300 31.841999 -802.654724
5.232500 29.887800 -805.298523
2.277300 26.700001 -808.041809
1.475200 25.778799 -808.766113
0.839700 24.941299 -809.300598
0.433700 24.485901 -809.671082
-2.705700 21.407200 -812.697510
-3.337400 20.975100 -813.374817
-4.224400 20.620300 -814.417480
-6.214300 19.955099 -816.804382
14.095200 35.356098 -795.354309
13.027800 34.710899 -796.530396
12.617900 34.601898 -797.032593
12.199800 34.432598 -797.523682
11.776200 34.227200 -798.008972
9.349100 32.891998 -800.731506
7.131700 31.526300 -803.165527
6.523500 30.893499 -803.739014
6.098100 30.467400 -804.146118
5.695100 30.183800 -804.575623
4.746500 29.697100 -805.652527
4.357500 28.943399 -805.891907
3.542000 28.120001 -806.670105
3.146200 27.648899 -807.021606
1.298100 26.450199 -809.028320
0.025300 25.483999 -810.359009
-1.511800 22.381599 -811.260193
-5.297100 20.301001 -815.506714
-6.720300 19.764900 -817.193176
16.369699 36.337799 -792.462280
15.812400 36.193001 -793.146423
14.773500 35.711800 -794.344788
11.237000 33.941299 -798.375671
10.796900 33.632500 -798.845215
9.993600 33.234600 -799.762329
8.840700 32.529099 -801.029480
8.339000 32.195499 -801.571411
7.704500 32.618198 -802.564697
2.642200 27.169001 -807.271179
-0.983200 22.878300 -810.500183
-2.276500 21.787600 -811.812622
-3.948000 20.769199 -813.651611
-4.831700 20.435499 -814.698486
15.309600 36.020401 -793.502380
13.511500 34.992500 -795.503784
10.271600 33.388500 -799.200928
7.878200 31.773500 -801.775024
3.872300 28.497000 -805.874084
1.141100 25.295000 -808.315613
-0.384900 24.022301 -809.868225
-0.732900 23.268000 -810.052979
-3.360100 21.197800 -812.770020
-5.869600 20.112200 -815.690796
-7.341300 19.612499 -817.453674
14.186900 35.397701 -794.539429
13.022800 34.767200 -795.848389
9.439500 32.910900 -799.908386
7.388800 31.312500 -802.036377
6.508700 31.480900 -803.261475
4.556400 29.246300 -805.026917
2.110900 26.843100 -807.383118
0.690200 24.616600 -808.448608
-0.052900 24.092899 -809.239990
-1.489500 22.474300 -810.548584
-2.102400 22.097300 -811.221191
-2.874500 21.488701 -812.020020
-4.534200 20.546700 -813.870483
-6.356500 19.906500 -816.046082
15.729700 36.103100 -792.494812
14.750700 35.721100 -793.650879
13.693900 35.123402 -794.831299
12.530100 34.514400 -796.148987
12.109300 34.324902 -796.636780
11.673800 34.029800 -797.105286
11.245500 33.798801 -797.587830
9.824700 32.897099 -799.138672
8.943000 32.678398 -800.225830
8.465300 32.164398 -800.670227
6.918400 30.959801 -802.277405
6.518400 30.985901 -802.816284
5.887900 30.035601 -803.303589
5.469700 30.459900 -804.012085
4.048600 28.728399 -805.260315
-0.429100 23.503201 -809.277222
-3.950100 20.976601 -813.013977
-5.461800 20.245001 -814.747498
-6.863500 19.797199 -816.439026
16.070499 36.107201 -791.765503
15.200600 35.813801 -792.811096
14.265300 35.393299 -793.896912
10.747500 33.431301 -797.841614
10.280800 33.298401 -798.411499
7.995400 31.697399 -800.854919
7.599400 31.412901 -801.275696
3.301600 28.228800 -805.806885
0.852900 24.632401 -807.736389
0.161100 24.264299 -808.518616
-5.140300 20.366501 -814.119019
-7.380900 19.560499 -816.793823
13.151700 34.752102 -794.872986
9.410000 32.423199 -798.981812
9.013600 32.107601 -799.391907
8.431900 31.907400 -800.089905
1.822700 26.325701 -806.809570
-0.256800 23.692600 -808.602722
-0.906600 23.089899 -809.243713
-1.305600 22.954700 -809.723206
-2.107800 22.160299 -810.495972
-2.715400 21.810101 -811.173523
-3.527200 21.269501 -812.051880
-4.550000 20.769199 -813.224976
-6.064300 20.032200 -814.963074
-7.905700 19.334499 -817.149414
14.623900 35.589199 -792.956909
13.675200 35.066002 -794.023376
12.640300 34.689400 -795.258118
12.242000 34.273102 -795.633728
11.817400 34.056301 -796.117371
11.431500 33.760201 -796.520813
11.007000 33.559700 -797.010315
10.237800 33.031200 -797.836792
9.814800 32.861900 -798.335815
9.744600 33.781799 -798.766174
6.313200 30.637501 -802.164917
5.878200 30.452801 -802.674011
5.575900 29.541000 -802.740723
5.164700 29.214899 -803.166626
3.732400 27.752300 -804.530090
0.326700 24.248501 -807.762817
-1.728000 22.445101 -809.826904
-6.581500 19.885401 -815.326172
-6.993200 19.743299 -815.820129
15.432300 35.893600 -791.776978
8.529700 31.681900 -799.389282
6.996300 31.112101 -801.214722
4.763500 28.719500 -803.299194
-0.766100 23.296301 -808.645630
-3.263000 21.520399 -811.306580
-4.108000 21.083700 -812.267517
-5.158600 20.467199 -813.435120
-5.758300 20.199301 -814.132385
15.853300 36.136002 -791.170410
14.973500 35.744202 -792.194397
14.087700 35.324501 -793.216125
10.456800 33.250198 -797.274109
3.153500 27.397400 -804.820313
0.754700 24.622499 -806.986084
-0.176900 23.815100 -807.926514
-7.552200 19.577999 -816.160583
13.059700 34.828400 -794.247986
9.014200 32.081600 -798.611084
7.818600 31.469200 -799.973694
5.928000 29.726400 -801.844421
5.133700 28.922800 -802.604126
4.279400 28.108999 -803.439880
3.832600 27.734900 -803.895813
2.174900 26.486601 -805.638489
-1.475700 22.741899 -809.111572
-2.663700 21.886299 -810.374878
9.341500 32.470001 -798.136230
7.299200 30.886200 -800.267517
6.695200 30.576700 -800.956116
-2.357000 22.189199 -809.901672
-4.677300 20.845400 -812.490295
14.373100 35.433998 -792.329224
13.492900 35.078999 -793.368591
12.492600 34.570900 -794.511230
12.062200 34.293701 -794.981384
11.677500 33.994099 -795.382629
11.248400 33.746899 -795.861877
10.813200 33.460999 -796.335327
9.935000 32.861401 -797.281982
8.520600 31.711500 -798.739380
8.007900 31.303400 -799.270874
6.131800 29.860500 -801.234192
4.663400 28.461800 -802.671875
3.219400 26.947201 -804.034729
1.190100 25.164400 -806.076782
0.225800 24.283001 -807.034485
-0.684000 23.401300 -807.919922
-3.220200 21.657400 -810.649719
-3.893900 21.258400 -811.398376
-6.418600 20.058300 -814.312683
15.712200 36.001801 -790.523621
15.301800 35.853100 -791.014282
14.879300 35.592499 -791.479797
10.313800 33.127701 -796.639526
7.494800 30.954599 -799.586426
6.810700 30.449499 -800.309814
5.511400 29.307899 -801.616516
3.857900 27.692699 -803.219971
2.740300 26.600800 -804.303589
1.561700 26.419100 -805.802612
0.648000 24.604200 -806.349976
-0.224800 23.895201 -807.249023
-1.179400 23.074301 -808.215820
-2.057600 22.407801 -809.137817
-5.275000 20.622299 -812.755981
-5.824600 20.331499 -813.379272
-6.954900 19.870399 -814.711487
-7.372700 19.931101 -815.288696
13.800800 35.307301 -792.594727
12.919500 34.959801 -793.637024
9.372400 32.530399 -797.454285
6.313600 29.933701 -800.562012
5.039000 28.983999 -801.905518
4.160100 28.020100 -802.718506
3.401300 27.204000 -803.426270
-4.494200 21.050900 -811.649597
8.918700 32.196098 -797.747314
5.717900 29.438200 -800.979126
1.994800 26.060400 -804.676208
1.405400 25.407400 -805.218079
-1.750300 22.728600 -808.419312
-2.974100 21.962999 -809.760925
-3.840200 21.410999 -810.706604
-6.428500 20.170300 -813.682617
14.279200 35.421902 -791.613098
12.351000 34.619202 -793.871826
11.918300 34.330101 -794.338806
11.101500 33.773399 -795.216187
10.671500 33.534901 -795.698120
9.725300 32.814701 -796.687073
8.435100 31.853600 -798.043091
7.964300 31.390400 -798.496826
6.977200 30.545700 -799.494324
2.906400 26.703300 -803.476624
2.344700 26.176701 -804.027405
0.969000 24.947500 -805.398499
0.101600 24.256701 -806.293884
-0.726400 23.529800 -807.123779
-1.167700 23.174700 -807.578003
-5.085300 20.812401 -811.899414
15.179300 35.739700 -790.245178
14.676000 35.675999 -790.887085
13.180100 35.161800 -792.676208
11.405100 34.047100 -794.614624
10.145500 33.192402 -795.966675
7.476700 31.052000 -798.711182
6.521000 30.110201 -799.629883
5.222600 29.012699 -800.944519
4.810600 28.690201 -801.371094
4.406100 28.421801 -801.807617
3.657300 27.653900 -802.516296
1.849400 25.657000 -804.175415
0.438100 24.559799 -805.639282
-0.443200 24.093700 -806.633728
-2.359200 22.475300 -808.573975
-2.787100 22.213800 -809.043884
-3.539000 21.691299 -809.846619
-4.459200 21.156200 -810.867188
-5.927200 20.609501 -812.607605
-6.338700 20.222000 -813.009705
-7.008000 19.899099 -813.776184
13.621300 35.313599 -791.789795
12.636700 34.965599 -792.961487
9.128400 32.557201 -796.708984
8.731500 32.238899 -797.116211
6.975300 30.614500 -798.838928
6.329500 30.716700 -799.728271
5.981600 30.118700 -799.968506
5.618800 29.439301 -800.198730
3.901200 28.064600 -801.961670
3.141900 27.258400 -802.668579
2.351100 26.311100 -803.365417
1.325700 25.272301 -804.338196
-1.769000 22.939301 -807.567383
-4.102600 21.497601 -810.118774
-5.020500 20.988899 -811.143677
-5.752100 20.609900 -811.970276
14.581400 35.582298 -790.120178
14.166000 35.424400 -790.609070
13.755700 35.319302 -791.110474
12.996700 35.218102 -792.072327
12.086000 34.674999 -793.072021
11.654200 34.407001 -793.542114
11.261600 34.061199 -793.932129
10.825600 33.780399 -794.403076
10.398600 33.578899 -794.891174
9.969700 33.369999 -795.379211
9.559600 32.933498 -795.758972
8.194000 31.823900 -797.149780
7.797900 31.537300 -797.565979
7.399600 31.243900 -797.982788
7.300700 31.945299 -798.369873
6.479600 30.208300 -798.814270
6.064300 29.837999 -799.225281
5.693400 29.434200 -799.565491
5.117600 29.047701 -800.181580
4.947700 29.587200 -800.602783
4.692200 28.648800 -800.595398
4.273900 28.304300 -801.019714
3.436400 27.637400 -801.877625
2.615900 26.804800 -802.652527
1.780600 25.930500 -803.431580
1.435200 25.472000 -803.718201
0.710900 24.971701 -804.488220
0.277700 24.632200 -804.934021
-0.159100 24.282499 -805.380798
-0.542600 23.942600 -805.760925
-0.933800 23.569700 -806.139221
-1.356100 23.318001 -806.602722
-2.392600 22.676500 -807.731873
-2.954700 22.286100 -808.328674
-3.390700 21.996099 -808.796326
-3.807800 21.802299 -809.274170
-4.723700 21.297800 -810.294922
-5.627700 20.869600 -811.327820
13.118800 35.179199 -791.216187
12.399900 35.009399 -792.097778
8.981100 32.599499 -795.702393
8.573800 32.214699 -796.095825
8.180100 31.937300 -796.510986
6.905400 30.868900 -797.792480
6.509300 30.612200 -798.218384
5.149300 29.128901 -799.459473
4.237400 28.286400 -800.347473
3.763500 27.932100 -800.839722
2.822600 27.295401 -801.841370
2.012400 26.547701 -802.630920
0.830900 25.246700 -803.704407
-1.962900 23.146099 -806.601685
-2.379400 22.936899 -807.071899
-3.004000 22.502800 -807.732605
-4.459100 21.721201 -809.356384
-5.337800 21.154499 -810.302124
12.487800 34.962502 -791.245422
11.807800 34.713902 -792.045776
11.382500 34.509998 -792.528503
10.987300 34.149300 -792.914001
10.554900 33.904999 -793.391174
10.147200 33.470001 -793.765625
9.407800 32.832802 -794.500610
7.617000 31.620899 -796.403015
7.212200 31.288099 -796.811279
5.985800 30.268299 -798.044312
5.617200 29.876499 -798.383423
5.197400 29.496700 -798.794006
4.531200 28.880501 -799.440796
3.179100 27.612000 -800.746887
2.771200 27.361000 -801.189392
2.278500 26.930500 -801.676880
1.469900 26.213100 -802.473328
1.075600 25.777399 -802.829773
0.195400 25.011900 -803.702209
-0.225800 24.743700 -804.155884
-0.612400 24.384399 -804.530701
-1.052900 24.030100 -804.977783
-1.492800 23.687000 -805.428406
-1.918800 23.422701 -805.889771
-2.980500 22.672100 -807.005920
-3.651400 22.285700 -807.743591
-4.080100 22.038601 -808.214905
-4.518800 21.749701 -808.683777
-5.015400 21.449699 -809.224609
6.093600 30.468100 -797.324219
4.603500 29.176001 -798.796509
3.939600 28.597799 -799.451721
3.516200 28.237600 -799.872620
1.665300 26.595800 -801.687927
0.471500 25.531000 -802.856628
9.926800 33.731800 -792.986511
5.567500 30.736700 -797.556030
4.027500 28.807800 -798.848816
2.938200 27.905899 -799.933777
2.507800 27.532499 -800.356323
2.122600 27.126801 -800.708130
1.085400 26.328400 -801.763489
0.700300 25.954000 -802.126709
-0.168100 25.273600 -803.005981
-0.611200 24.898701 -803.444519
-1.052500 24.542700 -803.887573
-1.486200 24.234501 -804.338379
-1.922000 23.923100 -804.790771
-2.320700 23.535400 -805.166687
3.216300 28.347099 -799.176697
1.542500 26.878799 -800.802307
0.104500 25.675600 -802.220520
2.278900 27.767700 -799.560486
1.833300 27.330601 -799.973816
0.916900 26.646000 -800.902771
0.534100 26.293200 -801.266296
-0.523500 25.479900 -802.329773
-0.942400 25.246099 -802.783813
-1.327900 24.913000 -803.158020
-1.713900 24.583900 -803.534302
-2.142500 24.318899 -803.989319
-2.594100 23.945601 -804.433716
1.225200 27.108200 -799.997070
-0.072400 26.118601 -801.299683
-0.510100 25.777500 -801.736328
0.590500 26.750099 -800.047119
0.159100 26.490299 -800.504089
-1.175100 25.654200 -801.905029
-1.562900 25.313499 -802.276001
-2.006700 24.968901 -802.717407
-2.426900 24.751900 -803.175720
-2.871400 24.418600 -803.622192
-3.267500 24.065001 -803.999023
-0.453700 26.219601 -800.702087
-0.890500 25.893200 -801.139771
-3.971700 23.930500 -804.042480
-1.537800 25.724701 -801.358704
-1.955700 25.514799 -801.813293
-2.375700 25.298800 -802.268494
-2.814700 24.993299 -802.714783
-3.241300 24.756001 -803.170288
-3.692200 24.405899 -803.615173
-1.015100 26.045500 -800.472229
-1.584700 25.813299 -800.645508
-4.299400 24.154499 -803.481018
-2.172300 25.764000 -800.896423
-2.621800 25.671600 -801.432983
-3.026700 25.535200 -801.896484
-3.453100 25.295601 -802.349182
-3.899100 24.966200 -802.793701
-4.442900 24.619400 -802.910522
-2.434800 25.674400 -800.317627
-4.060800 25.118601 -802.171814
-4.997200 24.272699 -803.045105
-3.019200 25.706600 -800.687012
-3.454800 25.689501 -801.231689
-4.011800 25.480801 -801.553528
-4.725000 24.916201 -802.245911
-5.251200 24.549801 -802.460693
-3.664000 25.621599 -800.529724
-4.649600 25.305099 -801.656311
-4.208000 25.543600 -800.947998
-5.233500 25.028000 -801.878113
-5.761700 24.651100 -802.021729
-4.842700 25.385799 -801.045471
10.472900 33.917599 -792.628174
9.237000 32.729401 -795.100891
9.974600 33.295700 -794.374878
13.337000 35.285099 -790.625671
6.699500 30.367001 -801.612793
14.881500 35.937599 -789.636780
8.588300 32.411598 -794.968628
8.201200 31.973499 -795.585571
6.734600 31.042500 -797.143494
5.463900 30.007900 -797.677429
4.910600 29.511400 -798.231018
5.254800 29.880501 -803.501282
5.766700 29.800200 -803.906799
5.334400 29.226400 -803.845825
5.474100 29.549299 -804.434875
4.868500 28.858200 -804.099182
4.473100 28.347700 -804.172485
3.227200 27.750299 -805.369385
2.844900 26.857401 -805.084900
3.002300 27.760099 -806.132019
2.671100 27.248699 -805.928589
1.989200 25.843000 -805.454529
2.325800 26.724800 -806.244080
-5.616200 24.186800 -802.906372
2.631000 27.418900 -806.676514
1.935100 26.020700 -806.198975
-4.913500 23.910200 -803.689087
1.563100 25.588900 -806.484802
1.190600 25.140900 -806.751770
1.838600 26.180201 -807.490601
1.548700 25.544201 -807.283875
-2.567800 23.306400 -805.725403
1.247000 25.141300 -807.712585
1.934800 26.267900 -808.424683
-2.654900 23.004999 -806.469971
2.911000 26.618799 -812.179993
-0.317100 23.763000 -810.587097
-0.692500 23.331499 -810.908020
0.516000 24.752199 -811.720215
-0.213500 23.932800 -812.729675
4.765500 27.516100 -815.353027
-6.184300 20.526501 -811.497925
-7.666600 19.572500 -818.103821
-8.231600 19.355700 -817.877319
-6.396100 20.304199 -812.246277
7.644100 30.024799 -816.594116
7.791600 29.870399 -815.967712
-0.235100 26.734900 -800.032898
6.419300 30.511999 -803.228210
12.979600 34.694500 -802.303711
17.038401 37.084900 -793.175720
16.778900 36.918701 -795.549316
14.966100 35.797600 -801.432129
15.057800 36.055199 -788.991577
15.298300 36.516102 -788.131226
14.392900 35.936199 -789.105225
13.959400 35.607800 -789.552673
13.541600 35.440800 -790.039307
15.641700 37.091999 -787.277710
14.667600 36.297298 -788.258789
12.748900 35.189201 -790.359924
11.848600 34.776402 -791.385376
15.788700 37.208000 -786.638489
15.049700 36.796001 -787.448425
14.076700 36.078098 -788.450073
13.647700 35.813400 -788.910889
13.215600 35.530800 -789.369019
12.150200 34.998699 -790.559570
11.239600 34.539101 -791.575500
10.845300 34.201302 -791.964111
14.458700 36.575901 -787.654602
12.623800 35.408298 -789.599915
11.544000 34.801899 -790.774414
9.340900 33.405899 -793.112183
15.203700 37.185902 -786.369324
14.793300 37.104099 -786.868408
13.865800 36.385601 -787.799194
13.431500 36.089901 -788.250183
13.043900 35.770401 -788.632080
12.020500 35.211800 -789.745728
10.934500 34.601299 -790.920776
10.497600 34.351501 -791.392029
10.062200 34.122398 -791.869019
9.633000 33.949402 -792.358582
14.151400 36.872002 -786.986816
12.396100 35.569401 -788.762207
11.372300 35.047401 -789.885681
8.974000 33.782902 -792.502014
8.530900 33.525200 -792.976501
8.089600 33.289700 -793.456909
14.418200 37.257999 -786.210388
13.540800 36.571701 -787.081116
13.104200 36.270000 -787.529114
12.676400 36.061199 -788.000427
11.794500 35.434502 -788.898987
10.757000 34.832298 -790.006226
10.322300 34.610901 -790.481628
9.928000 34.313301 -790.876892
9.492600 34.103100 -791.357300
9.056100 33.891201 -791.838501
7.413500 33.344601 -793.742310
13.840100 37.078499 -786.448914
12.122200 35.707901 -788.137573
11.202900 35.237801 -789.138977
8.456400 33.722301 -792.089417
8.030000 33.602402 -792.590271
7.580900 33.325600 -793.062012
6.778700 33.107601 -793.723572
12.925900 36.539398 -786.933289
12.488700 36.253502 -787.384583
11.540600 35.517700 -788.320129
10.619600 35.064899 -789.325928
10.173000 34.756901 -789.780884
9.732600 34.509800 -790.250427
9.287900 34.237499 -790.716187
8.883400 33.890701 -791.103271
13.786500 37.143200 -785.749084
13.210900 36.969002 -786.416626
8.332400 33.739799 -791.427490
7.842100 33.540001 -791.977112
6.966500 33.174099 -792.955322
6.160600 32.951599 -793.897827
11.861100 36.107800 -787.369812
10.862200 35.404499 -788.378784
7.257200 33.320900 -792.187988
6.384900 32.993900 -793.175171
5.576100 32.763500 -794.117493
13.179100 37.399502 -785.710327
12.566600 36.875801 -786.294312
12.173900 36.532299 -786.665710
11.276600 35.796001 -787.532471
10.288500 35.211700 -788.570923
9.842600 34.912300 -789.026306
9.447100 34.618599 -789.419678
9.009600 34.405399 -789.896301
8.610100 34.098499 -790.289978
8.159500 33.804600 -790.753418
7.706800 33.505299 -791.217407
6.676200 33.144001 -792.392212
4.993900 32.601501 -794.327271
10.700900 35.542801 -787.741028
7.119200 33.252399 -791.437378
5.773200 32.873501 -793.004700
5.342100 32.756199 -793.508179
12.541000 37.305901 -785.650696
11.527700 36.399200 -786.598816
10.120900 35.278702 -787.966187
8.443500 34.184200 -789.686218
7.997100 33.922501 -790.155029
