68.487000 24.340900 -747.038330
68.357903 24.210400 -747.632629
68.325302 24.188601 -747.804871
68.298798 24.188499 -747.980408
68.267303 24.170799 -748.153320
68.222900 24.106501 -748.319397
68.158997 24.020700 -748.570313
68.129997 24.011700 -748.744507
67.800400 23.687599 -750.280273
67.766899 23.663000 -750.452820
68.817398 24.537300 -744.604675
68.787598 24.525700 -744.778381
68.756203 24.507999 -744.950989
68.719902 24.472700 -745.120789
68.690002 24.460400 -745.294373
68.660599 24.450100 -745.468323
68.634102 24.450300 -745.643982
68.605797 24.443899 -745.818481
68.575500 24.430300 -745.991821
68.545502 24.417700 -746.165283
68.515503 24.405001 -746.338928
68.486397 24.395599 -746.512878
68.454903 24.377800 -746.685486
68.425400 24.366899 -746.859314
68.356400 24.309700 -747.201416
68.320702 24.276699 -747.371826
67.993103 23.958401 -748.904419
67.953697 23.912399 -749.073425
67.920998 23.890499 -749.245789
67.881599 23.844601 -749.414978
67.844803 23.808001 -749.585571
67.805901 23.763901 -749.755127
67.771896 23.737499 -749.927185
67.737000 23.707600 -750.098816
67.637497 23.636999 -750.616272
67.589897 23.562300 -750.782227
68.226601 24.265400 -747.513123
68.197197 24.255100 -747.687012
68.169899 24.252600 -747.861877
68.135498 24.224300 -748.033020
68.095001 24.174500 -748.200989
68.050903 24.111900 -748.367188
67.992599 24.045500 -748.620728
67.646698 23.712700 -750.241577
67.613297 23.688400 -750.413818
68.651299 24.567699 -744.547913
68.623199 24.562300 -744.722473
68.589996 24.538601 -744.893982
68.558998 24.522301 -745.066772
68.523499 24.490101 -745.236877
68.496399 24.488501 -745.412109
68.469902 24.488701 -745.587585
68.434799 24.457800 -745.757996
68.403900 24.442499 -745.930908
68.376999 24.441299 -746.106079
68.350502 24.441500 -746.281616
68.321297 24.431900 -746.455383
68.289497 24.412901 -746.627686
68.259499 24.400900 -746.801086
68.231102 24.393999 -746.975281
68.192497 24.350700 -747.143921
68.161003 24.333000 -747.316528
67.852402 24.036501 -748.762817
67.820999 24.019199 -748.935730
67.779503 23.965900 -749.103516
67.734802 23.901400 -749.269775
67.703499 23.884501 -749.442871
67.656403 23.811501 -749.608276
67.618202 23.770100 -749.778076
67.588402 23.758801 -749.952026
67.461700 23.639099 -750.550415
67.418701 23.580799 -750.718323
68.483902 24.556101 -744.531677
68.451401 24.582800 -744.799622
68.421501 24.570601 -744.973022
68.387100 24.542400 -745.143677
68.353699 24.517900 -745.315002
68.324501 24.508200 -745.488770
68.297600 24.507000 -745.664124
68.264900 24.485001 -745.835815
68.233803 24.468399 -746.008484
68.208000 24.471100 -746.184326
68.178497 24.460699 -746.357971
68.149200 24.450701 -746.531616
68.116501 24.428499 -746.703430
68.088600 24.423700 -746.877930
68.060699 24.418900 -747.052429
68.023300 24.379601 -747.221619
67.992203 24.363300 -747.394287
67.959099 24.339800 -747.565918
67.926903 24.319599 -747.738098
67.894402 24.298201 -747.910095
67.858200 24.263599 -748.080078
67.819199 24.219101 -748.248779
67.777199 24.163601 -748.416016
67.734100 24.104401 -748.582581
67.673500 24.030399 -748.835022
67.638000 23.998501 -749.005798
67.603798 23.971001 -749.177185
67.565300 23.928699 -749.346680
67.531998 23.904499 -749.518677
67.491501 23.855000 -749.687317
67.454002 23.816099 -749.857300
67.417397 23.780399 -750.027893
67.386497 23.764900 -750.201172
67.348801 23.725401 -750.371399
67.289001 23.654600 -750.625183
67.251801 23.617201 -750.795776
67.758301 24.291901 -747.819824
67.578400 24.123600 -748.671082
67.197403 23.761299 -750.461609
67.710197 24.334900 -747.669617
67.644096 24.288799 -748.012878
67.602699 24.236000 -748.180176
67.561600 24.184000 -748.347778
67.531799 24.172600 -748.521179
67.454102 24.085199 -748.859070
67.410004 24.022800 -749.025391
67.373100 23.986500 -749.195496
67.336403 23.950500 -749.365723
67.305901 23.936600 -749.539124
67.267998 23.896601 -749.708801
67.231697 23.862000 -749.879395
67.197601 23.835600 -750.051086
67.162399 23.805099 -750.222290
67.068298 23.707600 -750.647705
67.027603 23.657499 -750.816528
67.603302 24.323400 -747.851379
67.410500 24.110300 -748.695618
67.045601 23.760300 -750.399292
67.450897 24.333000 -747.926819
67.420403 24.319000 -748.099670
67.382698 24.279400 -748.268921
67.334198 24.201200 -748.432617
67.256500 24.113899 -748.770081
67.224800 24.095699 -748.942627
67.187500 24.057699 -749.112427
67.152702 24.028500 -749.283386
67.113800 23.985100 -749.452515
67.077499 23.950600 -749.622925
67.027100 23.866100 -749.786499
66.993896 23.842699 -749.958618
66.963898 23.830799 -750.132080
66.902397 23.801701 -750.478699
66.858299 23.739901 -750.645813
66.801903 23.634600 -750.807373
67.252296 24.396400 -747.631775
67.226402 24.399000 -747.807312
67.192001 24.371300 -747.978088
67.158897 24.348101 -748.149719
67.116997 24.293501 -748.316589
67.079002 24.252701 -748.485718
67.039597 24.207199 -748.654175
66.999702 24.159800 -748.822388
66.960403 24.114300 -748.991028
66.927299 24.091499 -749.162903
66.884499 24.033701 -749.330017
66.849602 24.004299 -749.500977
66.811501 23.963600 -749.670471
66.763199 23.886801 -749.835205
66.733002 23.874100 -750.008728
66.696098 23.837601 -750.179077
66.665802 23.824699 -750.352478
66.620102 23.757099 -750.518921
66.585999 23.730700 -750.690674
66.533798 23.676701 -750.926880
66.722198 24.184299 -748.783875
66.685799 24.149500 -748.953979
66.645401 24.100599 -749.122192
66.611198 24.073900 -749.293579
66.579002 24.053900 -749.465881
66.537598 24.001600 -749.633911
66.495499 23.946600 -749.801514
66.466797 23.939501 -749.975830
66.438499 23.933399 -750.150085
66.404701 23.908001 -750.321777
66.363701 23.857201 -750.490295
66.325600 23.816799 -750.660217
66.261497 23.708200 -750.865479
66.458397 24.187000 -748.961975
66.417603 24.136801 -749.129883
66.380699 24.100599 -749.299988
66.337502 24.041700 -749.466919
66.305603 24.023500 -749.639587
66.272903 24.002199 -749.811829
66.237900 23.972401 -749.982910
66.209999 23.968300 -750.157471
66.174202 23.936001 -750.328308
66.135696 23.894100 -750.497925
66.094902 23.844400 -750.666626
66.056900 23.804399 -750.836609
66.568100 24.502001 -747.667419
66.539398 24.491400 -747.835022
66.498703 24.441000 -748.002380
66.451698 24.368200 -748.166626
66.414497 24.330400 -748.336182
66.380203 24.302799 -748.507202
66.344002 24.268700 -748.677307
66.306000 24.228201 -748.846619
66.277000 24.219601 -749.020386
66.236702 24.170700 -749.188599
66.192802 24.109200 -749.355103
66.148003 24.044800 -749.521301
66.117897 24.032400 -749.694824
66.086197 24.014601 -749.867493
66.054703 23.997101 -750.040283
66.019897 23.968100 -750.211487
65.992104 23.963900 -750.386230
65.952698 23.918501 -750.555298
65.906898 23.850700 -750.721619
65.872498 23.823299 -750.893188
65.847198 23.827600 -751.068115
66.393501 24.501801 -747.696777
66.364799 24.494301 -747.870728
66.333900 24.478800 -748.043274
66.285400 24.400700 -748.206726
66.247597 24.360800 -748.375916
66.212997 24.332300 -748.546814
66.171898 24.280701 -748.714417
66.136902 24.250999 -748.885193
66.103897 24.228201 -749.057007
66.060402 24.168100 -749.223572
66.025200 24.137800 -749.394470
65.983299 24.083300 -749.562012
65.950798 24.062599 -749.734314
65.915398 24.031700 -749.905212
65.882698 24.010000 -750.077515
65.854897 24.006001 -750.252075
65.827202 24.001900 -750.426575
65.773804 23.907200 -750.589172
65.721802 23.817801 -750.752686
65.677101 23.753901 -750.919678
66.089699 24.515200 -747.862671
66.054703 24.485600 -748.033203
66.023598 24.469801 -748.205811
65.986198 24.431299 -748.375122
65.941200 24.365801 -748.540527
65.901497 24.319401 -748.708801
65.873199 24.313700 -748.882874
65.834999 24.272499 -749.052124
65.795502 24.227100 -749.220703
65.756104 24.181801 -749.389404
65.714302 24.127899 -749.556885
65.671898 24.072001 -749.724426
65.637199 24.043800 -749.895630
65.608200 24.035601 -750.069580
65.581902 24.036900 -750.244873
65.550598 24.020599 -750.417786
65.514603 23.987400 -750.588501
65.456703 23.877100 -750.749084
65.409401 23.813700 -750.933472
65.448601 24.042700 -750.151611
65.412697 24.009899 -750.322327
65.351303 23.981199 -750.668701
65.559303 24.325800 -748.945007
65.519501 24.279100 -749.113403
65.481598 24.238800 -749.282715
65.445900 24.206800 -749.453308
65.412399 24.182301 -749.625000
65.364197 24.105801 -749.789490
65.326202 24.065901 -749.959229
65.283302 24.055500 -750.220520
65.251999 24.039101 -750.393372
65.221100 24.024000 -750.566528
65.160500 23.903999 -750.725830
65.116302 23.835800 -750.880493
65.725502 24.596399 -747.552673
65.701897 24.607201 -747.729309
65.668701 24.583900 -747.900696
65.637901 24.569000 -748.073425
65.596100 24.514900 -748.240173
65.552696 24.455099 -748.406311
65.513397 24.410101 -748.574707
65.476601 24.373899 -748.744385
65.174202 24.057501 -750.100586
65.395500 24.312000 -748.955811
65.356697 24.268999 -749.124573
65.251099 24.178301 -749.637024
65.074600 24.025999 -750.491516
65.002296 23.959299 -750.832825
64.965698 23.924400 -751.003418
65.247002 24.258200 -749.313721
65.210999 24.225800 -749.483887
65.129997 24.128599 -749.820190
65.046097 24.069099 -750.249390
64.950203 23.966900 -750.673096
65.488297 24.634701 -747.496582
65.459702 24.628700 -747.670471
65.431396 24.623501 -747.844482
65.395599 24.591700 -748.014404
65.354301 24.540100 -748.181274
65.310997 24.481501 -748.347412
65.271797 24.437201 -748.515625
65.232697 24.393900 -748.684082
65.199097 24.369801 -748.855408
65.154503 24.306700 -749.021179
65.124496 24.295900 -749.194519
65.092201 24.276501 -749.366577
65.055702 24.242399 -749.536621
65.008797 24.171301 -749.701477
64.973801 24.142300 -749.872375
64.931999 24.089500 -750.040100
64.887802 24.076099 -750.300720
64.861504 24.078199 -750.475891
64.791199 23.972000 -750.724121
64.760803 23.959700 -750.897522
64.802101 24.130600 -750.156982
64.725197 24.096500 -750.589600
65.261597 24.671700 -747.508484
65.232803 24.664600 -747.682190
65.201103 24.647200 -747.854187
65.171204 24.636400 -748.027283
65.131500 24.590401 -748.195129
65.078697 24.497299 -748.356018
65.040802 24.458000 -748.524902
65.005798 24.428699 -748.695374
64.973999 24.411100 -748.867676
64.921799 24.320700 -749.029419
64.891800 24.309500 -749.202576
64.865303 24.310699 -749.377686
64.824898 24.262600 -749.545715
64.783997 24.212700 -749.713623
64.747299 24.177601 -749.883606
64.660698 24.108400 -750.311279
64.568199 24.018600 -750.736572
64.516701 23.931299 -750.900024
65.162300 24.723101 -747.386292
64.588501 24.158001 -750.012878
64.554901 24.133801 -750.184509
64.508301 24.111300 -750.443787
64.477303 24.096500 -750.616699
64.381302 23.994101 -751.040283
64.999603 24.698400 -747.478516
64.967796 24.680599 -747.650513
64.938301 24.671000 -747.823730
64.906700 24.653900 -747.995789
64.875198 24.637100 -748.168030
64.838203 24.600800 -748.337219
64.786003 24.509800 -748.498291
64.745003 24.459299 -748.665588
64.709396 24.427900 -748.835815
64.667900 24.375601 -749.002991
64.621300 24.304899 -749.167603
64.595100 24.307600 -749.342773
64.564400 24.293800 -749.515686
64.533501 24.279301 -749.688477
64.497299 24.245899 -749.858582
64.403297 24.150499 -750.282593
64.319603 24.091700 -750.711670
64.260399 23.976801 -750.871277
64.947601 24.800301 -747.250305
64.355598 24.220501 -749.959778
64.318298 24.183500 -750.129517
64.267502 24.146500 -750.386597
64.235497 24.128300 -750.559021
64.808998 24.758101 -747.373596
64.776703 24.738600 -747.545227
64.747398 24.730000 -747.718384
64.711899 24.699200 -747.888428
64.675598 24.665501 -748.057800
64.643303 24.646000 -748.229370
64.610199 24.623800 -748.400696
64.559502 24.538700 -748.562622
64.519402 24.491301 -748.730225
64.480003 24.446800 -748.898376
64.438301 24.393999 -749.065430
64.401100 24.357100 -749.234802
64.368599 24.337400 -749.406677
64.338303 24.325399 -749.579712
64.295097 24.267300 -749.746277
64.105400 24.119200 -750.687073
64.056000 24.039400 -750.851196
64.741600 24.822201 -747.196594
64.152199 24.254999 -749.906189
64.118202 24.229601 -750.077393
64.083702 24.202801 -750.248413
64.053497 24.191401 -750.421570
64.600502 24.792900 -747.307190
64.564301 24.759399 -747.476501
64.530998 24.736500 -747.647522
64.499802 24.721300 -747.819702
64.469002 24.707600 -747.992126
64.439499 24.698400 -748.165283
64.397400 24.643999 -748.331482
64.350899 24.573601 -748.495483
64.320702 24.561800 -748.668396
64.276901 24.501499 -748.833984
64.234497 24.446100 -749.000488
64.195702 24.403799 -749.169006
64.159500 24.370501 -749.338928
64.127403 24.352400 -749.510925
64.088699 24.310400 -749.679626
63.910198 24.154600 -750.531616
63.869999 24.107500 -750.699890
63.817902 24.018200 -750.862671
65.048103 25.039801 -744.194275
65.021896 25.046900 -744.377380
65.000801 25.068800 -744.556213
64.970596 25.057301 -744.728882
64.947899 25.072901 -744.906372
64.916496 25.057100 -745.078430
64.877701 25.014299 -745.245728
64.847000 25.001101 -745.418091
64.819397 24.999001 -745.592407
64.781197 24.958300 -745.760193
64.745903 24.928200 -745.929810
64.715897 24.917500 -746.102722
64.688499 24.916000 -746.277100
64.662598 24.920300 -746.452393
64.631798 24.906601 -746.624817
64.602203 24.897100 -746.797729
64.574402 24.894199 -746.971802
64.538803 24.863199 -747.141418
63.947800 24.292000 -749.848816
63.910801 24.256500 -750.018494
63.871899 24.213900 -750.187317
63.842201 24.204599 -750.360718
64.397903 24.837700 -747.278503
64.354599 24.778700 -747.443726
64.313904 24.729799 -747.610474
64.287399 24.731701 -747.785278
64.258797 24.726500 -747.958984
64.219704 24.682899 -748.126770
64.174698 24.618500 -748.291382
64.135201 24.573601 -748.459229
64.097397 24.535299 -748.627991
64.063499 24.510700 -748.799011
64.022400 24.460199 -748.966003
63.980301 24.406601 -749.132813
63.939999 24.359100 -749.300476
63.910702 24.351101 -749.473999
63.877399 24.328800 -749.645386
63.698399 24.173500 -750.496887
63.661701 24.139000 -750.666870
63.612301 24.059700 -750.830811
64.789101 25.072300 -744.300720
64.753700 25.072399 -744.529175
64.726799 25.073200 -744.704224
64.697899 25.066700 -744.877686
64.667900 25.056200 -745.050598
64.634697 25.033899 -745.221375
64.602402 25.015100 -745.392822
64.574402 25.011801 -745.566895
64.545799 25.006399 -745.740601
64.517197 25.000799 -745.914185
64.481598 24.969700 -746.083618
64.451202 24.957899 -746.256226
64.420197 24.943399 -746.428284
64.392998 24.943199 -746.602783
64.363899 24.935801 -746.776123
64.336601 24.934999 -746.950378
64.303398 24.912800 -747.121277
63.726501 24.346800 -749.740173
63.688301 24.306700 -749.909119
63.649899 24.266399 -750.078125
63.620499 24.257999 -750.251526
63.454201 24.051300 -750.921814
64.592796 25.081699 -744.580688
64.557297 25.050699 -744.750122
64.524597 25.030100 -744.921082
64.498001 25.031601 -745.096191
64.472298 25.036400 -745.271729
64.443298 25.029499 -745.445313
64.414200 25.021700 -745.618530
64.381897 25.002701 -745.789917
64.348297 24.978701 -745.960388
64.317398 24.964800 -746.132813
64.288300 24.957199 -746.306030
64.262299 24.960600 -746.481201
64.235901 24.962999 -746.656128
64.201202 24.934900 -746.825989
64.169601 24.918600 -746.997803
64.132004 24.880199 -747.166077
64.090103 24.826099 -747.331909
64.054199 24.793900 -747.501282
64.023598 24.781000 -747.673828
63.989101 24.754101 -747.844116
63.957001 24.735600 -748.015686
63.911499 24.668800 -748.179810
63.871700 24.622801 -748.347290
63.839500 24.604200 -748.518982
63.800499 24.561100 -748.687073
63.750900 24.479700 -748.849426
63.720200 24.466600 -749.022095
63.683102 24.430599 -749.191284
63.650299 24.409700 -749.362915
63.620899 24.401199 -749.536316
63.566399 24.351000 -749.791016
63.535301 24.336399 -749.963501
63.501202 24.311001 -750.134521
63.462101 24.268101 -750.303101
63.426701 24.238199 -750.473511
63.376598 24.155701 -750.636780
63.334999 24.103701 -750.804321
64.492599 25.114300 -744.386780
64.406403 25.045500 -744.811584
64.376503 25.034700 -744.984375
64.346298 25.022800 -745.157104
64.318703 25.020500 -745.331482
64.291298 25.018900 -745.505920
64.264198 25.018299 -745.680481
64.080902 24.938900 -746.714783
64.050102 24.924700 -746.887024
63.901199 24.775600 -747.561096
63.871700 24.766100 -747.734070
63.722900 24.617800 -748.409302
63.529499 24.406500 -749.250610
63.495899 24.382299 -749.421692
63.465801 24.371201 -749.594727
63.376400 24.291800 -750.020020
63.344398 24.273500 -750.192017
63.310101 24.247400 -750.362976
64.353798 24.992100 -744.169373
64.329002 25.023500 -744.391479
64.306297 25.039000 -744.569214
64.112198 25.018499 -745.789001
64.085403 25.019199 -745.963684
64.057999 25.017300 -746.138000
64.027603 25.004400 -746.310425
64.000900 25.005199 -746.485107
63.905102 24.950399 -746.999573
63.865200 24.903500 -747.166382
63.824299 24.852699 -747.332703
63.716301 24.753901 -747.840515
63.682598 24.729601 -748.011230
63.640701 24.675400 -748.177307
63.580700 24.653000 -748.522888
63.533298 24.579300 -748.686279
63.489899 24.519899 -748.851929
63.448101 24.466400 -749.018372
63.313400 24.369400 -749.702820
63.283001 24.356800 -749.875488
63.156700 24.242201 -750.470520
63.110901 24.174601 -750.635681
63.069500 24.122801 -750.803284
64.159203 25.070999 -744.678528
64.135002 25.081400 -744.855103
64.105598 25.073000 -745.028320
64.072403 25.050600 -745.198975
64.043800 25.044901 -745.372681
64.017197 25.046200 -745.547729
63.848301 25.021400 -746.590820
63.817200 25.006701 -746.762817
63.666500 24.851801 -747.435303
63.631699 24.823700 -747.605286
63.489201 24.699100 -748.283630
63.286499 24.456100 -749.119385
63.252499 24.430799 -749.290222
63.220501 24.412800 -749.462219
63.120899 24.346600 -749.976379
63.089298 24.330099 -750.148621
63.061901 24.328600 -750.322876
62.891201 24.056999 -750.896423
62.844200 23.985800 -751.061401
64.098396 25.094700 -744.385193
63.888401 25.058901 -745.664185
63.860901 25.058001 -745.838623
63.831501 25.049700 -746.011719
63.801102 25.038099 -746.184204
63.766201 25.009899 -746.353882
63.681599 24.998600 -746.875183
63.642502 24.955601 -747.042480
63.599400 24.898001 -747.207520
63.492500 24.805901 -747.716003
63.458801 24.782400 -747.886719
63.419998 24.740499 -748.054504
63.345200 24.666700 -748.391907
63.307899 24.630199 -748.560791
63.266399 24.578501 -748.727417
63.219601 24.508101 -748.891174
63.090801 24.436001 -749.578613
63.054199 24.402399 -749.748230
62.916199 24.297600 -750.431213
62.882401 24.273701 -750.602417
62.845100 24.237700 -750.771912
64.006798 25.110500 -744.592529
63.979500 25.110600 -744.767212
63.954399 25.118900 -744.943176
63.924198 25.108101 -745.115784
63.894600 25.099899 -745.288879
63.863201 25.084999 -745.460815
63.679100 25.011600 -746.494812
63.645599 24.988899 -746.665283
63.498501 24.851801 -747.340271
63.461601 24.817101 -747.509094
63.327400 24.726700 -748.192322
63.132702 24.517401 -749.032227
63.086800 24.450399 -749.196716
63.057301 24.442699 -749.369995
62.960999 24.391001 -749.885803
62.922699 24.351801 -750.054626
62.894402 24.348200 -750.228516
62.725601 24.135500 -750.896729
63.936798 25.079901 -744.233826
63.904800 25.076200 -744.431885
63.727402 25.075199 -745.566284
63.697498 25.065599 -745.739075
63.669998 25.064600 -745.913330
63.641701 25.060699 -746.086975
63.615501 25.064301 -746.262024
63.516899 25.002501 -746.774475
63.483799 24.981400 -746.945313
63.446999 24.946600 -747.113892
63.328999 24.814400 -747.615417
63.293499 24.784500 -747.784973
63.263000 24.772800 -747.957520
63.191101 24.709400 -748.296082
63.150600 24.661600 -748.463074
63.108700 24.608500 -748.629272
63.070499 24.568800 -748.797607
62.922199 24.427099 -749.473999
62.890800 24.412201 -749.646301
62.766399 24.356600 -750.335815
62.724602 24.304300 -750.502808
62.670502 24.208000 -750.663818
62.582500 24.071800 -750.965027
63.743500 25.054100 -744.211670
63.714699 25.085899 -744.457825
63.701500 25.137300 -744.641724
63.673302 25.133499 -744.815613
63.642200 25.119200 -744.987610
63.611099 25.105000 -745.159607
63.583302 25.103100 -745.333801
63.554798 25.098200 -745.507385
63.525200 25.089300 -745.680298
63.493900 25.074499 -745.852173
63.465199 25.068800 -746.025574
63.436298 25.062599 -746.198914
63.408100 25.058901 -746.372620
63.380299 25.056801 -746.546570
63.351601 25.051201 -746.719971
63.317299 25.025299 -746.890015
63.278801 24.984200 -747.057373
63.237598 24.933500 -747.223389
63.196201 24.882000 -747.389404
63.160999 24.852800 -747.559021
63.125599 24.823099 -747.728577
63.096500 24.816200 -747.901917
63.059200 24.779600 -748.070374
63.020000 24.736000 -748.237915
62.986900 24.714701 -748.408875
62.942600 24.652800 -748.573730
62.906200 24.619801 -748.742981
62.860401 24.552799 -748.907227
62.826599 24.528900 -749.078125
62.784100 24.474001 -749.244324
62.751202 24.453300 -749.415588
62.717999 24.431999 -749.586914
62.685101 24.411301 -749.758423
62.646099 24.368900 -749.926575
62.616699 24.361099 -750.099976
62.586201 24.349100 -750.272583
62.544701 24.298100 -750.439880
62.508499 24.265800 -750.609802
62.460499 24.217199 -750.824097
63.489498 25.047400 -744.342102
63.494202 25.164400 -744.538025
63.473999 25.190500 -744.717285
63.448101 25.195299 -744.892700
63.411301 25.160700 -745.060974
63.383400 25.158400 -745.235107
63.343399 25.111799 -745.401428
63.315701 25.110100 -745.575623
63.288898 25.111700 -745.750183
63.258701 25.101000 -745.922913
63.230099 25.096300 -746.096375
63.201099 25.089899 -746.269714
63.166901 25.064400 -746.439819
63.135101 25.047899 -746.611328
63.107700 25.047199 -746.785522
63.073898 25.023399 -746.955872
63.037899 24.991800 -747.124878
62.994499 24.933300 -747.289673
62.946999 24.860001 -747.452087
62.917400 24.851299 -747.625122
62.888699 24.845900 -747.798584
62.855099 24.823200 -747.969421
62.821400 24.799801 -748.140015
62.780499 24.750500 -748.306580
62.739601 24.701300 -748.473328
62.700600 24.658899 -748.641113
62.660301 24.612000 -748.808289
62.623100 24.576099 -748.977295
62.586399 24.542200 -749.146606
62.555302 24.528400 -749.318970
62.516300 24.486099 -749.487122
62.473000 24.428400 -749.653076
62.434101 24.386999 -749.821472
62.405102 24.380699 -749.995117
62.376900 24.377199 -750.168884
62.342899 24.353201 -750.340027
62.308102 24.326000 -750.510620
62.268002 24.280199 -750.678589
62.234100 24.256500 -750.849670
63.330002 25.070000 -744.213684
63.327599 25.143101 -744.370178
63.311600 25.184900 -744.552490
63.284401 25.185400 -744.727112
63.258999 25.192200 -744.902893
63.232498 25.195400 -745.077881
63.196301 25.163099 -745.246704
63.161301 25.135000 -745.416199
63.132900 25.131100 -745.590027
63.103001 25.121799 -745.762817
63.081799 25.143999 -745.940979
63.050201 25.128300 -746.112671
63.010700 25.084000 -746.279480
62.979698 25.070601 -746.451477
62.949001 25.058201 -746.623779
62.915798 25.037001 -746.794617
62.883900 25.020399 -746.966125
62.847500 24.987301 -747.134888
62.807301 24.940701 -747.301697
62.766800 24.893000 -747.468323
62.724201 24.837900 -747.633728
62.694500 24.829201 -747.806702
62.663898 24.817200 -747.979126
62.629799 24.792601 -748.149597
62.596802 24.771999 -748.320679
62.556801 24.726500 -748.487976
62.514999 24.674400 -748.654175
62.477402 24.637400 -748.822998
62.438400 24.595301 -748.991028
62.401798 24.561899 -749.160278
62.361900 24.516701 -749.328003
62.329700 24.499100 -749.499817
62.295399 24.474300 -749.670471
62.248901 24.405399 -749.835022
62.217701 24.391701 -750.007385
62.181900 24.361300 -750.177490
62.152199 24.352699 -750.350708
62.115398 24.318899 -750.520325
62.074799 24.271400 -750.688110
61.991501 24.096300 -750.882202
62.271900 24.537901 -749.062622
61.897800 24.205299 -750.809875
63.104198 25.197001 -744.173523
63.077400 25.226500 -744.402100
63.046902 25.214701 -744.574524
63.022800 25.226400 -744.751221
62.998402 25.236799 -744.927612
62.971500 25.238501 -745.102417
62.943901 25.237101 -745.276611
62.902401 25.185301 -745.441772
62.872700 25.176399 -745.614685
62.845402 25.176100 -745.789124
62.817699 25.174400 -745.963074
62.778099 25.129601 -746.129822
62.745998 25.112200 -746.301208
62.712002 25.087500 -746.471313
62.679600 25.069000 -746.642578
62.652699 25.070000 -746.817017
62.618599 25.045500 -746.987183
62.575500 24.988001 -747.151978
62.536499 24.945200 -747.319397
62.494801 24.893101 -747.485229
62.463200 24.877300 -747.656982
62.430698 24.858400 -747.828430
62.394402 24.825899 -747.997498
62.362598 24.809299 -748.169312
62.327099 24.779600 -748.338928
62.280300 24.709200 -748.502319
62.236801 24.650600 -748.667603
62.203300 24.628500 -748.838623
62.128201 24.554300 -749.176208
62.093800 24.528601 -749.346680
62.054298 24.484699 -749.514587
62.019600 24.458200 -749.685181
61.989300 24.447201 -749.857971
61.957600 24.431299 -750.030212
61.929199 24.427500 -750.203979
61.895302 24.403500 -750.374878
61.853199 24.350500 -750.541809
62.060799 24.597300 -748.956970
61.705601 24.300200 -750.657776
62.916000 25.231400 -744.184998
62.883701 25.229200 -744.387085
62.855202 25.224899 -744.560913
62.831100 25.236401 -744.737610
62.806999 25.248199 -744.914185
62.778000 25.242100 -745.087585
62.742901 25.213600 -745.257019
62.710098 25.193199 -745.427673
62.679401 25.180799 -745.599976
62.647999 25.165899 -745.771790
62.617802 25.155199 -745.944275
62.584099 25.132000 -746.114624
62.552200 25.114901 -746.286011
62.522900 25.107800 -746.459229
62.493401 25.099600 -746.632080
62.460999 25.081100 -746.803223
62.427799 25.059500 -746.973877
62.382198 24.992701 -747.137024
62.335400 24.922199 -747.299683
62.303699 24.906000 -747.471375
62.271999 24.890200 -747.643188
62.241100 24.877100 -747.815430
62.209599 24.861500 -747.987183
62.181198 24.857500 -748.160828
62.136799 24.795601 -748.325317
62.090500 24.726801 -748.488770
62.047501 24.670300 -748.654419
61.952000 24.572001 -749.075195
61.916801 24.543400 -749.245300
61.889198 24.542500 -749.419617
61.856899 24.524401 -749.591187
61.823898 24.503901 -749.762573
61.787201 24.469801 -749.931885
61.753700 24.447701 -750.103088
61.716702 24.412901 -750.272400
61.685799 24.400000 -750.444885
61.543800 24.240499 -750.721802
61.928299 24.626801 -748.815308
62.769100 25.229500 -744.261902
62.275299 25.028099 -747.016418
62.230301 24.964199 -747.179993
62.151100 24.875200 -747.513794
62.027901 24.826000 -748.202881
61.938400 24.700300 -748.531372
61.836102 24.577900 -748.948120
61.529800 24.363100 -750.485229
62.668800 25.146299 -743.990112
62.624401 25.228600 -744.427429
62.603699 25.254000 -744.606628
62.583000 25.279499 -744.785706
62.557499 25.286800 -744.961426
62.524399 25.266500 -745.132080
62.488400 25.235300 -745.300720
62.456902 25.220699 -745.472412
62.426800 25.211500 -745.645081
62.393299 25.189501 -745.815491
62.365501 25.188601 -745.989624
62.337200 25.185699 -746.163330
62.297298 25.140200 -746.329590
62.264000 25.119101 -746.500183
62.229900 25.095200 -746.670288
62.198200 25.079901 -746.841980
62.088402 24.930300 -747.252380
62.002201 24.866800 -747.677612
61.973900 24.864000 -747.851379
61.945099 24.859501 -748.024902
61.869400 24.784201 -748.361328
61.782299 24.667999 -748.691528
61.687599 24.574301 -749.112671
61.654800 24.555300 -749.284119
61.624100 24.544001 -749.456726
61.592300 24.528299 -749.628723
61.561600 24.516899 -749.801208
61.528099 24.495501 -749.972412
61.497501 24.484501 -750.145020
61.453400 24.424801 -750.310486
61.359699 24.306299 -750.678589
62.508900 25.268299 -744.137817
62.472401 25.266001 -744.364380
62.452801 25.295601 -744.544312
62.431499 25.318399 -744.723022
62.403000 25.315100 -744.896729
62.368500 25.289600 -745.066406
62.336498 25.273100 -745.237793
62.301300 25.244900 -745.406982
62.268101 25.224300 -745.577576
62.238499 25.216801 -745.750610
62.209202 25.210300 -745.923828
62.179100 25.200701 -746.096313
62.149101 25.191601 -746.268982
62.105900 25.134399 -746.433289
62.067402 25.094299 -746.600586
62.030899 25.061600 -746.769287
61.997299 25.039499 -746.939819
61.952599 24.976700 -747.103516
61.911598 24.927601 -747.269592
61.875500 24.896400 -747.438721
61.846401 24.890600 -747.612122
61.816799 24.883301 -747.785217
61.789501 24.884199 -747.959473
61.755299 24.860001 -748.129883
61.713200 24.806900 -748.295593
61.669998 24.750099 -748.460815
61.632801 24.714899 -748.629578
61.592499 24.668600 -748.796570
61.561401 24.655800 -748.968872
61.511799 24.576000 -749.130920
61.481800 24.566999 -749.303894
61.451698 24.557899 -749.476807
61.418499 24.537500 -749.648071
61.388100 24.527000 -749.820801
61.355400 24.508301 -749.992310
61.317600 24.471500 -750.161072
61.273998 24.413700 -750.327026
61.239799 24.389700 -750.497803
61.194000 24.323799 -750.662720
62.348801 25.274000 -744.078186
62.310799 25.270599 -744.312317
62.287998 25.287901 -744.489990
62.267200 25.312799 -744.669006
62.236401 25.300800 -744.841187
62.207600 25.296301 -745.014771
62.177700 25.287399 -745.187622
62.141602 25.255800 -745.356201
62.108398 25.235001 -745.526794
62.080799 25.234600 -745.700989
62.053001 25.233601 -745.875183
62.023499 25.226299 -746.048096
61.994099 25.219500 -746.221191
61.952000 25.166000 -746.386108
61.918701 25.144899 -746.556702
61.879700 25.102900 -746.723816
61.841301 25.063000 -746.891174
61.796001 24.998100 -747.054626
61.747002 24.919701 -747.215820
61.715801 24.906300 -747.387878
61.684200 24.891600 -747.559814
61.655499 24.887199 -747.733276
61.628700 24.889700 -747.908020
61.595402 24.868900 -748.078918
61.558601 24.834900 -748.247681
61.513100 24.769699 -748.411621
61.469398 24.710899 -748.576599
61.428299 24.661800 -748.743225
61.388302 24.616501 -748.910522
61.356602 24.601601 -749.082520
61.325500 24.588600 -749.254883
61.293598 24.572701 -749.426819
61.256599 24.538601 -749.595886
61.224400 24.521500 -749.767700
61.190498 24.498600 -749.938721
61.157101 24.477400 -750.109924
61.124100 24.457600 -750.281311
61.075600 24.381901 -750.444519
61.036400 24.339899 -750.612915
60.978500 24.230600 -750.771606
61.868599 25.202900 -746.118530
61.653500 25.021200 -747.132690
60.826900 24.224600 -750.844421
62.110600 25.327600 -744.098694
62.068298 25.285500 -744.285400
62.047199 25.309799 -744.464417
62.021900 25.318399 -744.640320
61.992199 25.311001 -744.813171
61.963001 25.305500 -744.986511
61.934200 25.301201 -745.159973
61.904999 25.295700 -745.333191
61.869701 25.267401 -745.502319
61.837700 25.251499 -745.673706
61.810001 25.251301 -745.847778
61.723900 25.189100 -746.272278
61.693199 25.177799 -746.444519
61.653000 25.131901 -746.610779
61.613400 25.088301 -746.777527
61.572498 25.039600 -746.943420
61.496498 24.964199 -747.279114
61.464199 24.947201 -747.450500
61.435501 24.943300 -747.624023
61.407398 24.941601 -747.797913
61.373600 24.919100 -747.968323
61.337898 24.889900 -748.137817
61.291401 24.821301 -748.300903
61.247601 24.762699 -748.465698
61.204201 24.705400 -748.630920
61.170399 24.683399 -748.801575
61.132801 24.646999 -748.970215
61.091999 24.599501 -749.137085
61.060200 24.584600 -749.309082
61.027000 24.564600 -749.480286
60.998299 24.560600 -749.653870
60.966301 24.545200 -749.825928
60.932301 24.521999 -749.996582
60.898300 24.499300 -750.167419
60.863400 24.473301 -750.337830
60.810799 24.383301 -750.499023
61.978401 25.287600 -743.962097
61.648899 25.235901 -745.942505
61.615700 25.215300 -746.112976
61.422901 25.065201 -747.044922
61.834801 25.249100 -743.865295
61.811001 25.259800 -744.036072
61.789001 25.280600 -744.214417
61.766102 25.298100 -744.392029
61.742699 25.313900 -744.569275
61.720402 25.333401 -744.747070
61.689301 25.320499 -744.918884
61.657600 25.305201 -745.090393
61.625900 25.290100 -745.261780
61.597500 25.287201 -745.435486
61.564400 25.267000 -745.606018
61.535702 25.262699 -745.779419
61.454700 25.218399 -746.206726
61.413300 25.167801 -746.372009
61.384102 25.161800 -746.544983
61.352200 25.146200 -746.716370
61.316299 25.115601 -746.885315
61.257801 25.052799 -747.135803
61.225399 25.035299 -747.306885
61.185101 24.989000 -747.473328
61.157299 24.987900 -747.647217
61.123299 24.964701 -747.817383
61.082901 24.917900 -747.983826
61.044300 24.877899 -748.151428
60.998901 24.812799 -748.315125
60.961601 24.777599 -748.483582
60.929298 24.760300 -748.655029
60.889500 24.715799 -748.822083
60.852699 24.682600 -748.991028
60.812901 24.638100 -749.158325
60.780201 24.619801 -749.329712
60.750099 24.610701 -749.502380
60.716400 24.588600 -749.673218
60.687000 24.581699 -749.846313
60.652599 24.557199 -750.016724
60.625000 24.557199 -750.190674
60.575401 24.477699 -750.353210
61.379299 25.244400 -745.919128
61.104500 24.996099 -747.181885
61.072399 24.979700 -747.353210
61.035198 24.944599 -747.521484
61.006401 24.940201 -747.694824
60.426601 24.438601 -750.402283
61.628700 25.334999 -743.977295
61.586700 25.316299 -744.206116
61.561798 25.327000 -744.382324
61.542000 25.355900 -744.561829
61.516998 25.365801 -744.737671
61.485600 25.351999 -744.909180
61.448002 25.315399 -745.076721
61.412201 25.285400 -745.245300
61.382000 25.276199 -745.417725
61.351501 25.265600 -745.589783
61.320599 25.253901 -745.761719
61.259998 25.234301 -746.106201
61.230000 25.225700 -746.278625
61.196800 25.205500 -746.448975
61.165901 25.193501 -746.620789
61.126999 25.152201 -746.787720
61.071800 25.051300 -746.944580
60.895500 24.962700 -747.886597
60.854099 24.912500 -748.052429
60.814602 24.869200 -748.219421
60.780102 24.844400 -748.389404
60.741402 24.804199 -748.556885
60.700500 24.756201 -748.723389
60.664101 24.724300 -748.892395
60.630600 24.702999 -749.062988
60.592400 24.664801 -749.231201
60.555901 24.632700 -749.400330
60.527000 24.628099 -749.573486
60.495701 24.615000 -749.745483
60.458199 24.579300 -749.914185
60.422600 24.550600 -750.083923
60.376598 24.484100 -750.248108
61.488400 25.257700 -743.924805
61.472698 25.289400 -744.082397
61.165199 25.232901 -745.898987
60.915798 25.031601 -747.081482
60.874401 24.981800 -747.247070
60.844501 24.974001 -747.419617
60.812801 24.959900 -747.591125
60.785599 24.962000 -747.765320
60.225399 24.491100 -750.387207
61.319599 25.311199 -744.205505
61.297199 25.331699 -744.383301
61.275200 25.353399 -744.561279
61.250099 25.363501 -744.737122
61.216999 25.344299 -744.907471
61.185699 25.331200 -745.078979
61.150002 25.302401 -745.247681
61.112999 25.268299 -745.415527
61.077000 25.238300 -745.584106
61.049999 25.241100 -745.758423
61.007301 25.237900 -746.018616
60.968498 25.197399 -746.185425
60.938801 25.190201 -746.357971
60.911400 25.192101 -746.531982
60.881699 25.185200 -746.704590
60.843399 25.146601 -746.871826
60.632198 24.983900 -747.887512
60.596401 24.954700 -748.056580
60.544498 24.866699 -748.216370
60.507099 24.831400 -748.384583
60.471699 24.803900 -748.554077
60.425301 24.736000 -748.717407
60.386600 24.696400 -748.885193
60.348598 24.659500 -749.053406
60.320702 24.659100 -749.227173
60.288601 24.643499 -749.398682
60.257599 24.632099 -749.570679
60.222801 24.606600 -749.740784
60.192200 24.596701 -749.913086
60.162899 24.591400 -750.086121
60.117699 24.528200 -750.250671
61.099899 25.288401 -743.952271
61.072701 25.323799 -744.187378
61.055302 25.362499 -744.368530
61.029900 25.372000 -744.544189
61.003101 25.375900 -744.718811
60.974800 25.374599 -744.892395
60.944698 25.366501 -745.064819
60.904099 25.319201 -745.230286
60.864300 25.275400 -745.396423
60.829700 25.250299 -745.565918
60.799900 25.243299 -745.738525
60.771999 25.243299 -745.912415
60.739399 25.225901 -746.083130
60.709202 25.217199 -746.255493
60.679100 25.209101 -746.427917
60.649101 25.201401 -746.600281
60.610199 25.160700 -746.767212
60.557701 25.070299 -746.926025
60.519199 25.031500 -747.093384
60.482800 24.999901 -747.262024
60.456299 25.005100 -747.436584
60.428799 25.006599 -747.610718
60.399700 25.002199 -747.783691
60.362598 24.968201 -747.952026
60.315800 24.898899 -748.114807
60.273102 24.844601 -748.280029
60.230900 24.792500 -748.445679
60.191002 24.748800 -748.612915
60.154099 24.715900 -748.781677
60.123001 24.704100 -748.953674
60.091202 24.689800 -749.125427
60.058601 24.672800 -749.296570
60.029999 24.669901 -749.469971
60.000401 24.663601 -749.642822
59.965401 24.637699 -749.812805
59.933102 24.621700 -749.984314
59.891602 24.572300 -750.150879
59.848701 24.518000 -750.316895
60.742901 25.291901 -744.133911
60.725300 25.330601 -744.315125
60.701801 25.346901 -744.492004
60.678699 25.365200 -744.669312
60.653801 25.376200 -744.845093
60.619900 25.354300 -745.015076
60.577999 25.302999 -745.179871
60.542301 25.274599 -745.348816
60.511299 25.263399 -745.520691
60.480301 25.252100 -745.692627
60.451302 25.247999 -745.865723
60.422901 25.246500 -746.039307
60.391998 25.235701 -746.211182
60.357399 25.211399 -746.380920
60.315701 25.160801 -746.546082
60.275700 25.116600 -746.712585
60.236000 25.073601 -746.879272
60.195999 25.029400 -747.045776
60.165401 25.019501 -747.218079
60.142200 25.036900 -747.394714
60.116001 25.043200 -747.569397
60.072399 24.986000 -747.734009
60.034100 24.948200 -747.901794
59.999500 24.924000 -748.071716
59.963799 24.895700 -748.241089
59.918201 24.831400 -748.404907
59.871700 24.764000 -748.568420
59.840199 24.750799 -748.740173
59.809200 24.739700 -748.912292
59.766800 24.687201 -749.078186
59.736000 24.677099 -749.250488
59.705399 24.667299 -749.422913
59.676998 24.665899 -749.596497
59.650101 24.669399 -749.770813
59.616199 24.647900 -749.941406
59.575802 24.602600 -750.108582
60.480801 25.216499 -743.912720
60.461700 25.249701 -744.092896
60.445999 25.295401 -744.275330
60.433102 25.351400 -744.459412
60.406502 25.356300 -744.634216
60.379398 25.359800 -744.808716
60.344501 25.334400 -744.978088
60.309601 25.309000 -745.147522
60.268002 25.258801 -745.312622
60.238300 25.252501 -745.485291
60.206100 25.237301 -745.656616
60.171501 25.213100 -745.826172
60.138302 25.194000 -745.996826
60.103699 25.169800 -746.166504
60.071400 25.153999 -746.337585
60.038601 25.136200 -746.508423
60.007801 25.125799 -746.680481
59.971600 25.095900 -746.849426
59.926601 25.033800 -747.012878
59.892700 25.012199 -747.183228
59.866699 25.019199 -747.358215
59.842098 25.031601 -747.533875
59.804100 24.995199 -747.701782
59.772202 24.981001 -747.873230
59.727501 24.919901 -748.037415
59.687099 24.874701 -748.204102
59.654499 24.858101 -748.375305
59.616402 24.821199 -748.543396
59.577400 24.781200 -748.711121
59.540199 24.747700 -748.879822
59.503399 24.715900 -749.048828
59.473301 24.708200 -749.221375
59.446602 24.712799 -749.395874
59.421299 24.722601 -749.570984
59.382599 24.683701 -749.739075
59.345699 24.651600 -749.908081
59.294300 24.566999 -750.069824
59.239601 24.479799 -750.247314
60.312099 25.372299 -744.317505
59.845600 25.098700 -746.703430
59.809502 25.068800 -746.872192
59.733200 24.994699 -747.207581
59.707901 25.004499 -747.382874
59.681400 25.010099 -747.557373
59.454498 24.795200 -748.566223
60.279598 25.323900 -744.127319
60.234501 25.356400 -744.467285
60.209000 25.365801 -744.642822
60.182499 25.371099 -744.817383
60.150101 25.354900 -744.988220
60.115799 25.331499 -745.157715
60.082100 25.310600 -745.327820
60.043800 25.272600 -745.494812
60.007801 25.243099 -745.663391
59.967999 25.199301 -745.829590
59.933998 25.177601 -745.999573
59.903900 25.169701 -746.171875
59.875401 25.167700 -746.345215
59.843300 25.152700 -746.516174
59.707298 24.961800 -747.005981
59.607300 25.005501 -747.707275
59.573101 24.982800 -747.877319
59.529800 24.926901 -748.042175
59.493801 24.897301 -748.211121
59.453701 24.853300 -748.377991
59.377899 24.781000 -748.714172
59.340000 24.744600 -748.882324
59.308201 24.731001 -749.053894
59.278400 24.724199 -749.226379
59.256901 24.747700 -749.403381
59.227501 24.742599 -749.576172
59.189999 24.707899 -749.744629
59.155701 24.685101 -749.914917
59.103100 24.632799 -750.143982
60.142899 25.355200 -744.024780
60.102699 25.352200 -744.267273
60.075600 25.356100 -744.441528
60.049999 25.365801 -744.616821
60.021801 25.365601 -744.790222
59.987400 25.342501 -744.959473
59.938000 25.315599 -745.215027
59.909500 25.314301 -745.388123
59.874599 25.289301 -745.557312
59.828098 25.221500 -745.719177
59.794102 25.199699 -745.888916
59.763302 25.190201 -746.060730
59.730900 25.174200 -746.231384
59.694500 25.143801 -746.399719
59.662601 25.130100 -746.570923
59.629398 25.111401 -746.741089
59.574100 25.011299 -746.898376
59.529598 24.951500 -747.062317
59.501202 24.950199 -747.235474
59.488300 25.006500 -747.417725
59.460499 25.007299 -747.591125
59.432301 25.007200 -747.764282
59.389500 24.953300 -747.929321
59.349602 24.910400 -748.096130
59.311401 24.873600 -748.263672
59.269100 24.821800 -748.429321
59.229000 24.777901 -748.596130
59.199299 24.772400 -748.768616
59.167400 24.758400 -748.939880
59.136200 24.747400 -749.111572
59.106800 24.742500 -749.284119
59.079399 24.745100 -749.457825
59.048500 24.735201 -749.629578
59.015701 24.718201 -749.800415
58.982399 24.699100 -749.970886
58.917000 24.604500 -750.199890
59.967400 25.339399 -743.997314
59.935600 25.361300 -744.232483
59.909000 25.367100 -744.406982
59.881401 25.369600 -744.580872
59.851299 25.362700 -744.752991
59.815899 25.336000 -744.921814
59.784599 25.324400 -745.093079
59.753399 25.313499 -745.264526
59.717999 25.287001 -745.433289
59.681301 25.255501 -745.601318
59.640499 25.208900 -745.766785
59.608101 25.193501 -745.937500
59.577202 25.183599 -746.109192
59.546700 25.175200 -746.281128
59.515099 25.162399 -746.452271
59.484100 25.152300 -746.623779
59.430401 25.058399 -746.781982
59.388500 25.008200 -746.947327
59.353199 24.981899 -747.116394
59.325699 24.984800 -747.290222
59.304501 25.010300 -747.467407
59.274601 25.004200 -747.639587
59.243198 24.992399 -747.810974
59.205200 24.956400 -747.978699
59.159100 24.890900 -748.142029
59.116901 24.839500 -748.307495
59.083698 24.821600 -748.478027
59.045898 24.786200 -748.646118
59.013302 24.770500 -748.817017
58.986099 24.773899 -748.990723
58.955700 24.765900 -749.162781
58.929001 24.771299 -749.336670
58.901001 24.771900 -749.509888
58.867001 24.750700 -749.680115
58.828098 24.712000 -749.847778
58.796600 24.699699 -750.019226
59.769901 25.407400 -744.075012
59.739399 25.398701 -744.246826
59.720600 25.433800 -744.426392
59.692101 25.432301 -744.599426
59.656898 25.406401 -744.768188
59.609699 25.335800 -744.929321
59.577202 25.319799 -745.099915
59.542702 25.296400 -745.269226
59.508202 25.273100 -745.438477
59.465698 25.220301 -745.603027
59.431000 25.195900 -745.772217
59.396599 25.173000 -745.941711
59.365002 25.160400 -746.112915
59.334599 25.152399 -746.284912
59.306099 25.150900 -746.457886
59.263000 25.096201 -746.622314
59.223999 25.056200 -746.789185
59.181198 25.002399 -746.953918
59.147701 24.983101 -747.124084
59.122501 24.993900 -747.299072
59.097599 25.005800 -747.474182
59.067001 24.996700 -747.646118
59.030102 24.964899 -747.814270
58.995499 24.941099 -747.983887
58.953999 24.892401 -748.149780
58.917198 24.861000 -748.318176
58.880199 24.828699 -748.486572
58.845299 24.803900 -748.656311
58.811798 24.784599 -748.826599
58.782398 24.779800 -748.999084
58.755001 24.782600 -749.172729
58.729099 24.790899 -749.346985
58.700699 24.789900 -749.520020
58.670502 24.782301 -749.692017
58.634998 24.755699 -749.861389
58.580002 24.683201 -750.066895
59.609299 25.407200 -743.927612
59.583801 25.417999 -744.104614
59.559299 25.431400 -744.280273
59.526798 25.415199 -744.450806
59.494900 25.401501 -744.621704
59.458401 25.370501 -744.789673
59.424099 25.347799 -744.958984
59.386398 25.312099 -745.126282
59.355900 25.303499 -745.298096
59.315102 25.256701 -745.463501
59.277901 25.223301 -745.631226
59.240200 25.188000 -745.798584
59.207802 25.172400 -745.969421
59.176498 25.160601 -746.140686
59.139400 25.127701 -746.308716
59.102699 25.096100 -746.476807
59.061798 25.049299 -746.642578
59.016300 24.985500 -746.805725
58.984402 24.971701 -746.976929
58.957699 24.976801 -747.151001
58.932098 24.986099 -747.325684
58.904900 24.989700 -747.499512
58.877201 24.990900 -747.672913
58.842400 24.966600 -747.842407
58.808701 24.946100 -748.012512
58.764000 24.885500 -748.176514
58.726002 24.849600 -748.344421
58.693298 24.832899 -748.515076
58.660702 24.816401 -748.685913
58.631001 24.810900 -748.858276
58.602200 24.808201 -749.031128
58.577801 24.821899 -749.206177
58.550900 24.826000 -749.379883
58.518501 24.810699 -749.550781
58.476101 24.758600 -749.716492
58.448502 24.760201 -749.889771
59.417198 25.455299 -744.208008
59.384701 25.439699 -744.378479
59.346500 25.402599 -744.545288
59.316101 25.394501 -744.717224
59.275799 25.349800 -744.882813
59.235802 25.306101 -745.048584
59.195499 25.261400 -745.214417
59.163300 25.246799 -745.385193
59.127300 25.218000 -745.553589
59.093201 25.196301 -745.723328
59.055901 25.162600 -745.891113
59.022099 25.142000 -746.060974
58.991699 25.134001 -746.232971
58.958401 25.115400 -746.403198
58.923901 25.092100 -746.572815
58.873100 25.009199 -746.732727
58.838501 24.985701 -746.902283
58.809502 24.983000 -747.075195
58.786098 25.000601 -747.251221
58.759701 25.007200 -747.425476
58.731300 25.006201 -747.598511
58.689999 24.958500 -747.764282
58.654800 24.932600 -747.933594
58.615501 24.892200 -748.100708
58.575001 24.847401 -748.267212
58.535999 24.807699 -748.434570
58.509602 24.814301 -748.608826
58.481899 24.816099 -748.782227
58.454601 24.819500 -748.955811
58.428200 24.826000 -749.129883
58.403702 24.839199 -749.304810
58.367802 24.811199 -749.473877
58.335499 24.796301 -749.644897
58.266102 24.646700 -749.797119
58.218300 24.581100 -749.970703
59.336601 25.489700 -743.817871
59.300999 25.496099 -744.047485
59.172501 25.386200 -744.634888
59.132000 25.341200 -744.800415
59.091301 25.295200 -744.965820
59.049702 25.245800 -745.130676
59.011200 25.208099 -745.297729
58.979801 25.196400 -745.469116
58.946602 25.178400 -745.639526
58.846100 25.120399 -746.149780
58.810299 25.092800 -746.318726
58.778099 25.078400 -746.489624
58.667400 24.982901 -746.994324
58.637001 24.975300 -747.166382
58.608501 24.974501 -747.339478
58.579300 24.971001 -747.512207
58.369701 24.824400 -748.529419
58.336800 24.807400 -748.700073
58.311100 24.816601 -748.874573
58.276100 24.792000 -749.044189
58.250000 24.799700 -749.218384
58.226299 24.816500 -749.393921
58.191502 24.792299 -749.563477
58.146599 24.732100 -749.728088
59.138000 25.481701 -744.000916
59.104198 25.461000 -744.170471
59.063400 25.414400 -744.335693
59.027802 25.387400 -744.504272
58.995998 25.374001 -744.675415
58.948601 25.302999 -744.836487
58.914101 25.280100 -745.005981
58.872700 25.231400 -745.171082
58.842602 25.224600 -745.343323
58.806198 25.194599 -745.511719
58.773899 25.179600 -745.682495
58.739899 25.158501 -745.852417
58.701199 25.120001 -746.019409
58.667900 25.101400 -746.189819
58.634201 25.081301 -746.359802
58.595699 25.043501 -746.527100
58.556301 25.002501 -746.693909
58.516701 24.960899 -746.860718
58.484901 24.947800 -747.031982
58.457699 24.951599 -747.205872
58.439301 24.987499 -747.384827
58.411800 24.990200 -747.558411
58.373901 24.954901 -747.726196
58.345299 24.953300 -747.899170
58.310200 24.928101 -748.068604
58.270199 24.885201 -748.235413
58.233002 24.852501 -748.403809
58.202702 24.844900 -748.575928
58.175301 24.847900 -748.749512
58.141998 24.829300 -748.919922
58.108002 24.808500 -749.090088
58.081100 24.813000 -749.263916
58.053699 24.816000 -749.437378
58.021301 24.800800 -749.608276
57.969700 24.715799 -749.769714
58.917999 25.423300 -744.005310
58.880798 25.416300 -744.220825
58.848099 25.399599 -744.391296
58.812801 25.373199 -744.560181
58.768700 25.314800 -744.723389
58.732101 25.283899 -744.891602
58.693699 25.246300 -745.058594
58.661400 25.231100 -745.229492
58.620098 25.183100 -745.394775
58.588600 25.171000 -745.566284
58.546299 25.119301 -745.731079
58.509998 25.089500 -745.899719
58.477299 25.073000 -746.070374
58.448799 25.072001 -746.243713
58.419701 25.068899 -746.416626
58.375099 25.008600 -746.580322
58.326698 24.934900 -746.742004
58.299099 24.937201 -746.915771
58.276402 24.957500 -747.092407
58.253399 24.976400 -747.268677
58.226002 24.979500 -747.442505
58.196098 24.973101 -747.614807
58.168201 24.974300 -747.788330
58.136101 24.960300 -747.959412
58.098801 24.927000 -748.127625
