15.877400 32.218601 -752.918701
20.386600 36.799198 -745.117615
20.134701 36.384499 -745.447021
19.883200 36.010399 -745.792908
19.341101 35.200600 -746.537292
19.090099 34.905102 -746.916016
17.665501 33.617401 -749.232483
17.420300 33.489399 -749.671326
16.188801 32.766399 -751.841187
15.935300 32.516300 -752.244507
20.427401 36.956100 -744.496887
19.468201 35.742100 -745.911682
18.640699 34.644798 -747.110718
18.386801 34.299400 -747.474915
18.132500 33.962299 -747.843506
17.888399 33.851501 -748.288391
17.643200 33.717400 -748.725586
16.974701 33.300900 -749.895691
16.728201 33.147400 -750.327087
16.483200 33.020500 -750.767090
16.247400 33.044498 -751.253113
15.488800 32.303299 -752.465820
15.234800 32.054199 -752.871399
20.018101 36.883598 -744.768616
19.769501 36.533699 -745.121277
19.554501 36.197201 -745.411621
19.083599 35.395199 -746.020020
18.834999 35.128601 -746.408203
17.231600 33.535000 -748.966614
16.988001 33.426300 -749.412292
15.832800 32.792198 -751.475281
15.577500 32.500500 -751.866394
18.482300 34.841900 -746.600098
17.655300 33.814301 -747.836182
16.256001 33.011700 -750.327271
16.011200 32.876301 -750.765076
19.969101 36.958599 -744.241394
19.157000 35.890800 -745.434387
18.158100 34.584499 -746.904724
17.907600 34.280201 -747.283386
17.339199 33.726501 -748.200378
16.534901 33.240299 -749.624329
15.126500 32.280300 -752.071472
14.874400 32.036598 -752.479126
15.458600 32.528400 -751.269592
14.539200 31.845301 -752.848083
19.514799 36.890400 -744.547180
19.303101 36.555599 -744.836792
18.732000 35.555000 -745.577576
18.483500 35.211300 -745.938293
17.521799 33.979401 -747.375793
16.894600 33.580200 -748.483215
16.650400 33.423500 -748.913696
18.971201 36.182499 -745.042175
18.119301 34.926601 -746.248230
17.158400 33.736198 -747.703186
16.045000 33.070702 -749.687988
15.798700 32.876301 -750.107422
15.554100 32.717400 -750.538208
15.027800 32.350601 -751.454529
17.674999 34.439499 -746.824829
16.270700 33.246498 -749.178894
14.658300 32.118401 -751.982788
14.330800 31.937599 -752.378174
14.088500 31.596001 -752.726685
19.244900 37.070000 -743.866394
19.005800 36.867199 -744.263672
18.763300 36.474098 -744.592407
18.518400 35.995399 -744.892273
18.273800 35.595501 -745.222717
18.029200 35.236301 -745.569275
17.646700 34.819698 -746.168274
17.190901 34.247200 -746.852173
16.977501 33.907799 -747.144104
16.696899 33.608398 -747.586182
16.458099 33.561401 -748.044373
16.216400 33.424999 -748.473022
15.764500 33.095001 -749.244995
15.521200 32.924900 -749.663574
15.276900 32.735298 -750.076416
15.032700 32.553001 -750.492004
14.789200 32.391201 -750.914185
14.544900 32.215801 -751.332825
17.571899 35.024399 -745.689514
17.188400 34.575901 -746.278809
15.760500 33.260502 -748.613586
14.086000 31.977400 -751.454285
13.842900 31.830200 -751.882080
13.598600 31.663700 -752.304688
18.852301 36.958500 -743.292725
18.622601 36.917801 -743.736572
18.383600 36.689400 -744.125000
18.141300 36.293598 -744.453674
17.931299 35.873199 -744.707886
17.687700 35.507999 -745.051270
16.746401 34.311600 -746.463196
16.533800 33.975800 -746.756226
16.286800 33.643101 -747.119324
16.042500 33.412300 -747.517273
15.805400 33.393700 -747.984680
15.320900 33.063202 -748.824402
15.079900 32.934799 -749.256226
14.833200 32.671600 -749.646301
14.589800 32.495399 -750.064087
14.346600 32.327999 -750.484924
14.102100 32.136398 -750.898926
13.185900 31.328300 -752.414001
17.316299 35.183201 -745.197571
17.073200 34.889999 -745.568970
15.403900 33.237598 -748.262329
13.697800 31.912001 -751.158630
13.353500 31.743700 -751.782410
16.713100 34.603401 -745.794312
18.358700 37.005402 -743.108521
18.123301 36.883701 -743.531921
17.883801 36.607201 -743.902588
17.641500 36.208000 -744.230530
17.431999 35.813400 -744.494629
16.351200 34.321499 -746.071228
16.106100 34.015999 -746.441711
15.858100 33.642300 -746.791077
15.611100 33.323399 -747.160095
15.373600 33.286400 -747.621277
14.926700 33.049999 -748.423218
14.683700 32.866199 -748.837280
14.439900 32.669201 -749.247925
14.195000 32.451599 -749.652710
13.952300 32.290699 -750.075317
13.710500 32.151100 -750.504517
12.907000 31.539301 -751.872620
12.687400 31.211300 -752.183105
17.061701 35.501900 -744.694824
16.851500 35.139400 -744.973083
16.607901 34.817600 -745.334595
13.305600 31.917500 -750.809814
13.057700 31.664600 -751.206787
16.240299 34.555302 -745.527771
14.882300 33.141998 -747.693787
12.198600 31.070299 -752.257996
17.761200 36.999901 -743.167603
17.522600 36.724800 -743.537781
17.281401 36.332802 -743.867188
17.038799 35.908798 -744.187073
15.890300 34.263199 -745.842590
15.646200 33.973000 -746.218018
15.401000 33.667099 -746.589172
15.187200 33.311401 -746.878113
14.536200 32.993900 -748.058289
14.293900 32.814098 -748.473389
14.049700 32.593899 -748.876526
13.804900 32.369099 -749.278870
13.564100 32.239399 -749.710571
13.320800 32.058498 -750.127319
12.589200 31.510500 -751.378479
12.345800 31.345501 -751.801575
16.679300 35.605801 -744.331177
16.437000 35.230999 -744.670715
16.193899 34.863300 -745.014282
14.799700 33.102798 -747.120972
12.936500 31.852699 -750.365601
12.693100 31.667000 -750.780701
11.905300 31.087200 -751.859680
17.465000 36.821098 -742.808228
15.817800 34.562099 -745.230286
14.396800 33.018299 -747.475525
17.037300 36.546101 -743.451416
16.797600 36.145302 -743.776123
15.381700 34.122700 -745.825989
15.138000 33.804001 -746.190186
14.066300 32.849899 -747.963623
13.823000 32.624699 -748.362671
13.548400 32.465401 -748.849915
13.305300 32.261398 -749.256714
13.062500 32.068501 -749.667419
12.262500 31.434401 -751.020996
14.861500 33.482601 -746.539124
11.909300 31.247299 -751.364929
16.409599 35.841499 -743.854614
16.170300 35.522301 -744.210388
15.929200 35.127701 -744.541016
14.472900 33.151100 -746.693176
12.646200 31.880699 -749.851990
12.403400 31.691500 -750.264221
11.424900 30.845800 -751.893616
16.953501 36.731701 -742.848877
15.620100 34.787800 -744.769470
15.310500 34.428799 -745.250427
14.131400 33.000900 -747.059204
13.891400 32.863701 -747.485474
16.567200 36.320999 -743.364929
13.602800 32.682499 -747.893616
13.327000 32.485001 -748.368286
13.085100 32.301399 -748.780701
12.045100 31.499300 -750.548828
14.956100 34.130901 -745.539124
14.714300 33.857899 -745.917419
12.743400 32.113499 -749.183594
11.733800 31.263201 -750.872925
11.421200 31.039499 -751.410889
16.128201 36.053001 -743.442200
15.889400 35.715599 -743.790527
15.683300 35.354401 -744.064575
15.476700 35.010101 -744.346130
15.166800 34.584202 -744.802612
14.337100 33.562599 -746.069702
14.021000 33.050400 -746.505920
12.329900 31.855700 -749.422913
12.087400 31.677900 -749.838928
10.939300 30.802500 -751.794983
16.411400 36.522598 -742.512329
16.174700 36.415798 -742.943176
14.768600 34.335999 -744.958313
14.493100 34.041801 -745.395996
13.587200 32.834400 -746.744202
13.347700 32.737099 -747.184326
13.106800 32.583698 -747.606201
12.866300 32.446602 -748.033386
12.622200 32.199200 -748.426086
12.380700 32.041000 -748.847412
11.684700 31.457100 -750.013000
11.440400 31.252300 -750.421997
11.195500 31.037600 -750.828796
10.954800 30.925501 -751.265808
15.762900 36.102600 -743.067505
15.524200 35.741901 -743.406921
15.284800 35.398800 -743.754272
15.078400 35.046700 -744.032471
14.837200 34.674999 -744.372803
14.078900 33.796398 -745.551819
13.835600 33.469101 -745.913025
13.625200 33.136501 -746.206482
11.965500 31.837299 -749.022583
11.721000 31.606899 -749.422729
10.535800 30.662100 -751.427429
15.824100 36.432201 -742.466187
14.420600 34.420502 -744.501770
14.179500 34.144100 -744.877686
13.206100 32.877800 -746.338318
12.962800 32.629299 -746.729126
12.725400 32.611099 -747.195129
12.483500 32.424400 -747.606384
12.240700 32.216702 -748.011597
11.997300 32.000801 -748.414673
11.300500 31.391701 -749.572815
11.058300 31.237700 -749.997009
10.812800 31.009001 -750.399475
10.569100 30.827700 -750.816711
10.143700 30.371401 -751.491577
15.417200 36.171700 -742.596130
15.179200 35.877602 -742.958923
14.940000 35.491100 -743.289429
14.734000 35.143799 -743.568481
14.493400 34.788700 -743.913574
13.735500 33.875401 -745.078003
13.493200 33.581600 -745.449829
13.248900 33.228199 -745.802673
11.552500 31.803200 -748.643372
11.308800 31.594999 -749.049988
10.155600 30.608500 -750.974426
15.404200 36.262100 -742.061279
14.072200 34.492500 -744.047913
13.830800 34.167900 -744.406189
12.827900 33.011902 -745.968506
12.616900 32.674900 -746.261780
12.376500 32.537701 -746.689087
12.137500 32.450001 -747.132507
11.896500 32.293301 -747.553589
11.652200 32.033401 -747.942383
10.885300 31.326200 -749.203918
10.642100 31.142200 -749.619080
10.398800 30.960100 -750.035400
10.153900 30.749399 -750.443787
9.730800 30.332001 -751.129517
14.927300 36.107399 -742.269897
14.689600 35.792400 -742.624878
14.484400 35.391602 -742.882690
14.245300 35.080299 -743.241882
14.005100 34.725700 -743.586914
13.385600 33.929901 -744.521606
13.143200 33.600601 -744.880615
12.902500 33.390202 -745.281311
11.207100 31.851601 -748.081177
10.964300 31.652201 -748.490173
9.706400 30.523701 -750.572571
13.579200 34.469101 -743.614380
13.338000 34.129700 -743.967285
12.441300 33.149799 -745.385620
12.196800 32.798000 -745.740417
11.952100 32.471699 -746.105225
11.712800 32.373199 -746.545593
11.474800 32.315601 -746.998779
11.232600 32.113800 -747.405701
10.503700 31.485800 -748.622681
10.257400 31.204901 -749.007874
10.011500 30.950300 -749.402222
9.766900 30.737801 -749.809814
9.274600 30.268000 -750.614502
9.022900 29.931101 -750.989075
14.464900 36.049599 -741.724426
14.227400 35.804798 -742.105225
13.988500 35.408501 -742.431519
13.748800 35.032398 -742.767029
13.509400 34.756599 -743.140015
12.888800 33.882198 -744.046387
12.646700 33.577999 -744.413818
12.404500 33.295601 -744.789978
10.780700 31.924000 -747.509216
10.535300 31.643900 -747.892700
9.312000 30.538900 -749.914124
13.052500 34.507500 -743.211426
12.810400 34.124500 -743.548584
11.945100 33.073898 -744.875183
11.703800 32.879002 -745.282410
11.458900 32.553101 -745.646912
11.215100 32.288799 -746.032776
10.978100 32.279598 -746.502075
10.737300 32.133099 -746.926575
10.072400 31.427900 -747.984680
9.828500 31.220301 -748.392273
9.583000 30.981001 -748.791016
9.336200 30.719900 -749.184082
8.878100 30.273701 -749.928101
8.632300 30.064800 -750.339111
8.384500 29.824800 -750.741882
13.730400 35.667099 -741.507202
13.492600 35.474499 -741.908630
13.253000 35.111900 -742.248779
13.012900 34.782902 -742.602478
12.357700 33.881802 -743.567017
12.114900 33.549599 -743.924988
11.872200 33.251301 -744.295776
10.248700 31.924299 -747.031128
10.004500 31.685699 -747.427673
8.846300 30.530500 -749.299500
12.586600 34.513500 -742.682678
12.345100 34.183399 -743.038879
11.409300 33.004700 -744.457520
11.167300 32.786201 -744.857422
10.924900 32.561401 -745.255798
10.679000 32.227200 -745.619324
10.438300 32.090801 -746.047913
10.199700 32.022499 -746.498230
9.572500 31.443501 -747.529724
9.325900 31.165400 -747.916077
9.080600 30.933701 -748.317627
8.835000 30.706400 -748.721130
8.409800 30.242300 -749.393188
8.162300 30.001200 -749.795288
7.915000 29.772301 -750.201904
7.693700 29.400000 -750.501587
13.214900 35.345100 -741.335388
12.977100 35.219200 -741.762085
12.736700 34.863899 -742.106323
11.978100 33.862099 -743.238220
11.735400 33.546902 -743.602295
11.491700 33.214699 -743.961975
9.796900 31.815599 -746.810974
9.403700 31.579599 -747.088196
8.382100 30.497900 -748.715515
12.266200 34.614399 -742.110718
12.026000 34.356400 -742.491821
11.020700 33.048000 -743.999878
10.778600 32.826000 -744.398376
10.534700 32.544201 -744.778015
10.291200 32.300598 -745.171082
10.046000 32.011799 -745.550476
9.806900 31.929100 -745.996277
9.009500 31.320999 -747.356628
8.763300 31.063101 -747.749573
8.513200 30.724400 -748.119812
7.987600 30.281401 -749.000122
7.739200 30.019800 -749.396423
7.490000 29.754499 -749.792725
7.237700 29.441700 -750.177124
12.745300 35.115002 -741.019470
12.507800 35.031300 -741.461487
11.681700 33.962399 -742.702515
11.440500 33.713299 -743.088806
11.196300 33.338902 -743.433411
9.430300 31.770700 -746.359619
9.082500 31.595699 -746.666016
8.061600 30.525000 -748.294312
6.785200 29.260700 -750.358826
12.072600 34.818901 -741.554504
11.831700 34.482700 -741.906677
11.590900 34.189602 -742.275391
10.758800 33.095001 -743.517883
10.516900 32.872101 -743.915283
10.274400 32.636299 -744.309082
10.031000 32.382401 -744.697876
9.786600 32.111500 -745.081970
9.542400 31.862801 -745.474304
8.715600 31.370199 -746.935608
8.470500 31.131701 -747.333679
8.221900 30.823700 -747.711975
7.691300 30.256100 -748.554077
7.442900 29.995100 -748.950012
7.197000 29.793600 -749.363586
6.949200 29.562599 -749.769775
12.228700 35.017502 -740.995117
11.266600 33.845798 -742.467285
11.025300 33.582401 -742.848328
9.187400 31.739901 -745.811523
10.704400 33.273201 -743.055481
8.836400 31.620300 -746.150818
7.786300 30.611900 -747.860596
6.507800 29.259501 -749.894714
11.791700 34.739399 -741.083984
11.553200 34.555099 -741.489319
11.312800 34.255699 -741.854675
10.274800 32.942299 -743.423828
10.033000 32.716801 -743.820129
9.789700 32.446800 -744.202515
9.547700 32.242001 -744.606873
9.304000 31.989500 -744.996826
8.474600 31.384899 -746.420227
8.230700 31.167700 -746.823914
7.988400 30.998301 -747.242615
7.419900 30.306000 -748.112305
7.171400 30.031900 -748.503418
6.926500 29.843201 -748.919678
6.682100 29.669500 -749.340881
6.142200 29.017599 -750.169128
10.978100 33.890900 -742.044373
10.735600 33.550098 -742.397888
8.933800 31.727900 -745.296021
10.371700 33.358200 -742.699585
8.568900 31.565201 -745.610474
7.561000 30.745100 -747.307373
6.219000 29.415400 -749.476074
11.419000 34.711300 -740.705688
11.179800 34.457001 -741.086182
10.940800 34.240700 -741.480774
10.008600 33.072498 -742.895386
9.766800 32.823299 -743.283081
9.524800 32.585300 -743.675293
9.281800 32.323101 -744.060425
9.038900 32.082802 -744.453491
8.176400 31.448500 -745.933289
7.933600 31.249599 -746.341980
7.692600 31.100800 -746.766418
7.196700 30.498501 -747.526428
6.946000 30.161200 -747.897888
6.700200 29.942101 -748.304871
6.454500 29.732500 -748.715515
5.853600 29.174900 -749.702087
10.564400 33.887402 -741.646973
10.322400 33.555801 -742.003479
8.628800 31.873199 -744.743713
8.383600 31.585899 -745.123718
6.042000 29.530701 -749.016113
5.501200 28.860001 -749.839783
10.972900 34.296200 -740.553772
10.735600 34.218899 -740.998474
9.943000 33.274601 -742.220215
9.320900 32.623901 -743.213928
7.970800 31.436199 -745.456604
7.210600 30.902500 -746.771179
5.654000 29.271999 -749.256775
9.565700 33.033199 -742.449890
8.943500 32.415901 -743.457092
8.699500 32.133301 -743.836304
8.458900 31.974001 -744.256287
7.559700 31.263700 -745.781921
7.318800 31.117901 -746.207703
6.827100 30.606300 -746.994385
6.577900 30.292500 -747.372375
6.331200 30.049500 -747.772217
6.082500 29.774500 -748.163879
10.292800 33.994202 -741.014221
10.052200 33.726799 -741.392700
9.810600 33.426998 -741.760986
9.189500 32.783100 -742.756287
8.082200 31.749701 -744.575195
7.837200 31.474400 -744.959595
5.705300 29.596201 -748.504272
5.172300 29.054701 -749.362915
10.495000 34.100601 -740.379578
6.874700 30.904301 -746.402710
5.356900 29.333900 -748.838928
4.854800 28.759600 -749.623718
9.415000 33.166500 -741.953918
8.793900 32.534801 -742.955688
7.442400 31.269800 -745.177612
8.479700 32.284000 -743.315430
8.203300 32.033001 -743.772888
7.097000 31.133400 -745.644287
6.365700 30.489201 -746.862488
6.115600 30.154200 -747.234680
5.835700 29.912901 -747.703003
9.063000 32.911400 -742.275208
10.029500 34.146000 -740.543030
9.822300 33.801601 -740.826294
9.582800 33.566101 -741.217224
7.824900 31.786400 -744.066711
7.583200 31.577101 -744.472412
5.457800 29.642599 -748.002380
4.894900 29.125799 -748.935486
9.213000 33.250301 -741.483521
8.628000 32.642899 -742.426880
6.630000 30.983200 -745.812012
6.386600 30.756701 -746.215027
5.084600 29.399300 -748.312622
4.517200 28.813499 -749.229126
9.721200 33.819099 -740.284424
8.831500 32.979801 -741.755310
8.246300 32.391300 -742.708313
8.004700 32.150101 -743.102417
7.763300 31.928400 -743.503784
7.108100 31.368799 -744.610107
6.864500 31.121000 -745.005615
6.004100 30.524200 -746.512695
5.789400 30.211000 -746.823975
5.543300 29.953899 -747.221130
4.157600 28.468599 -749.441589
9.325600 33.600601 -740.573914
9.087300 33.423401 -740.987427
8.467400 32.704102 -741.960815
7.366200 31.708401 -743.801392
6.470100 30.983200 -745.333008
5.143300 29.711100 -747.521973
4.617600 29.235500 -748.400574
8.711900 33.081699 -741.230408
8.093400 32.480499 -742.248413
6.991500 31.506500 -744.100830
6.097000 30.844500 -745.655518
4.764500 29.486401 -747.823914
4.238000 29.011499 -748.705200
4.020700 28.713800 -749.028625
7.751700 32.219799 -742.539917
7.510100 31.981501 -742.936707
6.648600 31.252100 -744.399597
6.406500 31.039900 -744.807922
5.754400 30.615801 -745.966309
5.509900 30.372900 -746.367126
5.263400 30.093901 -746.757813
9.017500 33.440201 -740.125488
8.780500 33.344200 -740.570313
8.266300 32.842499 -741.418213
7.165400 31.812799 -743.251221
4.913100 29.839199 -747.054504
4.349900 29.270901 -747.975586
3.582300 28.392500 -749.189575
7.932000 32.617401 -741.757385
6.830200 31.608601 -743.601807
5.965700 30.845501 -745.060120
8.368200 33.123699 -740.839478
7.611000 32.343201 -742.072571
6.509300 31.400101 -743.943420
5.648200 30.744801 -745.438599
4.525300 29.577801 -747.263000
3.964100 29.068600 -748.204590
3.715600 28.805201 -748.606323
7.262100 32.085201 -742.397583
6.159600 31.159901 -744.278809
5.265000 30.526800 -745.852173
5.019200 30.257401 -746.246277
8.509000 33.282501 -739.974915
7.929500 32.889500 -741.002014
6.895200 31.850201 -742.699097
6.655300 31.682100 -743.122070
5.789700 30.883101 -744.570923
4.680500 29.967800 -746.471191
4.083700 29.383600 -747.456726
3.270300 28.563900 -748.790283
8.113400 33.248001 -740.379089
7.562200 32.615398 -741.252686
7.321300 32.375900 -741.649597
6.289300 31.487600 -743.405029
5.424400 30.716801 -744.865601
5.153500 30.626301 -745.383972
4.312000 29.743601 -746.751526
3.715100 29.168600 -747.742126
3.468800 28.936899 -748.153015
6.955500 32.119598 -741.916016
5.924600 31.291401 -743.694885
5.682600 31.074699 -744.103516
4.788100 30.425900 -745.675415
2.842000 28.286400 -748.800781
7.863300 32.974800 -739.930603
7.627100 32.921902 -740.394409
7.386800 32.680302 -740.789917
6.561300 31.889400 -742.164429
6.320500 31.679300 -742.573914
5.286400 30.808800 -744.344482
4.390600 30.144699 -745.914978
3.830100 29.580799 -746.837402
3.581400 29.281500 -747.226807
3.018000 28.731100 -748.160583
6.989500 32.469700 -740.996277
6.748600 32.226002 -741.392578
5.891400 31.536800 -742.875427
5.650600 31.334900 -743.288574
4.887800 30.596201 -744.556824
4.648100 30.447901 -744.989502
3.989400 29.886000 -746.115723
3.183200 29.098101 -747.453308
2.617300 28.512199 -748.378784
2.356700 28.052900 -748.727783
7.341500 32.742599 -739.903503
7.106600 32.739399 -740.386108
6.350300 31.981501 -741.634583
6.075400 31.738899 -742.101929
5.252500 31.117100 -743.543030
4.253400 30.316601 -745.274475
3.588600 29.632601 -746.364624
3.343200 29.387899 -746.770325
2.779500 28.810900 -747.695679
6.516300 32.294399 -740.895081
5.658200 31.547800 -742.359314
5.418100 31.360600 -742.777771
4.833100 30.876301 -743.786072
4.414100 30.410000 -744.459473
3.832800 30.069799 -745.519104
2.920900 29.132299 -747.016174
2.358400 28.591400 -747.954712
2.111200 28.346901 -748.364624
6.721800 32.544300 -740.084473
6.105600 32.034302 -741.146973
5.865700 31.837200 -741.561279
5.007500 31.143200 -743.047974
4.005100 30.261499 -744.755127
3.418800 29.821100 -745.784424
3.101700 29.466200 -746.293213
2.506500 28.908100 -747.292786
1.755900 28.024799 -748.479187
6.312500 32.351601 -740.366699
5.454500 31.619801 -741.837219
5.179400 31.385799 -742.309082
4.596400 30.961201 -743.338074
4.352400 30.696699 -743.732971
3.595100 30.133200 -745.065125
2.685300 29.238600 -746.575378
1.873500 28.414200 -747.912170
6.403300 32.238602 -739.602783
5.896400 32.106701 -740.596008
5.622300 31.889799 -741.072998
4.763200 31.187300 -742.558472
3.934800 30.490499 -743.982727
3.689900 30.227600 -744.380188
3.176300 29.923000 -745.315979
2.931800 29.687700 -745.724182
2.262500 28.987499 -746.818115
2.015300 28.734301 -747.224426
1.262400 27.844700 -748.412781
5.241300 31.673100 -741.359192
4.999400 31.442600 -741.763672
4.383800 31.050200 -742.873779
2.543800 29.432501 -746.007385
1.657800 28.475401 -747.442383
1.378800 28.265699 -747.932312
5.938900 32.248199 -739.765625
4.634300 31.253000 -742.049316
4.014700 30.783300 -743.134888
3.215600 30.060801 -744.487122
2.171300 29.182800 -746.281311
5.557100 32.070499 -740.019104
5.318800 31.943399 -740.459473
5.077100 31.713499 -740.863770
4.251900 31.072100 -742.304382
3.632000 30.600500 -743.390930
3.389200 30.386801 -743.804321
2.801900 29.940300 -744.833679
2.558700 29.736700 -745.252197
1.784900 28.965099 -746.532227
1.538100 28.724800 -746.942871
0.896000 28.025000 -747.980225
0.666000 27.653000 -748.301086
4.727600 31.484800 -741.164124
3.902700 30.875200 -742.617126
2.207100 29.527500 -745.564392
1.178400 28.412800 -747.228577
4.429400 31.308300 -741.545715
2.977300 30.126900 -744.054626
3.513700 30.681601 -742.883911
2.645400 29.920700 -744.361816
1.812500 29.270000 -745.812378
0.784700 28.207800 -747.494324
5.175400 31.918600 -739.638672
4.940000 31.895399 -740.116089
4.698800 31.676100 -740.523682
4.010300 31.113199 -741.713318
3.770200 30.949400 -742.141602
3.150600 30.484699 -743.229919
2.285500 29.790400 -744.730103
1.478800 29.011000 -746.073975
1.233300 28.790600 -746.489807
0.448000 27.918200 -747.750671
4.361700 31.464500 -740.827576
2.813100 30.279499 -743.538086
1.948500 29.603399 -745.045471
0.892400 28.549801 -746.791687
4.026100 31.248301 -741.117493
3.338600 30.732599 -742.325073
2.475200 30.044901 -743.824829
0.547100 28.243601 -747.062988
0.042500 27.633499 -747.852600
2.975400 30.509001 -742.682922
2.111200 29.831600 -744.187683
1.525100 29.429701 -745.232422
1.276100 29.131599 -745.622986
4.374300 31.644699 -739.856812
4.137000 31.558001 -740.311523
3.584800 31.078899 -741.253296
3.343900 30.895599 -741.675110
2.585200 30.312901 -743.000977
1.719600 29.629200 -744.505798
0.913400 28.876499 -745.858826
0.668000 28.660000 -746.276001
0.097300 28.034401 -747.195129
3.704400 31.378599 -740.540771
2.909200 30.671200 -741.891785
2.152100 30.133400 -743.234924
1.909900 29.941700 -743.656311
1.289200 29.508600 -744.760498
1.044700 29.288500 -745.174805
0.263500 28.426100 -746.431824
-0.307600 27.809999 -747.356506
-0.526200 27.522499 -747.689026
3.802200 31.427000 -739.820618
3.291600 31.171600 -740.772522
3.047800 30.907400 -741.167175
2.496100 30.471399 -742.128601
2.254800 30.289200 -742.552673
1.495400 29.723000 -743.890076
0.628700 29.054399 -745.407104
0.379900 28.772499 -745.804810
-0.156900 28.143101 -746.653870
2.681400 30.691099 -741.432922
1.682900 29.966801 -743.201111
1.130100 29.555401 -744.175415
-0.527000 27.928499 -746.930786
3.327800 31.316601 -740.042114
0.780600 29.449200 -744.546509
-0.068700 28.532200 -745.924377
-0.856600 27.635300 -747.183228
2.809900 30.990400 -740.684387
2.257200 30.516100 -741.633118
1.982400 30.325199 -742.123779
1.741300 30.148001 -742.550110
1.260000 29.819901 -743.411987
0.431200 29.214899 -744.879272
0.146600 28.877800 -745.328796
-0.421000 28.271400 -746.252686
3.156800 31.156900 -739.611511
2.439300 30.738600 -740.926025
0.890400 29.627300 -743.675720
-0.798400 27.986900 -746.492920
2.841900 31.160801 -740.040710
1.294400 30.008699 -742.771973
0.568600 29.448000 -744.044312
-1.364300 27.651501 -747.304871
2.021700 30.518801 -741.180603
1.782000 30.366199 -741.614929
0.235700 29.318600 -744.389709
-0.045900 29.024700 -744.851379
-0.327700 28.737301 -745.316284
-0.575600 28.472000 -745.720215
-1.218400 27.747000 -746.751282
2.405400 30.988800 -740.243713
1.407500 30.202499 -741.989624
0.858600 29.832300 -742.976318
-0.924900 28.178699 -745.991516
2.018200 30.750700 -740.565674
1.021000 29.986099 -742.321228
0.474200 29.660500 -743.323181
-1.284200 27.883699 -746.237122
-1.642700 27.468599 -746.808716
2.300200 30.954201 -739.683472
1.650400 30.509001 -740.851807
1.407200 30.256300 -741.252686
0.106600 29.417900 -743.613281
-0.133900 29.251801 -744.045105
-0.373000 29.111900 -744.485229
-0.612300 28.970301 -744.924988
-0.831500 28.610500 -745.230225
1.939500 30.858801 -740.047485
1.044300 30.105101 -741.598389
0.568800 29.866199 -742.491028
-1.202300 28.332899 -745.541504
1.538600 30.659901 -740.349670
0.644600 29.946899 -741.916870
0.169300 29.710199 -742.810913
-1.580300 28.006399 -745.746826
-1.831500 27.697701 -746.140930
-2.072300 27.409500 -746.522217
1.128900 30.409201 -740.634827
0.886200 30.171801 -741.041809
-0.240500 29.492701 -743.111877
-0.485000 29.246201 -743.518921
-0.725900 29.074400 -743.950195
-0.963900 28.957100 -744.398621
-1.209800 28.703199 -744.805298
1.437500 30.761299 -739.660583
0.476500 30.039801 -741.367310
0.134600 29.822300 -741.991272
-1.596000 28.426300 -745.023376
1.016200 30.587500 -739.957886
0.636900 30.257299 -740.613220
-0.284700 29.690399 -742.306580
-0.730300 29.388399 -743.113281
-0.977700 29.092199 -743.505981
-1.216600 28.958099 -743.950317
-1.456400 28.808100 -744.389893
-1.990200 28.172899 -745.238586
-2.246700 27.778200 -745.607788
-2.493800 27.540100 -746.024780
0.274600 30.030300 -740.887207
-0.028800 29.927401 -741.481079
-0.644200 29.537001 -742.607422
-1.870700 28.581699 -744.555786
0.547100 30.394699 -740.138916
-0.379100 29.739799 -741.804321
-2.936600 27.334499 -746.145386
-1.459400 28.974199 -743.520386
-2.443600 27.988701 -745.165283
0.675800 30.394501 -739.501526
0.200000 30.155701 -740.399719
-1.233600 29.287300 -743.042114
-1.752800 28.857700 -743.949219
-2.718200 27.647200 -745.458618
-0.783100 29.617399 -742.116882
-2.273800 28.345501 -744.705811
-0.221600 29.917801 -740.908020
-0.543200 29.785700 -741.327820
-1.155300 29.456400 -742.473083
-3.096400 27.353001 -745.647888
0.207200 30.259100 -739.717529
-2.224100 28.664000 -744.141418
-0.274100 30.036400 -740.343079
-0.955600 29.644699 -741.606628
-1.708200 29.163601 -742.980530
-1.952900 28.919100 -743.389221
-2.725300 28.141199 -744.676697
-2.942200 27.843000 -745.003723
-1.283500 29.500099 -741.965820
-3.512400 27.077801 -745.601013
-0.262600 30.099501 -739.841675
-0.671700 29.871099 -740.601685
-0.913400 29.673500 -741.023621
-1.626000 29.341801 -742.375916
-2.351700 28.775400 -743.654175
-2.702000 28.440901 -744.244812
-3.322300 27.523199 -745.149780
-0.695100 29.943501 -740.103882
-1.345300 29.540800 -741.292725
-2.194700 29.128500 -742.895203
-3.220300 28.018999 -744.564880
-1.141800 29.678400 -740.573975
-1.720100 29.385000 -741.659729
-2.543400 28.849400 -743.154297
-2.850400 28.681801 -743.725586
-3.799000 27.297800 -745.115173
-2.085300 29.264601 -742.017212
-3.223900 28.432699 -744.043518
-3.667500 27.702200 -744.656921
-1.264200 29.688299 -739.992920
-1.604700 29.511999 -740.630371
-1.841100 29.422400 -741.087585
-2.481800 29.187901 -742.329712
-3.005900 28.690599 -743.213074
-3.602600 28.118099 -744.216187
-4.236700 27.047600 -745.081177
-2.230600 29.270300 -741.369995
-2.870500 29.039900 -742.612976
-3.391200 28.600800 -743.515015
-4.155500 27.506001 -744.642883
-1.741800 29.492201 -740.111511
-2.583600 29.203699 -741.753479
-4.049400 27.884300 -744.257080
-2.100300 29.437300 -740.541870
-3.293000 28.779600 -742.757629
-3.840400 28.449600 -743.762390
-4.561000 27.071699 -744.673828
-2.438300 29.194500 -740.846924
-3.010500 29.002100 -741.963318
-3.629200 28.581699 -743.077881
-2.744900 29.074100 -741.230774
-4.484700 27.657101 -744.260376
-2.180000 29.344400 -739.916382
-3.391900 28.945400 -742.281616
-4.296600 28.188499 -743.847107
-2.552300 29.231400 -740.313904
-3.163400 28.947300 -741.470398
-4.116800 28.453600 -743.252686
-4.899800 27.143499 -744.322083
-2.903200 29.057899 -740.623291
-3.512000 28.811001 -741.791626
-3.846700 28.723301 -742.455078
-3.282800 28.890200 -740.984009
-4.195300 28.526501 -742.738220
-4.575500 28.249500 -743.414185
-4.829600 27.904600 -743.796326
-5.161900 27.521799 -743.955872
-5.360400 27.058599 -744.169678
-3.215300 28.885700 -740.185913
-3.719600 28.731400 -741.177429
-3.985700 28.689699 -741.717773
-4.636600 28.287201 -742.908386
-4.243000 28.615601 -742.179016
-5.531800 26.572599 -744.064270
-3.601800 28.764799 -740.517273
-5.029600 28.031500 -743.196716
-4.644200 28.377001 -742.411011
-5.316000 27.672300 -743.514282
-4.019200 28.475401 -740.692383
-4.312500 28.532900 -741.334473
-4.545800 28.486500 -741.804626
-5.072300 28.090200 -742.418030
-5.323100 27.783701 -742.811279
-4.437500 28.315599 -740.910278
-4.748600 28.309601 -741.388184
-4.985600 28.208300 -741.842773
-5.367800 27.898500 -741.990906
-5.586000 27.591999 -742.315918
-5.831200 27.381300 -742.740112
-6.108500 27.034401 -742.955627
-5.738700 27.703501 -741.517517
-5.271700 27.785601 -740.714417
-5.204000 28.114300 -741.384521
-5.682200 27.238199 -743.439697
22.749399 34.526100 -748.788208
25.962601 34.028702 -749.917114
25.708200 34.005001 -750.454773
-4.771800 26.571199 -744.774719
25.209200 34.114300 -750.831970
24.750000 34.172699 -750.653870
24.290600 34.248402 -750.481506
25.252800 34.207401 -750.232117
24.792999 34.274300 -750.058716
24.333200 34.356701 -749.890503
23.873800 34.408699 -749.712219
23.414400 34.441399 -749.527405
25.493401 34.221901 -749.770081
25.033400 34.280602 -749.593994
24.572701 34.406300 -749.440308
24.112801 34.495499 -749.274597
23.653200 34.542301 -749.094727
25.928600 34.398800 -749.560974
24.013800 34.804199 -748.881104
25.658400 34.656700 -749.240906
25.199301 34.759399 -749.079285
24.740400 34.875599 -748.922424
24.108200 35.180901 -748.444214
10.201900 33.705601 -740.295471
25.013500 35.125000 -748.486877
23.238501 34.755901 -748.822815
13.186700 32.168301 -747.267883
23.314301 33.657600 -748.979187
23.834400 33.789001 -748.815186
24.316999 33.875198 -748.703186
25.392300 33.418499 -749.183289
26.808800 33.057301 -749.545288
25.948601 33.427898 -749.187988
24.846100 33.936901 -748.816711
26.347300 33.303501 -749.483521
26.133900 32.966301 -750.127380
24.797199 33.863300 -749.427429
26.165800 33.798599 -749.460510
89.247002 26.834299 -783.540527
89.006302 26.778799 -783.965576
88.756203 26.632000 -784.374084
89.101501 26.976000 -782.986877
88.251701 26.548201 -784.398071
88.746002 27.072500 -783.380127
88.495697 26.920700 -783.785583
88.729301 26.947500 -782.351196
88.508904 27.088699 -782.809326
88.270103 27.057600 -783.237305
88.016800 26.881399 -783.637878
87.748497 26.562401 -784.013184
87.311203 26.294201 -784.079773
88.252998 26.996700 -781.832581
88.024002 27.076000 -782.283386
87.778801 26.983900 -782.700195
87.525803 26.813601 -783.102417
87.277702 26.697300 -783.515381
87.368698 27.096500 -779.695618
87.134903 27.133499 -780.137878
86.886497 27.004801 -780.546570
86.638100 26.877899 -780.956116
86.390800 26.766001 -781.368774
86.144897 26.671000 -781.785217
85.891403 26.498699 -782.187378
85.644600 26.398600 -782.603577
85.382797 26.153200 -782.994080
85.125298 25.955500 -783.394287
84.872902 25.810200 -783.804382
84.617500 25.640900 -784.211121
87.211998 27.330900 -779.261902
84.134598 25.592800 -784.283630
86.853401 27.263500 -779.663879
86.596100 27.028400 -780.051392
86.343300 26.850201 -780.451172
86.095100 26.726000 -780.862183
85.851601 26.653200 -781.283325
85.604202 26.540701 -781.697083
85.352798 26.389299 -782.104187
85.100601 26.234301 -782.511292
84.847900 26.077400 -782.918701
84.594299 25.915701 -783.325928
84.337799 25.730600 -783.729919
86.882599 27.474701 -778.805481
86.118896 26.855200 -779.983887
85.866699 26.686399 -780.385986
85.130402 26.413601 -781.639587
83.834602 25.653601 -783.744385
83.585800 25.544500 -784.161926
86.479698 27.407301 -779.153625
86.219002 27.124300 -779.530518
85.466599 26.648600 -780.741821
85.221100 26.553101 -781.158691
84.726799 26.332701 -781.987915
84.477402 26.202101 -782.399414
84.219803 25.994699 -782.797974
83.962196 25.793400 -783.198730
86.583099 27.622299 -778.401611
85.780403 26.922899 -779.624023
85.525200 26.715700 -780.018188
84.752098 26.405001 -781.326904
83.496399 25.693300 -783.377625
83.247803 25.583599 -783.794922
86.208801 27.513800 -778.715027
85.948997 27.238100 -779.092590
85.150803 26.626801 -780.338318
84.907997 26.563999 -780.761475
84.237099 26.270300 -781.888184
83.982002 26.087000 -782.290588
83.727402 25.912500 -782.695374
82.843399 25.445000 -784.150696
84.259499 26.363899 -781.391174
86.266701 27.621401 -777.971313
85.472397 27.022900 -779.214905
85.217201 26.815599 -779.609009
84.435997 26.423599 -780.903015
83.253700 25.774700 -782.841492
82.999901 25.616199 -783.250671
82.752197 25.518200 -783.670471
85.717003 27.393101 -778.638977
84.873398 26.642799 -779.918518
84.631500 26.593000 -780.344910
83.744301 26.170900 -781.822815
83.488602 25.984400 -782.225281
82.367302 25.392401 -783.997986
85.802101 27.638599 -778.208618
83.939201 26.363300 -780.989014
85.239601 27.189800 -778.796997
84.980202 26.926500 -779.177979
83.011101 25.852699 -782.399780
82.756599 25.688999 -782.807373
82.509697 25.604900 -783.229492
84.131897 26.529499 -780.505371
85.880997 27.772301 -777.593811
84.644302 26.758600 -779.493530
83.545403 26.275700 -781.330627
83.254997 26.082399 -781.792786
85.324898 27.440701 -778.328125
84.307098 26.648300 -779.905518
82.083000 25.477301 -783.552307
81.820503 25.245800 -783.949524
85.421799 27.767799 -777.838318
82.815102 25.925200 -781.946228
84.827202 27.316601 -778.496277
84.568497 27.056801 -778.876709
83.813904 26.586000 -780.088684
83.563400 26.449800 -780.498108
82.446297 25.796499 -782.307922
82.197899 25.698200 -782.727112
85.543198 27.970800 -777.228027
84.229401 26.830601 -779.221130
83.235397 26.381399 -780.876587
82.979698 26.193399 -781.276672
81.861801 25.568701 -783.096008
81.578201 25.465300 -783.577271
84.957100 27.540701 -777.963684
83.903503 26.740101 -779.599670
85.054199 27.887100 -777.375183
84.353401 27.201300 -778.406982
83.306000 26.527901 -780.075012
82.508499 26.030899 -781.350708
82.257103 25.906099 -781.764221
81.935204 25.762600 -782.299500
81.049896 25.349899 -783.765381
83.995598 26.986300 -778.712524
83.739197 26.780399 -779.105774
82.952400 26.388300 -780.398499
82.702797 26.276800 -780.813293
81.578903 25.619200 -782.624878
81.331703 25.545500 -783.048706
85.110703 28.051500 -776.776611
84.605499 27.679300 -777.563110
84.350403 27.470100 -777.952576
83.365700 26.711100 -779.473694
81.742897 25.873400 -781.830078
80.884201 25.497801 -783.259705
84.676003 28.023100 -777.019104
83.903999 27.297701 -778.164185
82.926201 26.634800 -779.706787
82.202202 26.189501 -780.865173
81.951103 26.064899 -781.277710
83.564102 27.108801 -778.471008
83.307701 26.900299 -778.862915
82.551399 26.457399 -780.080627
81.289497 25.768801 -782.130615
81.038101 25.649200 -782.545288
80.430397 25.396200 -783.560730
84.739098 28.094101 -776.393677
84.241699 27.823200 -777.201416
83.984299 27.580500 -777.582520
82.927498 26.770500 -779.213928
82.073502 26.443001 -780.231995
81.710701 26.218201 -780.810913
81.457703 26.074900 -781.219604
81.203201 25.919901 -781.626709
80.554604 25.593201 -782.689026
84.246498 28.236401 -776.395386
83.990196 27.996799 -776.775330
83.733398 27.757200 -777.156311
83.475700 27.516701 -777.538330
83.221703 27.327801 -777.932373
82.965897 27.124300 -778.324280
82.710701 26.932600 -778.719727
82.422203 26.757500 -779.181396
82.168297 26.591400 -779.583496
80.761200 25.813000 -781.863281
80.119797 25.560301 -782.939392
79.865303 25.416800 -783.350830
84.239899 28.181999 -775.873474
81.718399 26.545200 -779.873291
81.466003 26.400700 -780.280701
81.209900 26.219999 -780.681824
80.958801 26.095699 -781.094177
80.306999 25.728100 -782.148071
83.771698 28.291599 -776.264587
83.512802 28.016300 -776.636475
83.256104 27.779301 -777.018311
83.001701 27.577700 -777.408875
82.746597 27.373899 -777.799927
82.490501 27.164101 -778.190674
82.236099 26.981199 -778.587891
81.947601 26.802900 -779.049072
80.504303 25.971201 -781.378296
79.862198 25.701000 -782.450623
79.609398 25.569300 -782.863586
79.356697 25.268000 -783.214905
81.525497 26.684900 -779.347412
81.209503 26.584801 -779.887329
80.953201 26.396500 -780.286316
80.694801 26.192801 -780.683289
80.077400 25.817900 -781.672974
83.736099 28.342501 -775.570923
83.378700 28.339899 -775.963379
83.121002 28.081100 -776.338806
82.863998 27.841299 -776.719604
82.608002 27.620300 -777.105713
82.352501 27.412600 -777.495605
82.092003 27.152901 -777.875671
81.841400 27.014799 -778.281982
81.589996 26.871599 -778.687805
80.223801 26.129999 -780.906921
79.608101 25.781401 -781.901611
79.362000 25.712400 -782.324890
79.112000 25.608200 -782.742371
81.010101 26.673599 -779.432312
79.883499 25.975500 -781.228088
80.653099 26.557699 -779.813782
80.397797 26.388800 -780.216675
78.683601 25.517799 -783.017578
81.126503 26.816900 -778.884216
83.389603 28.461300 -775.218811
83.086502 28.506701 -775.603027
82.827904 28.246201 -775.977722
82.569901 28.003300 -776.357483
82.316399 27.822701 -776.751770
82.055603 27.560699 -777.129822
81.799004 27.355600 -777.520874
81.541603 27.148300 -777.912598
81.290001 27.009701 -778.318970
79.959297 26.322500 -780.483826
79.409302 25.962200 -781.350891
79.124001 25.852800 -781.828918
78.876602 25.778700 -782.250977
80.653603 26.770000 -779.099915
79.568604 26.172100 -780.849609
80.155197 26.590401 -779.769287
78.453697 25.689501 -782.525024
80.821404 26.956699 -778.474304
83.018898 28.760401 -774.866394
82.568497 28.475401 -775.579285
82.311302 28.235600 -775.958374
82.051903 27.976500 -776.334473
81.795700 27.765499 -776.722229
81.538200 27.544800 -777.108887
81.282700 27.354200 -777.502808
81.025597 27.150900 -777.895020
80.170898 26.781401 -779.309998
79.733200 26.497499 -780.000427
78.893204 25.974899 -781.333313
78.611000 25.895901 -781.816223
80.357498 26.861601 -778.702209
79.354897 26.394600 -780.350891
79.059196 26.176901 -780.807922
77.926201 25.674900 -782.680420
82.534302 28.715500 -775.091675
79.700897 26.701700 -779.498901
78.144402 25.862600 -782.017212
82.065804 28.428400 -775.513916
81.806999 28.174700 -775.890686
81.550201 27.952900 -776.275818
81.294800 27.755501 -776.667114
81.038803 27.557400 -777.059082
80.781502 27.349600 -777.450073
80.527901 27.189899 -777.851807
79.884697 26.891500 -778.909729
78.394302 26.016701 -781.294373
80.126099 27.076300 -778.190125
79.228996 26.639999 -779.658020
78.861801 26.390600 -780.232910
78.570900 26.224899 -780.700073
77.668900 25.795700 -782.179504
82.289101 28.762800 -774.531616
82.050400 28.764099 -774.965210
79.394699 26.861300 -779.088379
77.903999 26.001900 -781.479187
81.586403 28.463600 -775.384399
81.327103 28.205500 -775.760620
81.068398 27.965000 -776.142029
80.815697 27.802900 -776.541382
80.560204 27.612600 -776.935486
80.304298 27.423201 -777.330627
80.052299 27.282200 -777.736511
79.652397 27.025299 -778.368286
78.093697 26.150900 -780.877686
77.175797 25.604601 -782.343994
78.904602 26.783600 -779.314087
78.650902 26.638399 -779.721680
78.355904 26.426399 -780.179810
77.416603 25.957800 -781.714111
81.952797 28.931000 -774.210876
81.565498 28.765800 -774.854126
79.589203 27.177099 -777.861694
79.164398 27.023399 -778.577209
77.606201 26.153601 -781.089172
81.066704 28.418600 -775.377930
80.810303 28.200899 -775.763672
80.550201 27.945499 -776.142273
80.297401 27.783501 -776.542419
80.039497 27.567900 -776.931580
79.783798 27.383400 -777.328430
77.871002 26.353701 -780.426208
76.964401 25.879999 -781.899719
78.692497 26.957500 -778.819519
78.403198 26.800400 -779.287292
78.146004 26.624701 -779.690002
76.582199 25.775900 -782.219177
81.458000 29.035400 -774.296692
81.054703 28.669701 -774.894897
79.083099 27.198999 -777.937073
77.415901 26.276400 -780.628296
77.093803 26.147600 -781.166626
81.622101 28.995899 -773.820374
79.273003 27.363400 -777.491577
78.759102 27.150400 -778.302429
77.703697 26.515200 -779.987915
80.311302 28.184299 -775.785706
80.580399 28.442600 -775.249329
79.994102 27.961201 -776.137695
79.735802 27.739000 -776.525513
79.483902 27.597700 -776.931519
76.659302 26.040800 -781.494080
80.993301 28.954800 -774.489380
78.188004 26.928301 -778.844971
77.848000 26.796499 -779.208374
77.231499 26.456600 -780.205200
76.248703 25.916700 -781.794922
81.137199 29.116899 -773.907593
80.590401 28.653900 -774.732117
78.768700 27.320999 -777.557312
78.274399 27.158701 -778.397888
76.887901 26.302700 -780.607117
79.001198 27.572901 -777.086975
77.478798 26.684099 -779.531311
76.570900 26.191099 -781.002686
80.088402 28.401400 -775.296387
79.796700 28.179001 -775.745178
78.415199 27.259800 -777.920776
79.473396 27.988100 -776.102600
79.216698 27.789700 -776.496399
80.655602 29.060200 -774.122986
77.708000 27.018900 -778.731873
76.142303 26.138500 -781.255981
80.877800 29.126101 -773.464478
80.093002 28.698900 -774.735596
77.329803 26.886000 -779.095825
76.963501 26.654301 -779.677002
76.706497 26.490400 -780.084412
75.763901 26.021601 -781.627502
80.201202 28.917101 -774.286194
79.581703 28.433701 -775.235718
79.289200 28.206200 -775.684387
78.704697 27.779100 -776.591125
78.450699 27.619101 -776.994812
78.195198 27.447100 -777.396729
77.907700 27.303900 -777.867676
76.304298 26.356600 -780.439087
80.417801 29.317600 -773.610107
78.880798 28.041500 -775.939392
77.510300 27.270901 -778.154419
77.256599 27.124800 -778.563293
75.906700 26.323400 -780.729004
75.654503 26.209700 -781.147278
80.009499 29.162001 -773.845581
79.681900 28.895300 -774.344604
79.427200 28.696600 -774.735779
79.060997 28.394600 -775.292114
76.848000 26.998301 -778.815918
76.593498 26.849701 -779.225586
76.337502 26.690201 -779.633972
75.246399 26.096701 -781.407104
80.301598 29.337299 -773.043274
78.380798 27.971701 -776.041870
78.127998 27.820601 -776.447388
77.872704 27.645800 -776.848511
77.619598 27.499701 -777.256287
77.372902 27.422899 -777.678772
75.953003 26.576500 -779.956970
78.597198 28.246599 -775.466614
77.006599 27.312300 -778.022217
75.588203 26.502600 -780.309875
75.333199 26.363300 -780.723389
79.852600 29.444799 -773.280884
79.486099 29.114799 -773.825989
79.194099 28.877600 -774.269897
78.939003 28.681101 -774.661926
76.613297 27.173201 -778.343018
76.359596 27.034599 -778.754211
76.104500 26.883499 -779.163574
74.944199 26.287701 -781.059326
74.679298 26.066299 -781.459717
78.533699 28.569500 -774.916870
78.090401 28.181000 -775.580688
77.838600 28.040400 -775.987976
77.583000 27.859501 -776.387329
77.328003 27.691200 -776.789917
77.075401 27.551600 -777.199219
75.700401 26.805099 -779.432007
75.443802 26.645399 -779.840881
79.610901 29.406700 -772.798584
79.337196 29.394100 -773.294983
78.971397 29.077200 -773.844116
76.648697 27.518299 -777.503906
76.395500 27.376900 -777.913574
75.010696 26.560400 -780.138428
74.759804 26.457300 -780.558594
78.553200 28.908800 -774.148010
78.044403 28.537800 -774.938477
75.978897 27.265800 -778.237305
75.725502 27.127899 -778.648926
74.340897 26.341101 -780.885315
78.187401 28.757099 -774.455078
77.670700 28.308201 -775.229980
77.416496 28.139900 -775.631226
77.162498 27.976900 -776.034302
76.908401 27.816999 -776.438599
76.655899 27.677799 -776.847778
75.355904 26.990299 -778.966125
75.101303 26.847200 -779.377808
73.972603 26.235600 -781.211304
79.150703 29.595301 -772.755127
78.828003 29.390499 -773.267395
76.135597 27.524500 -777.481628
74.753098 26.732599 -779.709229
74.497002 26.582899 -780.120728
78.478699 29.165899 -773.603271
78.100403 28.996901 -773.980530
77.696503 28.666500 -774.592529
76.174103 27.730900 -777.017517
75.699402 27.431101 -777.770691
75.445000 27.286200 -778.180420
74.062500 26.537100 -780.421021
78.663101 29.642500 -772.848877
77.302902 28.484100 -774.892090
77.044296 28.270800 -775.283081
76.790001 28.109900 -775.686279
76.536598 27.961500 -776.092773
76.279602 27.780001 -776.492981
75.057503 27.203300 -778.505981
74.797600 27.013300 -778.908386
73.675797 26.473700 -780.752380
78.796600 29.606400 -772.186829
78.240303 29.476200 -773.153687
77.982002 29.238800 -773.534912
77.616302 28.951200 -774.093018
75.686699 27.681101 -777.133301
74.375504 26.929600 -779.242004
74.123901 26.822201 -779.660706
77.234100 28.737801 -774.386597
75.309998 27.567101 -777.454773
75.052696 27.396400 -777.859680
73.752296 26.773500 -779.997986
73.192596 26.377399 -780.869324
78.358299 29.780899 -772.374084
76.855904 28.572399 -774.656921
76.598297 28.374201 -775.051575
76.345497 28.231300 -775.458984
76.089203 28.055599 -775.859985
75.835800 27.912901 -776.268616
74.645897 27.323500 -778.217712
74.388397 27.158001 -778.624878
73.338501 26.652201 -780.350220
77.930298 29.724100 -772.672974
77.672401 29.489100 -773.054504
77.413002 29.245300 -773.435120
77.155998 29.036100 -773.824707
75.411201 27.919701 -776.586487
75.157700 27.779800 -776.996521
73.953697 27.077400 -778.928528
73.702103 26.970200 -779.347473
78.126198 29.773600 -771.859680
76.722603 28.916700 -774.097595
76.350998 28.587601 -774.650513
76.095802 28.416901 -775.051697
75.840797 28.252300 -775.454773
75.582298 28.055799 -775.852112
74.723602 27.683100 -777.279602
74.470200 27.550400 -777.692078
74.141998 27.361099 -778.219727
73.273399 26.936399 -779.645203
72.829903 26.654800 -780.348206
77.734001 29.913601 -772.145813
77.443398 29.693800 -772.592773
77.185699 29.466999 -772.976807
76.896500 29.276800 -773.432678
75.141197 28.037001 -776.166382
74.894798 27.966900 -776.590393
73.693298 27.279301 -778.523987
73.437500 27.132999 -778.935730
76.480301 29.132299 -773.676819
76.223503 28.933500 -774.070007
75.856102 28.651699 -774.633911
75.600502 28.478001 -775.034607
75.345398 28.313499 -775.437988
74.482101 27.885099 -776.853027
74.225098 27.715700 -777.258118
73.971298 27.580200 -777.670288
73.026901 27.082701 -779.206970
72.775101 26.975401 -779.626587
72.317902 26.580799 -780.311218
77.614700 29.987801 -771.520630
77.234100 29.919001 -772.190613
76.681801 29.436399 -773.014099
74.923401 28.163000 -775.738403
73.550201 27.464399 -777.980591
76.790703 29.721600 -772.438171
76.242500 29.302000 -773.278503
75.984398 29.088499 -773.668030
75.730698 28.929199 -774.070496
75.358902 28.610001 -774.626770
75.106300 28.471800 -775.035583
74.495399 28.174200 -776.038025
74.245399 28.070601 -776.455200
73.986198 27.880699 -776.855774
73.730400 27.726601 -777.264221
73.116997 27.436199 -778.273987
72.855698 27.242901 -778.677185
72.532501 27.111099 -779.217529
72.282501 27.021500 -779.640320
77.208000 30.110500 -771.244385
76.967598 30.090500 -771.676575
76.344299 29.575701 -772.617188
74.662804 28.393999 -775.235107
73.283699 27.637100 -777.464905
71.824699 26.856800 -779.831909
76.503304 29.972099 -771.867310
75.884804 29.523300 -772.825378
75.623001 29.266899 -773.205078
75.370003 29.114500 -773.609314
75.115402 28.948500 -774.010925
74.859398 28.771799 -774.411011
74.199799 28.322399 -775.444275
73.954803 28.266899 -775.871582
73.700798 28.124599 -776.281616
73.442299 27.943899 -776.684570
72.825302 27.617100 -777.687805
72.573097 27.503401 -778.105530
72.316101 27.349701 -778.516418
72.065903 27.256500 -778.938721
71.810997 27.125401 -779.354614
76.680901 30.195499 -771.003784
76.038399 29.849899 -772.047424
74.398598 28.715000 -774.611328
72.981102 27.891701 -776.889587
71.349800 27.079599 -779.564697
76.238503 30.248199 -771.216675
75.583000 29.748600 -772.225098
75.331001 29.596300 -772.628418
75.073303 29.384899 -773.018921
74.819099 29.216200 -773.419922
74.565201 29.054899 -773.823181
73.944801 28.640200 -774.800476
73.688698 28.470600 -775.204285
73.442398 28.398500 -775.628784
73.188904 28.257900 -776.039612
72.529999 27.846100 -777.088806
72.276703 27.718500 -777.504089
72.030403 27.653200 -777.931274
71.767899 27.448900 -778.333496
71.509201 27.281900 -778.743286
75.807899 30.084900 -771.443970
74.138702 28.962200 -774.072388
72.765503 28.205200 -776.300720
71.094597 27.311899 -779.022827
