-37.814800 40.796700 -794.591370
-34.228100 41.845001 -793.854187
-32.621601 42.323502 -793.507813
-28.261999 44.025600 -791.838501
-44.338501 38.778198 -795.115479
-31.232500 42.523399 -792.578003
-39.129398 39.719299 -794.064514
-36.462799 40.456001 -793.596985
-42.918499 38.437302 -794.236877
-34.908100 40.598301 -792.931824
-33.297401 41.084999 -792.575623
-29.960199 42.317001 -791.435303
-28.222799 43.230099 -790.353271
-41.269402 38.527000 -793.754395
-27.666800 43.811199 -788.652222
-37.733398 39.111198 -793.254822
-31.812500 41.072498 -791.649719
-23.796600 47.509701 -782.687073
-29.464500 42.287800 -789.693115
-39.572701 38.299900 -793.229370
-36.238602 39.051899 -792.414307
-30.824699 41.317501 -790.111511
-23.253300 51.575699 -774.153015
-42.360100 37.356602 -792.778809
-34.597698 39.318600 -791.802002
-33.066299 39.933998 -791.199524
-28.847099 42.698601 -787.619629
-30.254999 41.666698 -788.294617
-27.618200 43.692600 -785.526978
-40.806499 37.173698 -792.081177
-38.612499 37.667301 -791.915894
-32.250900 40.062698 -789.709717
-23.771299 51.300598 -772.353882
-36.966000 37.775600 -791.382874
-29.997499 41.761002 -786.536377
-35.221802 37.896599 -790.985229
-31.686399 40.246700 -787.945374
-23.586700 49.899799 -773.346375
-31.266899 40.757801 -786.000122
-24.825701 50.414101 -770.863892
-34.632198 38.172100 -787.586914
-24.410101 48.962200 -771.689087
-29.855499 42.614899 -780.526428
-24.981701 45.274899 -776.550720
-33.288898 38.542801 -783.977722
-28.511600 42.014000 -779.365112
-31.106100 40.836498 -779.114075
-26.926800 42.848701 -776.898621
-25.874500 43.661999 -775.796997
-29.658199 40.905899 -778.148682
-29.028799 40.770699 -776.495972
-32.444199 39.417000 -777.119629
-27.016600 42.012100 -774.281372
-27.143600 41.502300 -771.199524
-26.332600 41.552601 -769.383972
-27.022100 41.258301 -767.814270
-27.905100 40.544899 -769.158386
-28.146500 40.756100 -766.642212
-29.490601 39.506599 -768.809814
-29.733299 39.575001 -767.083374
-30.183300 40.437500 -765.019897
-31.162800 38.164501 -768.697510
-32.505501 38.230701 -766.898987
-32.953701 37.100300 -768.547485
-34.183899 35.761002 -769.086426
-34.908001 35.425701 -767.602112
-56.866402 20.060301 -756.963989
-55.741299 20.928200 -756.027100
-54.185299 21.480900 -756.382385
-56.552601 19.516399 -759.063477
-55.391201 20.406300 -758.104614
-52.651402 22.096399 -756.738586
-53.896301 21.111799 -758.468628
-55.939999 19.347200 -760.854492
-54.836498 20.265600 -759.921570
-52.402599 21.883101 -758.664978
-51.225201 22.696199 -757.735229
-53.320599 21.015200 -760.256104
-55.085800 19.361099 -762.693481
-54.010799 20.364401 -761.745178
-49.845600 23.520800 -758.354004
-51.926300 21.719801 -760.939697
-50.834999 22.655899 -760.009583
-48.381599 24.398199 -758.058777
-54.587200 19.414301 -764.298218
-53.589298 20.424801 -763.391724
-49.465401 23.651800 -760.011597
-52.183498 21.324400 -762.934326
-47.268200 25.412901 -758.818115
-50.762901 22.234800 -762.630920
-49.737999 23.268000 -761.704285
-48.087399 24.654499 -760.319092
-54.178600 19.749300 -766.151611
-52.955002 20.557100 -765.211182
-46.003502 26.366800 -759.396118
-51.643799 21.600700 -764.809204
-48.338699 24.136400 -762.135498
-46.699001 25.539101 -760.753174
-44.648602 27.343599 -759.004883
-50.279400 22.556999 -764.284485
-43.849300 28.774401 -758.595581
-43.224499 30.154699 -757.742920
-53.005100 20.696800 -766.933472
-48.956902 23.474800 -763.794312
-51.466702 21.321501 -766.513184
-46.974201 24.912399 -762.831726
-45.381500 26.374701 -761.453430
-50.124500 22.360300 -766.043030
-44.098301 27.477600 -760.989624
-42.745998 29.793600 -759.403381
-42.094898 31.131701 -758.553528
-53.040199 20.543100 -768.792786
-48.819000 23.350700 -765.557312
-47.702099 24.255800 -764.638306
-51.667999 21.482700 -768.283081
-45.811199 25.840599 -763.622314
-42.678902 28.473900 -761.012512
-50.213600 22.339001 -767.810303
-44.514500 26.825899 -763.183777
-41.571499 30.711800 -760.187683
-48.723701 23.124500 -767.351013
-47.546398 24.074100 -766.387817
-46.422600 25.094400 -765.424377
-43.199600 27.856600 -762.724609
-52.202999 20.861200 -770.582825
-41.558701 29.351601 -761.928101
-40.218899 31.781601 -760.312683
-50.897499 21.923100 -770.099915
-45.085999 26.178699 -765.529419
-49.601101 22.913900 -769.637695
-47.609798 24.078501 -768.187988
-46.356098 24.922600 -767.232422
-43.814400 27.286301 -765.043823
-42.004601 28.703899 -763.587830
-40.521999 30.752199 -762.053101
-51.250401 21.624201 -772.147217
-48.140400 23.768999 -769.768311
-45.068001 26.027500 -767.364380
-42.457901 28.300200 -765.186218
-40.814999 29.930099 -763.738403
-39.471802 32.137001 -762.218872
-49.810299 22.443100 -771.714111
-46.466301 24.965700 -769.077881
-43.809700 27.063101 -766.947815
-41.166401 29.410101 -765.398621
-39.865501 31.344900 -764.008972
-50.252499 22.237000 -773.405396
-48.376202 23.341600 -772.048706
-47.264301 24.298300 -771.128784
-45.032700 25.883699 -769.411011
-42.544399 28.206900 -767.282471
-38.701401 32.592098 -763.689087
-45.914700 25.313299 -770.776489
-43.703701 26.928801 -769.059326
-40.146099 30.677200 -765.855286
-37.346199 33.592800 -763.346985
-48.827000 23.206100 -773.666687
-41.349400 29.396799 -767.585693
-39.111500 32.000301 -765.477783
-47.406300 24.084499 -773.279907
-44.531502 26.263201 -771.023193
-42.599400 28.253201 -769.304810
-37.869598 33.148201 -765.089600
-46.013802 24.960300 -772.910522
-43.198502 27.227301 -770.652710
-40.107899 30.538200 -767.859070
-36.617401 34.317501 -764.689026
-41.418999 29.472900 -769.515381
-39.086201 31.853901 -767.456482
-47.695099 23.893499 -775.283875
-44.590302 25.965799 -772.969482
-37.843498 32.926399 -767.003906
-46.393799 24.985500 -774.821289
-43.340500 27.059000 -772.537781
-42.077301 28.150999 -771.504211
-40.037800 30.479900 -769.620483
-36.570000 33.981300 -766.591675
-39.000000 31.793699 -769.214722
-33.396099 39.034500 -763.734070
-45.055302 26.016800 -774.884888
-41.216499 29.588499 -771.666382
-37.814701 32.964298 -768.734680
-32.091801 40.053799 -763.270386
-43.773102 26.989000 -774.360779
-33.645901 37.756699 -765.387695
-46.088501 25.123600 -776.508484
-42.456699 27.918600 -773.702026
-39.850899 30.603600 -771.434082
-36.435699 33.972900 -768.517822
-49.661999 24.890699 -778.833130
-41.162701 28.936899 -773.244629
-38.764198 31.893801 -770.999023
-32.230000 38.825600 -765.295227
-48.174999 25.471500 -778.302673
-37.658901 33.107101 -770.446411
-50.805302 24.756100 -780.329712
-44.731899 26.090900 -776.926819
-43.672501 27.117800 -776.043030
-40.100899 30.249001 -773.184326
-46.499298 25.864700 -778.411316
-42.398300 28.161400 -775.611328
-38.994598 31.509399 -772.762329
-36.255798 34.133598 -770.495178
-49.183201 25.462999 -780.384827
-41.057400 29.103300 -775.185486
-37.915001 32.785000 -772.350220
-47.540401 25.809700 -779.922485
-34.991699 35.327499 -770.521118
-50.260502 25.274799 -781.843994
-44.993801 26.525200 -778.892883
-43.736301 27.274900 -778.026611
-39.905300 30.327801 -775.111511
-36.629200 33.947800 -772.256592
-42.452499 28.387400 -777.619629
-38.804600 31.558901 -774.756104
-33.431702 36.061001 -770.598999
-48.762600 25.956400 -782.201477
-46.415699 26.681299 -780.834229
-41.186401 29.526501 -777.349121
-37.868000 32.999100 -774.543518
-35.468300 35.128201 -772.650574
-31.990400 36.895401 -770.377380
-44.850800 27.335300 -780.630005
-43.593800 28.086100 -779.771729
-39.987900 30.710600 -777.142578
-36.682301 34.192501 -774.350281
-34.106998 36.112900 -772.456299
-47.268299 26.589100 -782.775391
-42.251400 29.181000 -779.505981
-38.770199 31.859200 -776.926025
-32.611401 36.939899 -772.240173
-30.925800 38.019699 -771.067688
-45.749199 27.299200 -782.465881
-40.956299 30.312300 -779.164124
-37.530102 33.067799 -776.591797
-35.431801 35.248901 -774.842285
-29.703600 39.155102 -770.788574
-44.314999 28.195400 -781.975708
-42.948502 28.924500 -781.083923
-39.578499 31.273800 -778.691223
-36.540199 34.413502 -776.176086
-34.214199 36.424198 -774.388428
-47.167500 26.167900 -784.428711
-31.460501 37.877201 -773.055786
-28.342800 40.142502 -770.818787
-41.660099 30.074900 -781.000488
-38.369999 32.541801 -778.622925
-32.818501 37.359402 -774.384399
-30.024500 38.743500 -772.611206
-45.942699 27.331900 -784.438110
-40.353298 31.103901 -780.559326
-37.049400 33.560902 -778.188171
-35.302101 35.496498 -776.715515
-44.541199 28.264299 -783.992676
-43.333500 29.178400 -783.122681
-39.039200 32.137901 -780.128296
-34.144199 36.722900 -776.299805
-28.787300 39.871700 -772.750977
-41.877998 30.026400 -782.676819
-35.898300 34.790901 -778.293091
-31.725300 38.398201 -775.137207
-30.423901 39.144699 -774.282471
-40.642200 31.085899 -782.226807
-37.860500 33.377102 -780.168274
-32.910999 37.882801 -776.359619
-27.543100 41.040600 -772.817627
-45.072800 28.070101 -785.677490
-34.827099 36.094200 -778.268188
-25.897699 42.258301 -772.091309
-43.484501 29.261999 -784.904419
-39.364498 32.214001 -782.030029
-36.516701 34.422401 -779.986694
-29.000999 40.038300 -774.665405
-42.158401 30.252501 -784.337891
-33.729000 37.357201 -778.121582
-30.805599 39.478298 -776.080200
-38.114700 33.361698 -781.904785
-35.237701 35.534000 -779.873718
-40.822800 31.306601 -784.318420
-44.269100 28.710100 -787.191406
-39.504799 32.354801 -783.837830
-36.934101 34.562599 -781.948975
-34.154499 36.855301 -779.937683
-32.684200 38.536701 -778.719788
-43.013699 29.753000 -786.665527
-27.658800 41.599098 -775.873474
-41.665100 30.640301 -786.046509
-35.680599 35.660599 -781.730530
-38.098701 33.397499 -783.809570
-33.039902 38.121601 -780.323425
-40.397499 31.782200 -785.937500
-34.240700 36.577099 -781.667114
-36.802601 34.529800 -783.799988
-31.900101 39.340099 -780.094727
-28.071100 41.447800 -777.720825
-39.147400 32.886700 -785.692871
-42.282700 30.242500 -788.239624
-35.570801 35.737499 -783.530884
-41.073399 31.297600 -787.706970
-37.926601 34.073502 -785.442078
-33.051701 37.723801 -782.135681
-34.263100 36.812698 -783.332520
-39.764400 32.391701 -787.601013
-36.653801 35.204300 -785.347717
-32.033600 39.154900 -782.071228
-31.031099 40.350399 -781.255615
-27.163601 42.840302 -778.765381
-25.930300 43.784801 -777.924805
-24.232500 46.809898 -776.234497
-38.443901 33.472198 -787.262329
-23.802601 48.497601 -776.124512
-37.235100 34.649700 -786.926880
-35.350201 36.283501 -785.588013
-25.085100 45.267799 -778.269470
-34.040901 37.335899 -785.107727
-29.941999 41.341400 -782.065674
-28.227501 42.497299 -780.952515
-26.229401 44.011600 -779.604187
-38.837399 32.923901 -788.927185
-31.688299 39.116100 -783.883423
-24.060900 46.674801 -778.211792
-35.937000 35.737801 -787.135620
-30.838200 40.505501 -783.443726
-23.700701 48.318901 -777.930115
-37.623199 34.097500 -788.653015
-26.872101 43.478802 -781.357971
-25.349199 45.411999 -780.111084
-32.798199 38.386299 -785.697998
-28.713200 42.312000 -782.744812
-36.278801 35.119701 -788.792786
-29.696899 41.598900 -784.028198
-24.239700 46.729000 -780.148682
-23.031000 49.606499 -778.779114
-25.999599 44.872898 -781.848816
-23.524000 48.250702 -779.789124
-35.159901 36.444901 -788.611572
-27.460400 43.288700 -783.299194
-33.000599 38.519798 -787.383118
-24.838600 46.161701 -781.668274
-22.399000 50.584999 -779.994019
-28.801300 42.247700 -785.443787
-26.300501 44.428001 -783.763184
-23.028400 49.354900 -780.982910
-21.031401 53.602798 -778.938416
-34.283199 37.628799 -789.587280
-25.269800 45.794800 -783.458618
-26.093100 44.461201 -785.479004
-23.254299 49.118099 -782.971985
-22.529900 50.485600 -782.282288
-21.901100 51.939701 -781.609314
-21.366899 53.474800 -780.953918
-25.171400 45.878799 -785.396912
-24.195400 47.109299 -784.640015
-26.717199 43.976299 -787.206970
-25.547899 45.155399 -786.924011
-23.167801 49.445202 -784.730591
-22.443701 50.814800 -784.045410
-21.917200 52.376499 -783.390930
-21.452299 53.878300 -782.778870
-24.347401 46.937599 -786.414307
-22.210600 52.150501 -785.043884
-21.626400 53.636902 -784.481628
-26.650600 43.854401 -790.038879
-21.644199 52.336102 -788.151611
-23.304899 50.172100 -776.239929
-24.367599 47.521801 -774.655823
-25.204700 45.716702 -774.934692
-25.179501 46.354599 -773.368774
-25.224001 47.390499 -772.014587
160.069107 156.236801 -726.510315
160.263901 155.546600 -728.125427
158.768906 156.953995 -725.614624
158.732407 157.065903 -727.357910
158.538193 156.198105 -728.834412
157.324997 157.401901 -724.663208
157.324295 157.499802 -726.362671
156.978897 157.122299 -728.018372
155.723602 157.518402 -723.622192
156.871902 156.184097 -729.461182
155.717697 157.166199 -725.335693
155.475006 157.000305 -727.054626
154.348404 158.343994 -722.550720
155.246796 156.460800 -728.695984
155.520996 155.610794 -730.304199
153.990906 157.314499 -723.924011
153.973099 156.725906 -725.517822
152.644608 158.148407 -721.828918
153.642105 156.269608 -727.134583
153.679794 155.851303 -728.855103
152.279694 157.352295 -723.295898
153.660202 155.158005 -730.453430
152.218307 156.494003 -724.790283
150.992493 158.518097 -721.086426
151.898300 155.705399 -726.335815
152.251999 155.568893 -727.996704
150.618607 157.631195 -722.492615
151.984604 155.161606 -729.687378
152.384705 155.053299 -731.546021
150.560501 156.775406 -723.965698
150.472595 155.848602 -725.430481
149.270493 158.832397 -720.431885
150.481796 155.523407 -727.237976
148.827606 157.914093 -721.838318
150.171097 155.342194 -728.920227
150.539093 155.298401 -730.594604
148.703903 156.936005 -723.308472
150.518707 154.954300 -732.271118
148.635498 156.118500 -724.795227
148.916794 155.434601 -726.334412
147.635300 159.311707 -720.195984
148.539505 155.345703 -727.975281
147.166702 158.147507 -721.527771
148.791306 155.635803 -729.867310
148.892197 155.191406 -731.485718
146.876694 157.022797 -722.793579
146.887100 156.222504 -724.377625
147.181107 155.642700 -725.938782
145.912201 159.363907 -719.851013
148.121704 154.910004 -732.997192
145.447495 158.250305 -721.219971
146.631699 155.656494 -727.614929
147.025696 155.968704 -729.270508
147.327499 155.451508 -730.842712
144.838806 157.093399 -722.353027
145.130493 156.421295 -723.940613
145.409805 155.742493 -725.475525
144.055603 159.832108 -719.316284
146.516098 155.155807 -732.310303
143.833893 158.708206 -720.553284
145.403900 156.037506 -728.705322
145.710007 155.546906 -730.282776
144.572098 155.753296 -726.997314
142.915802 162.432602 -718.680481
143.192795 157.781693 -721.807129
143.372299 156.573807 -723.102722
143.707596 156.086502 -724.808289
144.727997 155.107101 -731.597290
145.113907 155.196106 -733.293823
142.136993 160.972504 -719.364014
142.139694 159.310303 -720.049316
143.730896 156.233994 -728.432495
142.825699 155.862701 -726.230774
143.673706 155.733200 -730.080627
141.557205 158.254303 -721.251709
141.794006 157.226501 -722.724426
142.016098 156.240997 -724.114624
143.473694 155.233704 -732.720520
140.614502 162.231094 -718.741882
140.682098 160.138702 -719.889771
142.078094 156.434601 -727.631775
141.223099 156.207794 -725.613220
142.078995 156.449295 -729.349182
142.445007 155.750305 -731.271484
139.980804 158.802704 -720.817078
140.185898 157.694794 -722.184387
140.456802 156.809006 -723.756714
142.638107 155.092300 -734.221313
138.909103 161.896393 -718.846985
138.992401 160.483002 -719.798096
140.224899 156.475601 -726.959229
141.397400 155.542999 -732.594421
139.363998 156.586807 -725.063416
140.180099 156.854095 -728.607483
140.531006 156.685593 -730.247314
138.286194 159.264206 -720.876770
138.432602 158.007202 -722.047180
138.652603 157.059402 -723.420471
140.860703 155.062805 -734.117676
140.140793 156.454300 -731.925293
137.434799 161.348404 -719.501709
138.580704 156.613907 -726.557678
138.930496 157.198502 -729.708374
136.683304 160.186203 -720.490173
136.792099 158.761307 -721.554199
137.006104 157.756302 -722.916504
137.328506 157.221802 -724.570374
138.125305 157.173294 -728.140076
139.076599 155.619400 -733.010986
139.341095 154.501694 -734.643921
138.379898 157.403107 -731.340820
140.516998 166.112198 -737.315125
136.660202 157.277496 -726.126526
134.266403 168.268097 -713.533020
134.509094 167.404694 -714.963989
134.702393 166.210999 -716.310181
135.055405 161.027405 -719.995422
135.184402 159.620895 -721.143372
135.386307 158.502197 -722.497192
135.669296 157.776596 -724.050903
136.459793 157.157806 -727.815979
136.864197 157.805603 -729.348328
137.498901 156.690002 -732.624390
137.680206 155.453903 -733.934570
136.710007 157.867401 -731.049316
139.096802 166.011398 -738.313416
133.800705 165.139893 -717.351929
134.994904 157.934601 -725.583313
136.901993 157.822693 -734.073975
132.629501 168.388596 -712.776001
132.860504 167.406799 -714.196716
133.060806 166.287399 -715.537476
133.706497 160.369797 -720.800415
134.905197 157.500305 -727.265381
137.288696 161.031998 -736.361511
133.150803 164.008896 -718.518616
133.551407 159.280304 -722.203125
133.805099 158.468597 -723.651978
134.936295 157.682693 -728.961914
135.651596 157.259399 -732.289978
136.487396 158.923706 -735.303589
137.716904 164.565094 -738.442017
138.110901 165.830795 -739.667419
135.031097 157.671600 -730.705627
132.198303 165.160599 -716.464417
132.391205 162.902695 -719.626587
133.232498 158.094696 -725.272095
135.135605 157.944107 -733.741577
135.939606 160.012299 -736.465515
136.434494 162.258301 -737.751587
130.975204 167.540695 -713.028809
131.216095 166.636902 -714.455078
132.194305 159.974197 -721.443176
133.254898 157.927902 -726.950989
131.269104 164.075500 -717.461975
132.113800 159.307205 -723.090881
133.258194 157.975998 -728.675720
133.970795 157.391800 -732.055481
136.064301 163.735901 -738.777771
136.423096 165.029099 -739.847900
130.528595 165.542404 -715.550415
131.304398 161.836594 -720.445374
133.182098 157.717407 -730.368530
134.350601 158.539200 -735.200073
130.513504 163.009201 -718.551514
131.551300 159.082901 -724.687012
131.880798 158.679092 -726.300781
134.565094 160.673203 -737.355591
129.178299 166.755600 -713.212219
129.746094 164.460007 -716.620972
130.376297 159.556900 -721.334106
131.743805 158.148804 -727.917603
132.936096 157.664307 -733.364502
134.456696 162.145798 -738.298706
128.969498 165.801102 -714.618225
130.309006 159.445206 -723.014771
131.667892 157.929001 -729.596130
132.114594 157.641693 -731.676392
133.349899 159.442398 -736.411011
134.398102 163.433899 -739.460876
134.801102 164.428894 -740.845581
129.001999 163.345200 -717.768372
129.246902 162.100296 -719.331482
129.410202 160.845993 -720.539185
132.448807 158.276596 -734.904419
127.700699 165.709198 -713.452576
128.109100 164.741699 -715.623413
129.694199 159.465103 -724.643311
130.036301 159.164505 -726.263428
132.718094 160.689407 -737.452393
128.435303 159.731506 -721.461426
129.813705 158.732498 -727.902771
130.417496 158.292206 -730.725525
130.843903 158.174194 -732.643921
132.569199 162.180893 -738.659302
133.142197 163.623901 -740.613892
127.131798 163.903702 -716.715088
127.387199 163.024399 -718.175781
127.615501 161.817596 -719.644287
128.246307 159.749893 -723.210571
130.676697 158.545105 -734.323486
131.076797 158.894394 -735.940430
126.041000 164.966400 -714.499084
127.129799 160.680695 -720.895874
127.977501 159.715195 -724.958618
128.311401 159.288605 -726.576416
128.911697 158.802795 -729.376770
130.795395 160.209900 -737.030212
131.709000 162.799194 -740.003784
125.546303 164.054901 -715.838928
126.770500 160.324905 -722.577820
128.599503 158.904800 -731.041504
128.978699 158.735703 -732.747925
130.511993 161.476196 -738.324097
125.124199 163.168503 -717.266418
125.428497 162.513199 -718.830627
125.699097 161.705994 -720.308594
126.499001 160.433701 -724.246826
127.261597 159.362000 -727.947021
128.732803 159.007904 -734.423218
129.164505 159.695007 -736.017822
130.703201 163.105896 -741.331116
125.337502 160.739700 -721.698975
126.261398 160.027603 -725.942505
127.035202 159.152695 -729.604126
128.982300 161.009796 -737.252686
129.647903 162.182297 -739.660583
123.662003 163.840103 -715.735413
126.890999 159.451797 -731.253906
127.277397 159.313904 -732.962402
123.313004 162.923203 -717.113525
123.656303 162.409500 -718.775024
123.970001 161.795303 -720.348572
124.556000 160.764099 -723.244019
124.935204 160.566696 -724.937683
125.473602 159.901093 -727.489929
127.113800 159.469406 -734.654114
127.541100 160.258698 -736.174927
128.250595 161.673401 -738.660278
128.911499 162.658401 -741.103027
125.215797 159.636902 -729.171387
123.035896 161.407700 -721.739929
124.058998 160.489502 -726.433289
125.046898 159.709595 -730.924194
125.446098 159.631393 -732.647888
126.703697 161.144104 -737.402588
127.423203 162.160995 -740.064575
121.467697 163.012299 -716.512817
121.818497 162.559998 -718.172974
122.165298 162.051498 -719.838013
123.012398 160.711304 -723.941772
123.964203 160.178101 -728.180115
125.399902 159.997406 -734.333313
125.823196 160.420700 -735.964172
127.469902 162.980301 -741.959778
123.631699 159.893906 -729.841919
125.930397 161.660797 -738.888184
121.817703 161.407806 -722.938171
122.381302 160.779602 -725.557983
123.837303 159.714905 -732.115173
121.135803 161.827194 -721.217529
122.467796 160.610703 -727.292603
124.864304 160.968994 -737.265930
125.747902 162.183899 -740.536377
120.007599 162.600800 -717.554199
120.354797 162.075500 -719.211792
123.642097 160.121704 -733.780518
124.051697 160.435699 -735.388489
122.195801 160.433197 -728.975586
125.541702 162.968094 -742.108826
120.859100 161.292801 -724.335571
122.310600 160.074600 -730.898376
123.982201 161.569000 -738.573975
119.483704 161.839996 -720.659973
119.880997 161.837204 -722.339478
120.664101 160.946503 -725.971924
122.176201 160.182205 -732.639221
123.226501 160.878098 -736.823181
120.761902 160.883804 -727.722229
122.421402 160.597107 -734.839417
123.813004 162.081207 -740.184082
118.449997 162.360397 -719.074219
120.901001 160.558807 -730.062988
123.874802 162.747101 -741.825012
119.071404 161.791397 -723.859924
118.108299 162.016205 -721.644714
118.986801 161.470505 -725.545776
120.366699 160.440201 -731.735779
120.805496 160.635193 -733.516785
121.470703 161.015701 -736.186279
121.898300 161.344101 -737.871887
122.306198 161.714798 -739.459595
117.285103 167.655502 -717.840820
117.501404 166.560898 -719.142700
118.964401 161.229507 -727.208496
119.303398 160.779205 -728.797119
122.340401 162.237793 -741.069214
116.806198 162.370300 -720.549622
117.392799 161.876602 -723.191223
119.053802 160.854401 -730.538818
120.137001 160.969803 -735.053772
122.321503 164.943695 -742.839172
116.147202 168.695602 -716.917603
116.620300 165.343399 -720.088074
117.466499 161.874298 -724.869629
122.379601 166.190308 -744.024475
118.869797 160.693497 -732.502930
119.959900 161.362106 -736.857117
120.391800 161.575806 -738.600708
120.804100 161.665695 -740.304688
115.705902 167.187698 -718.223877
117.233398 161.682007 -726.566895
117.602600 161.346207 -728.236328
120.953499 161.917801 -742.123474
115.919701 162.097198 -722.014893
115.619202 164.139496 -720.817017
118.538696 161.019302 -734.202576
117.402802 161.180099 -729.905579
115.200699 166.030106 -719.356079
115.789101 162.012405 -723.778381
120.398102 163.792999 -742.833313
114.598999 168.251205 -717.475281
117.323196 160.900406 -731.625610
118.348801 161.438400 -735.829224
120.499802 165.659393 -743.593323
115.708504 161.994797 -725.513672
118.541000 161.600296 -737.770325
118.916000 161.468307 -739.419983
119.347397 161.781799 -741.160400
115.905998 161.815094 -727.600220
113.888702 166.937607 -718.351624
114.201103 164.997299 -720.334106
114.405296 163.419006 -721.733215
116.930099 161.081894 -733.326294
115.749100 161.716507 -729.271179
114.048500 162.861694 -723.349121
115.722702 161.559402 -730.953125
116.666298 161.545303 -735.003906
118.454399 162.819199 -742.256287
118.824799 164.088394 -743.430786
119.217796 165.404007 -744.687073
112.764603 165.951096 -719.220520
113.841202 162.339096 -725.003906
114.212799 162.169403 -726.650879
116.527702 161.604797 -736.748230
116.925003 161.645203 -738.436829
117.328102 161.745804 -740.130188
112.394501 164.976105 -720.575806
112.675697 164.048798 -722.080078
113.987198 162.054596 -728.339600
114.908699 161.472107 -732.471924
112.418503 163.467102 -723.674683
113.798798 162.026306 -730.048706
114.739304 161.666397 -734.190430
116.508499 162.225494 -741.581787
116.921898 162.792206 -743.168274
117.569099 164.269104 -745.460571
111.018204 165.424194 -719.398621
112.208702 162.920105 -725.291504
112.554001 162.421707 -726.927429
114.616898 161.840805 -735.931213
115.016998 161.892593 -737.624817
115.414299 161.939301 -739.307922
110.857498 164.600204 -721.148315
113.122101 161.974304 -731.651672
110.728897 164.144608 -722.815613
111.932800 162.404495 -728.505493
113.013802 161.675003 -733.351379
114.827904 162.223099 -740.924072
115.248100 162.143799 -742.743774
115.658600 162.347702 -744.431824
110.593399 163.608200 -724.484680
111.007698 162.930695 -726.468018
111.839500 162.384796 -730.195190
112.938103 161.858505 -735.056580
112.878601 162.026901 -736.746582
113.289101 162.175293 -738.457520
108.975098 164.642197 -721.021423
111.327301 162.270203 -731.843628
113.264900 162.261002 -740.156616
108.992599 164.296005 -722.744873
110.102097 162.844696 -727.955200
111.352997 161.982605 -733.593323
113.298500 162.092697 -741.917725
113.685799 161.945694 -743.626526
109.172997 163.656906 -725.428772
110.078903 162.521103 -729.670715
110.901497 161.965805 -735.297913
111.461998 162.283005 -737.617188
107.971802 164.184692 -724.082520
108.597099 163.326904 -727.036316
109.527702 162.548904 -731.283813
111.375198 162.423599 -739.289917
111.754303 162.383698 -740.937073
107.155701 164.593704 -722.589111
108.463600 163.048706 -728.695129
109.429001 162.458298 -733.038574
111.628403 162.215393 -742.604187
112.002197 161.981003 -744.288025
112.671600 164.650101 -746.380676
107.280098 163.829803 -725.587280
109.273903 162.142502 -734.709229
109.687897 162.224594 -736.474609
107.772102 162.919693 -730.295288
109.564598 162.505600 -738.167175
110.078796 162.524002 -740.384827
111.287598 163.820206 -745.226318
111.912399 165.818207 -747.335205
105.896004 164.533997 -724.051025
106.555603 163.630203 -727.171326
107.622200 162.780701 -732.036011
109.925400 162.533905 -742.071289
110.332703 162.764297 -743.765015
106.389702 163.506699 -728.891418
107.448898 162.517303 -733.766785
107.861198 162.392593 -735.587891
110.389000 165.263702 -745.679810
105.153397 164.279205 -725.606384
107.728897 162.593002 -737.253906
108.160004 162.623398 -739.111816
109.548302 164.163696 -744.668823
110.229401 166.364304 -746.969727
105.715698 163.426102 -730.494995
108.074203 162.816696 -740.871521
108.498901 163.350494 -742.551392
104.271698 167.401794 -725.287781
104.441101 166.111801 -726.396606
104.493301 164.288696 -727.154419
105.577698 163.147400 -732.175293
106.168900 162.609497 -734.887695
108.707100 165.699707 -744.957214
104.376404 164.086594 -728.887695
106.048897 162.527100 -736.565796
106.496803 162.838303 -738.410217
107.763901 164.703796 -743.340576
104.973900 162.999405 -733.746094
106.435097 162.875595 -740.095703
106.830399 163.841705 -741.524170
103.014397 168.784698 -725.413086
103.290100 167.869705 -726.869507
103.407501 166.398605 -727.801819
103.892502 164.213501 -730.530029
103.266701 165.540405 -729.242126
103.793297 163.573303 -732.089417
104.513496 162.825394 -735.425293
106.744003 165.803894 -744.231018
104.466599 162.679901 -737.137878
104.874802 162.867493 -738.855103
105.863503 164.722397 -742.610596
102.360397 167.931198 -728.297424
103.320297 163.366302 -733.772095
104.879601 163.507507 -740.497925
102.244598 166.936295 -729.651917
102.447304 165.733398 -730.875488
102.402603 164.745499 -732.381775
102.623901 163.304092 -735.353394
101.957100 164.482895 -733.988220
102.549797 162.849396 -737.041016
100.716904 168.190201 -729.488403
100.943001 167.105301 -730.785278
101.176201 166.068405 -732.099182
104.635902 165.250397 -743.636475
101.917503 169.086899 -726.808289
130.012894 162.236206 -742.711121
112.307297 167.065704 -717.754822
107.399101 166.397507 -745.775085
135.832901 164.503403 -736.811279
0.490400 51.028301 -803.609314
0.051200 51.987202 -802.296570
-1.054400 52.708401 -801.246582
-2.602200 52.042500 -801.004883
-4.523900 51.199001 -800.746704
-9.576100 46.934200 -803.026917
-9.577700 47.942799 -801.154785
-9.571700 48.799999 -799.404724
-11.038800 47.360600 -801.911011
-11.182400 48.501499 -800.034790
-12.186400 46.622002 -802.976013
-12.459100 47.944801 -801.074097
-14.155600 44.474800 -806.052124
-14.697500 44.121799 -807.632202
-13.715900 47.369801 -802.034302
-15.139800 45.968102 -803.642883
-15.649700 45.275501 -805.136414
-16.154699 44.470501 -806.616577
-15.376500 47.196999 -802.356873
6.515000 40.007099 -824.319519
7.664800 40.188801 -825.578918
1.427000 39.541401 -820.902710
2.245300 39.508701 -822.399414
0.590800 39.824200 -819.327271
-3.331700 37.866798 -820.269775
6.787200 43.059299 -818.531311
6.449800 42.498798 -820.095215
7.461400 42.574799 -821.472412
5.658400 43.408901 -817.205322
8.007600 43.810001 -819.529114
6.307900 42.211700 -822.762329
-1.437200 41.041199 -816.019470
8.027100 44.759499 -817.445618
4.833000 45.073101 -813.030579
6.304400 45.497002 -813.822083
6.911800 45.300400 -815.540527
7.728000 47.104900 -812.471802
7.256200 48.007900 -810.869812
-4.099100 44.507301 -808.416016
-3.649500 44.258301 -810.068970
6.125400 49.420799 -808.649719
-5.270800 45.874699 -805.554016
5.007000 49.020302 -810.072083
-5.961400 46.242100 -804.046082
5.084800 48.974499 -811.781982
-7.091600 47.402302 -800.788330
-6.481400 47.230598 -802.378174
-2.958600 48.136799 -804.509521
-5.124200 48.018200 -803.105286
-5.850300 48.734901 -801.290588
2.717700 51.635700 -803.745789
-6.842100 49.057598 -799.862793
-2.463200 50.394402 -801.610229
-1.449700 48.420799 -805.572327
-0.117200 48.057999 -806.816406
-4.860700 45.604198 -807.208496
-2.207800 44.255402 -811.017029
-3.062100 42.939098 -811.770996
4.974800 44.761398 -814.784119
-2.307900 41.614899 -814.351013
-6.087000 50.559601 -800.274719
-4.511600 49.381001 -802.179871
-2.848000 49.590900 -803.237122
-1.205900 50.391201 -803.057129
1.018900 47.819698 -808.038208
2.821600 50.254799 -804.803711
3.902700 50.428299 -806.387085
3.871000 51.653500 -805.054626
5.556300 50.681198 -807.321899
4.531200 46.739601 -811.930176
-2.669100 42.911900 -809.714783
-13.555900 46.057899 -804.353088
-8.137200 47.994499 -802.046875
-11.829800 46.176399 -804.610229
-17.206301 43.396000 -808.200806
-12.718000 45.486099 -805.901672
-10.064100 46.532398 -804.588074
-7.985400 47.234798 -803.587585
-10.975000 45.687401 -806.123718
-17.002600 42.493401 -809.697021
-15.670300 43.400200 -808.953186
-13.069500 44.566502 -807.645874
-8.524000 46.244400 -805.447083
-11.353300 44.762100 -807.783325
-9.487700 45.289600 -806.922974
-6.844200 46.532398 -805.585693
-14.016600 43.556301 -809.398926
-5.173300 47.473499 -804.989014
-15.508900 42.484501 -810.466614
-16.748301 41.736000 -811.393677
-12.295900 43.875801 -809.146118
-7.786900 45.605900 -806.973328
-9.649000 44.269001 -808.396423
1.626100 52.752499 -802.467285
-15.128500 41.853298 -811.992188
-13.709700 42.552700 -811.274475
-10.909500 43.408600 -809.981873
-7.962300 44.672199 -808.535828
-4.170300 46.996201 -806.510010
-0.861500 49.734100 -804.574280
-6.415500 45.252800 -808.129883
-15.980900 40.721100 -813.298279
-11.998000 42.754799 -811.275024
-9.179300 43.501701 -810.006104
-2.591900 47.395100 -806.971985
0.703100 50.171299 -805.047485
-14.308600 41.159100 -813.375122
-12.886100 41.863499 -812.662109
-10.360700 42.400200 -811.563110
-7.503100 43.893799 -810.112183
-3.525800 46.292702 -808.017700
-5.887400 44.407501 -809.827881
-15.452200 39.792198 -815.050171
-11.248200 41.606602 -813.009277
-8.657900 42.734200 -811.749390
0.974200 49.354099 -806.496277
-12.872000 40.915501 -814.245117
-2.012000 46.439899 -808.788818
-9.522200 41.729198 -813.211182
-6.946600 43.029701 -811.921570
-0.550300 47.361900 -808.461487
-13.863500 39.939301 -815.677429
-5.364600 43.559399 -811.583923
2.555300 49.658699 -807.132629
-11.358800 40.650398 -814.929688
-7.879700 42.089500 -813.267029
-1.405800 45.613201 -810.356323
-13.910800 38.241699 -817.209778
-9.675200 40.769901 -815.012817
-5.716400 42.757401 -813.046570
0.065200 46.508099 -809.978027
2.351700 48.706600 -808.598328
-12.730900 39.409199 -816.867310
3.830000 49.477699 -808.245483
-11.128800 39.865200 -816.521973
-8.011700 41.057701 -815.064697
-6.603300 41.713001 -814.379272
1.550100 47.423100 -809.966370
-4.120700 42.727200 -813.614075
-0.852900 44.668598 -811.927979
-12.693500 38.391701 -818.364624
-9.440500 40.168999 -816.724609
-2.497600 43.226200 -813.394897
0.754000 45.338902 -811.677612
3.186200 47.901199 -810.165283
-11.065300 38.820801 -818.201477
-7.688300 40.242901 -816.597778
-6.270900 41.017700 -815.883118
-4.774800 41.597099 -815.184326
2.055900 46.456799 -811.479187
-9.389400 38.998199 -818.105225
-0.912600 43.643600 -813.830383
0.405900 44.449902 -813.145996
-11.588300 37.581200 -819.867310
-3.220900 41.466000 -815.814880
2.000500 45.110298 -813.001770
-9.918500 37.911499 -819.763184
-7.808600 38.939602 -818.731384
-6.362500 39.555901 -818.044800
-4.912700 40.310398 -817.324585
-1.166200 42.632999 -815.376526
0.352900 43.423801 -815.248474
1.830500 44.084999 -814.540527
-8.482100 37.484798 -820.583496
-6.351700 38.644501 -819.515076
-3.523700 39.862301 -818.172119
-2.345700 40.927101 -817.482178
-4.617300 38.994999 -819.440796
-0.569100 41.787102 -817.274414
3.398900 44.238400 -815.217896
-6.990000 37.327202 -821.349487
0.952100 42.546902 -817.165588
2.250200 43.389198 -816.484497
6.730200 47.374802 -813.879822
-5.296200 37.778000 -821.177979
-2.558600 39.374199 -819.785522
-1.361400 40.429901 -819.092529
-7.391100 36.436600 -822.818481
0.655200 41.420502 -818.661926
3.855000 43.527302 -816.979492
-5.760800 36.908001 -822.624512
2.290000 42.094501 -818.421814
-4.052900 37.384399 -822.371826
-2.356100 38.553902 -821.468323
-1.111700 39.565201 -820.769409
-6.013900 35.902199 -823.948914
3.833600 42.716202 -818.699707
1.974200 41.082901 -820.275879
-4.412500 36.367199 -824.214600
-2.838600 37.013901 -823.481812
-0.917800 38.868900 -822.335022
3.600700 41.721001 -820.411377
-1.392100 37.926998 -823.792175
-2.936600 36.232399 -825.029175
0.570400 39.395802 -822.987183
3.041700 40.832100 -821.737122
5.069700 41.852299 -821.330078
-1.440200 36.836102 -825.502380
0.007700 38.421700 -824.591675
4.509800 40.949200 -822.636780
1.589800 39.105202 -824.444519
3.239100 40.234501 -823.569214
-0.112700 37.502499 -826.319824
1.408800 38.215698 -826.281616
2.985000 39.160801 -825.478516
4.622300 40.440498 -824.572083
-0.134400 36.332401 -827.577271
7.489000 41.373901 -823.815674
1.283800 37.262100 -827.915222
2.928000 38.393700 -827.041626
4.455000 39.528099 -826.210083
6.137100 39.757900 -826.510986
1.783400 36.317600 -829.237915
2.911700 37.480202 -828.545776
4.477800 38.322498 -827.773804
6.073000 38.772800 -828.188416
7.599200 39.452099 -827.602905
3.283600 36.477402 -830.052490
4.484800 37.571301 -829.346191
6.141800 37.713299 -829.673584
7.536400 38.363800 -828.999023
4.829500 36.652901 -830.740173
-4.475000 35.853901 -825.939087
106.077698 153.245300 -704.356628
106.491302 153.883102 -705.919189
106.439903 154.335907 -707.598083
106.389503 154.828796 -709.268188
105.004402 152.776703 -705.916626
105.008301 153.463806 -707.466309
105.922897 155.375793 -710.797424
104.837097 154.008301 -709.700012
103.427101 151.407394 -706.277100
105.120201 155.560303 -712.320313
100.603897 145.481705 -697.910278
101.019997 145.809998 -699.606384
101.558601 146.999603 -701.573120
103.380302 152.121597 -707.894775
105.520599 158.050201 -715.349121
106.822998 161.157303 -720.034790
99.611702 143.837708 -696.218628
101.473297 147.881805 -703.047607
103.316704 152.921097 -709.500610
103.870300 154.484299 -711.424072
104.542099 155.979004 -713.877625
98.256699 143.220093 -692.709778
98.643303 143.212494 -694.383423
101.389099 148.480301 -704.686523
102.190903 150.472900 -707.559875
104.872902 157.976593 -716.922424
106.155701 160.990997 -721.570984
97.090302 141.936600 -690.334778
98.964401 144.449600 -697.692017
99.386497 145.225693 -699.286926
99.779900 145.993103 -700.760071
101.269897 149.035599 -706.299988
102.650497 153.143707 -711.051270
103.213097 154.867203 -712.972412
103.884003 156.428101 -715.410278
105.113998 159.645203 -719.774719
96.203697 141.559494 -688.916687
97.957298 143.663498 -695.880188
99.660599 146.524200 -702.402222
100.063599 147.454803 -703.870483
101.535698 151.554993 -709.026428
104.125702 157.574402 -718.450378
96.388000 142.478394 -691.813416
96.860199 143.151199 -693.658203
100.570801 149.644104 -707.799988
101.926697 153.639206 -712.488892
102.499603 155.294296 -714.479980
103.154900 156.997498 -716.813171
104.408897 159.594803 -721.473511
94.856598 141.370697 -687.769714
97.264297 144.001907 -697.419617
97.670799 144.626495 -698.995605
98.057297 145.544006 -700.398621
99.377098 148.019608 -705.384216
100.836304 152.135300 -710.490417
104.292801 160.159607 -723.093384
94.866501 141.874298 -689.897705
96.220596 143.542206 -695.264221
97.964302 146.278107 -702.002075
98.353699 147.063004 -703.455872
99.271698 148.735199 -706.935791
99.909401 150.064301 -709.303711
101.267502 154.207901 -713.962219
101.838203 155.642303 -716.009521
102.486801 157.067001 -718.396729
102.890404 157.470795 -720.023376
95.121101 142.766403 -692.925903
100.230202 152.678802 -712.116577
102.783897 158.244400 -721.530396
94.255699 142.412796 -691.479980
95.601700 143.864502 -696.871216
96.014297 144.304306 -698.525513
96.435402 145.075806 -700.119629
97.724899 147.648193 -704.941223
98.639603 149.351593 -708.396606
99.267502 151.111603 -710.596191
101.216400 156.362503 -717.486206
94.566002 143.193695 -694.513489
99.655502 153.313202 -713.572388
100.109901 154.397903 -715.221619
101.301003 156.998093 -719.614502
93.008598 141.771301 -689.933105
95.988800 145.730392 -701.679871
96.396202 146.448196 -703.234680
97.260597 148.258804 -706.451172
100.094200 155.344406 -716.661621
101.745399 158.472595 -722.900513
93.369499 142.684006 -692.942993
97.833702 150.173294 -710.127686
98.353104 151.591599 -711.969482
100.883904 157.598099 -721.205078
93.680199 144.016495 -695.708374
94.151398 144.332504 -697.661926
94.564102 144.805206 -699.316406
95.962196 147.286896 -704.668274
96.853798 149.003693 -708.042603
99.650497 156.066406 -718.145020
92.187103 142.312607 -691.499023
97.900497 152.454102 -713.382874
98.268799 153.569305 -714.661377
98.662903 154.517395 -716.099426
92.552200 143.258102 -694.309082
94.210899 145.400696 -700.902710
94.662300 146.083694 -702.668518
95.589104 148.053101 -706.132202
99.294601 156.722504 -719.752930
100.043602 157.984802 -722.646423
100.447998 158.502899 -724.255005
96.166199 149.824097 -709.469788
96.614799 150.724594 -711.167175
94.414200 146.832199 -704.196899
98.035202 155.176300 -717.633179
99.025101 157.204300 -721.378723
100.150597 159.366898 -725.676575
91.861504 144.049301 -695.646484
92.260101 144.388397 -697.292603
92.670403 144.861694 -698.952026
94.901100 148.587296 -707.646973
96.227600 151.593903 -712.594116
97.120300 153.888901 -715.846313
90.941299 143.286896 -693.766724
92.997200 145.907593 -702.020386
93.946404 147.661301 -705.677124
96.188599 152.675293 -714.068115
97.572998 155.765305 -719.250916
98.744598 158.069305 -723.724670
101.632202 167.861801 -733.586670
102.004997 167.762802 -735.245728
92.259804 145.538498 -700.549072
94.450302 149.575302 -709.012085
94.831100 150.487198 -710.423706
97.573898 156.699997 -720.693115
92.679001 146.533096 -703.626770
96.276802 154.641998 -717.137207
97.643402 157.377808 -722.366089
98.392197 158.565399 -725.318787
101.515297 166.950897 -736.668518
90.215401 143.602493 -695.266113
90.614304 144.171295 -696.861084
91.015099 144.786804 -698.450928
93.213097 148.477005 -707.083008
94.493202 151.250397 -711.935791
95.432701 153.330597 -715.484497
100.572098 166.728607 -734.332397
92.271599 147.561005 -705.044373
94.475403 152.182495 -713.450073
95.846802 155.378693 -718.591980
99.765297 166.856201 -732.630127
90.519897 145.056000 -700.108521
90.918297 145.707794 -701.680908
92.684998 149.280106 -708.464417
93.068802 150.221100 -709.892578
95.779800 156.027298 -720.211487
96.169403 156.876999 -721.690430
96.689400 157.815399 -723.718323
97.433403 159.021805 -726.657471
99.845497 165.669296 -735.428589
100.347603 166.028305 -737.538574
90.765800 146.391495 -703.244873
91.617897 148.190002 -706.497681
93.797997 152.979004 -714.767883
94.258499 153.977493 -716.518311
96.528702 158.443604 -725.273987
98.796303 165.632004 -733.266724
88.647499 144.190994 -696.870117
89.032898 144.661499 -698.438416
90.629700 147.142105 -704.790894
92.353401 150.830505 -711.369995
92.752197 151.769196 -712.869019
94.098396 154.844696 -717.953430
96.690300 159.733505 -728.027588
98.973701 164.912796 -736.662720
89.267799 145.450104 -701.243713
90.960297 149.194702 -707.703979
91.370697 149.935394 -709.316528
94.014900 155.697006 -719.434021
94.456299 156.386993 -721.197327
94.859100 157.177902 -722.762512
96.606499 160.453003 -729.594177
97.938599 164.600693 -734.350525
92.199600 152.642395 -714.302490
92.609802 153.336304 -715.937012
94.773804 157.886505 -724.315308
95.296898 158.736404 -726.408813
96.509903 161.028000 -731.176025
97.098602 163.820404 -733.030518
88.090698 145.055801 -699.848389
88.792603 146.229797 -702.668884
89.607697 147.967300 -705.841919
92.587799 154.242004 -717.465210
97.312599 164.186005 -735.894409
97.690804 164.190201 -737.585327
88.911598 146.977493 -704.209473
90.566803 150.729095 -710.664307
90.941200 151.472900 -712.152771
94.926598 159.353104 -728.007385
92.469398 155.096695 -718.937622
95.856697 161.636398 -732.622314
96.390404 163.540100 -734.542725
92.744202 156.160095 -720.443604
93.164101 156.571701 -722.273926
94.943199 160.090607 -729.551392
89.724602 149.686707 -708.801392
93.819901 158.317307 -725.662720
97.049500 164.451996 -739.139893
87.589600 145.768402 -701.328613
89.010002 148.830505 -707.210693
90.560402 152.306000 -713.594482
90.995903 153.314194 -715.379517
93.004799 157.347000 -723.778198
94.763397 160.775208 -731.158203
90.860100 154.034195 -717.001709
93.283798 158.742905 -727.199097
94.912804 162.197098 -733.974915
95.377502 163.328506 -735.868225
95.745796 163.513107 -737.560730
86.815002 146.526398 -702.652283
87.183701 147.209198 -704.215820
87.555702 147.960495 -705.775879
88.564796 150.419403 -709.894714
88.937401 151.091904 -711.479004
90.650398 154.698196 -718.624512
91.024803 155.377899 -720.215576
91.383598 156.156403 -721.705688
92.230698 157.745605 -725.291504
93.057503 159.279800 -728.795898
93.417397 160.053497 -730.292786
93.965302 161.134293 -732.598022
87.319801 148.789307 -707.340576
88.690697 152.003006 -712.983582
89.068100 152.826904 -714.553284
89.439301 153.621597 -716.101685
91.125504 156.803497 -723.251282
94.003197 162.479401 -735.385681
94.845398 163.784805 -739.033325
87.114799 149.595200 -708.865479
89.244102 154.166504 -717.776917
91.338501 158.202103 -726.666626
92.521103 160.405197 -731.706421
93.057602 161.419495 -733.989319
93.776100 162.779404 -737.044983
85.715401 147.663605 -704.914673
87.085503 150.569397 -710.692505
89.148003 155.017700 -719.370605
89.517097 155.714600 -720.950195
90.395599 157.304398 -724.728271
91.214401 158.837296 -728.236328
91.578300 159.428894 -729.819092
85.661903 148.455597 -706.398621
87.034203 151.415894 -712.214417
87.484497 152.449402 -714.106384
87.850197 153.243698 -715.654907
89.457603 156.477005 -722.529419
93.170403 163.233795 -738.596191
93.511398 164.143204 -739.995483
85.541100 149.174500 -707.936584
91.329102 160.572495 -732.935181
91.856102 161.653000 -735.200012
85.411903 149.833603 -709.966125
87.087402 153.733994 -717.092712
87.434700 154.695404 -718.529907
87.846001 155.520905 -720.313721
88.687798 157.080505 -723.999023
89.072197 157.689697 -725.708496
89.435204 158.308807 -727.311584
89.862701 158.801193 -729.261780
90.229797 159.584305 -730.841797
91.603897 162.250793 -736.825928
85.127800 150.459900 -711.524170
85.461304 151.599503 -712.856201
85.822701 152.391602 -714.416321
87.549896 156.216904 -721.860229
90.344597 160.955002 -734.286072
91.291901 162.954605 -738.394775
91.634697 163.782196 -739.854492
85.482697 153.294800 -715.813782
89.150497 159.774994 -732.118530
90.011597 161.374405 -735.925903
83.209503 149.615097 -708.718506
83.573997 149.895294 -710.443420
85.199203 154.017197 -717.377625
85.561203 154.739700 -718.973816
85.909897 155.587204 -720.471313
86.499802 156.691406 -723.091187
86.826500 157.622101 -724.458618
87.189003 158.297607 -726.069275
87.535400 158.768295 -727.654480
87.895302 159.195908 -729.317871
88.859200 160.266800 -733.791870
89.705200 162.133698 -737.475098
83.314201 150.953094 -711.798584
83.620697 152.064194 -713.024902
83.972198 152.801102 -714.571777
87.636002 159.722000 -730.896179
81.777603 149.767502 -707.593018
83.685699 153.511505 -716.113220
84.974098 156.071106 -721.857910
87.331001 160.094101 -732.541382
87.887901 160.682907 -735.161621
81.402603 149.807602 -709.311279
81.753799 150.712296 -710.827393
83.300797 154.185303 -717.644409
83.650902 154.822403 -719.226685
84.580498 156.850800 -723.338623
84.940903 157.533005 -724.960571
85.296501 158.189804 -726.565308
85.654999 158.653397 -728.236694
86.001900 159.260605 -729.811401
87.481697 160.899704 -736.783630
80.209602 150.008194 -706.603821
81.396698 151.796600 -712.080872
81.721100 152.706100 -713.464172
82.066902 153.205704 -715.065430
83.327599 155.413101 -720.799377
85.682098 159.735306 -731.453979
86.186600 160.389297 -733.810303
80.014603 149.807404 -708.333496
81.890800 153.740707 -716.722473
83.149300 156.145706 -722.411682
85.998001 160.636597 -735.545227
86.559799 161.202499 -738.220886
79.870796 150.986893 -709.755005
81.736000 154.475693 -718.261780
83.000198 156.728897 -724.057678
83.336304 157.410400 -725.576416
83.683998 158.035400 -727.168884
84.027802 158.642502 -728.746704
84.383904 159.201401 -730.399475
78.541199 149.990494 -705.655273
79.729202 151.826797 -711.226379
80.115601 152.409607 -713.042480
80.452904 152.885406 -714.637024
81.598801 154.845901 -719.960327
84.297302 159.690903 -732.435913
85.266197 161.091400 -737.005981
78.460503 150.087296 -707.405212
81.501602 155.443695 -721.630493
84.169098 159.974594 -734.152222
85.241699 161.330200 -739.311523
79.923103 153.647797 -716.153870
81.423798 156.074493 -723.295410
84.059303 160.555695 -735.779175
77.949303 150.768799 -708.861328
78.275398 151.609299 -710.343811
80.097397 154.617905 -719.065613
81.317802 156.735199 -724.881287
81.647797 157.257904 -726.466919
81.976700 157.801697 -728.041077
82.320503 158.343307 -729.693970
82.646400 158.916199 -731.244812
84.629204 161.777695 -740.843872
76.765297 150.215805 -705.299805
78.132500 152.333405 -711.925171
78.474098 152.767303 -713.604919
79.940804 154.770401 -720.781372
82.474197 159.419403 -732.872070
83.391998 160.806305 -737.328613
76.566803 150.475296 -707.008972
78.777100 153.961304 -717.792480
79.714302 155.356995 -722.385986
82.220398 159.949295 -734.448730
83.139999 160.921494 -739.057678
76.545700 151.080399 -709.738892
78.528603 154.113403 -719.494507
79.468498 156.034698 -723.995117
79.792198 156.546295 -725.583618
80.145302 157.315308 -727.262329
80.473801 158.005295 -728.830627
80.794899 158.607803 -730.382080
81.954597 160.261993 -736.118408
82.876198 161.152695 -740.784485
83.203400 161.782394 -742.361511
77.440201 154.130493 -716.491028
80.590401 158.994598 -732.039429
81.740898 160.326904 -737.830322
77.802597 154.699799 -720.932373
80.414200 159.501099 -733.674622
81.558998 160.554092 -739.522522
76.779099 153.983002 -718.048828
77.668198 155.482605 -722.439697
78.519501 156.931503 -726.640625
78.869904 157.782806 -728.306519
79.185600 158.354401 -729.856323
80.286301 159.723099 -735.413025
81.571198 161.321594 -741.899414
77.625198 156.156006 -724.086121
80.215599 159.846893 -737.126526
