66.931503 29.620501 -766.955627
66.683296 29.523600 -767.193970
66.443199 29.465099 -767.440979
66.195999 29.375999 -767.681824
65.955498 29.317600 -767.929321
65.719498 29.280300 -768.181519
65.471901 29.193199 -768.423584
65.068100 29.023100 -768.805725
64.820099 28.938299 -769.049316
64.560501 28.805401 -769.283875
64.326103 28.780800 -769.540100
64.096298 28.775499 -769.800171
63.858700 28.738400 -770.054199
63.614101 28.672899 -770.303223
63.366699 28.597500 -770.550476
63.115898 28.509600 -770.796021
62.862000 28.410200 -771.039673
62.609100 28.317101 -771.285095
61.802799 28.039801 -772.076782
61.549198 27.949600 -772.324524
61.297100 27.866899 -772.573914
61.037498 27.757099 -772.819214
60.763302 27.593500 -773.056274
65.120499 29.163401 -768.386230
62.265598 28.331699 -771.259705
62.018700 28.264400 -771.510376
61.759201 28.148899 -771.752930
67.383102 29.603600 -765.610413
67.244904 29.807899 -765.864075
67.027100 29.849701 -766.132813
66.799004 29.843500 -766.390686
66.559303 29.783899 -766.636902
66.303398 29.651800 -766.867676
66.060898 29.582100 -767.112427
65.818398 29.513399 -767.357483
65.576797 29.449800 -767.604126
65.334396 29.384100 -767.850525
64.779701 29.150400 -768.375427
64.537201 29.088499 -768.623718
64.283501 28.979799 -768.862915
64.033600 28.888599 -769.106079
63.797699 28.857800 -769.361389
63.569698 28.860399 -769.623291
63.332600 28.825199 -769.877991
63.086601 28.754700 -770.126282
62.837700 28.673599 -770.372925
62.577801 28.549299 -770.611877
62.331001 28.479401 -770.861511
61.368099 28.127399 -771.797791
61.121101 28.063000 -772.049988
60.860298 27.946899 -772.293884
60.610901 27.876101 -772.546021
60.367599 27.654800 -772.720581
64.996300 29.358999 -767.887695
61.947399 28.467600 -770.957214
61.691299 28.363400 -771.201294
61.432098 28.248600 -771.443970
66.976501 29.818199 -765.470520
66.776901 29.945900 -765.758789
66.552399 29.955900 -766.020325
66.309502 29.881800 -766.263184
66.067596 29.813200 -766.507629
65.819199 29.716700 -766.746216
65.579399 29.659800 -766.993774
65.329903 29.561199 -767.232727
65.086800 29.492001 -767.478210
64.645897 29.356300 -767.918518
64.404297 29.297001 -768.166870
64.154404 29.203199 -768.408630
63.895802 29.073999 -768.643677
63.637100 28.946699 -768.879578
63.407600 28.943001 -769.140320
63.177101 28.935200 -769.400330
62.935501 28.882299 -769.651672
62.693501 28.828300 -769.903076
62.438202 28.722099 -770.145020
62.190300 28.646999 -770.393188
61.073898 28.231800 -771.474670
60.820900 28.144300 -771.722778
60.574902 28.084900 -771.976318
60.322701 28.002800 -772.226074
60.042198 27.815901 -772.458984
64.747498 29.482300 -767.534485
61.851101 28.642700 -770.453186
61.598999 28.552700 -770.699280
61.333000 28.409599 -770.936218
66.719101 29.795500 -765.212891
66.582100 30.003700 -765.467896
66.361504 30.031300 -765.733398
66.124397 29.982300 -765.981812
65.877502 29.889700 -766.220581
65.638496 29.834499 -766.468079
65.389702 29.735701 -766.706421
65.148201 29.671400 -766.952515
64.894501 29.554001 -767.187622
64.407700 29.414600 -767.679077
64.162903 29.340700 -767.924377
63.921700 29.283501 -768.173401
63.613701 29.137199 -768.456970
63.347801 28.979099 -768.686829
63.118000 28.973600 -768.947205
62.896301 29.001301 -769.214111
62.659000 28.965300 -769.468689
62.409401 28.879601 -769.714111
62.166801 28.823999 -769.965393
60.989101 28.338100 -771.084412
60.748199 28.295601 -771.340088
60.499699 28.225100 -771.591187
60.253899 28.165501 -771.844482
59.991402 28.044100 -772.087708
59.743198 27.978300 -772.340820
64.516197 29.553301 -767.295288
61.818901 28.768900 -770.008179
61.575100 28.710100 -770.259216
61.310299 28.569300 -770.495422
61.060699 28.490499 -770.743530
66.446503 30.007099 -765.127686
66.231201 30.060699 -765.398621
66.004898 30.062300 -765.657410
65.775497 30.050301 -765.913330
65.525101 29.942600 -766.147888
65.278397 29.853300 -766.387085
65.034500 29.778099 -766.629822
64.786301 29.684799 -766.868774
64.048599 29.444401 -767.596497
63.808701 29.392300 -767.845520
63.561901 29.312401 -768.089111
63.253300 29.165300 -768.371582
63.004200 29.078400 -768.614685
62.772598 29.065901 -768.872925
62.536400 29.034700 -769.127380
62.305599 29.025900 -769.386475
62.051201 28.921900 -769.627502
60.684799 28.416901 -770.947327
60.435001 28.341000 -771.196228
60.195099 28.304001 -771.452393
59.947399 28.237900 -771.703674
59.691799 28.143299 -771.950378
64.415901 29.683100 -766.894592
64.181503 29.655001 -767.146912
61.673302 28.924999 -769.642822
61.418999 28.826300 -769.884216
61.163200 28.723700 -770.125427
60.916698 28.659000 -770.374023
60.660999 28.559601 -770.616577
59.323002 28.129700 -771.929077
66.165497 29.994499 -764.895386
65.965500 30.123600 -765.182312
65.749298 30.175400 -765.451111
65.515297 30.144501 -765.700928
65.267601 30.052099 -765.937073
65.021004 29.966499 -766.175110
64.777000 29.893400 -766.416321
63.834301 29.559500 -767.323486
63.590500 29.493601 -767.567688
63.342499 29.410700 -767.808777
63.090302 29.311800 -768.046875
62.826099 29.163700 -768.275391
62.586700 29.121401 -768.525818
62.363701 29.147400 -768.790100
62.132000 29.137699 -769.047180
61.879200 29.042200 -769.287720
60.314800 28.496700 -770.797180
60.072899 28.454100 -771.050415
59.823700 28.384100 -771.298889
59.576900 28.324900 -771.549622
64.471901 29.805500 -766.572510
64.085098 29.713699 -766.821228
61.334599 28.961399 -769.549927
61.073502 28.839100 -769.784973
60.821800 28.756100 -770.028015
60.569099 28.670300 -770.270874
59.223400 28.303499 -771.606384
65.858299 30.128700 -764.808716
65.635399 30.152800 -765.070129
65.419197 30.206800 -765.338196
65.186600 30.185101 -765.588928
64.943100 30.114401 -765.828613
64.694397 30.021400 -766.063599
63.754200 29.702499 -766.967712
63.504700 29.613199 -767.205322
63.258900 29.540800 -767.446777
63.006699 29.442699 -767.683289
62.748299 29.319599 -767.915100
62.493500 29.213900 -768.150879
62.261902 29.206100 -768.406982
62.034698 29.216801 -768.666992
61.790901 29.159300 -768.913330
61.536098 29.058599 -769.151611
60.223801 28.609800 -770.411377
59.981800 28.567600 -770.663086
59.733799 28.503500 -770.911011
59.492500 28.466400 -771.164124
64.324699 29.954700 -766.193970
64.069801 29.836599 -766.424377
60.474098 28.817600 -769.978516
58.854698 28.283400 -771.543579
65.578102 30.105499 -764.550293
65.373398 30.214300 -764.831726
65.158798 30.275400 -765.101685
64.928802 30.265499 -765.355225
64.686302 30.199200 -765.596008
64.436996 30.103100 -765.830383
63.731400 29.809401 -766.483276
63.491798 29.761499 -766.729614
63.242001 29.670500 -766.966980
62.997398 29.603201 -767.209717
62.738400 29.476000 -767.440186
62.483398 29.367599 -767.675110
62.224499 29.244900 -767.907471
61.990501 29.227100 -768.161926
61.769001 29.261200 -768.426819
61.531101 29.227800 -768.677979
61.281601 29.148399 -768.920471
61.032902 29.073200 -769.164124
60.785500 29.004900 -769.409424
60.531799 28.912500 -769.650513
60.122799 28.755600 -770.035278
59.870098 28.671200 -770.278992
59.637299 28.664600 -770.537292
59.398499 28.635799 -770.791687
59.146702 28.557699 -771.037415
64.081200 30.084700 -765.852600
63.825901 29.964800 -766.082397
60.177399 28.914000 -769.681396
58.792400 28.563999 -771.070923
65.131104 30.148100 -764.399292
64.938698 30.314100 -764.694275
64.714104 30.329100 -764.953918
64.484200 30.320000 -765.207825
64.242699 30.258801 -765.449890
63.484402 29.932100 -766.146179
63.244202 29.881399 -766.392029
62.987598 29.760401 -766.622681
62.739700 29.679199 -766.862427
62.485699 29.573000 -767.097229
62.237701 29.494101 -767.338318
61.970100 29.334700 -767.562927
61.732101 29.300301 -767.814026
61.507401 29.321301 -768.076416
61.271198 29.295099 -768.329285
61.025902 29.232700 -768.575073
60.774799 29.147600 -768.816772
60.532398 29.099001 -769.065918
60.278702 29.006399 -769.306824
59.827801 28.866199 -769.746582
59.583302 28.813299 -769.996094
59.341099 28.770201 -770.247681
59.108700 28.765499 -770.506470
58.858398 28.693001 -770.753174
58.436298 28.498400 -771.134705
63.896702 30.176399 -765.554382
63.646801 30.080500 -765.789429
59.937099 28.967100 -769.424988
64.794601 30.285000 -764.317200
64.586304 30.377800 -764.595093
64.367302 30.419600 -764.860779
64.123199 30.346399 -765.099915
63.178299 30.003300 -765.996704
62.927101 29.905600 -766.231873
62.671101 29.788200 -766.463318
62.416801 29.680300 -766.697327
62.171600 29.613001 -766.940308
61.911400 29.483299 -767.170471
61.659100 29.389000 -767.408630
61.412399 29.319401 -767.652283
61.187901 29.342300 -767.915222
60.951801 29.317699 -768.168396
60.701500 29.235701 -768.410217
60.459999 29.190701 -768.659729
60.207699 29.103300 -768.901184
59.519600 28.937901 -769.594482
59.269501 28.864100 -769.840027
59.028599 28.826799 -770.092529
58.790901 28.802200 -770.347717
58.546001 28.751101 -770.598083
58.296101 28.682199 -770.845581
63.747501 30.341900 -765.219971
63.502102 30.265200 -765.458618
63.248001 30.151100 -765.689087
59.865299 29.064199 -768.963196
59.620998 29.011101 -769.211792
64.656197 30.192101 -763.937683
64.471603 30.398600 -764.242981
64.271004 30.527201 -764.529175
64.039101 30.509600 -764.780579
62.844501 30.069500 -765.908630
62.578602 29.907301 -766.129089
62.328999 29.818701 -766.366394
62.070999 29.695601 -766.596619
61.819698 29.602699 -766.833801
61.570099 29.518700 -767.073303
61.301800 29.357500 -767.296875
61.068298 29.343901 -767.551880
60.839901 29.351500 -767.811523
60.604599 29.330999 -768.065186
60.352600 29.242701 -768.305420
60.115200 29.214899 -768.558105
59.178902 28.980200 -769.494995
58.938999 28.946501 -769.747620
58.691399 28.883499 -769.994873
58.459400 28.881500 -770.253723
58.219002 28.847601 -770.506897
57.941700 28.674601 -770.734985
63.664700 30.514000 -764.871216
63.413700 30.410999 -765.102417
63.150200 30.252701 -765.321411
62.904099 30.175100 -765.559326
59.775299 29.185499 -768.583008
59.529400 29.125200 -768.828979
59.284199 29.068701 -769.075989
64.252701 30.457300 -763.936707
64.099800 30.644501 -764.196777
63.872398 30.648399 -764.452515
62.568802 30.125500 -765.658325
62.302299 29.960300 -765.877014
62.047600 29.849001 -766.108215
61.791000 29.731400 -766.338623
61.551701 29.690800 -766.586182
61.287498 29.544001 -766.811218
61.027100 29.415501 -767.040588
60.787899 29.378599 -767.289978
60.565601 29.412800 -767.554504
60.322800 29.361300 -767.801025
60.085499 29.333900 -768.052795
58.953800 29.053600 -769.182617
58.712502 29.014400 -769.433228
58.471600 28.977301 -769.684387
58.238300 28.970301 -769.941528
57.999298 28.941700 -770.194702
57.749500 28.872499 -770.440613
59.770401 29.299000 -768.185730
63.514999 30.720100 -764.522583
63.248699 30.543800 -764.735596
62.987801 30.395000 -764.955688
62.736000 30.289900 -765.186584
59.463402 29.261000 -768.347717
59.216801 29.197599 -768.592590
58.968300 29.127001 -768.836304
63.911999 30.687700 -763.908813
63.712299 30.822500 -764.195923
62.386101 30.187300 -765.372070
62.131199 30.071800 -765.601318
61.870201 29.931299 -765.825378
61.612202 29.805901 -766.053406
61.362400 29.718599 -766.290283
61.112400 29.631800 -766.527771
60.841999 29.459200 -766.747009
60.596600 29.395399 -766.990295
60.369301 29.409000 -767.250305
60.141998 29.422501 -767.510315
59.900902 29.378500 -767.758179
58.629501 29.091600 -769.039490
58.386501 29.045401 -769.288513
58.150002 29.025299 -769.542725
57.917198 29.020500 -769.799988
57.671001 28.963800 -770.047485
59.569599 29.368799 -767.904724
63.362900 30.886900 -764.245422
63.097301 30.711000 -764.457275
62.838699 30.570601 -764.678223
62.578800 30.426500 -764.898926
59.250801 29.344200 -768.087524
58.998501 29.256599 -768.326477
58.752602 29.196199 -768.571472
57.371799 29.140400 -770.081726
63.664299 30.848000 -763.702515
62.266701 30.298000 -764.995422
62.012199 30.182600 -765.223572
61.756100 30.061701 -765.450989
61.493401 29.913401 -765.672729
61.237701 29.798401 -765.902405
60.991402 29.726601 -766.142212
60.736099 29.616800 -766.374023
60.470100 29.462799 -766.596619
60.237999 29.456301 -766.851624
60.022099 29.518299 -767.121521
59.780300 29.470600 -767.367676
58.410999 29.156799 -768.741821
58.171101 29.122200 -768.992188
57.934700 29.102600 -769.245789
57.706600 29.115700 -769.505920
57.467300 29.085199 -769.757629
63.449100 31.044201 -763.908508
59.469601 29.439800 -767.569824
63.078400 31.082399 -763.977722
62.805500 30.869600 -764.178894
62.532902 30.661400 -764.382019
62.266499 30.485500 -764.593628
61.950001 30.293301 -764.852905
61.691299 30.158400 -765.075623
61.436100 30.042101 -765.303101
61.174500 29.898899 -765.525024
60.927299 29.821699 -765.762329
60.674999 29.723400 -765.995178
60.409698 29.570299 -766.216370
60.121601 29.520500 -766.512024
59.887901 29.506599 -766.764587
59.661999 29.526600 -767.024475
59.089600 29.447500 -767.621277
58.841900 29.377199 -767.862488
58.594501 29.309401 -768.104492
58.343601 29.228500 -768.344177
58.096199 29.163000 -768.587280
57.861599 29.149900 -768.841187
57.627899 29.141300 -769.096008
57.395802 29.138901 -769.352173
57.157799 29.113199 -769.603882
56.909698 29.027399 -769.838013
63.162701 31.104000 -763.434082
62.748100 31.083200 -763.883423
62.473598 30.863400 -764.082520
62.191200 30.610300 -764.274414
61.931099 30.464701 -764.492981
61.613400 30.267599 -764.750671
61.357800 30.148199 -764.976685
61.099998 30.020300 -765.201294
60.841099 29.890200 -765.425781
60.593700 29.812700 -765.662781
60.346600 29.737700 -765.900818
60.075199 29.558500 -766.115723
59.294399 29.571800 -766.986572
59.056198 29.539499 -767.234985
58.267601 29.332300 -768.009399
58.016399 29.250099 -768.248413
56.830101 29.134199 -769.506714
62.842701 31.244499 -763.383972
62.431099 31.019400 -763.731812
62.159199 30.812599 -763.933716
61.882999 30.589300 -764.132385
61.575401 30.436899 -764.399719
61.262699 30.263500 -764.662781
61.003502 30.128000 -764.884705
60.750599 30.023100 -765.114380
60.492001 29.894600 -765.338928
60.236500 29.781700 -765.567627
59.984600 29.686501 -765.800781
59.728699 29.575500 -766.030823
59.498600 29.577600 -766.286377
59.279400 29.626400 -766.552185
58.950500 29.600500 -766.903687
58.712002 29.567101 -767.151611
58.465698 29.502001 -767.392883
58.216999 29.427601 -767.632507
57.917702 29.336800 -767.920227
57.673698 29.284500 -768.165222
57.438599 29.269100 -768.417786
57.208900 29.275400 -768.674988
56.972301 29.254601 -768.926880
56.728298 29.205000 -769.173096
62.492401 31.229200 -763.439880
56.347500 29.140800 -769.225830
62.144100 30.996300 -763.496216
61.892502 30.886999 -763.721191
61.659401 30.650801 -763.865112
61.401299 30.515600 -764.084900
61.142601 30.379700 -764.305115
60.872700 30.194901 -764.513977
60.624100 30.109900 -764.747375
60.366699 29.986601 -764.972229
60.116600 29.897900 -765.205383
59.870201 29.826900 -765.443115
59.604000 29.670000 -765.661377
59.363800 29.629299 -765.906677
59.139900 29.659700 -766.168030
58.912300 29.673201 -766.425476
58.671700 29.632000 -766.670898
58.431801 29.593700 -766.917114
58.182899 29.518700 -767.155579
57.943501 29.484600 -767.403076
57.685101 29.372101 -767.634216
57.445400 29.338800 -767.882385
57.215199 29.344200 -768.138794
56.979900 29.329100 -768.390930
56.751301 29.341101 -768.648682
56.512501 29.312599 -768.898315
62.424000 31.160000 -763.037415
62.065800 31.056299 -763.130981
61.796398 30.861601 -763.334412
61.537899 30.722099 -763.552124
61.271198 30.546200 -763.761414
61.015301 30.423599 -763.984375
60.753899 30.277700 -764.202209
60.494999 30.145800 -764.424011
60.246799 30.064600 -764.658325
59.998699 29.984699 -764.893127
59.739799 29.858500 -765.117615
59.484600 29.750000 -765.346619
59.224300 29.621201 -765.571411
58.998402 29.644600 -765.831177
58.779701 29.698601 -766.097778
58.539101 29.657700 -766.343018
58.299500 29.621901 -766.589478
58.049702 29.543600 -766.827026
57.813000 29.521200 -767.076782
57.574299 29.491199 -767.325073
57.313000 29.368700 -767.554016
57.081402 29.369101 -767.809082
56.848499 29.364901 -768.063416
56.622299 29.387600 -768.323303
56.385101 29.365900 -768.573975
56.124500 29.252001 -768.806274
61.926601 30.837000 -762.686279
61.674500 30.887899 -762.987488
61.409000 30.716299 -763.196716
61.158798 30.620199 -763.425293
60.897900 30.475700 -763.642273
60.646400 30.376900 -763.871094
60.385700 30.236799 -764.090210
60.132198 30.132700 -764.318481
59.882702 30.047800 -764.551819
59.634399 29.970301 -764.787109
59.380402 29.867901 -765.017029
59.109699 29.693501 -765.230530
58.867001 29.645100 -765.473694
58.641998 29.674000 -765.734619
58.414299 29.691299 -765.992676
58.174099 29.654600 -766.238770
57.936798 29.630699 -766.487915
57.686501 29.552401 -766.725098
57.448898 29.528500 -766.974426
57.204300 29.476101 -767.217773
56.964298 29.443501 -767.465576
56.730598 29.437201 -767.719116
56.497501 29.433399 -767.973206
56.258598 29.406799 -768.222595
56.002899 29.313400 -768.458618
61.469501 30.747499 -762.705688
61.083698 30.664900 -763.087891
60.835400 30.579599 -763.318481
59.054401 29.825399 -764.904724
55.930901 29.380100 -768.105530
60.322701 30.374399 -763.761230
59.809299 30.134399 -764.207520
59.306599 29.951000 -764.669006
58.779900 29.665899 -765.108215
58.543598 29.646999 -765.357300
57.803799 29.659401 -766.171082
57.559799 29.607800 -766.413025
57.319099 29.571501 -766.658508
57.075001 29.521500 -766.901184
56.834000 29.485300 -767.147095
56.598301 29.471300 -767.397888
56.358200 29.439800 -767.645081
58.316799 29.751400 -765.650085
58.084000 29.747601 -765.901428
60.502701 30.527700 -763.372803
59.989601 30.281601 -763.810425
59.435001 30.066799 -764.307495
55.995201 29.440599 -767.723206
55.588001 29.297300 -768.094971
61.126701 30.626801 -762.494629
60.906399 30.681700 -762.758118
60.621300 30.642000 -763.046814
60.173401 30.484400 -763.455505
59.655899 30.219000 -763.888428
59.101101 30.005199 -764.385803
58.840801 29.872200 -764.603882
58.577702 29.729000 -764.820007
58.336498 29.688601 -765.060974
58.116501 29.745199 -765.325012
57.889099 29.767300 -765.580627
57.648701 29.730900 -765.822693
57.394798 29.635099 -766.051270
57.154400 29.600401 -766.294189
56.915699 29.573601 -766.538879
56.669498 29.514400 -766.776611
56.431099 29.490101 -767.022217
56.199600 29.495600 -767.274414
55.654301 29.403700 -767.646606
60.862301 30.837299 -762.435730
60.567299 30.746799 -762.710693
60.272499 30.658899 -762.986572
59.856701 30.432400 -763.327515
59.601501 30.316601 -763.547607
59.299301 30.199200 -763.817688
59.044899 30.091101 -764.040588
58.523300 29.819799 -764.474426
57.988899 29.713301 -764.999390
57.765499 29.754801 -765.259521
57.525501 29.720200 -765.501587
57.033401 29.599100 -765.974487
56.600700 29.538200 -766.411621
55.845001 29.492300 -767.203613
59.888000 30.627701 -763.014526
58.698898 30.028700 -764.011414
58.182400 29.784401 -764.451904
57.178902 29.662100 -765.474426
56.646099 29.569700 -766.004089
56.261600 29.517099 -766.393188
56.028400 29.515800 -766.643616
55.497101 29.435699 -767.177612
60.596901 30.830799 -762.107483
60.387501 30.942400 -762.385376
60.135700 30.837900 -762.606628
59.513901 30.506201 -763.118286
59.247700 30.336901 -763.324524
58.984798 30.186701 -763.536072
58.374802 29.935499 -764.073120
57.818100 29.725201 -764.572205
57.587299 29.734600 -764.824707
57.354599 29.734699 -765.075012
56.818100 29.625299 -765.599976
55.662201 29.462200 -766.765503
56.283600 29.501400 -765.995972
59.799400 30.732700 -762.695923
58.654999 30.128599 -763.635925
57.020100 29.674801 -765.171692
56.484200 29.574600 -765.697876
55.955399 29.508900 -766.232788
55.323299 29.403400 -766.859619
57.997398 29.864799 -764.054016
55.619900 29.464001 -766.405579
60.344002 30.891399 -761.871399
60.140999 31.043301 -762.159485
59.895599 30.973400 -762.388489
59.421902 30.688101 -762.759583
59.160599 30.542999 -762.970215
58.897999 30.393801 -763.180115
58.316502 30.055500 -763.641296
57.688301 29.730000 -764.158386
57.452801 29.721800 -764.405884
57.230499 29.775700 -764.668396
56.638500 29.632401 -765.232605
58.599602 30.220100 -763.282104
56.907501 29.719400 -764.850281
56.166500 29.539801 -765.555725
55.929100 29.524799 -765.801819
55.256302 29.449100 -766.483276
59.563599 30.875500 -762.471680
57.985699 29.969000 -763.726685
55.635201 29.475800 -765.999512
57.668701 29.865601 -763.811584
57.350700 29.703300 -764.064575
57.114799 29.711399 -764.311829
56.527599 29.630199 -764.880005
56.281898 29.592400 -765.116028
55.299999 29.450701 -766.063416
55.024799 29.283300 -766.269897
59.074299 30.688000 -762.672485
58.802299 30.507099 -762.867920
58.259399 30.159401 -763.264221
59.983501 30.980301 -761.796387
59.768002 31.096701 -762.069824
56.789700 29.745399 -764.484619
55.936699 29.554600 -765.266479
55.693802 29.537300 -765.506226
59.436901 31.035601 -762.186401
59.164902 30.855200 -762.379211
58.456501 30.393400 -762.885071
57.918598 30.088200 -763.290100
55.349400 29.483400 -765.617310
54.975700 29.312401 -765.917725
54.736900 29.103701 -766.063721
59.650200 30.965900 -761.691528
58.793201 30.726101 -762.445618
58.127800 30.256001 -762.900330
57.592098 29.973600 -763.310730
57.318401 29.806700 -763.509888
57.061401 29.725300 -763.731628
56.807899 29.661600 -763.958130
56.577000 29.708200 -764.212280
56.324902 29.652300 -764.440918
56.068100 29.575199 -764.664429
55.818802 29.534300 -764.897095
55.577702 29.532400 -765.139282
59.362400 31.079599 -761.852417
59.106201 30.988899 -762.067627
58.457401 30.600500 -762.539978
55.239201 29.454700 -765.241821
54.978699 29.367701 -765.463196
57.771702 30.179100 -762.912720
54.678398 29.255301 -765.576477
58.138699 30.431900 -762.608276
58.783501 30.879000 -762.098083
57.247002 29.937401 -763.186890
56.969299 29.762699 -763.381470
56.701500 29.639200 -763.590027
56.456501 29.629900 -763.827820
56.218899 29.655899 -764.074524
55.970600 29.630199 -764.308228
55.711601 29.554199 -764.529480
55.464500 29.535000 -764.765015
59.249401 30.947201 -761.527527
58.436600 30.776199 -762.245117
57.419498 30.035999 -762.903870
55.107300 29.462500 -764.905884
54.832901 29.323000 -765.111023
58.972198 31.013100 -761.717285
57.765301 30.343100 -762.548889
55.635399 29.567801 -764.197876
55.372101 29.492201 -764.410828
58.475601 30.875700 -761.921570
58.099400 30.706600 -762.197327
57.067299 29.955500 -762.825623
56.785400 29.780399 -763.010620
56.508701 29.634800 -763.203918
56.245602 29.559900 -763.416016
56.001202 29.579201 -763.652588
55.031300 29.449900 -764.500183
54.751999 29.303301 -764.695496
58.661598 30.906200 -761.607117
57.799702 30.519300 -762.235474
57.451801 30.249901 -762.438599
55.678200 29.560801 -763.779602
55.321899 29.483700 -763.935913
55.066399 29.453501 -764.158875
58.130299 30.791000 -761.847107
57.101200 30.069099 -762.474426
55.894501 29.505899 -763.336182
54.707401 29.318899 -764.347412
56.733799 29.906601 -762.681702
56.451000 29.759899 -762.862183
56.159199 29.569401 -763.031677
58.277802 30.804300 -761.433289
57.800900 30.688601 -761.794312
57.513500 30.505100 -761.962280
57.216801 30.275499 -762.118408
55.840099 29.473301 -762.956909
55.528999 29.450001 -763.214905
55.283401 29.498899 -763.447815
54.965599 29.442301 -763.697083
54.643101 29.364401 -763.941223
54.396801 29.162800 -764.065979
57.958599 30.637400 -761.388977
56.850101 30.142500 -762.127075
56.561199 29.963200 -762.297729
56.267601 29.762199 -762.463013
55.981400 29.603701 -762.640076
57.619900 30.559500 -761.465271
57.351299 30.481701 -761.661804
55.672600 29.441299 -762.650024
55.406502 29.391199 -762.856323
55.102600 29.408701 -763.124207
54.794601 29.405100 -763.386597
54.474998 29.345200 -763.634521
57.021999 30.333599 -761.700012
57.330299 30.423401 -761.287476
56.670601 30.167101 -761.739685
56.382500 29.993601 -761.910706
56.094200 29.822599 -762.082886
55.798698 29.617701 -762.246582
55.332600 29.331900 -762.520874
55.022598 29.321800 -762.781128
54.717400 29.335400 -763.047424
54.398602 29.282000 -763.296387
55.507999 29.494699 -762.099121
56.501999 30.067801 -761.374023
56.228600 29.975800 -761.563599
55.948200 29.847900 -761.743774
55.618401 29.678801 -761.826904
55.225498 29.454599 -761.872986
56.049301 29.891100 -761.247314
55.779598 29.822800 -761.443115
55.919800 29.596399 -761.109619
57.135601 30.135900 -761.298401
54.991001 29.233999 -766.677612
55.089802 29.156200 -767.012512
55.190102 29.200500 -767.352478
72.979897 28.309999 -768.271118
73.640404 27.623699 -771.043518
69.505997 26.672800 -775.426880
68.853600 26.445000 -776.109680
68.605301 26.398001 -776.374084
68.354401 26.322701 -776.638123
68.105499 26.274200 -776.903015
75.937103 25.042101 -778.730774
82.250801 25.070499 -777.609680
82.014503 25.292400 -777.878479
81.766701 25.314199 -778.142883
81.511101 25.212099 -778.405212
81.258698 25.167101 -778.668823
81.000603 25.040501 -778.931580
80.787498 24.848600 -779.141418
57.427799 28.749100 -770.176270
79.387001 25.295601 -778.171570
79.825798 25.224001 -778.533203
79.056297 25.186600 -778.320618
80.168404 25.048700 -778.764587
79.473900 25.134001 -778.516907
79.817902 25.018900 -778.809814
80.419701 24.832600 -779.039795
80.542397 25.178801 -778.686401
80.332397 25.291901 -778.377930
79.982697 25.358601 -778.258179
80.266998 25.327999 -778.029480
79.916801 25.400101 -777.910889
80.571503 25.295200 -777.829712
79.803001 25.436600 -777.567017
80.424896 25.411200 -777.518982
80.929100 25.433300 -777.475220
80.237900 25.496599 -777.228088
80.685898 25.516199 -777.192322
81.434601 25.379801 -777.280029
81.080200 25.490299 -777.166687
80.389999 25.542801 -776.918030
81.948303 25.145500 -777.432495
81.688599 25.322001 -777.621277
82.331100 25.186501 -777.971619
81.299500 25.375900 -777.619629
82.458099 25.087700 -778.421692
82.098602 25.236099 -778.312988
81.405502 25.293200 -778.065186
81.059799 25.313299 -777.940125
82.674202 24.855499 -778.831482
82.314903 24.992201 -778.721497
81.957703 25.114300 -778.609924
81.118103 25.247400 -778.321777
80.771301 25.272301 -778.197815
81.650703 25.158199 -778.786926
81.889801 24.962799 -779.026184
81.516800 24.876200 -779.097717
81.231300 24.718000 -779.222900
79.168503 25.058800 -778.652283
80.047401 24.948799 -779.075073
78.787201 25.069300 -778.635681
79.622498 24.892401 -779.072327
79.275299 24.879900 -778.943909
78.882301 24.922400 -778.950012
78.522797 25.002100 -778.954590
78.711197 24.857700 -779.237793
78.234100 24.902800 -779.105530
66.636803 27.048599 -774.869019
82.286697 24.875200 -779.154785
81.777603 25.268200 -777.134888
80.922501 25.576700 -776.876404
81.414902 25.429100 -776.734070
80.775200 25.653500 -776.539429
81.093201 25.496000 -776.431030
57.769798 29.226000 -768.511597
78.385498 24.792700 -779.393921
78.103897 24.690399 -779.564575
54.661400 29.024700 -765.213196
65.894997 29.898899 -764.419495
54.563599 29.011999 -764.657288
78.897797 24.542700 -779.421875
38.917301 28.744499 -780.253113
38.657200 28.647499 -780.455200
38.400501 28.622601 -780.686279
38.144600 28.613600 -780.923584
37.886398 28.555401 -781.141174
37.627701 28.487200 -781.354919
37.370499 28.444700 -781.578674
37.110199 28.349800 -781.781921
36.848301 28.229700 -781.975403
36.590500 28.180500 -782.196594
36.325600 28.018101 -782.374084
36.110199 27.712099 -782.440918
38.619099 28.686501 -780.047974
38.362099 28.673201 -780.283386
38.056099 28.703501 -780.584290
37.798199 28.663200 -780.808472
37.537800 28.573200 -781.012878
37.276299 28.465200 -781.210327
37.015800 28.377399 -781.415771
36.753799 28.267700 -781.612915
36.494099 28.197901 -781.825684
36.234600 28.132401 -782.040222
35.966801 27.938601 -782.205322
35.651699 27.803499 -782.127808
39.876900 28.728901 -778.322083
39.610199 28.786100 -778.596619
39.361599 28.805799 -778.837280
39.104301 28.799801 -779.074890
38.838100 28.768400 -779.309326
38.581600 28.766300 -779.547729
38.317299 28.741800 -779.783508
38.066601 28.743500 -780.018188
37.810299 28.759100 -780.264404
37.550499 28.699400 -780.480225
37.287102 28.570999 -780.668701
37.027302 28.512501 -780.885071
36.759998 28.320999 -781.049194
36.492901 28.140600 -781.218018
36.232201 28.076300 -781.432617
35.971802 28.018101 -781.649719
30.428900 25.580799 -785.735779
30.154400 25.414200 -785.917725
29.887100 25.318300 -786.124390
29.615299 25.184099 -786.318176
29.338800 25.010300 -786.498718
29.066601 24.879499 -786.694397
28.801300 24.809999 -786.911072
28.530500 24.695999 -787.112915
28.256300 24.555000 -787.306030
27.992500 24.503201 -787.529114
27.723801 24.411501 -787.739014
27.449600 24.278299 -787.935425
27.190399 24.265200 -788.171387
40.110600 28.804199 -777.909485
35.610401 27.943899 -781.708008
35.292599 27.694901 -781.892273
31.192499 26.100599 -784.991821
30.917101 25.915400 -785.165222
30.648701 25.806200 -785.365784
26.806400 24.218000 -788.228516
26.530800 24.084101 -788.424927
39.569099 28.877501 -778.240906
38.783199 28.825899 -778.945129
38.521702 28.811501 -779.180481
38.266899 28.817301 -779.418884
38.000401 28.789400 -779.653076
37.726601 28.741600 -779.885071
37.438400 28.707899 -780.136719
37.175499 28.610300 -780.336426
36.906502 28.397699 -780.490601
36.638401 28.212500 -780.656189
36.376099 28.140900 -780.867004
36.111500 28.032000 -781.063171
35.850498 27.986200 -781.284302
32.015400 26.400499 -784.126099
31.752399 26.345699 -784.344971
31.490900 26.307501 -784.569885
30.293501 25.670601 -785.394104
30.020901 25.532000 -785.584473
29.745100 25.366301 -785.765808
29.475401 25.261000 -785.968384
29.198799 25.096100 -786.150818
28.922800 24.939899 -786.336609
28.650400 24.819901 -786.535217
28.380600 24.723700 -786.742004
28.105600 24.586399 -786.935181
27.836399 24.499599 -787.145691
27.565399 24.400400 -787.352173
27.296301 24.318300 -787.564514
27.027399 24.238600 -787.777771
26.179501 24.085600 -788.494202
39.788601 28.913000 -777.921082
39.231098 28.930599 -778.442871
35.315899 27.813900 -781.555298
31.149700 26.122801 -784.643372
30.878401 25.989201 -784.833984
26.481600 24.188200 -788.085693
32.172901 26.601500 -783.859924
30.554701 25.900900 -785.033813
25.828199 24.043501 -788.546570
26.673599 24.255400 -787.812073
39.028099 28.863501 -778.710999
28.056400 24.712799 -786.620972
27.779499 24.590599 -786.815186
27.506001 24.500200 -787.020325
27.232599 24.411699 -787.226318
26.959700 24.328800 -787.434204
26.106199 24.223499 -788.152222
25.492300 24.043100 -788.643127
29.699400 25.546900 -785.468872
29.418100 25.371901 -785.642273
29.140800 25.239201 -785.830811
28.859600 25.073799 -786.008484
28.576500 24.896900 -786.182678
28.300800 24.789101 -786.380676
29.965700 25.671499 -785.268982
32.652401 26.660801 -783.292419
32.392899 26.731899 -783.549194
31.456100 26.287001 -784.172119
26.306499 24.233601 -787.766479
25.765800 24.159901 -788.205505
35.538700 27.959801 -781.143921
32.983299 26.910400 -782.912476
31.892300 26.502701 -783.684998
31.619301 26.403900 -783.879700
31.126200 26.212099 -784.225586
30.855400 26.145300 -784.432312
30.583099 26.061501 -784.632996
30.246901 25.863899 -784.839783
27.999599 24.652100 -786.269775
27.720200 24.532000 -786.460876
27.441200 24.418900 -786.654602
27.165100 24.332800 -786.857483
26.892099 24.274799 -787.069885
26.619699 24.222000 -787.284119
25.388800 24.154499 -788.325928
25.109501 24.049299 -788.523376
38.187099 28.823700 -779.055725
37.916000 28.799999 -779.280884
37.651798 28.796900 -779.509216
37.369499 28.742800 -779.730896
37.058399 28.607901 -779.942688
36.792599 28.453501 -780.106812
36.503799 28.236601 -780.263672
36.207001 28.148701 -780.483398
35.910400 28.062799 -780.703918
35.024502 27.802999 -781.360901
33.176102 27.049801 -782.640320
29.890400 25.765800 -784.938293
29.607100 25.577400 -785.102783
29.325399 25.410801 -785.275330
29.045099 25.263100 -785.454895
28.763700 25.109501 -785.632813
28.483000 24.966200 -785.814514
28.201700 24.820900 -785.995972
26.273199 24.237400 -787.418396
25.957500 24.263000 -787.703796
39.886799 29.019100 -777.458618
39.476601 29.042700 -777.824585
39.212200 29.034100 -778.050171
38.945202 29.018200 -778.275024
38.654999 28.934601 -778.490479
38.377800 28.891001 -778.712097
35.562401 28.057600 -780.793518
35.186100 27.950100 -781.073425
33.311901 27.256800 -782.398987
32.633301 26.946800 -782.853394
32.361500 26.852400 -783.048279
32.090900 26.776300 -783.250122
31.275200 26.508400 -783.841675
30.227100 26.030899 -784.544128
25.583799 24.300100 -787.822510
24.763901 23.993200 -788.400818
41.180302 29.722300 -776.368774
40.113300 29.356100 -777.133484
38.035702 28.890900 -778.729980
37.757198 28.846001 -778.951599
37.469398 28.775400 -779.170105
37.192902 28.738600 -779.393494
36.913300 28.694300 -779.616272
36.577900 28.493099 -779.819397
36.326599 28.233101 -779.924194
36.050499 28.203699 -780.150513
35.760201 28.135900 -780.372314
34.827000 27.807501 -781.037720
33.560299 27.236401 -781.886475
32.984798 27.169201 -782.355530
31.732401 26.717800 -783.243774
31.461800 26.646000 -783.446899
30.914700 26.438000 -783.830322
30.638300 26.306000 -784.012329
30.363600 26.196199 -784.202515
29.862301 25.932501 -784.521973
29.579500 25.747499 -784.686584
29.299700 25.598301 -784.864197
29.014099 25.396799 -785.023987
28.735001 25.264000 -785.208130
28.451700 25.094700 -785.379883
28.172701 24.970699 -785.567627
27.897400 24.884501 -785.768494
27.609100 24.682301 -785.930420
27.334600 24.608299 -786.135925
27.051500 24.459900 -786.316711
26.775499 24.377199 -786.519714
26.503500 24.328899 -786.734070
26.231100 24.277500 -786.947693
25.960199 24.239100 -787.165527
25.695801 24.252600 -787.400085
25.224701 24.308599 -787.832214
24.948099 24.224100 -788.034912
41.435200 29.962799 -775.917175
40.817799 29.811600 -776.384888
39.757702 29.269300 -777.065125
39.470402 29.189800 -777.278870
39.183498 29.113300 -777.493530
38.909302 29.076500 -777.714294
38.647701 29.078199 -777.940918
38.342499 28.951700 -778.149597
38.070000 28.923300 -778.372681
36.627998 28.570200 -779.464783
35.399799 28.087601 -780.316223
35.130699 28.014500 -780.516785
34.858898 27.893801 -780.699219
34.476700 27.702299 -780.946289
34.144699 27.474600 -781.134277
33.669899 27.521400 -781.564575
33.233200 27.331499 -781.859375
32.639198 27.177900 -782.305725
32.365799 27.062500 -782.491821
32.094601 26.980000 -782.690186
31.820000 26.856300 -782.873718
31.110600 26.604700 -783.377319
30.008900 26.135300 -784.125122
25.333300 24.193899 -787.320984
24.909599 24.209499 -787.693726
41.525600 29.945801 -775.497925
41.060200 29.947300 -775.899597
40.462502 29.700300 -776.307617
40.184200 29.482700 -776.453125
39.881100 29.352301 -776.657715
37.682899 28.895700 -778.354004
37.397400 28.832600 -778.572571
37.092098 28.713600 -778.784180
36.811699 28.667999 -779.005981
36.303001 28.427799 -779.340210
36.015400 28.216801 -779.496521
35.743099 28.199600 -779.723816
35.459900 28.153400 -779.947815
34.531601 27.779499 -780.585571
33.771900 27.510599 -781.123718
33.291401 27.470301 -781.520325
32.859402 27.358101 -781.843872
31.441099 26.832701 -782.838318
31.166500 26.717501 -783.025024
30.728399 26.553101 -783.331177
30.453600 26.443600 -783.520386
30.177299 26.318300 -783.704285
29.676399 26.065399 -784.026184
29.395000 25.897800 -784.196106
29.117300 25.772699 -784.381226
28.836201 25.617800 -784.556213
28.549200 25.408701 -784.712830
28.267799 25.259399 -784.890625
27.984600 25.098000 -785.064575
27.702299 24.949499 -785.243591
27.417000 24.778000 -785.414978
27.132200 24.615900 -785.590088
26.852301 24.500900 -785.781372
26.574600 24.407301 -785.980225
26.296101 24.309299 -786.177673
26.011999 24.166500 -786.360596
25.737200 24.103399 -786.570129
25.473101 24.127501 -786.807983
24.992599 24.124599 -787.220886
41.178902 30.009800 -775.537781
40.720699 29.873400 -775.872375
39.504002 29.334499 -776.684509
39.219601 29.265699 -776.899109
38.921902 29.158400 -777.108398
38.646099 29.118401 -777.328125
38.361000 29.052099 -777.544373
38.077000 28.990499 -777.761780
37.798599 28.946600 -777.981995
36.439499 28.536600 -778.972290
35.128502 28.068001 -779.895874
34.859600 28.009701 -780.101685
34.153801 27.747801 -780.594788
33.882500 27.656401 -780.788330
33.397999 27.556801 -781.161621
32.477901 27.303499 -781.842529
32.205898 27.212900 -782.036987
31.931200 27.087799 -782.218811
31.658701 26.995100 -782.412903
29.790501 26.254299 -783.697327
25.084999 24.125999 -786.818787
41.516800 30.056400 -775.045288
40.335899 29.771099 -775.933777
39.999298 29.535900 -776.120422
39.709900 29.449301 -776.330811
37.419899 28.890400 -778.051086
37.136398 28.835199 -778.270203
36.829498 28.714100 -778.480774
36.089100 28.421600 -778.988525
35.816299 28.253901 -779.149719
35.536098 28.216499 -779.373718
34.491901 27.943501 -780.150085
33.032001 27.548500 -781.230225
32.759602 27.450600 -781.421082
31.288401 26.956699 -782.468018
31.016100 26.873301 -782.665222
30.744699 26.802500 -782.867188
30.469801 26.691601 -783.054688
30.194000 26.574400 -783.240295
29.916401 26.440001 -783.419983
29.410601 26.141001 -783.723999
29.129101 25.976601 -783.894104
28.846901 25.810400 -784.064026
28.567101 25.674000 -784.244629
28.288601 25.554100 -784.431396
28.000099 25.340000 -784.585876
27.711800 25.134800 -784.744080
27.426701 24.964800 -784.914917
27.137300 24.761499 -785.074890
26.850800 24.590200 -785.246216
26.565201 24.431200 -785.422119
26.277500 24.258699 -785.593994
25.998100 24.161100 -785.791199
25.724300 24.112801 -786.004822
25.456100 24.109200 -786.233215
25.188900 24.113400 -786.463928
24.752501 24.047199 -786.809204
41.676800 29.919800 -774.636719
41.168098 30.130400 -775.162415
40.880600 30.041401 -775.369690
39.190701 29.332399 -776.507629
38.898602 29.242599 -776.718506
38.620998 29.198200 -776.936523
38.333599 29.125601 -777.150818
38.049400 29.063999 -777.367126
37.765900 29.006001 -777.584412
36.476898 28.647600 -778.531189
35.194099 28.188801 -779.429321
34.858299 28.126200 -779.689270
34.156399 27.946400 -780.211487
33.885899 27.871300 -780.410217
33.616100 27.808701 -780.613708
33.345200 27.728300 -780.810486
32.419498 27.403200 -781.461182
32.149502 27.345200 -781.666992
31.875999 27.239401 -781.854980
31.602900 27.142500 -782.046570
29.566500 26.320601 -783.431885
40.562199 29.919600 -775.377930
40.269100 29.816900 -775.583679
39.951900 29.641300 -775.778503
39.656799 29.536600 -775.985229
39.355499 29.415400 -776.189880
37.414001 28.961100 -777.650513
37.126099 28.893101 -777.866699
36.841702 28.836399 -778.085022
36.148800 28.525801 -778.542114
35.833401 28.387100 -778.751404
35.483200 28.302999 -779.013916
34.510101 28.110600 -779.761230
32.995602 27.697800 -780.875183
32.725800 27.638201 -781.079773
31.257500 27.178101 -782.134094
30.983601 27.074301 -782.322876
30.709600 26.970600 -782.512024
30.433500 26.844900 -782.693420
30.158400 26.735100 -782.880676
29.877701 26.563601 -783.046204
29.149700 26.163799 -783.494812
28.871799 26.040501 -783.678711
28.588400 25.864401 -783.844482
28.305901 25.702400 -784.015625
28.020700 25.518299 -784.179504
27.733900 25.323700 -784.340271
27.440901 25.077400 -784.483887
27.155300 24.907400 -784.654175
26.861799 24.669701 -784.802124
26.575600 24.505301 -784.975281
26.287800 24.331699 -785.145874
26.011000 24.257601 -785.350220
25.735701 24.198400 -785.559509
25.462400 24.155800 -785.774414
25.190901 24.128300 -785.994080
24.924101 24.138700 -786.226318
24.647100 24.066299 -786.431396
41.395401 30.128201 -774.660889
36.505402 28.749901 -778.176208
34.822899 28.219101 -779.359314
34.138401 28.074301 -779.870483
33.271801 27.857100 -780.503601
32.344101 27.521200 -781.137573
32.071701 27.436800 -781.329773
31.799700 27.361300 -781.525391
31.530199 27.325399 -781.735718
29.490499 26.474100 -783.081970
41.079498 30.240801 -774.742310
40.779400 30.110399 -774.937988
39.018902 29.338499 -776.083130
38.738701 29.285999 -776.295227
38.476799 29.291000 -776.516296
38.194199 29.233601 -776.728271
37.916901 29.193300 -776.943115
37.613400 29.075500 -777.146973
37.087601 28.929701 -777.524902
36.805000 28.879299 -777.739807
36.120201 28.589100 -778.189514
35.813099 28.473101 -778.397217
35.521801 28.404499 -778.611694
35.142799 28.393101 -778.923828
34.443600 28.237700 -779.442627
33.763401 28.074100 -779.942017
33.492699 28.007299 -780.140076
32.895000 27.828800 -780.564270
32.620300 27.695200 -780.737427
31.152000 27.293600 -781.794983
30.879400 27.214100 -781.989319
30.604500 27.102501 -782.171875
30.328199 26.976999 -782.349792
30.052700 26.866501 -782.533325
29.773500 26.710899 -782.700928
29.153799 26.320400 -783.053711
28.869400 26.120800 -783.206970
28.589199 25.978201 -783.380920
28.308701 25.835600 -783.554993
28.024799 25.660801 -783.718323
27.743299 25.517700 -783.893127
27.452299 25.277599 -784.034729
27.158400 25.016399 -784.169922
26.864799 24.766899 -784.309692
26.573299 24.547501 -784.460510
26.289900 24.414000 -784.640930
26.009899 24.316900 -784.833923
25.736300 24.282000 -785.047913
25.461399 24.233900 -785.257385
25.184799 24.171801 -785.462280
24.907900 24.107100 -785.666626
24.626101 24.001801 -785.857483
41.461300 30.173599 -774.136230
41.218899 30.260099 -774.375610
40.401901 29.971701 -774.936584
40.103001 29.849800 -775.134827
39.809399 29.747200 -775.336792
39.498798 29.592699 -775.531128
39.199200 29.475901 -775.731873
37.270401 29.061899 -777.169495
36.430500 28.776100 -777.750671
34.768799 28.452200 -779.003113
34.051399 28.247900 -779.516418
33.110802 28.026899 -780.209229
32.236500 27.683901 -780.794922
31.964100 27.599100 -780.986694
31.693600 27.546000 -781.190430
31.423000 27.492201 -781.393921
29.435801 26.620600 -782.685974
40.752899 30.227301 -774.613098
38.691898 29.331699 -775.956177
37.870602 29.239201 -776.603821
37.568699 29.125500 -776.807922
36.759499 28.925400 -777.399597
36.085602 28.665300 -777.852722
35.784302 28.565300 -778.062073
35.479801 28.611700 -778.336487
35.200199 28.576700 -778.555481
34.443100 28.405500 -779.116028
33.726200 28.226700 -779.639404
32.579399 27.768700 -780.403870
30.291201 27.104900 -782.035522
30.014400 26.975100 -782.211914
29.736799 26.838301 -782.385925
29.118601 26.461800 -782.742920
28.832899 26.244600 -782.889526
28.550200 26.069300 -783.051514
28.268900 25.917500 -783.222229
27.980000 25.685101 -783.365112
27.693899 25.492399 -783.522522
27.402500 25.249001 -783.662720
27.116301 25.068100 -783.825317
26.826000 24.852100 -783.976196
26.536501 24.650801 -784.132813
26.250999 24.496201 -784.305786
25.968399 24.373501 -784.489990
25.687201 24.266500 -784.679810
25.414900 24.245600 -784.898621
25.143400 24.229900 -785.119019
24.868799 24.186300 -785.330078
24.550200 23.972300 -785.505676
30.837500 27.372299 -781.690430
38.421902 29.341499 -776.174500
38.153099 29.326401 -776.392273
36.939400 28.971100 -777.110413
33.376202 28.175100 -779.745178
32.773998 27.903299 -780.132324
31.037701 27.468700 -781.396423
30.487101 27.229401 -781.754211
41.429600 30.203800 -773.711426
41.163300 30.301600 -773.975403
40.893600 30.268600 -774.186584
40.428799 30.110201 -774.507324
40.115101 29.938900 -774.696472
39.830002 29.862400 -774.901917
39.534000 29.752701 -775.102417
39.224701 29.603500 -775.297180
38.904099 29.421499 -775.487488
37.217499 29.104401 -776.760925
36.397999 28.876801 -777.348389
34.817001 28.624800 -778.561401
34.516800 28.533100 -778.773071
34.092499 28.396601 -779.069275
33.777100 28.354601 -779.314819
33.016499 28.097601 -779.840576
32.199200 27.809000 -780.400208
31.929600 27.764601 -780.606506
31.659100 27.707600 -780.808105
31.388500 27.647600 -781.008606
29.397900 26.698299 -782.266907
24.685499 24.040199 -785.071228
38.544498 29.398001 -775.635681
38.288601 29.420900 -775.858887
38.021900 29.411301 -776.077209
37.719601 29.294300 -776.279480
37.426899 29.208700 -776.487122
36.593800 28.937700 -777.066528
36.057499 28.769300 -777.442078
35.780899 28.740000 -777.660278
35.533699 28.796400 -777.890503
35.259602 28.775801 -778.110413
32.425098 27.896400 -780.099670
30.688299 27.448799 -781.357605
30.135500 27.181101 -781.704712
29.857800 27.037001 -781.874878
29.580799 26.907600 -782.050720
29.069901 26.531799 -782.316772
28.789400 26.375099 -782.483887
28.502800 26.151501 -782.627808
28.220501 25.985701 -782.792603
27.936600 25.806601 -782.953186
27.649900 25.603300 -783.105713
27.358101 25.352800 -783.242371
27.075001 25.202499 -783.414490
26.785299 24.989100 -783.565186
26.508499 24.912100 -783.763306
26.216299 24.685101 -783.910278
25.929001 24.513000 -784.076721
25.645201 24.379299 -784.256287
25.366100 24.292299 -784.452087
25.089800 24.233500 -784.657410
40.550800 30.215700 -774.190125
36.862900 29.048800 -776.763794
33.422001 28.360600 -779.335815
32.657101 28.035299 -779.834106
31.029499 27.612600 -781.009277
30.368999 27.323799 -781.436279
26.443100 25.250299 -783.822083
24.767401 24.175800 -784.759705
41.248798 30.158800 -773.398926
41.037102 30.318600 -773.643127
40.182598 30.080601 -774.252197
39.871300 29.919701 -774.442505
39.590599 29.859200 -774.650085
39.247700 29.768999 -774.896912
38.933800 29.608101 -775.089294
37.045799 29.162300 -776.469421
36.207199 28.882500 -777.047485
34.901901 28.812700 -778.103271
34.612099 28.749800 -778.317505
34.309700 28.653099 -778.527771
34.016602 28.584200 -778.742126
33.731800 28.516600 -778.950195
33.080898 28.316999 -779.406372
32.047501 27.977501 -780.121094
31.774799 27.882099 -780.307190
31.505199 27.839500 -780.513184
31.231800 27.736601 -780.696777
29.238501 26.768499 -781.941772
40.682400 30.369301 -773.662781
40.369499 30.198400 -773.849670
38.564098 29.622700 -775.103210
38.289299 29.587099 -775.316223
38.013100 29.548201 -775.528992
37.726799 29.480000 -775.737610
37.427101 29.372700 -775.940674
37.118698 29.241199 -776.140686
36.706902 29.120800 -776.431274
36.396301 28.988100 -776.632629
35.868000 29.000500 -777.076599
35.616299 29.043301 -777.304016
35.343201 29.024700 -777.522827
35.053299 28.959101 -777.735474
33.358398 28.552601 -778.969482
32.754299 28.230000 -779.333618
32.481499 28.129601 -779.517273
32.211102 28.073299 -779.717773
30.849800 27.659599 -780.671814
30.576200 27.563400 -780.857910
30.297100 27.392599 -781.016724
30.018700 27.238100 -781.182007
29.738501 27.064600 -781.340698
29.459801 26.917601 -781.509399
28.950300 26.568399 -781.783508
28.665701 26.366301 -781.933594
28.387100 26.242201 -782.112000
28.109200 26.129700 -782.294800
27.828400 25.987499 -782.467285
27.535200 25.714399 -782.594177
27.247000 25.503700 -782.743713
26.959400 25.308001 -782.898926
26.673800 25.138800 -783.063904
26.393900 25.032200 -783.250916
26.355200 25.721300 -783.577087
25.992500 24.794701 -783.482788
25.701401 24.587900 -783.636414
25.419600 24.476400 -783.822815
25.139900 24.386801 -784.016785
24.860600 24.302601 -784.212891
24.517799 24.081499 -784.403076
41.186901 30.316099 -772.936279
40.896099 30.386801 -773.207520
39.974602 30.103500 -773.850098
39.682899 30.006901 -774.050476
39.384701 29.891600 -774.248413
39.115700 29.870501 -774.462280
38.833099 29.807899 -774.669678
36.034500 29.026100 -776.654785
34.695099 29.013399 -777.759216
34.393299 28.917000 -777.968201
34.096500 28.836800 -778.179810
33.797600 28.752199 -778.391418
33.476799 28.686701 -778.629272
32.986500 28.498301 -778.955078
31.843599 28.127899 -779.743774
31.572201 28.056499 -779.938293
31.298401 27.949400 -780.119385
31.024200 27.839500 -780.299683
29.077200 26.809900 -781.473389
26.109100 24.899900 -783.117310
40.518299 30.388599 -773.327515
40.217098 30.257401 -773.520630
38.448399 29.802500 -774.789490
38.163200 29.735001 -774.996582
37.881500 29.680099 -775.206177
37.586800 29.586700 -775.410217
37.287701 29.482000 -775.612915
36.985401 29.369900 -775.815125
36.680099 29.250799 -776.016785
36.378201 29.144100 -776.220886
35.759701 29.204399 -776.758423
35.506901 29.244400 -776.984497
35.231098 29.218399 -777.201477
34.937401 29.141899 -777.411926
33.139400 28.635599 -778.683105
32.646400 28.405399 -778.992676
32.371899 28.274500 -779.163879
32.103600 28.261200 -779.380127
30.684200 27.787701 -780.352173
30.409201 27.674801 -780.531372
30.128799 27.488701 -780.684021
29.848200 27.307100 -780.838684
29.570101 27.166901 -781.008911
29.289600 27.000999 -781.169983
28.727699 26.674400 -781.495483
