14.343900 42.149502 -803.191711
22.729900 42.336800 -805.089600
24.909000 42.450401 -805.431030
17.688200 42.611401 -803.710510
15.524700 42.496101 -803.172913
24.136900 42.430500 -805.036926
22.046499 42.527100 -804.544373
20.039900 42.623402 -804.072205
16.914900 42.728001 -803.330627
21.202999 42.528500 -804.171387
23.364300 42.503601 -804.547180
19.269699 42.794201 -803.589478
16.228300 43.122501 -802.893311
18.503201 43.041801 -803.291382
17.669500 43.172199 -802.976685
20.739100 42.980202 -803.589600
21.941401 42.816898 -803.728027
20.021799 43.242699 -803.086670
30.397800 34.414200 -819.834473
29.849600 31.110901 -831.157776
29.861200 30.498600 -832.268921
28.916800 29.428499 -836.385498
28.196800 29.424101 -836.922119
27.458500 29.731001 -837.225708
28.233299 29.065701 -837.757996
27.417999 29.341200 -838.070129
27.528601 28.993200 -839.073120
30.676001 40.618198 -815.222473
26.771099 29.421801 -838.730103
26.705299 29.930099 -837.580322
19.181700 43.488998 -802.769226
20.924801 31.165400 -837.567200
13.192900 41.612801 -804.572815
12.721900 41.200401 -805.674683
16.906200 43.660599 -802.664917
14.061800 41.280399 -806.134705
14.676500 41.622501 -805.628479
15.507400 42.754002 -804.366516
14.723900 41.111698 -806.755615
13.853000 40.980099 -807.677429
18.853701 43.767799 -803.584229
14.933500 40.900501 -807.982178
17.216200 41.826099 -806.411926
19.724001 43.185299 -805.654480
20.039700 43.999001 -805.333679
22.232100 43.094700 -805.341675
20.768600 41.837002 -806.945923
20.783001 44.202499 -804.782776
15.793900 40.633301 -808.939514
16.124500 41.717899 -806.417480
17.990101 43.019798 -804.760681
-16.299000 23.324100 -845.613586
-17.158100 23.186001 -845.440979
-17.942699 22.888500 -845.263000
-18.730600 22.612400 -845.086914
-19.521999 22.325500 -844.908875
-20.322100 21.854200 -844.707275
-21.198299 21.635201 -844.521973
-22.013399 21.289301 -844.332703
-17.167500 22.751900 -846.217590
-18.341000 22.749201 -846.004578
-19.207300 22.465000 -845.814209
-20.077000 22.196400 -845.625122
-20.872101 21.911800 -845.447510
-21.671301 21.610100 -845.267212
-17.992201 22.606400 -846.841125
-18.835600 22.548100 -846.680908
-19.699600 22.414700 -846.508423
-20.567499 22.210699 -846.326904
-21.440300 21.949400 -846.138123
-20.197001 21.995501 -847.453979
-21.110300 22.007099 -847.285095
-19.360100 22.176500 -847.315125
-15.542500 23.542900 -845.210815
-16.309401 23.598101 -844.738525
-17.096399 23.222601 -844.543213
-17.964199 22.960100 -844.347107
-18.757799 22.663900 -844.160583
-19.403900 22.131701 -843.971985
-20.207001 21.794500 -843.778625
-21.010201 21.559401 -843.598083
-21.882000 21.316500 -843.403687
-14.991500 23.918100 -844.598572
-15.785300 23.989700 -844.142822
-17.440100 23.337601 -843.734924
-18.237000 22.933399 -843.526672
-19.614201 21.961300 -843.130981
-20.418900 21.707600 -842.940918
-21.225000 21.489300 -842.755310
-16.566999 23.641001 -843.831177
-18.826000 22.451799 -843.061890
-14.284400 24.244301 -844.002319
-21.829700 21.363600 -842.115723
-15.105500 24.351000 -843.657776
-15.848100 24.074900 -843.280823
-16.874500 23.632401 -843.013672
-17.668900 23.289801 -842.807007
-19.212500 22.106400 -842.334778
-20.018200 21.845501 -842.137024
-20.903299 21.652100 -841.932312
-13.480700 24.672001 -843.560486
-18.218500 22.808500 -842.346313
-14.346400 24.792999 -843.270386
-21.445999 21.515200 -841.225586
-15.170000 24.497601 -842.813721
-16.273899 24.009300 -842.520386
-18.687901 22.433100 -841.737793
-19.495600 22.149401 -841.533203
-20.305599 21.891899 -841.331787
-16.996500 23.728500 -842.140686
-17.612101 23.226801 -841.783508
-12.983000 25.048100 -842.834717
-13.825800 25.074499 -842.526978
-15.627100 24.380699 -842.057312
-20.782801 21.818501 -840.630310
-14.654700 24.812700 -842.165771
-18.082300 22.805000 -841.172180
-16.256800 24.172600 -841.500610
-16.975599 23.708099 -841.285400
-18.829599 22.648701 -840.750427
-19.641100 22.262199 -840.527283
-21.552900 21.743200 -840.058289
-12.124500 25.484900 -842.194885
-12.973600 25.465599 -842.016418
-15.151300 24.788200 -841.467224
-13.657700 25.332199 -841.456909
-15.691800 24.441700 -840.902771
-17.130699 23.434500 -840.455627
-17.856300 22.980200 -840.237915
-19.060101 22.558100 -839.925293
-19.948500 22.242201 -839.693909
-20.756701 22.011499 -839.491699
-11.443300 25.864799 -841.554810
-12.289500 25.809299 -841.369080
-14.300600 25.275900 -840.868530
-16.270700 24.128500 -840.286072
-12.914100 25.662100 -840.755371
-14.932300 25.067801 -840.241882
-16.766001 23.633499 -839.642822
-17.566099 23.243799 -839.416382
-18.368999 22.896900 -839.195801
-19.171499 22.641800 -838.988770
-19.977900 22.378599 -838.779907
-20.786501 22.136499 -838.573608
-10.518100 26.228701 -840.898682
-11.412700 26.199400 -840.705322
-13.569000 25.672800 -840.171204
-15.523700 24.722401 -839.616272
-16.087000 24.114000 -839.406494
-11.972500 26.077101 -840.068481
-12.818500 25.978500 -839.874512
-14.210500 25.593100 -839.521484
-16.593000 23.778400 -838.743591
-17.315599 23.350901 -838.526123
-18.115101 23.066799 -838.314026
-18.916901 22.811899 -838.105774
-19.723600 22.530100 -837.892517
-20.603800 22.399799 -837.686279
-9.840800 26.662500 -840.081299
-10.680900 26.617300 -839.895813
-13.367600 25.946899 -839.222412
-14.689500 25.368799 -838.853210
-15.325500 24.753799 -838.624329
-11.303800 26.527399 -839.268982
-12.146200 26.377600 -839.065918
-15.742100 24.238701 -837.967773
-16.460400 23.796000 -837.746216
-17.257099 23.472200 -837.525879
-18.056299 23.184000 -837.310730
-18.934500 22.964800 -837.089172
-19.736300 22.757900 -836.885925
-20.541800 22.538200 -836.679871
-9.285100 27.035999 -839.399475
-10.122100 27.027700 -839.217529
-12.796800 26.285900 -838.524719
-13.646300 25.938999 -838.287415
-14.425900 25.487801 -838.049011
-15.064200 24.747499 -837.796082
-18.384600 23.387800 -836.534485
-4.225300 29.478001 -840.409180
-4.997300 29.184700 -840.191711
-10.672900 26.909500 -838.573425
-11.510600 26.722799 -838.358093
-15.480100 24.322100 -837.098389
-16.274401 23.889400 -836.853882
-17.068199 23.592600 -836.630920
-19.125299 23.250799 -836.120728
-19.933800 22.908701 -835.887329
-5.761600 28.896700 -839.870422
-9.587000 27.362101 -838.646423
-12.317100 26.683100 -837.915771
-13.084200 26.310400 -837.681519
-13.781500 25.844200 -837.448181
-14.486800 25.269300 -837.195801
-17.670200 23.756001 -836.009827
-3.382000 29.488501 -840.203674
-6.421600 28.554701 -839.309326
-18.478201 23.614799 -835.697388
-20.290100 23.010401 -835.073975
-14.870500 24.812201 -836.510986
-15.595800 24.210899 -836.240417
-16.386299 23.982100 -836.015076
-19.245300 23.351700 -835.232178
-4.354300 29.523800 -839.548584
-5.162600 29.194799 -839.300781
-8.587700 27.670099 -838.229004
-9.948200 27.381300 -837.855286
-10.784500 27.098101 -837.608215
-11.621400 26.992201 -837.390076
-13.953600 25.611099 -836.604126
-2.691000 29.980900 -839.738220
-6.817400 28.572100 -838.508423
-12.337500 26.802500 -836.882324
-13.036200 26.381201 -836.643921
-16.921101 24.121401 -835.331787
-17.790400 23.954300 -835.094177
-3.441400 29.916700 -839.294617
-5.643100 29.008499 -838.606812
-9.154900 27.857000 -837.559204
-14.245800 25.214800 -835.878723
-14.965300 24.679001 -835.614197
-15.755700 24.388300 -835.373230
-18.522499 23.806601 -834.601929
-19.325899 23.552200 -834.363770
-4.398700 29.365101 -838.692993
-7.289100 28.331499 -837.809998
-8.113100 28.055201 -837.561401
-9.998700 27.524200 -837.009277
-10.832900 27.341600 -836.773926
-13.452900 26.158199 -835.932312
-1.929500 30.459299 -839.189575
-6.168500 28.883900 -837.872620
-11.585000 27.246201 -836.252808
-12.353200 26.900499 -836.004028
-16.225500 24.473700 -834.634827
-17.088699 24.343399 -834.398621
-2.677100 30.312201 -838.665527
-3.400000 29.914000 -838.416504
-4.863900 29.337099 -837.951172
-8.581200 28.277800 -836.838196
-9.408500 27.994900 -836.582520
-13.639300 25.787100 -835.146118
-14.357300 25.190599 -834.864685
-15.072000 24.783199 -834.616272
-17.746700 24.211901 -833.847778
-18.622000 23.985300 -833.589600
-19.422400 23.764299 -833.351074
-4.036600 29.651699 -837.879578
-6.544100 28.839701 -837.103271
-7.287700 28.507700 -836.857483
-10.066300 27.722799 -836.016907
-10.897900 27.571800 -835.779602
-12.665000 26.700001 -835.181519
-1.438300 30.683599 -838.394104
-5.300800 29.359301 -837.172302
-11.590000 27.482300 -835.230774
-15.363200 24.927200 -833.820618
-16.223101 24.767900 -833.571899
-17.012899 24.542999 -833.330017
-18.043800 24.262699 -833.016418
-2.164300 30.622101 -837.864685
-2.960500 30.328899 -837.606812
-4.413200 29.612499 -837.104675
-5.960600 29.249701 -836.639221
-7.666600 28.774799 -836.112976
-8.486800 28.629499 -835.874329
-9.311200 28.342199 -835.609985
-12.195800 27.221800 -834.665405
-12.831700 26.439699 -834.364624
-13.536800 25.991800 -834.103577
-14.246600 25.552000 -833.842712
-18.746901 24.166000 -832.431580
-3.629600 30.142099 -837.043579
-6.565800 29.029499 -836.078308
-9.928600 28.059000 -835.025818
-10.759400 27.824699 -834.766724
-14.813700 25.293699 -833.260498
-15.671600 25.106899 -833.002625
-16.457899 24.885700 -832.757385
-17.323799 24.683500 -832.494812
-0.825700 31.017000 -837.585205
-4.744500 29.688499 -836.313721
-8.817500 28.844101 -835.086426
-11.461500 27.729900 -834.190186
-12.319700 26.935499 -833.823303
-17.985901 24.500601 -831.894470
-18.940300 24.257000 -831.598877
-1.555400 31.049400 -837.055603
-2.348700 30.777300 -836.796082
-4.019400 30.254101 -836.258423
-5.407500 29.595100 -835.771973
-6.885000 29.266500 -835.320190
-7.775100 29.182301 -835.068115
-12.945200 26.589701 -833.231873
-13.653400 26.103500 -832.957275
-16.716299 24.996201 -831.945313
-3.060200 30.658300 -836.291077
-9.178600 28.781099 -834.317505
-9.933300 28.375601 -834.043213
-10.691800 28.014200 -833.775574
-14.274300 25.733900 -832.409729
-15.055600 25.496000 -832.158020
-15.913400 25.322399 -831.897217
-0.328700 31.468800 -836.955505
-4.602800 30.139099 -835.568726
-5.997500 29.491501 -835.077881
-8.371000 29.183399 -834.384705
-11.393500 27.821100 -833.328491
-12.018000 27.245001 -833.057495
-17.204399 24.915199 -831.246521
-18.069099 24.777500 -830.989380
-13.078300 26.650000 -832.370422
-16.378700 25.320499 -831.183228
-1.031400 31.385799 -836.423706
-1.823300 31.185499 -836.158508
-3.559100 30.672501 -835.563721
-5.163300 29.914400 -834.962524
-6.634300 29.724199 -834.502686
-7.446000 29.620300 -834.249329
-13.644400 26.246500 -831.845581
-14.425000 25.972401 -831.570190
-15.280800 25.776501 -831.287415
-18.417900 25.106701 -830.258972
-2.494900 31.042200 -835.594177
-8.510200 29.360100 -833.541199
-9.260600 29.025299 -833.262329
-10.018000 28.616301 -832.967773
-10.780100 28.220400 -832.674316
-11.474300 27.782200 -832.392822
-12.101700 27.273399 -832.117920
-16.800501 25.470100 -830.424927
0.246600 31.824301 -836.097290
-3.791400 30.798599 -834.734985
-4.592500 30.398899 -834.428711
-5.398700 30.030100 -834.126526
-6.794600 30.009800 -833.717102
-7.681900 29.774900 -833.416016
-12.645100 26.986200 -831.460571
-13.818700 26.426300 -831.016602
-14.599100 26.172001 -830.742981
-15.462300 25.888000 -830.439880
-17.427500 25.405100 -829.779907
-0.343300 31.877001 -835.445618
-1.130800 31.620001 -835.168884
-1.996100 31.455200 -834.886780
-2.791200 31.289700 -834.624878
-5.998700 30.315901 -833.511719
-8.290800 29.689800 -832.729126
-9.114300 29.357800 -832.428223
-9.871000 28.953800 -832.133179
-10.562500 28.450300 -831.838806
-11.337100 27.897600 -831.511108
-16.018299 25.990700 -829.796387
0.882000 32.173500 -835.372375
-3.388400 31.290800 -833.961975
-4.186800 30.972500 -833.669617
-4.916800 30.497299 -833.367920
-6.601900 30.441799 -832.866028
-7.414100 30.185600 -832.581299
-11.830500 27.538401 -830.798279
-12.536400 27.077000 -830.506226
-13.311200 26.814400 -830.231079
-14.161700 26.617100 -829.946228
-14.946300 26.327600 -829.663208
-16.574499 26.105600 -829.146912
0.207700 32.293999 -834.771423
-0.649800 32.074100 -834.478271
-1.438500 31.867500 -834.208008
-2.302700 31.681999 -833.919373
-5.571600 30.736500 -832.782227
-8.003100 30.101101 -831.948975
-8.750600 29.760700 -831.665527
-9.505000 29.356600 -831.367981
-10.193000 28.885201 -831.077271
-10.884700 28.447701 -830.791870
-15.558100 26.388300 -829.032715
-3.606500 31.455000 -833.156311
-4.404900 31.190201 -832.869812
-6.816900 30.691900 -832.061584
-11.431500 28.072500 -830.200012
-12.066000 27.484900 -829.900879
-12.839700 27.190599 -829.616211
-13.683500 27.045099 -829.338989
-14.536600 26.815701 -829.043091
-16.236500 26.572399 -828.494019
1.067400 32.476898 -834.502930
-2.802900 31.765699 -833.213379
-17.048599 26.692699 -828.000610
-5.821900 31.065001 -832.018372
-7.437800 30.544100 -831.435303
-8.252000 30.269699 -831.139221
-9.003900 29.805599 -830.825806
-10.448800 28.923201 -830.225281
0.059000 32.452301 -833.937378
-0.797100 32.278000 -833.646973
-1.656100 32.121601 -833.359070
-4.975500 31.134399 -832.174011
-9.713300 29.346001 -830.410278
-15.047900 26.841101 -828.331421
-11.026400 28.615101 -829.624023
-11.584600 27.992001 -829.337219
-12.285900 27.576099 -829.046570
-13.129800 27.356300 -828.750122
-13.971700 27.216600 -828.469421
-15.811900 26.994801 -827.871826
-17.470501 27.323200 -827.433289
-3.658600 31.706200 -832.325684
-6.416200 31.146999 -831.385498
-18.156000 27.687500 -827.083130
-18.965000 27.944201 -826.885925
-19.831100 28.099800 -826.652222
-2.237800 32.162498 -832.710388
-16.542500 27.239700 -827.402100
0.951500 32.804600 -833.706604
-4.313700 31.598900 -831.730225
-5.253700 31.449800 -831.412415
-7.072000 31.102301 -830.786316
-7.809800 30.773701 -830.496582
-8.553900 30.396299 -830.195618
-9.236800 29.857700 -829.882874
-9.993100 29.449301 -829.572388
-14.475000 27.237101 -827.771423
-20.410500 28.646601 -826.211121
-0.177700 32.638000 -833.104614
-1.032700 32.626099 -832.837524
-2.838000 32.121799 -832.058716
-10.637900 29.139200 -829.065979
-12.519100 27.706900 -828.208801
-13.356700 27.559900 -827.920288
-15.185300 27.350800 -827.311829
-11.090800 28.532400 -828.678772
-11.719600 28.036301 -828.388428
-16.861000 27.740200 -826.728088
-18.256399 28.143200 -826.369202
-19.055401 28.436399 -826.175598
-1.688300 32.614601 -832.244324
-5.855000 31.625700 -830.752197
-15.920600 27.628300 -826.842590
-20.884600 29.093599 -825.566589
0.768700 33.020100 -832.894287
-3.428900 32.157700 -831.413330
-6.602400 31.642700 -830.319702
-19.672899 28.865601 -825.690918
-0.400000 32.965500 -832.326416
-4.183600 31.979401 -830.947388
-7.299200 31.375099 -829.851318
-8.042800 30.947100 -829.535706
-8.726600 30.366699 -829.210022
-9.478200 30.006500 -828.904785
-13.724400 27.754101 -827.139221
-17.305401 28.156300 -826.088013
-2.246400 32.683102 -831.528625
-4.974700 31.923500 -830.521118
-10.160100 29.721300 -828.461975
-11.978000 28.102301 -827.578674
-12.812200 27.968399 -827.289490
-14.488200 27.718100 -826.711792
-18.306499 28.706900 -825.692627
-10.657800 29.018499 -828.044006
-16.205099 28.028601 -826.096924
-20.036699 29.437500 -825.150513
1.721300 33.202400 -832.679199
-1.075700 33.046299 -831.762573
-15.197500 27.982500 -826.321472
-20.882999 29.543200 -824.815308
-5.791100 32.024899 -830.003174
-18.845301 29.058800 -825.081726
0.575300 33.234100 -832.093628
-2.820900 32.767300 -830.867920
-3.610400 32.486301 -830.550720
-6.555900 32.077301 -829.486816
-7.592500 31.572300 -829.044922
-8.288600 30.888300 -828.683716
-11.031800 28.646999 -827.344910
-13.169400 28.118601 -826.529602
-16.587400 28.443001 -825.444580
-17.377199 28.742399 -825.235779
-8.984800 30.603399 -828.180786
-9.677400 30.156700 -827.864075
-11.984100 28.326599 -826.744995
-13.945800 28.172600 -826.056274
-15.418100 28.432100 -825.609619
-18.026199 29.202101 -824.876587
-19.237499 29.677401 -824.558289
-20.030001 29.915199 -824.336304
-0.061400 33.308701 -831.534485
-1.543300 33.200298 -831.012573
-4.266900 32.357800 -829.932373
-10.183100 29.463699 -827.385986
2.833800 34.295200 -832.546082
1.403700 33.443100 -831.899475
-5.062900 32.439800 -829.512390
-14.548000 28.524900 -825.551025
2.352300 33.671799 -832.089172
-2.224300 33.226898 -830.447327
-5.807200 32.542400 -829.098389
-6.822000 32.340000 -828.714783
-12.509800 28.409500 -826.037476
-15.911100 28.816000 -824.956116
-16.718100 28.972099 -824.710815
-18.426300 29.658100 -824.258484
-0.644500 33.410500 -830.851501
-2.985500 33.041901 -829.985779
-7.479000 31.876400 -828.237671
-7.966800 31.152901 -827.935486
-10.560700 29.099501 -826.666321
-11.268600 28.690100 -826.348328
0.780900 33.550598 -831.266418
-13.202000 28.578600 -825.567810
-17.372601 29.393299 -824.299988
-19.228500 30.057800 -823.792725
-3.765700 32.925400 -829.522217
-8.946100 30.678101 -827.325378
-9.573500 30.189699 -827.018799
-14.970600 28.941700 -824.934998
3.643900 33.983700 -832.064270
-1.325700 33.557400 -830.267822
-13.852400 28.792200 -825.047424
2.976700 34.009102 -831.456909
2.140000 33.890900 -831.144287
0.391300 33.741402 -830.509521
-1.996600 33.624100 -829.658875
-4.219400 32.879902 -828.747620
-5.065400 32.984600 -828.473816
-5.918800 32.978500 -828.176575
-6.728700 32.611698 -827.826599
-7.449500 31.616100 -827.389099
-8.139600 31.124901 -827.057312
-9.725500 29.697100 -826.238281
-10.659700 29.189800 -825.818787
-11.495200 28.992800 -825.491821
-12.307000 29.042801 -825.219482
-15.345300 29.218000 -824.198303
-16.144400 29.400999 -823.955505
-17.513700 29.787001 -823.552979
-18.301701 30.034901 -823.326172
4.229500 34.394501 -831.433899
1.585700 34.001900 -830.441711
-0.164400 33.834301 -829.802429
-1.002600 33.917000 -829.526978
-2.553700 33.726299 -828.952393
-3.337600 33.522099 -828.641602
-8.475000 30.642401 -826.312683
-12.803700 29.322300 -824.559875
-13.627700 29.281200 -824.266113
-14.437700 29.366301 -824.000977
-16.633101 29.725401 -823.306824
3.780600 34.470699 -830.711182
3.016800 34.219501 -830.398621
1.136400 34.247398 -829.752197
-1.451500 34.138000 -828.834412
-3.791800 33.662701 -827.932678
-4.582300 33.427700 -827.613770
-5.430300 33.463600 -827.326782
-6.234400 33.131500 -826.984802
-6.710100 32.482101 -826.695984
-7.354300 31.581800 -826.301086
-8.831700 30.425200 -825.568420
-9.592700 30.112801 -825.245117
-10.357400 29.812099 -824.922729
-11.178100 29.723801 -824.621521
-11.995600 29.689699 -824.331604
-14.896700 29.683800 -823.325012
-15.710600 29.744600 -823.054504
2.455600 34.424198 -829.719177
0.572500 34.296600 -829.043396
-0.264200 34.344601 -828.763184
-2.017400 34.230202 -828.134827
-2.865200 34.104099 -827.817383
-7.766300 31.184799 -825.562012
-12.521000 29.849300 -823.661194
-13.343000 29.807100 -823.368774
4.614500 34.726601 -830.125977
3.782500 34.764900 -829.845093
1.836700 34.560799 -829.131470
-0.883800 34.507900 -828.178589
-3.497200 34.089001 -827.192200
-4.290400 33.784901 -826.858826
-5.138500 33.798100 -826.567383
-5.870300 33.473202 -826.251221
-6.416200 32.836498 -825.939270
-6.911400 31.999300 -825.606323
-8.367000 31.051201 -824.919189
-9.120300 30.790800 -824.607971
-9.886600 30.442600 -824.275330
-10.716800 30.237301 -823.948120
-11.540400 30.127199 -823.641418
-14.006800 29.977501 -822.757874
-14.810700 30.098200 -822.502625
3.206000 34.877102 -829.171814
1.258600 34.750900 -828.468994
0.426600 34.885300 -828.205078
-1.465100 34.666599 -827.503784
-2.311500 34.534100 -827.183289
-7.411600 31.778999 -824.873596
-12.110000 30.243200 -822.939819
-12.930700 30.206100 -822.646729
-10.157200 30.762300 -823.520630
4.691300 35.055401 -829.342224
2.541000 35.001999 -828.584717
-0.243400 34.972301 -827.611511
-2.992200 34.567101 -826.577820
-3.782200 34.305000 -826.252380
-4.571500 34.118801 -825.942017
-5.370800 33.844200 -825.611023
-5.980700 33.317402 -825.296875
-6.474700 32.516399 -824.969788
-7.941500 31.452200 -824.253723
-8.694800 31.195101 -823.942017
-10.885800 30.603100 -823.065918
-13.573800 30.437099 -822.099609
3.945400 35.166801 -828.837891
2.050200 35.178200 -827.893311
1.240500 35.038200 -827.584778
-0.732400 35.099602 -826.913574
-1.552500 34.921700 -826.593994
-6.877100 32.250599 -824.216125
-9.216800 31.214899 -823.198730
-11.381400 30.652399 -822.336487
-12.248500 30.582199 -822.022095
4.768800 35.224499 -828.512573
3.512500 35.345200 -828.101685
0.588500 35.329800 -827.085815
-2.234100 34.954601 -826.032776
-3.064900 34.756699 -825.705322
-3.833600 34.468800 -825.381226
-4.668500 34.314201 -825.060913
-5.314500 33.843300 -824.742615
-5.919200 33.098499 -824.383484
-7.487200 31.990700 -823.617981
-8.292900 31.664301 -823.273376
-9.910100 31.087400 -822.597412
2.792600 35.458401 -827.575378
-10.601100 30.961901 -822.036377
-12.663300 30.716400 -821.273804
2.036300 35.490799 -827.099121
0.049100 35.505001 -826.416199
-0.772800 35.373100 -826.105896
-6.341500 32.850601 -823.673828
-11.375600 31.029499 -821.568176
4.450700 35.596401 -827.804321
-8.690700 31.679199 -822.483582
1.350200 35.496799 -826.573975
-1.481500 35.355701 -825.572083
-2.389400 35.210999 -825.230774
-3.232200 35.000599 -824.898499
-4.018200 34.648499 -824.557007
-5.418200 33.577301 -823.858704
-6.925500 32.461201 -823.114502
-7.664100 32.107498 -822.788879
3.716500 35.695099 -827.278687
-4.765800 34.251400 -824.073730
-9.417600 31.511600 -821.920776
-10.187000 31.446199 -821.445801
3.022300 35.805000 -826.742310
0.787500 35.794102 -825.971130
-0.015400 35.805199 -825.573120
-5.733300 33.275200 -823.090515
-10.921000 31.396299 -820.922607
2.226300 35.820202 -826.293274
-8.077400 32.110901 -821.990479
-0.820400 35.722301 -825.181396
5.054000 35.882000 -827.122375
-1.642900 35.655102 -824.771973
-2.568800 35.480301 -824.418091
-3.371200 35.064999 -824.058228
-6.389300 32.928699 -822.588684
-7.144000 32.524601 -822.247375
-4.048500 34.693001 -823.631470
-4.820000 33.987499 -823.224609
-8.767000 31.884001 -821.446411
4.290200 36.032101 -826.669495
1.650200 35.909698 -825.624329
-9.495600 31.880301 -821.005615
3.614200 36.084999 -826.146790
0.743400 36.072399 -825.163330
-10.269300 31.796000 -820.541077
2.847700 36.188801 -825.681396
-0.041200 36.060501 -824.667419
-0.885800 35.979099 -824.362183
-2.838600 35.568802 -823.611694
-5.210300 33.766602 -822.437988
-7.486400 32.601700 -821.425110
5.228800 36.214001 -826.297791
-1.614800 36.001202 -823.909485
-3.467100 35.177700 -823.108887
-4.076600 34.570202 -822.777588
-5.854400 33.426399 -821.937988
-6.614100 33.035000 -821.598816
-8.136900 32.344299 -820.937805
4.425400 36.403999 -825.888977
-8.947200 32.307499 -820.478821
2.297900 36.351799 -825.006226
1.461400 36.342201 -824.717773
-9.702600 32.274700 -820.075317
3.723300 36.488098 -825.339478
0.666900 36.354099 -824.264771
-2.204100 36.024300 -823.214478
-4.569900 34.300701 -822.057373
-0.199700 36.315399 -823.846924
-7.017900 33.010799 -820.839783
5.406400 36.627300 -825.553284
3.114500 36.572399 -824.749084
-0.897200 36.375900 -823.321594
-2.749900 35.702000 -822.547119
-3.425400 35.243599 -822.222717
-5.069800 33.994701 -821.406677
-5.834100 33.607201 -821.065674
-7.697000 32.860199 -820.273193
4.713800 36.782299 -824.983826
2.412100 36.627499 -824.153381
1.566900 36.606098 -823.855530
-1.544200 36.305000 -822.714783
-3.887600 34.847401 -821.611877
-8.372400 32.861698 -819.660217
4.113500 36.926300 -824.385681
0.964100 36.780701 -823.259583
0.109800 36.688900 -822.943726
-2.176100 36.255901 -822.061218
-4.403400 34.571999 -820.950684
-5.258400 34.065701 -820.552185
-6.016300 33.747700 -820.224976
-6.788700 33.356602 -819.878174
5.804300 37.117001 -824.525513
4.971100 37.189201 -824.249817
3.512600 37.036400 -823.711487
2.664100 36.936901 -823.396179
1.819100 36.916401 -823.098022
-0.426800 36.761398 -822.285095
-1.215500 36.603600 -821.979004
-2.463600 35.820400 -821.388184
-3.139400 35.372898 -821.063599
-7.362600 33.400902 -819.199585
-8.182500 33.304501 -818.895020
4.396800 37.257000 -823.541687
1.246100 37.114799 -822.418579
0.389300 37.000702 -822.098083
-1.755100 36.451302 -821.242920
-3.480300 35.016102 -820.355530
-4.240100 34.611500 -820.010376
-5.064600 34.369099 -819.675293
-5.816100 34.108299 -819.361877
-6.572300 33.842800 -819.046021
6.023600 37.546200 -823.659119
3.875800 37.351799 -822.875488
3.026200 37.251301 -822.560730
2.243700 37.060902 -822.251221
-0.151500 37.016701 -821.412109
-0.947300 36.804901 -821.093628
-2.116500 36.062000 -820.538391
-2.735300 35.436901 -820.197815
-7.144400 33.945499 -818.368713
5.392300 37.573502 -823.082275
1.229100 37.290401 -821.581299
-3.538000 35.068600 -819.478088
-4.356400 34.871799 -819.154419
-5.181100 34.657700 -818.825073
-5.953700 34.270302 -818.478699
-1.455900 36.629299 -820.313721
4.724100 37.560001 -822.489380
3.812100 37.573399 -822.038574
2.951900 37.417702 -821.709412
2.096200 37.349400 -821.399170
0.696700 37.299999 -820.904724
-0.250000 37.169201 -820.550476
-2.129600 35.817902 -819.626282
-6.564100 34.335602 -817.791016
6.598100 37.893902 -822.939575
-2.816300 35.493599 -819.198730
-3.656300 35.275200 -818.656372
-4.492100 35.029701 -818.317688
-5.346000 34.694901 -817.954712
5.841000 37.863499 -822.406128
1.548200 37.483002 -820.759888
-0.768800 37.059502 -819.879211
-1.555700 36.439602 -819.484375
5.331000 37.741299 -821.710022
4.486000 37.815399 -821.437683
3.628800 37.767899 -821.136597
2.836300 37.612099 -820.835571
0.632600 37.457401 -820.055115
-2.243600 35.956799 -818.773682
-5.892400 34.701801 -817.279297
7.046000 37.933800 -822.099670
-2.928900 35.758499 -818.271301
6.286000 38.047798 -821.668701
2.271100 37.522800 -820.197327
0.054300 37.372398 -819.413086
-0.807500 36.808201 -819.005371
-3.616600 35.576199 -817.799805
-4.459900 35.341000 -817.465271
1.462400 37.637501 -819.775574
-1.459200 36.424400 -818.532471
-5.079400 35.140202 -816.894287
5.185200 38.012299 -820.895325
4.326600 37.992599 -820.598877
3.452600 37.844898 -820.271179
-2.007600 36.229198 -817.892578
7.422200 38.123798 -821.175781
6.406100 38.192101 -820.838196
2.879300 37.902699 -819.566101
1.175400 37.743801 -818.947815
0.338900 37.538300 -818.619995
-0.376600 37.110802 -818.291626
-2.682200 36.035301 -817.291016
-3.527700 35.912899 -816.976013
-4.329900 35.601799 -816.639771
5.743100 38.118698 -820.250122
4.878400 38.163898 -819.960815
4.076500 38.097401 -819.671814
2.269000 37.718300 -818.976807
-0.945400 36.779800 -817.690308
-4.969400 35.454498 -816.051086
-1.603100 36.644600 -817.097717
7.130600 38.389801 -820.085083
3.697100 38.153301 -818.861328
1.893100 37.835701 -818.181274
1.085400 37.805599 -817.898315
0.313400 37.514999 -817.577576
-2.296000 36.535099 -816.494507
-3.071200 36.338100 -816.190674
-3.867900 36.049099 -815.861877
6.499600 38.489799 -819.491821
5.694600 38.369301 -819.192688
4.893700 38.302799 -818.905396
3.037400 38.119701 -818.233887
-0.330600 37.188499 -816.900574
4.338700 38.409302 -818.259399
2.452800 38.065102 -817.547607
1.618400 37.861801 -817.222778
-0.867500 37.036400 -816.213013
-1.712800 36.876202 -815.892822
-2.561800 36.717999 -815.571716
-3.342900 36.504902 -815.263306
7.034700 38.594799 -818.697388
6.162900 38.572201 -818.395813
5.352200 38.431999 -818.092224
3.758800 38.414600 -817.545593
1.103500 37.840801 -816.529114
0.253100 37.590698 -816.190674
4.781700 38.499401 -817.430298
3.171500 38.397499 -816.862488
2.354500 38.295101 -816.564575
-0.227000 37.345699 -815.501526
-1.057500 37.260700 -815.202271
-1.894300 37.159401 -814.897827
-2.754300 36.953899 -814.565186
7.019400 38.692699 -817.830017
6.156700 38.752102 -817.547913
1.748000 38.108398 -815.921570
0.905400 37.897400 -815.593689
4.484300 38.639000 -816.639771
5.602800 38.796501 -816.816895
3.740700 38.602600 -816.145691
2.923600 38.500599 -815.847778
0.462000 37.780602 -814.869690
-0.387200 37.584400 -814.542480
-1.228400 37.456001 -814.231323
-2.054700 37.424301 -813.943970
-2.906700 37.195099 -813.609375
6.608700 38.942699 -816.843384
2.235100 38.408798 -815.255981
1.460000 38.120800 -814.936829
5.478600 38.889801 -815.971619
4.668900 38.806599 -815.680786
3.620300 38.750801 -815.314270
0.341400 37.988300 -814.052979
-0.502700 37.832901 -813.736389
-1.344600 37.709900 -813.426819
-2.184800 37.614799 -813.123413
1.179900 38.132301 -814.091980
3.033000 38.729900 -814.604126
2.184400 38.472900 -814.264709
5.336600 39.084000 -815.150574
4.522600 38.977798 -814.852783
0.193300 38.193001 -813.225586
-0.640600 38.098701 -812.923523
-1.479500 37.996101 -812.617920
3.832700 38.935001 -814.322998
1.073300 38.363800 -813.276123
2.947300 38.767101 -813.729126
2.100300 38.535000 -813.398499
5.264800 39.299000 -814.320618
0.031000 38.430199 -812.392090
-0.796900 38.377499 -812.103699
4.551800 39.159401 -813.878784
3.811500 39.031200 -813.451477
1.623400 38.560799 -812.629272
2.853700 38.831299 -812.860229
0.873200 38.675098 -812.169312
-0.111900 38.697601 -811.593323
5.894000 39.391102 -813.530273
5.087500 39.315201 -813.090393
3.677500 39.092499 -812.578186
2.474100 38.723999 -812.106384
1.659700 38.833302 -811.780701
0.726300 38.870300 -811.352478
4.762800 39.360001 -812.275085
3.273800 39.006199 -811.778320
4.111900 39.109501 -811.670898
2.562600 38.966202 -811.193176
1.678000 39.006699 -810.940125
5.876200 39.504601 -811.982727
5.412400 39.548000 -811.207397
4.587100 39.300701 -810.932800
3.694100 39.209099 -810.662720
2.876600 39.097301 -810.411072
5.966800 39.685001 -810.485901
5.143300 39.448002 -810.216614
4.262700 39.478600 -809.972717
3.445400 39.360100 -809.723389
6.438000 39.769001 -809.753784
5.620300 39.578300 -809.508179
4.737900 39.616402 -809.278625
5.145900 39.818199 -808.429993
-20.174101 23.250999 -834.186523
-21.485800 22.351200 -838.085327
-18.813601 23.725700 -840.632813
-12.258100 28.199800 -831.224976
-17.234600 30.201099 -822.804382
6.227500 39.190201 -815.656616
-9.216700 32.937000 -819.809021
-10.783600 31.404301 -822.791382
-10.374800 31.928301 -822.197021
-8.552000 33.093800 -820.561218
-11.551200 30.530701 -824.507874
-9.739000 31.397800 -823.947021
-10.684500 30.037500 -825.700989
-11.994000 29.972401 -825.223389
1.156800 41.426300 -811.762085
-14.077800 30.186399 -824.239685
-12.945700 30.591299 -823.538574
-11.973000 31.119600 -822.796997
-16.298401 30.331900 -822.693604
-21.528601 37.029800 -815.472473
-22.385700 37.236198 -815.214905
-23.180099 37.442402 -814.979126
-24.045799 37.583698 -814.705505
-24.837099 37.794998 -814.471802
-25.630699 38.074501 -814.250916
-26.422300 38.367100 -814.033081
-27.215000 38.736198 -813.830322
-28.008801 39.208199 -813.647522
-28.799101 39.709599 -813.471802
-29.509600 40.259300 -813.333374
-19.207500 36.926498 -815.779175
-20.079399 37.059101 -815.502075
-29.890699 40.889900 -812.850586
-17.202299 36.820499 -815.950623
-18.073200 36.946098 -815.673218
-20.637199 37.218700 -814.837219
-21.504400 37.385399 -814.569275
-22.371901 37.555099 -814.302002
-23.195000 37.687801 -814.042725
-24.067301 37.908298 -813.783875
-24.937599 38.131100 -813.526306
-25.730900 38.405201 -813.305725
-26.524799 38.736698 -813.096375
-27.318701 39.135799 -812.900696
-28.109600 39.557899 -812.710571
-28.823500 40.085899 -812.568604
-30.511200 41.062099 -812.178223
-15.696200 36.835499 -815.988220
-18.677000 37.031502 -814.994812
-19.482700 37.103500 -814.729980
-29.359200 40.531601 -811.999084
-16.389200 37.013100 -815.415588
-17.289101 37.011501 -815.103271
-20.742701 37.388802 -813.982117
-21.608000 37.576000 -813.719910
-22.484800 37.742500 -813.449585
-23.356501 37.924900 -813.184326
-24.227600 38.126301 -812.922974
-25.097601 38.344002 -812.665405
-25.891600 38.635101 -812.449097
-26.686501 39.001598 -812.247681
-27.476601 39.341801 -812.042603
-28.266001 39.750000 -811.851624
-29.849300 41.194401 -811.595215
-14.544300 36.933899 -815.832214
-17.952000 36.961399 -814.501099
-19.784401 37.258598 -813.925476
-18.775801 37.126999 -814.128113
-28.782000 40.273499 -811.300476
-15.201400 37.056499 -815.231384
-13.475700 37.018101 -815.699219
-30.054600 41.010399 -810.768372
-16.494600 36.996700 -814.560486
-20.928101 37.626202 -813.153076
-21.804399 37.838699 -812.892700
-22.677799 38.036400 -812.630310
-23.545799 38.169399 -812.356812
-24.410299 38.254501 -812.074707
-25.284401 38.584999 -811.838928
-26.079700 38.990200 -811.645325
-26.867399 39.275299 -811.430176
-27.653299 39.590199 -811.221680
-29.153900 40.907299 -810.806580
-12.632900 37.112900 -815.474915
-14.022400 37.147999 -815.009521
-15.621000 37.023899 -814.440918
-17.126801 36.988602 -813.921814
-17.999300 37.178200 -813.663391
-19.044600 37.351299 -813.343018
-19.863400 37.538799 -813.102478
-28.035299 40.061501 -810.620178
-14.600000 37.133499 -814.383911
-21.113899 37.868801 -812.319580
-21.916901 38.126801 -812.099182
-22.871901 38.321701 -811.814392
-23.741301 38.399799 -811.534729
-24.613800 38.575600 -811.273987
-11.682400 37.188499 -815.204773
-13.069500 37.246899 -814.744080
-16.033100 36.997799 -813.683411
-25.346800 38.963600 -810.910706
-26.140200 39.278198 -810.704529
-26.932100 39.668999 -810.514404
-28.506701 40.700500 -810.188293
-29.363600 40.957401 -809.948730
-18.266500 37.510300 -812.882507
-20.102400 37.761002 -812.307800
-17.183300 37.321400 -813.138611
-19.170500 37.659302 -812.531006
-10.606700 37.125599 -815.098572
-13.667100 37.165798 -814.051086
-14.939300 37.096199 -813.599182
-27.381800 40.064999 -809.874817
-11.890800 37.322201 -814.358826
-16.132299 37.305401 -812.892029
-20.460800 37.955799 -811.522400
-21.263100 38.251900 -811.302002
-22.061001 38.443001 -811.063110
-22.935200 38.451199 -810.763000
-23.810499 38.666000 -810.502014
-24.604099 39.078701 -810.306824
-25.314600 39.522400 -810.146179
-26.101801 39.837002 -809.934509
-27.899700 40.661201 -809.471313
-28.705799 40.875301 -809.233887
-9.530900 37.143101 -814.801880
-10.987400 37.364498 -814.342285
-12.579800 37.320099 -813.785278
-14.005600 37.199699 -813.271118
-16.816000 37.559799 -812.371582
-17.620399 37.735001 -812.127930
-18.498301 37.793301 -811.836609
-19.378099 37.917198 -811.557129
-14.713600 37.220299 -812.702026
-26.429800 40.290901 -809.262085
-8.511000 37.273499 -814.502319
-9.902100 37.402000 -814.049377
-11.347500 37.329399 -813.539429
-12.989400 37.397800 -812.988770
-15.384800 37.495399 -812.185181
-19.787001 38.112999 -810.792297
-20.585699 38.273701 -810.548828
-21.461399 38.360500 -810.264771
-22.259600 38.681301 -810.052185
-23.054399 38.919102 -809.824890
-23.847300 39.194500 -809.605408
-24.637100 39.570702 -809.406311
-25.423401 39.959000 -809.210571
-27.065300 40.681000 -808.785217
-11.975700 37.441200 -812.956726
-13.635300 37.252899 -812.351624
-16.052900 37.739101 -811.616028
-16.858801 37.968399 -811.383728
-17.737301 38.072800 -811.102478
-18.611799 38.082001 -810.804382
-7.190200 37.520100 -814.142029
-8.010600 37.571800 -813.871216
-8.860100 37.506100 -813.567688
-9.959200 37.464100 -813.183472
-10.818800 37.387798 -812.874573
-14.223300 37.553101 -811.741089
-19.183500 38.170502 -810.162170
-19.984400 38.424599 -809.937073
-20.784401 38.766102 -809.729004
-21.658100 38.886600 -809.453186
-22.452200 39.119499 -809.226318
-23.244400 39.412201 -809.011475
-24.034201 39.687000 -808.794128
-24.820700 40.044601 -808.593811
-25.604601 40.368301 -808.387817
-26.385000 40.722599 -808.189026
-11.376800 37.574200 -812.222290
-12.251200 37.553600 -811.920227
-13.120300 37.445999 -811.603027
-14.813000 37.770901 -811.088806
-15.620700 38.000401 -810.857910
-16.501200 38.128201 -810.582520
-17.378500 38.202301 -810.297729
-18.255501 38.281799 -810.013977
-5.812000 37.656300 -813.661377
-6.645600 37.734600 -813.393005
-7.473100 37.753201 -813.115112
-8.315500 37.717701 -812.821472
-9.165700 37.661999 -812.521423
-10.021400 37.596802 -812.217529
-13.714800 37.789001 -810.997986
-18.763000 38.733700 -809.464111
-19.637300 38.803902 -809.180298
-20.511801 38.904301 -808.902283
-21.307800 39.141998 -808.677673
-22.101601 39.359001 -808.449829
-22.893600 39.633701 -808.233704
-23.683399 39.888199 -808.014526
-24.471001 40.142601 -807.796021
-25.254499 40.528198 -807.604370
-26.036301 40.830700 -807.397278
-10.677400 37.669800 -811.606873
-11.557100 37.719101 -811.317078
-12.432600 37.710899 -811.017517
-14.763100 38.078800 -810.296082
-15.641900 38.157001 -810.012329
-16.529301 38.459599 -809.769287
-17.330601 38.657902 -809.535278
-4.992700 37.843102 -813.256714
-18.031601 38.950199 -809.032898
-5.757600 37.893002 -812.776672
-6.578100 37.941502 -812.507202
-7.410800 37.944698 -812.224670
-8.261200 37.883598 -811.923523
-9.113600 37.828098 -811.622681
-12.922000 37.982899 -810.357971
-13.802900 38.078098 -810.077087
-18.768000 39.210800 -808.610718
-19.639700 39.250099 -808.321899
-20.434401 39.464901 -808.093811
-21.306299 39.660999 -807.835693
-22.097500 39.898499 -807.613220
-22.965700 40.118500 -807.361023
-23.831800 40.364101 -807.114624
-24.614901 40.737801 -806.921570
-9.938800 37.908001 -811.195374
-14.986800 38.569199 -809.612000
-4.152100 37.856300 -812.982300
-10.725400 37.948799 -810.771912
-11.605700 38.022400 -810.487915
-15.774600 38.734699 -809.214111
-16.650900 38.841999 -808.937988
-17.355101 39.140400 -808.539612
-4.717900 38.139999 -812.367676
-5.964600 38.130199 -811.943176
-6.794700 38.142502 -811.664185
-7.634100 38.125401 -811.376282
-8.481100 38.088001 -811.081787
-12.208900 38.108002 -809.822021
-13.018200 38.355999 -809.596375
-13.828600 38.672100 -809.383728
-18.050200 39.384300 -808.092529
-18.922600 39.527901 -807.825012
-19.794701 39.747002 -807.572388
-20.664700 39.964699 -807.320190
-22.163099 40.332001 -806.884399
-23.028000 40.558498 -806.635681
-23.810600 40.893799 -806.436218
-2.877200 37.869900 -812.663818
-9.198600 38.231800 -810.590088
-14.550800 38.919300 -808.909302
-15.981800 39.087101 -808.456726
-3.602600 38.091999 -812.220581
-9.939400 38.272099 -810.099976
-10.743000 38.423000 -809.856323
-16.720600 39.324402 -807.999878
-21.149900 40.401402 -806.705017
-5.101200 38.296600 -811.578186
-11.523100 38.626499 -809.456787
-6.119100 38.325699 -811.104614
-6.945200 38.357800 -810.829895
-7.785900 38.339001 -810.540222
-12.356600 38.792400 -809.074707
-13.227000 38.803799 -808.780884
-15.060600 39.157902 -808.226929
-17.441999 39.631302 -807.510010
-18.312700 39.831402 -807.253174
-19.181700 40.038601 -806.998413
-19.970400 40.277901 -806.777283
-21.933800 40.801899 -806.212585
-22.794001 41.064301 -805.971619
-4.119200 38.404400 -811.594971
-2.188300 37.976700 -812.095276
-8.529200 38.532501 -810.056824
-13.934400 39.016701 -808.321228
-15.736700 39.420799 -807.705994
-2.923900 38.306099 -811.663574
-9.234600 38.775902 -809.633179
-10.112800 38.896198 -809.361511
-5.316900 38.464802 -810.734924
-10.922200 39.011700 -808.960327
-16.477100 39.685299 -807.227478
-20.346500 40.682098 -806.124329
-21.131001 40.949799 -805.913513
-6.276100 38.639500 -810.315186
-7.095000 38.706699 -810.053528
-11.707300 39.183201 -808.598328
-12.583200 39.321499 -808.331421
-14.418500 39.369598 -807.659729
-17.511900 40.003101 -806.745422
-18.459900 40.225899 -806.470825
-19.248800 40.488800 -806.257507
-21.993500 41.277199 -805.490723
-4.446000 38.560299 -810.823425
-1.466000 38.255100 -811.538513
-3.383000 38.563000 -810.958801
-7.769100 38.938599 -809.568176
-13.255900 39.523102 -807.851013
-2.195800 38.521301 -811.115784
-8.511200 39.133900 -809.129517
-9.388500 39.249802 -808.859619
-14.939000 39.752998 -807.106995
-4.782400 38.882198 -810.074585
-5.661200 39.044601 -809.813782
-6.517800 39.105000 -809.540527
-10.099200 39.464100 -808.418274
-10.899000 39.645599 -808.187622
-11.768600 39.683498 -807.905518
-13.827200 39.871700 -807.257019
-15.644200 39.986301 -806.674377
-16.512800 40.032398 -806.394287
-19.511999 41.011700 -805.587280
-20.295601 41.308899 -805.384521
-21.156700 41.469799 -805.129272
-3.734200 38.932800 -810.240112
-12.506600 39.903400 -807.513428
-17.405100 40.351700 -805.972473
-18.352600 40.635502 -805.713013
-0.817500 38.651699 -810.998230
-2.689100 38.790401 -810.403076
-7.164200 39.397499 -809.034119
-8.696000 39.596001 -808.439819
-14.323500 40.249699 -806.673096
-1.573800 38.724300 -810.554382
0.373500 38.956600 -810.549316
-0.841400 38.995899 -810.198975
-1.962200 39.133598 -809.892212
-2.847300 39.220501 -809.646423
-3.727600 39.341301 -809.407471
-4.611800 39.444801 -809.164673
-5.507700 39.488701 -808.908813
-6.381400 39.659801 -808.679871
-7.590800 39.803200 -808.348022
-9.328000 39.862099 -807.847717
-10.215500 39.965599 -807.603821
-11.105600 40.107498 -807.365417
-12.953000 40.332699 -806.859375
-15.819000 40.543999 -806.052185
-11.823200 40.421799 -806.959412
-14.854900 40.688000 -806.116516
-16.523701 40.832001 -805.651978
-17.555201 40.930099 -805.366516
-18.597300 41.223801 -805.109070
-19.406200 41.626099 -804.937378
-20.212900 42.073299 -804.773499
-8.288300 40.091599 -807.811218
-13.583600 40.605301 -806.352112
1.747800 39.108002 -810.089111
0.861300 39.133301 -809.838684
-0.011700 39.271702 -809.609680
-0.890900 39.367199 -809.372192
-1.769300 39.472698 -809.136475
-2.641800 39.621601 -808.909180
-3.603500 39.722599 -808.648926
-4.475000 39.881599 -808.423401
-5.348700 40.028301 -808.195374
-6.228300 40.143002 -807.960815
-7.115600 40.219898 -807.718079
-8.878500 40.432499 -807.245178
-9.769000 40.568001 -807.010681
-10.643400 40.592701 -806.763672
-12.330100 40.813702 -806.314026
-15.281000 41.164299 -805.521606
-17.752501 41.637699 -804.885620
-20.249201 42.830101 -804.352478
-7.699400 40.566399 -807.147278
-11.239700 40.969601 -806.202820
-12.926200 41.226898 -805.762817
-13.799800 41.298801 -805.525513
-15.868100 41.565800 -804.978516
-16.743799 41.722401 -804.753601
-18.262400 42.144600 -804.386902
-18.993500 42.559799 -804.242981
2.628300 39.267502 -809.478394
1.748400 39.346298 -809.242004
0.873700 39.473499 -809.014709
-0.004900 39.571602 -808.781677
-0.878300 39.712299 -808.556824
-1.744900 39.901501 -808.341370
-2.624800 39.999199 -808.107971
-3.496200 40.155102 -807.885986
-4.365500 40.325001 -807.666809
-5.243500 40.442200 -807.437012
-6.116400 40.592201 -807.213623
-8.388500 40.877602 -806.616089
-9.266100 40.917801 -806.374512
-10.155000 41.053101 -806.144409
-11.846000 41.315701 -805.707397
-14.403600 41.682098 -805.041809
-17.276300 42.287498 -804.324219
-19.375299 43.329201 -803.892578
-20.172899 43.707298 -803.725891
-6.919900 40.777500 -806.802979
-15.154700 41.979198 -804.615295
-18.122499 42.868401 -803.924011
-13.058900 41.697102 -805.040405
-15.942100 42.142799 -804.323730
-10.733200 41.352699 -805.526123
3.344300 39.371498 -808.871704
2.460900 39.441299 -808.646423
1.586700 39.606098 -808.437317
0.713200 39.771198 -808.228394
-0.246600 39.888699 -807.989624
-1.117800 40.068901 -807.783630
-1.993700 40.207699 -807.570313
-7.563300 40.977699 -806.197510
-2.766700 40.457001 -807.176819
-3.652800 40.523300 -806.952881
-4.523900 40.697201 -806.748413
-5.396600 40.858299 -806.541626
-8.376300 41.120701 -805.794189
-9.272800 41.242100 -805.575378
-11.959300 41.690300 -804.932129
-13.672500 42.103600 -804.540283
-16.485001 42.649200 -803.877808
-17.299299 42.962101 -803.708374
-18.444700 43.527901 -803.488281
4.156500 39.595501 -808.599121
-6.142000 41.035301 -806.115723
-14.443800 42.391102 -804.141907
3.146100 39.717300 -808.096130
2.266700 39.835300 -807.884094
1.390500 39.983799 -807.677429
0.413800 39.956501 -807.419128
-9.853100 41.500401 -804.968384
-10.837600 41.711498 -804.742615
-12.544500 42.031101 -804.344177
-15.219900 42.656898 -803.737915
-0.323300 40.200802 -807.063416
-1.194600 40.390900 -806.864319
-2.062800 40.599800 -806.668823
-6.792900 41.210098 -805.527222
-7.691800 41.326599 -805.310425
-2.883800 40.750999 -806.328613
-3.756600 40.921001 -806.127014
-4.633300 41.061901 -805.920288
-8.524300 41.448200 -804.968628
-13.665800 42.548100 -803.795776
-15.910100 42.972198 -803.275818
-5.445100 41.206200 -805.581787
-11.476000 42.074501 -804.156372
4.574600 39.905399 -807.788208
1.055400 40.391800 -806.958923
-14.329100 42.907501 -803.389282
3.727600 40.030602 -807.431396
2.842700 40.105900 -807.216614
1.966300 40.267200 -807.016418
-9.150800 41.717602 -804.390381
-10.036400 41.792198 -804.175415
-12.731500 42.404099 -803.575928
0.282200 40.662601 -806.527405
-0.598100 40.779701 -806.320129
-6.071800 41.378101 -805.013123
-15.091900 43.004501 -802.950317
5.451800 39.891201 -807.625305
-1.424400 40.917400 -806.028015
-6.909600 41.499001 -804.720276
-7.806500 41.609299 -804.508606
-2.241100 41.022202 -805.778198
-3.128700 41.095798 -805.564270
-3.977700 41.119400 -805.304871
-4.810600 41.301498 -805.004578
-10.684600 42.061199 -803.626221
-11.767000 42.444401 -803.406372
-13.251500 42.951801 -803.102173
5.000200 40.272800 -806.955872
3.709200 40.357201 -806.641724
2.831700 40.523201 -806.443176
1.956800 40.707199 -806.247925
1.076100 40.832199 -806.043030
-8.315500 41.847301 -803.812622
-9.299700 42.026001 -803.588989
-12.350100 42.870899 -802.936584
0.339300 41.036098 -805.654114
-0.537000 41.195301 -805.455017
-1.421400 41.288101 -805.244507
-2.381900 41.424301 -805.020874
-3.263400 41.542801 -804.814819
-4.127600 41.719398 -804.621216
-5.183600 41.781399 -804.362976
-6.074500 41.829800 -804.144714
-6.961600 41.866100 -803.925720
-13.664600 43.267502 -802.428284
6.077500 40.169102 -806.748108
-9.907200 42.311401 -803.013672
-10.744800 42.613998 -802.844727
-12.828800 43.435902 -802.433716
4.629000 40.578999 -806.212585
-7.576900 42.159500 -803.359619
-8.624900 42.223400 -803.104675
-11.443000 43.035301 -802.508423
5.500600 40.554798 -806.179077
3.902800 40.840199 -805.818787
3.017300 40.919601 -805.608215
2.132800 41.012501 -805.399719
1.251900 41.139999 -805.196777
-1.695400 41.683399 -804.534729
-4.442600 42.096802 -803.904480
6.589400 40.345100 -806.090393
0.515800 41.431702 -804.733215
-0.371200 41.506500 -804.523315
-2.435500 41.935600 -804.070374
-3.312400 42.084301 -803.873291
-5.149700 42.381802 -803.458374
-6.038900 42.422699 -803.243225
-9.117600 42.692101 -802.515930
-9.941700 42.884701 -802.338013
-11.858900 43.572201 -801.957825
5.324200 40.990700 -805.426025
4.453400 41.237499 -805.246216
3.572100 41.354900 -805.045715
2.683200 41.395199 -804.832397
1.798900 41.487202 -804.627625
-1.005400 41.868500 -803.990479
-6.720900 42.691200 -802.698486
-7.616700 42.793201 -802.492188
-10.494200 43.416599 -801.871277
6.599700 40.951401 -805.238220
1.244800 41.866501 -804.058228
0.364200 41.990299 -803.860291
-1.559300 42.241600 -803.425476
-2.443800 42.336102 -803.222473
-3.308100 42.528400 -803.038391
-4.143500 42.692200 -802.857178
-4.968200 42.812099 -802.672485
-5.866800 42.910599 -802.466675
-8.151000 43.208900 -801.950317
-8.970200 43.363998 -801.771973
-0.253600 42.299400 -803.283630
-6.506700 43.170300 -801.890320
-1.552200 42.416000 -802.591370
-2.478800 42.604801 -802.395813
-3.320800 42.791000 -802.220215
-4.212900 42.829300 -802.010986
-5.072800 42.985802 -801.830322
5.841400 41.440800 -804.847107
4.933600 41.598301 -804.572510
3.162700 41.850800 -804.107300
2.275800 41.889500 -804.029785
-16.749599 43.137199 -803.083374
-19.210699 43.934700 -803.303894
-27.982800 41.016102 -808.680481
-25.475901 41.008099 -806.648376
-7.513900 43.304401 -801.330872
-11.151200 43.978500 -801.527283
-9.871300 43.819099 -801.382629
-5.740600 43.547100 -801.786377
-11.497900 43.770599 -804.555176
3.964300 41.980202 -804.606689
-24.936501 41.656101 -809.339172
-14.528300 43.689701 -803.062500
-24.403400 41.496201 -806.575500
-23.464399 41.622501 -806.157471
-17.620300 43.702801 -803.258179
4.105400 40.937099 -799.104370
5.357400 41.484600 -798.913818
3.579200 40.735298 -798.372925
4.716700 41.496700 -798.343384
6.246600 41.693001 -798.338318
4.316600 40.983898 -797.756714
3.480100 40.782902 -797.519104
5.537900 41.711601 -797.792725
7.282600 41.857101 -797.950989
3.326400 40.349998 -796.743896
6.521900 41.857498 -797.494080
5.095000 41.287601 -797.054199
4.395700 40.756500 -796.803894
8.159400 41.942799 -797.382202
6.035700 41.681900 -796.808472
3.969000 40.400700 -796.108276
-5.751500 33.665798 -792.716614
7.394700 41.995399 -796.880371
5.462500 41.119701 -796.268982
-4.361200 34.098301 -792.803894
-6.462300 33.610298 -792.203430
8.897800 42.139198 -796.925415
4.901500 40.659000 -795.703003
