55.337299 14.486000 -750.805420
55.198002 14.362200 -750.933899
55.078201 14.266600 -751.055176
59.037701 16.771900 -745.838684
58.954300 16.820601 -746.038330
58.851700 16.823500 -746.226807
58.722301 16.762400 -746.399902
58.607601 16.654100 -746.499390
58.471100 16.576799 -746.669128
58.323299 16.473200 -746.832886
58.169300 16.355200 -746.993713
58.037498 16.289801 -747.166992
57.894299 16.198200 -747.334473
57.747200 16.097601 -747.500183
57.611698 16.024700 -747.672485
57.468399 15.933800 -747.840881
57.340000 15.878000 -748.017517
57.189499 15.770900 -748.182922
57.070301 15.655800 -748.283813
56.922600 15.556200 -748.451416
56.791599 15.495600 -748.627808
56.675701 15.469900 -748.812012
56.547699 15.416400 -748.990173
56.408901 15.338500 -749.163513
56.292801 15.270200 -749.305176
56.160000 15.172000 -749.447510
56.031700 15.094600 -749.602417
55.903900 15.019400 -749.758484
55.774502 14.937400 -749.910706
55.648499 14.870700 -750.072021
55.521702 14.800500 -750.231323
55.397202 14.740300 -750.396423
55.274200 14.686300 -750.565186
55.144901 14.605400 -750.718323
54.956699 14.435000 -750.888428
58.829800 16.875900 -745.717224
58.741798 16.884399 -745.885071
58.649300 16.910900 -746.079224
58.525101 16.862000 -746.255310
58.381500 16.767401 -746.420715
58.229500 16.653200 -746.581726
58.086201 16.560101 -746.748108
57.931702 16.440701 -746.908630
57.787800 16.347000 -747.075500
57.652500 16.273600 -747.247314
57.517200 16.200701 -747.419373
57.382099 16.128401 -747.591797
57.231602 16.020500 -747.756470
57.085800 15.924100 -747.924072
56.940300 15.828700 -748.092285
56.821499 15.714800 -748.193481
56.669899 15.606100 -748.359314
56.553699 15.579500 -748.543213
56.435200 15.547600 -748.726013
56.308102 15.496200 -748.904724
56.164101 15.406200 -749.075500
56.046501 15.342900 -749.225281
55.920101 15.273200 -749.384583
55.790699 15.190500 -749.536194
55.662998 15.115700 -749.692627
55.537300 15.049200 -749.853882
55.408798 14.971100 -750.008423
55.281200 14.896700 -750.165222
55.153999 14.824300 -750.323181
55.031700 14.773100 -750.493530
54.887001 14.625600 -750.607971
54.701000 14.442100 -750.761414
58.543400 16.899900 -745.763794
58.471100 16.974100 -745.969421
58.356300 16.947399 -746.150818
58.217602 16.864201 -746.318787
58.066399 16.751900 -746.480286
57.912899 16.634501 -746.640991
57.757000 16.512100 -746.800781
57.611500 16.414200 -746.966797
57.480499 16.351000 -747.140930
57.346100 16.280100 -747.313416
57.199200 16.180201 -747.479675
57.060799 16.100500 -747.650818
56.917702 16.010201 -747.819702
56.770699 15.911300 -747.987122
56.657299 15.809900 -748.091003
56.541901 15.704100 -748.194214
56.413700 15.649700 -748.372009
56.294899 15.616900 -748.554626
56.176201 15.584500 -748.737427
56.044701 15.522900 -748.914124
55.908100 15.452000 -749.090576
55.776100 15.356900 -749.234680
55.645000 15.266200 -749.381470
55.518299 15.195500 -749.540222
55.391300 15.123400 -749.698181
55.264500 15.051800 -749.856506
55.143501 15.006100 -750.030029
55.015400 14.929400 -750.185425
54.889999 14.864500 -750.347717
54.757500 14.768900 -750.492126
54.614300 14.628200 -750.610718
54.474899 14.481400 -750.716370
58.497501 16.951900 -745.557190
58.375900 16.986799 -745.812378
57.704102 16.624800 -746.666870
55.866299 15.554400 -748.924316
54.577301 14.749400 -750.453186
58.206100 17.070801 -745.933228
58.067699 16.988600 -746.101318
57.919899 16.884501 -746.264526
57.770100 16.775801 -746.427124
57.523300 16.602900 -746.700623
57.380199 16.511400 -746.867920
57.226299 16.394800 -747.029785
57.089802 16.319401 -747.201416
56.961201 16.262501 -747.377319
56.820301 16.177500 -747.547119
56.672298 16.076200 -747.713623
56.533001 15.995600 -747.885010
56.419701 15.894800 -747.989197
56.306000 15.793400 -748.093384
56.185600 15.756900 -748.275024
56.067402 15.725800 -748.457703
55.931900 15.674500 -748.651611
55.676201 15.521300 -748.960876
55.540298 15.408800 -749.094421
55.412601 15.333400 -749.250000
55.289902 15.280000 -749.418579
55.163101 15.208700 -749.576721
55.036400 15.137700 -749.734985
54.914902 15.089600 -749.906677
54.790798 15.030000 -750.071716
54.660400 14.943600 -750.221130
54.387100 14.717700 -750.489685
58.253700 17.041100 -745.543030
58.168800 17.055000 -745.710510
57.545502 16.726900 -746.509705
55.750301 15.667000 -748.696899
54.481602 14.947000 -750.271606
58.077499 17.085501 -745.519104
57.988899 17.088800 -745.682678
57.902100 17.128700 -745.879517
57.765701 17.051300 -746.048828
57.616402 16.943800 -746.211304
57.465599 16.833000 -746.373413
57.351898 16.728701 -746.474670
57.205799 16.630100 -746.640320
57.055599 16.521999 -746.803894
56.917198 16.441999 -746.974182
56.777802 16.360001 -747.144287
56.644001 16.291401 -747.317627
56.514198 16.232100 -747.493225
56.372799 16.146299 -747.663086
56.211899 16.016001 -747.823792
56.098598 15.915400 -747.928223
55.950802 15.815900 -748.096130
55.832802 15.785300 -748.278809
55.721901 15.769100 -748.463196
55.562599 15.715900 -748.698181
55.433498 15.633300 -748.848999
55.300800 15.535200 -748.990723
55.168900 15.440200 -749.134521
55.041599 15.366400 -749.290771
54.918301 15.309600 -749.457214
54.793900 15.248500 -749.620911
54.667400 15.178000 -749.779297
54.540199 15.104900 -749.936218
54.413601 15.034300 -750.094482
54.285500 14.957100 -750.249084
54.154800 14.869500 -750.397827
57.810101 17.107700 -745.496582
57.731300 17.166300 -745.697815
57.620899 17.150299 -745.881287
57.483501 17.070601 -746.050171
57.372398 16.971901 -746.152405
57.211102 16.836901 -746.309082
57.061401 16.729700 -746.472473
56.909000 16.616400 -746.634888
56.767399 16.528900 -746.803406
56.631901 16.455799 -746.975403
56.503201 16.398899 -747.151184
56.352200 16.290400 -747.315918
56.219700 16.225100 -747.490173
56.068298 16.116600 -747.655518
55.905499 15.982400 -747.815613
55.759998 15.888100 -747.984619
55.637299 15.861900 -748.180298
55.519501 15.829700 -748.361084
55.398701 15.783900 -748.533813
55.276501 15.731400 -748.702393
55.137798 15.606700 -748.828308
55.010700 15.532900 -748.984375
54.882599 15.455300 -749.138428
54.755798 15.383300 -749.295776
54.638199 15.351400 -749.476624
54.515598 15.297500 -749.644470
54.387402 15.219500 -749.798279
54.256802 15.131600 -749.946472
54.124802 15.037800 -750.091492
53.987701 14.922700 -750.224182
53.812302 14.751700 -750.370422
57.591400 17.190701 -745.453003
57.512501 17.248699 -745.653992
57.389702 17.203100 -745.830627
57.252998 17.125099 -745.999878
57.093300 16.993601 -746.157227
56.936199 16.868601 -746.316284
56.779099 16.744200 -746.476013
56.638100 16.657801 -746.644714
56.496601 16.570499 -746.813293
56.347801 16.466600 -746.978577
56.209499 16.387501 -747.149719
56.079102 16.327000 -747.325012
55.932701 16.229601 -747.492493
55.777401 16.112499 -747.656128
55.664600 16.013201 -747.760925
55.528198 15.940000 -747.934387
55.395302 15.901400 -748.136230
55.277500 15.868800 -748.316772
55.156399 15.821100 -748.488220
55.030201 15.751000 -748.646423
54.898998 15.659000 -748.791626
54.764599 15.552800 -748.928711
54.639000 15.486000 -749.088989
54.516102 15.430800 -749.256104
54.397099 15.392100 -749.432922
54.271801 15.326800 -749.594116
54.148701 15.270500 -749.760498
54.023602 15.205500 -749.921875
53.886600 15.090100 -750.054199
53.742199 14.944100 -750.169312
57.360199 17.181499 -745.373230
57.286098 17.250500 -745.576782
57.183498 17.252300 -745.764587
57.047100 17.174700 -745.934082
56.891300 17.051901 -746.093384
56.735699 16.930201 -746.253418
56.571899 16.789900 -746.409485
56.429501 16.699900 -746.577393
56.278801 16.590900 -746.741272
56.149700 16.532400 -746.916687
56.009300 16.447901 -747.086609
55.873402 16.374399 -747.259216
55.734001 16.292801 -747.430176
55.617599 16.184799 -747.532776
55.499901 16.073999 -747.635071
55.336498 15.938600 -747.795410
55.214001 15.929100 -748.007996
55.102299 15.923000 -748.204407
54.983101 15.883000 -748.380371
54.856098 15.808800 -748.536072
54.729000 15.733700 -748.691406
54.596600 15.636000 -748.833374
54.471600 15.571000 -748.994812
54.348499 15.513800 -749.160706
54.227699 15.466900 -749.332581
54.105000 15.411800 -749.499695
53.978199 15.338900 -749.656616
53.853298 15.274500 -749.818176
53.723301 15.188100 -749.967285
53.580799 15.049100 -750.086182
53.471100 14.894800 -750.130371
57.126400 17.209499 -745.339172
57.055901 17.286800 -745.544678
56.942200 17.261900 -745.726379
56.810200 17.194500 -745.898315
56.693600 17.082800 -745.997681
56.546200 16.979900 -746.161987
56.383301 16.841299 -746.318604
56.238998 16.746500 -746.485413
56.084499 16.628599 -746.647400
55.947498 16.551500 -746.818726
55.805500 16.463200 -746.987915
55.676300 16.404800 -747.163818
55.544899 16.341400 -747.338684
55.385201 16.213301 -747.500122
55.271301 16.111200 -747.604309
55.154800 16.003401 -747.707520
55.060902 15.998300 -747.872925
54.949001 15.990700 -748.068420
54.831299 15.956700 -748.248108
54.704800 15.884000 -748.404785
54.577499 15.807700 -748.559326
54.447601 15.720600 -748.707520
54.318600 15.637100 -748.857971
54.198002 15.590800 -749.030273
54.078701 15.549700 -749.205688
53.959801 15.510200 -749.381897
53.834599 15.443200 -749.542114
53.709999 15.379200 -749.703979
53.577599 15.282300 -749.846985
53.438702 15.157800 -749.974182
53.288898 14.988100 -750.075684
56.915600 17.279301 -745.311218
56.830601 17.306000 -745.492371
56.733898 17.321301 -745.683289
56.596802 17.241600 -745.852478
56.448002 17.135201 -746.015686
56.329498 17.019501 -746.114624
56.169800 16.888399 -746.273010
56.015999 16.771601 -746.434875
55.869598 16.672300 -746.601074
55.725300 16.578400 -746.768921
55.589100 16.503500 -746.940979
55.449402 16.420700 -747.111694
55.310600 16.340599 -747.283081
55.152100 16.215300 -747.445313
55.025700 16.084600 -747.543518
54.917500 16.041300 -747.696411
54.802399 16.018999 -747.883179
54.688499 16.002501 -748.073425
54.569698 15.963400 -748.250000
54.443100 15.890000 -748.406311
54.315201 15.811300 -748.559387
54.186100 15.727500 -748.709717
54.065498 15.680700 -748.881714
53.945999 15.638300 -749.056274
53.825199 15.590600 -749.227722
53.698299 15.516500 -749.383728
53.574799 15.457100 -749.548279
53.451801 15.399500 -749.713989
53.311501 15.268900 -749.837585
53.155201 15.071600 -749.923096
56.708698 17.315001 -745.210999
56.633202 17.379900 -745.413696
56.528999 17.377600 -745.600586
56.391201 17.296600 -745.769470
56.234100 17.170799 -745.928406
56.075802 17.042801 -746.087280
55.962399 16.939501 -746.189270
55.808998 16.823700 -746.351624
55.659500 16.717400 -746.516296
55.519501 16.633699 -746.686279
55.377800 16.546200 -746.855774
55.237301 16.461800 -747.026184
55.090401 16.363001 -747.193726
54.932899 16.240499 -747.356506
54.808800 16.115299 -747.455994
54.714401 16.100000 -747.612305
54.600399 16.083000 -747.802307
54.484100 16.055500 -747.985901
54.361801 16.001101 -748.153381
54.236099 15.931800 -748.312073
54.107601 15.850600 -748.463928
53.981602 15.780500 -748.622192
53.860199 15.729900 -748.791992
53.742100 15.693900 -748.970276
53.619499 15.638100 -749.137024
53.496899 15.582600 -749.303772
53.376400 15.535700 -749.475708
53.253300 15.477800 -749.641174
53.106800 15.321200 -749.749695
52.970100 15.206900 -749.882874
56.390499 17.333099 -745.237122
56.328400 17.429399 -745.447083
56.197399 17.364201 -745.619812
56.039398 17.236601 -745.778320
55.894299 17.139299 -745.944214
55.783001 17.040899 -746.047302
55.631500 16.929600 -746.210571
55.478199 16.814600 -746.373291
55.332298 16.716900 -746.540283
55.181999 16.609600 -746.705383
55.046700 16.537300 -746.878479
54.902000 16.443600 -747.047180
54.736801 16.303499 -747.206177
54.564701 16.170099 -747.384705
54.440601 16.108200 -747.547974
54.329399 16.103500 -747.745422
54.214199 16.080700 -747.931885
54.094799 16.039101 -748.107117
53.969898 15.973400 -748.268005
53.840000 15.886100 -748.416321
53.718498 15.835500 -748.586121
53.599300 15.794300 -748.761414
53.477600 15.742500 -748.930481
53.356602 15.693700 -749.101318
53.235401 15.643900 -749.271484
53.108799 15.571300 -749.428528
52.975399 15.470000 -749.568909
52.817501 15.266200 -749.650513
52.711300 15.126700 -749.703125
56.163300 17.326799 -745.141113
56.095699 17.410299 -745.348328
55.989498 17.403299 -745.534424
55.844501 17.306200 -745.700073
55.683701 17.172600 -745.857788
55.526901 17.048800 -746.018188
55.363998 16.911501 -746.175903
55.213799 16.804001 -746.340576
55.069199 16.709900 -746.508606
54.923901 16.614500 -746.676697
54.781300 16.525700 -746.846375
54.639900 16.440001 -747.017090
54.477600 16.306900 -747.177979
54.331200 16.210600 -747.347107
54.214199 16.180201 -747.529297
54.102200 16.171700 -747.724426
53.981998 16.126499 -747.897583
53.859699 16.072300 -748.065430
53.730301 15.987500 -748.215027
53.607300 15.930100 -748.380920
53.487202 15.885600 -748.554382
53.365601 15.834100 -748.723694
53.242401 15.776200 -748.889282
53.121700 15.728400 -749.060730
53.001202 15.681800 -749.232788
52.871700 15.596900 -749.382813
52.728001 15.452700 -749.498596
55.900299 17.362101 -745.198181
55.830002 17.438900 -745.403870
55.699501 17.375700 -745.577393
55.539101 17.243200 -745.735413
55.387001 17.130400 -745.898315
55.217899 16.979099 -746.052917
55.059101 16.851900 -746.213379
54.920200 16.770901 -746.384277
54.783401 16.695101 -746.556824
54.672001 16.598499 -746.661804
54.530701 16.513100 -746.832581
54.364498 16.371201 -746.991516
54.227798 16.266899 -747.134888
54.101200 16.194700 -747.292175
53.983002 16.159300 -747.471619
53.871101 16.151300 -747.667114
53.754398 16.121599 -747.849487
53.634102 16.076300 -748.022705
53.509701 16.013599 -748.185486
53.385201 15.950100 -748.348022
53.268501 15.920000 -748.530029
53.148701 15.876300 -748.703918
53.029701 15.836200 -748.879883
52.910900 15.796700 -749.056213
52.781799 15.713900 -749.207275
52.636902 15.564600 -749.320129
55.721600 17.411600 -745.088074
55.637699 17.456699 -745.286682
55.512199 17.404800 -745.463013
55.374699 17.325701 -745.633179
55.214401 17.193899 -745.791870
55.089901 17.065599 -745.888916
54.927101 16.929199 -746.047180
54.785500 16.842100 -746.216919
54.636101 16.737301 -746.382996
54.484200 16.627100 -746.548279
54.349800 16.557600 -746.722595
54.192101 16.434999 -746.885803
54.077900 16.333000 -746.990479
53.938400 16.245899 -747.156616
53.820202 16.210800 -747.336304
53.709000 16.205400 -747.533630
53.593498 16.181299 -747.719604
53.469898 16.121799 -747.884521
53.347099 16.065901 -748.051575
53.227100 16.021799 -748.225586
53.108601 15.983700 -748.403015
52.989799 15.944600 -748.579773
52.867100 15.888600 -748.746826
52.743801 15.830200 -748.912170
52.620300 15.770800 -749.077087
52.472198 15.608700 -749.182678
55.563999 17.372900 -744.896790
55.498001 17.459700 -745.105286
55.387100 17.441601 -745.289612
55.251499 17.366699 -745.460876
55.114799 17.289200 -745.631897
54.950199 17.147900 -745.788818
54.838799 17.050200 -745.892822
54.719200 16.933701 -745.992920
54.573601 16.837200 -746.160828
54.430901 16.747900 -746.330505
54.280102 16.640200 -746.496521
54.133900 16.543600 -746.665222
53.975498 16.419600 -746.828430
53.861500 16.318100 -746.933411
53.755299 16.259399 -747.067688
53.639599 16.234600 -747.253784
53.529800 16.235500 -747.455078
53.415401 16.215900 -747.643982
53.293999 16.165800 -747.814819
53.172100 16.113300 -747.984070
53.051899 16.068300 -748.157715
52.932499 16.026199 -748.333130
52.813301 15.985400 -748.509094
52.692600 15.937400 -748.680786
52.573101 15.894800 -748.855713
52.435902 15.777900 -748.987488
52.266602 15.693900 -749.017273
55.378300 17.365299 -744.876099
55.310699 17.448099 -745.084229
55.206501 17.445601 -745.272278
55.067101 17.361200 -745.441772
54.921600 17.262899 -745.608398
54.390099 16.831499 -746.142822
54.244701 16.735600 -746.311401
53.549000 16.253099 -747.094727
52.391300 15.883200 -748.838318
54.740299 17.135401 -745.737915
54.588001 17.022200 -745.901917
54.474800 16.920200 -746.005371
54.079102 16.645500 -746.450989
53.940498 16.565599 -746.623718
53.781601 16.439600 -746.786682
53.669399 16.341700 -746.892578
53.416100 16.252300 -747.265625
53.304100 16.243000 -747.461487
53.187599 16.214300 -747.645691
53.068100 16.172001 -747.821716
52.950199 16.136801 -748.001770
52.831100 16.096001 -748.178528
52.712601 16.057899 -748.356812
52.594601 16.021400 -748.535889
52.436401 15.998300 -748.634094
52.206799 15.798500 -748.851929
55.171902 17.452999 -744.778381
55.067699 17.473000 -744.990112
54.960499 17.463600 -745.177002
54.826698 17.392099 -745.349670
54.688599 17.311100 -745.520508
54.528801 17.180099 -745.680176
54.414902 17.076000 -745.783203
54.263000 16.964100 -745.947876
54.139000 16.837400 -746.046326
53.990200 16.733500 -746.213501
53.851601 16.653500 -746.386230
53.710602 16.568300 -746.557983
53.598598 16.470301 -746.663818
53.467098 16.328300 -746.760315
53.339901 16.275299 -746.939880
53.227100 16.255600 -747.126587
53.121201 16.272200 -747.337708
53.004200 16.241400 -747.520996
52.883801 16.195801 -747.695496
52.765999 16.161400 -747.876526
52.647800 16.125000 -748.056274
52.530800 16.093500 -748.238770
52.413399 16.060200 -748.420288
52.246101 15.969700 -748.635071
52.042801 15.728300 -748.762085
55.025902 17.393600 -744.681824
54.504200 17.266399 -745.509399
53.673000 16.623899 -746.380005
52.231201 16.062000 -748.452820
52.048698 15.907700 -748.630493
54.845699 17.397499 -744.797119
54.767101 17.455099 -745.000000
54.661900 17.450800 -745.188477
54.313202 17.201300 -745.573975
54.153099 17.070499 -745.734497
54.042301 16.974400 -745.839722
53.930901 16.876900 -745.944824
53.792702 16.797800 -746.117615
53.486599 16.572300 -746.449402
53.369499 16.462999 -746.552917
53.249802 16.348101 -746.655518
53.111500 16.270300 -746.830017
53.006401 16.268299 -747.020813
52.907001 16.308800 -747.244324
52.787899 16.269600 -747.422913
52.668900 16.230499 -747.601379
52.551998 16.200600 -747.785278
52.434799 16.169100 -747.968201
52.317600 16.137100 -748.150696
54.493198 17.366600 -745.295410
53.612999 16.690001 -746.221375
52.018902 16.027100 -748.471008
51.867699 15.851800 -748.569824
52.126099 16.119699 -748.258179
54.666401 17.333700 -744.614624
54.596100 17.379299 -744.789795
54.515400 17.432600 -744.991882
54.303101 17.339800 -745.286926
54.153999 17.234100 -745.452698
54.001999 17.122000 -745.617371
53.881599 17.003401 -745.717590
53.769402 16.903999 -745.822327
53.625801 16.812700 -745.992615
53.415199 16.647200 -746.210327
53.256100 16.521099 -746.373779
53.138599 16.411100 -746.477295
52.978298 16.283100 -746.640991
52.879700 16.296200 -746.835205
52.774601 16.294701 -747.026306
52.659199 16.307600 -747.251099
52.541698 16.276100 -747.434387
52.424099 16.243700 -747.617188
52.310398 16.228201 -747.809814
52.188000 16.174900 -747.979980
51.849499 15.981000 -748.403625
54.326199 17.380301 -745.044189
53.438099 16.765100 -746.047119
51.991501 16.163099 -748.087524
51.863300 16.085300 -748.243408
54.399101 17.373899 -744.753906
54.149899 17.356600 -745.193176
53.992199 17.231001 -745.354370
53.835999 17.109301 -745.517029
53.676800 16.980900 -745.678528
53.515701 16.848900 -745.839478
53.220699 16.648800 -746.176880
53.043900 16.482201 -746.331604
52.931400 16.383600 -746.437683
52.780800 16.278000 -746.606323
52.668800 16.260900 -746.794312
52.573700 16.282400 -746.990417
52.468399 16.280600 -747.181519
52.371700 16.290400 -747.368713
52.255699 16.266001 -747.556519
52.136501 16.226999 -747.735413
51.668701 15.952800 -748.314026
51.949600 16.198999 -747.895386
54.298500 17.328199 -744.542480
54.210701 17.366100 -744.741394
54.112400 17.379299 -744.934509
53.989201 17.334299 -745.114075
53.790100 17.193300 -745.335388
53.672199 17.080500 -745.436584
53.472099 16.938700 -745.658813
53.315399 16.817301 -745.822327
53.166801 16.715099 -745.990479
53.003300 16.579100 -746.151672
52.742100 16.379601 -746.427124
52.288300 16.335800 -747.212524
52.168499 16.295601 -747.390930
52.049099 16.257099 -747.570313
51.771000 16.168900 -747.989319
51.635502 16.061199 -748.127808
51.521000 15.885900 -748.159607
54.165001 17.208799 -744.395081
54.102798 17.307100 -744.608521
53.771000 17.261200 -745.168518
53.496399 17.026199 -745.432312
52.989799 16.659000 -745.986328
52.814301 16.495800 -746.141724
52.564701 16.323200 -746.423279
52.450901 16.302700 -746.610474
52.351601 16.315500 -746.804871
52.245499 16.312500 -746.995789
51.871899 16.268200 -747.633789
51.750599 16.221500 -747.808228
53.865101 17.275101 -744.762817
53.763901 17.282101 -744.954590
53.579498 17.176001 -745.183899
53.274300 16.951599 -745.513977
53.119099 16.833799 -745.678284
52.615101 16.395500 -746.155029
52.049599 16.301901 -747.092773
51.955101 16.320801 -747.284485
51.546700 16.149900 -747.857178
52.965199 16.742901 -745.823181
52.790600 16.581301 -745.978516
52.384998 16.291700 -746.425476
51.824902 16.306999 -747.462585
53.985699 17.145300 -744.401978
51.428501 16.038000 -747.945496
52.474400 16.320601 -746.251221
52.254002 16.297001 -746.628601
52.147900 16.294701 -746.819397
51.683899 16.255899 -747.625122
53.575500 17.217100 -745.006226
53.382500 17.091700 -745.230896
53.192799 17.014700 -745.302429
53.047901 16.921200 -745.471497
52.884499 16.784800 -745.631470
52.734402 16.679899 -745.798828
52.559399 16.518101 -745.953979
52.440498 16.405399 -746.056702
52.277302 16.271900 -746.218872
52.163700 16.252501 -746.405884
52.043900 16.299200 -746.670776
51.948898 16.322100 -746.866699
51.839298 16.336100 -747.080078
51.723801 16.316099 -747.269775
51.607201 16.290600 -747.456177
51.487400 16.251200 -747.634277
51.305199 16.091999 -747.805298
53.411999 17.201200 -744.845825
53.295898 17.141001 -744.996277
51.296799 16.146000 -747.631226
53.095901 17.079100 -745.106812
52.981201 16.974199 -745.209778
52.839901 16.888800 -745.380920
52.691898 16.788200 -745.549011
52.534500 16.666401 -745.712585
52.404400 16.527201 -745.809204
52.287300 16.418400 -745.912781
52.161800 16.290800 -746.012512
52.043900 16.261200 -746.197327
51.941601 16.267500 -746.389771
51.841801 16.279499 -746.583496
51.748901 16.306999 -746.780518
51.636700 16.326599 -747.004395
51.519001 16.296499 -747.188171
51.398102 16.251900 -747.363281
53.321400 17.113600 -744.589172
53.222301 17.125900 -744.781921
51.237900 16.183500 -747.443176
51.116199 16.064400 -747.544678
53.047699 17.079201 -744.896973
52.519199 16.742001 -745.518921
51.837299 16.218399 -746.232117
51.555401 16.294701 -746.821594
52.855499 17.023001 -745.053284
52.716702 16.943300 -745.225525
52.602798 16.840799 -745.329529
52.320202 16.590500 -745.591675
52.195301 16.463600 -745.690979
52.067299 16.329700 -745.789185
51.932999 16.262400 -745.965820
51.680500 16.245899 -746.408325
51.590199 16.280001 -746.606689
51.412498 16.290100 -746.939880
51.295700 16.263800 -747.125977
51.161800 16.162901 -747.268005
52.892700 17.003201 -744.762207
51.734299 16.183399 -746.043579
51.625401 16.174900 -746.233215
51.421200 16.269400 -746.699402
52.693001 16.961500 -744.818787
52.575001 16.930599 -745.002075
52.428101 16.832800 -745.170715
52.276501 16.724501 -745.337219
52.108799 16.579300 -745.495972
51.968498 16.416901 -745.587708
51.833302 16.266899 -745.682617
51.696701 16.195101 -745.858398
51.452499 16.198799 -746.305786
51.359901 16.228001 -746.503418
51.224499 16.260201 -746.781921
51.096802 16.187300 -746.940613
50.953300 16.045601 -747.058899
50.794899 15.935000 -747.235413
51.511200 16.159401 -745.933228
51.391300 16.126200 -746.117676
51.183899 16.214600 -746.583313
50.846600 15.957800 -746.937927
50.690701 15.846300 -747.109009
52.465900 16.897301 -744.783386
52.339600 16.847500 -744.962830
52.184799 16.731701 -745.127625
52.026901 16.609100 -745.291321
51.902901 16.484600 -745.391174
51.785702 16.375799 -745.494873
51.662899 16.254400 -745.596008
51.230499 16.149200 -746.275818
51.024101 16.176701 -746.678284
51.520302 16.173901 -745.714722
51.315701 16.125299 -745.918579
51.046101 16.152901 -746.435425
52.117699 16.742201 -744.864319
51.989201 16.687401 -745.042786
51.845699 16.598101 -745.213684
51.719501 16.467600 -745.312073
51.586102 16.320801 -745.407227
51.460800 16.193399 -745.506897
51.330700 16.136299 -745.686096
51.130100 16.079500 -745.993286
51.035500 16.104700 -746.190491
50.847599 16.077299 -746.504272
52.035900 16.694599 -744.673218
51.930000 16.685101 -744.856323
51.793201 16.611000 -745.030701
51.425900 16.246000 -745.332214
51.275101 16.140800 -745.500671
51.153400 16.103201 -745.684387
51.016499 16.030800 -745.860718
50.828499 16.084200 -746.255981
51.623199 16.544500 -745.051514
51.510101 16.444500 -745.156677
50.831902 16.012699 -745.957214
51.724201 16.596201 -744.769470
51.238098 16.199900 -745.255676
51.126598 16.104401 -745.362671
51.012402 16.084200 -745.550415
50.861099 15.978600 -745.719604
50.612598 15.980300 -746.173401
51.528900 16.519199 -744.803528
51.373699 16.403000 -744.969116
50.680901 15.939700 -745.763916
50.583401 15.958600 -745.960510
50.979900 16.111601 -745.076477
50.838600 16.029200 -745.250671
50.724602 16.010401 -745.439209
50.611599 15.912300 -745.546326
50.490501 15.877400 -745.731384
50.870098 16.034201 -744.919128
50.750000 15.960500 -745.063416
50.628399 15.924500 -745.248291
50.406502 15.820200 -745.547180
50.733898 16.017300 -744.791016
50.611500 15.952400 -744.948181
50.481800 15.897900 -745.129211
51.143398 16.201700 -744.397583
51.035400 16.202600 -744.603699
50.293701 15.821200 -745.850098
51.174801 16.301201 -744.716125
51.080299 16.245899 -744.871887
51.447399 16.403200 -744.542603
51.338200 16.396099 -744.747314
51.131599 16.214800 -745.061584
50.492802 15.934800 -746.362488
51.387402 16.310301 -745.166626
50.692101 16.005600 -746.359009
50.568802 15.907200 -746.551025
51.846401 16.565800 -744.606995
50.562401 15.937200 -746.779602
50.723999 16.017599 -746.698181
50.602501 16.072701 -746.894897
50.848301 16.113400 -746.789001
53.021599 16.982599 -744.601990
53.582600 17.188900 -744.635620
53.777100 17.248199 -744.594116
51.507599 15.925500 -748.401123
55.160801 17.469200 -744.548279
52.303299 15.552400 -749.213074
53.603298 15.050000 -750.280029
53.873199 15.048600 -750.385315
54.895500 14.583600 -751.070496
58.531799 17.113001 -745.643494
55.534599 14.371300 -751.120728
55.281502 14.481200 -751.069824
57.029701 14.939100 -749.685730
57.563499 15.199600 -748.988525
59.379101 16.747400 -745.967590
57.197899 15.071200 -749.494690
59.180599 16.937201 -745.729004
55.830002 14.273900 -751.124084
55.721802 14.087900 -751.242188
58.984100 16.824400 -745.619629
59.510201 16.460400 -746.667480
56.377800 13.840800 -751.704529
56.654900 13.765900 -751.713928
58.672401 12.925800 -752.114075
61.955200 13.610700 -749.912781
61.773899 11.335600 -752.727112
62.136902 11.181400 -752.689697
62.085499 11.265400 -752.851379
62.457001 11.049100 -752.723022
62.375198 11.067900 -752.909607
62.751301 10.628200 -752.902222
62.975300 10.718800 -752.782898
62.893700 10.734900 -752.968018
63.094299 10.636900 -752.922974
63.429501 10.441100 -752.825317
63.660400 10.383300 -752.802002
65.126297 11.311900 -750.952271
63.882301 10.093900 -752.878113
65.932701 11.843500 -750.082214
64.544296 9.886900 -752.739380
65.322098 9.613600 -752.545288
65.250504 9.650600 -752.723694
65.439796 9.419000 -752.637207
65.638496 9.250200 -752.640015
66.622704 9.694900 -751.721375
68.329903 10.565800 -749.665405
68.203796 10.472100 -749.880615
68.117599 10.400900 -750.022888
68.028702 10.318400 -750.164124
67.853798 10.166400 -750.448425
68.201103 10.056600 -750.359680
68.107101 9.952900 -750.498474
68.014702 9.857100 -750.638428
66.913002 8.761100 -752.338806
68.766197 10.183000 -749.834412
68.679001 10.108800 -749.976379
68.587799 10.016800 -750.116272
68.498596 9.934600 -750.257629
68.412201 9.864100 -750.400574
68.319603 9.767500 -750.540405
68.223297 9.655300 -750.678406
68.128304 9.548800 -750.817383
68.028099 9.420900 -750.953918
67.697403 9.211300 -751.538574
67.621101 9.037000 -751.594116
68.954697 10.048300 -749.780823
68.868599 9.978800 -749.923523
68.740601 9.880100 -750.138489
68.611603 9.777500 -750.353394
68.521698 9.693000 -750.494690
68.416100 9.540900 -750.627625
68.320602 9.432800 -750.766418
68.232002 9.354500 -750.909119
67.352898 8.470200 -752.255920
69.376198 9.755800 -749.265808
69.141800 9.831600 -749.820007
69.024399 9.779500 -750.041199
68.937302 9.706900 -750.183777
68.851097 9.638200 -750.327087
68.713203 9.498600 -750.537598
68.611603 9.364600 -750.672974
68.515404 9.254000 -750.811584
68.419403 9.144800 -750.950623
67.616203 8.286900 -752.148621
69.441803 9.503200 -749.629578
69.352097 9.573400 -749.867310
69.228600 9.496000 -750.085571
69.103302 9.411200 -750.302979
69.016098 9.339000 -750.446228
68.917603 9.218300 -750.583313
68.813904 9.075300 -750.717773
68.715897 8.957500 -750.855774
68.629204 8.889000 -751.000122
69.703300 9.329900 -749.527893
69.594803 9.319100 -749.755127
69.486298 9.307800 -749.982300
69.368698 9.257200 -750.204407
69.277298 9.167300 -750.345276
69.190102 9.095500 -750.488586
69.093803 8.984700 -750.627319
68.994003 8.859500 -750.764282
68.908096 8.794500 -750.908997
68.782600 8.711900 -751.128174
68.692299 8.628500 -751.270874
68.605598 8.561000 -751.415771
68.516701 8.484400 -751.559814
68.416397 8.207800 -751.603394
68.322899 8.112100 -751.745483
69.667297 9.166000 -749.840576
69.558296 9.153600 -750.067810
69.443199 9.114600 -750.291626
68.948997 8.662200 -751.075012
68.765099 8.482100 -751.359070
68.671097 8.384000 -751.500488
69.704903 9.038700 -750.018677
69.593498 9.016400 -750.244812
69.466904 8.928000 -750.462585
69.338997 8.834400 -750.679871
69.239197 8.709800 -750.817200
69.143799 8.604800 -750.957214
68.978600 8.505200 -751.251099
68.768204 8.213000 -751.522522
68.674698 8.118100 -751.664612
61.306999 11.958800 -751.999512
61.079700 12.077200 -751.977417
64.389000 10.396800 -752.065979
54.794998 14.578100 -750.873718
67.497101 8.559200 -752.127197
65.927101 9.463000 -751.988098
64.536697 10.507500 -751.906189
56.007900 14.276700 -750.872375
68.092598 7.998600 -751.883118
59.408001 13.262800 -751.160889
56.160198 14.321200 -750.737488
54.245399 14.562400 -750.423279
67.996597 8.587700 -751.821777
64.799797 10.675400 -751.580078
64.399200 11.194400 -751.302979
62.113400 12.455200 -751.087708
68.609398 8.146200 -751.431519
68.450699 8.237600 -751.417175
59.859100 13.539700 -750.704224
69.473099 7.715300 -751.330383
69.233597 7.799400 -751.299927
69.074402 7.993400 -751.302979
68.915901 8.310000 -751.326782
69.786003 7.269600 -751.095093
69.625504 7.429500 -751.092224
69.545197 7.641500 -751.113098
69.465103 7.824500 -751.129211
69.385300 8.076400 -751.156921
69.226097 8.272700 -751.160400
68.592003 8.742500 -751.121826
68.434402 8.911100 -751.120911
56.761002 14.745800 -749.933472
69.925301 7.535300 -750.953674
69.765099 7.638100 -750.941284
69.524696 8.211500 -750.993713
69.365501 8.391100 -750.994385
70.215302 7.472300 -750.776123
70.054901 7.560900 -750.761292
69.893402 7.965200 -750.799805
69.813004 8.175800 -750.820618
69.653603 8.275600 -750.807922
69.494400 8.368700 -750.794006
69.255898 8.493000 -750.770691
69.097198 8.600200 -750.759277
70.512497 7.454800 -750.606018
70.351799 7.561000 -750.594177
70.110901 7.759700 -750.583191
69.949699 8.114200 -750.613525
69.869003 8.374000 -750.642578
69.630402 8.461000 -750.613098
69.471199 8.676200 -750.620117
66.649300 10.694200 -750.438904
70.684402 7.473100 -750.474121
70.523598 7.571500 -750.460999
70.362999 7.680400 -750.449829
70.042099 7.974000 -750.440186
69.881699 8.217500 -750.451782
69.721603 8.538900 -750.476929
67.674301 10.199000 -750.379700
70.415497 7.834300 -750.354370
70.254799 8.022700 -750.356689
70.171799 8.600900 -750.439575
69.933800 8.557800 -750.388306
69.695099 8.748800 -750.376587
68.667801 9.605900 -750.332397
67.575401 10.620200 -750.302795
70.637497 7.756800 -750.253113
70.155502 8.337300 -750.262512
69.836304 8.671100 -750.260193
62.056000 13.663400 -749.668701
70.494797 7.943000 -750.113770
70.334602 8.062100 -750.104309
70.174301 8.232400 -750.103577
70.014198 8.456500 -750.112000
69.774803 8.845300 -750.133728
70.713402 7.911600 -749.980591
70.472900 8.083400 -749.965271
70.391899 8.265800 -749.981323
70.231796 8.432800 -749.980103
69.992302 8.687600 -749.979126
69.121002 9.638700 -749.979675
68.492996 10.143900 -749.949402
70.197998 8.506000 -749.817017
68.069099 10.504600 -749.764893
50.940701 16.072901 -747.453186
69.296204 9.684800 -749.728088
65.939697 12.140600 -749.513672
57.842400 15.291000 -748.547607
70.085602 8.600700 -749.709473
69.949600 8.814100 -749.825012
70.921600 7.960100 -750.011292
67.937302 10.394900 -749.970886
57.686600 15.190600 -748.774292
65.834801 12.104200 -749.662903
58.021099 15.150400 -748.706970
70.359200 8.373400 -749.773926
68.310303 10.396800 -749.729919
69.508102 9.678900 -749.713989
50.949799 16.058300 -747.273193
69.623901 9.509200 -749.559875
56.121601 15.777400 -748.042114
50.694401 16.045799 -747.052917
50.485001 15.761500 -746.421570
61.548801 14.889400 -748.155518
50.518600 15.812200 -746.162781
50.347900 15.702200 -746.110779
50.308201 15.781600 -746.283508
50.606701 16.097401 -746.574585
66.642601 12.175100 -749.000488
58.389000 15.672900 -747.972107
56.877399 16.022200 -747.640991
58.542198 15.770900 -747.802917
67.765701 11.771800 -748.634094
50.183899 15.739500 -745.694214
63.376202 14.411300 -748.096802
67.500099 12.007600 -748.380310
62.187099 14.956300 -747.790771
50.487099 15.819600 -745.375671
59.065899 16.079700 -747.156677
57.216099 16.437599 -746.853516
57.985500 16.280300 -746.983704
52.836498 16.346001 -746.276611
64.305702 14.370800 -747.510681
59.344200 16.263000 -746.823730
50.852798 16.132099 -744.668396
52.274799 16.754700 -744.731812
51.696602 16.466600 -744.564026
52.745098 16.842600 -744.620178
52.503399 16.759600 -744.556519
52.268902 16.738800 -744.505127
52.084702 16.676300 -744.456726
53.223801 17.017900 -744.432007
53.532101 17.083599 -744.454285
57.960701 17.221100 -745.469482
60.334000 16.218399 -746.142883
53.597500 17.211100 -744.818176
59.736000 16.480600 -746.280212
56.845200 17.436100 -745.223999
52.871300 16.885201 -744.486328
51.295200 16.278999 -744.550720
50.966099 16.098101 -744.449707
63.754398 14.529900 -747.532715
50.576199 15.777000 -744.896729
65.135101 13.861700 -747.848999
59.227600 16.190399 -746.951721
51.109299 16.034599 -745.196716
67.660896 11.903000 -748.485229
57.411701 16.358500 -746.965881
50.984100 15.989500 -745.397827
51.341599 16.055700 -745.353027
53.160702 16.697800 -745.791809
68.777496 10.887500 -748.930725
56.980400 16.109600 -747.488220
58.656300 15.831800 -747.673279
68.251602 10.888500 -749.191589
66.652397 11.807200 -749.354126
56.360001 15.909600 -747.817871
67.766098 10.645400 -749.828186
69.386703 9.397300 -749.841003
68.572800 10.146300 -749.785889
68.981102 10.222900 -749.603271
66.361801 12.020400 -749.354004
69.390701 9.880000 -749.657288
70.570000 8.308500 -749.989502
62.467201 13.936400 -749.268677
58.374802 15.105000 -748.677979
69.036598 9.526000 -750.145203
68.388802 10.061100 -750.094177
61.145000 14.261300 -749.306091
60.838402 14.363400 -749.258179
67.829002 10.358400 -750.123230
59.684200 14.624200 -749.174316
70.194199 8.192600 -750.371704
68.900597 9.454100 -750.342285
69.262703 8.916600 -750.511780
68.773804 9.316700 -750.472473
70.720299 7.506200 -750.680298
69.729301 8.250400 -750.625916
67.692001 10.047900 -750.481628
67.291199 10.340500 -750.443787
63.420898 12.801600 -750.049316
68.618797 9.165100 -750.626404
68.456398 9.293200 -750.612488
56.565899 15.254400 -749.067383
68.012398 9.674100 -750.612976
55.481098 15.468500 -748.910583
57.652100 14.992900 -749.286926
70.313499 7.627400 -750.774170
68.784203 8.885900 -750.698730
57.317699 15.099700 -749.281372
69.703003 7.987400 -750.929077
68.550598 9.032300 -750.850830
65.660896 11.246600 -750.591919
55.332600 15.324600 -749.076721
67.951897 9.516100 -750.797180
55.731701 15.369400 -749.040527
69.019501 9.137200 -750.421204
69.853500 8.386500 -750.377808
67.887604 10.186400 -750.255127
70.177803 7.819700 -750.411926
55.163101 15.441300 -748.916077
69.169899 8.462500 -751.067627
67.838898 9.430000 -750.984985
68.132004 9.203000 -751.033325
56.901901 14.795600 -749.817078
68.452599 8.401300 -751.330688
56.654701 14.658800 -750.063110
67.858101 8.735000 -751.811584
54.620602 14.975400 -750.043213
66.978203 8.848000 -752.151428
55.801201 14.254400 -751.331482
54.310200 14.777700 -750.336670
64.405602 10.958400 -751.539490
56.367901 14.483400 -750.387207
63.855999 11.575100 -751.256287
56.819302 14.485300 -750.225891
68.116997 8.587900 -751.364075
65.012901 10.994200 -751.126221
54.833900 15.090000 -749.744202
65.400902 10.922900 -751.041687
57.104099 14.681800 -749.928223
59.677399 13.820500 -750.319580
59.902802 13.730100 -750.380371
68.631104 8.364900 -751.324829
52.224602 15.467500 -749.053711
60.327301 13.734700 -750.260620
69.872398 7.738300 -750.832886
66.123299 11.939000 -749.680115
69.906097 9.371300 -749.609375
63.544998 14.480700 -747.885925
50.967499 15.924800 -745.164124
58.384602 16.600700 -746.504822
51.262199 16.234699 -744.881226
59.624901 16.449600 -746.518311
59.099998 16.394800 -746.677612
51.665600 16.337799 -745.193115
52.371799 16.539499 -744.377686
50.797001 15.365000 -744.663513
50.960499 15.566300 -744.504211
53.882500 15.617500 -745.211914
50.804600 15.121800 -744.765381
51.181999 15.210700 -744.790588
51.508598 15.203400 -744.883484
52.320702 15.133100 -745.166687
52.547100 15.140000 -745.219116
50.986099 15.346300 -744.674011
51.340500 15.172100 -744.942017
51.155102 15.510100 -744.736206
50.676498 15.556400 -744.789917
50.940102 15.588800 -744.826782
51.182201 15.567600 -744.911987
51.365002 15.611100 -744.916382
51.688301 15.659700 -745.030273
51.216099 16.121901 -744.624817
51.337700 15.993400 -744.780029
51.379002 15.864600 -744.914978
51.486900 15.688700 -745.112610
51.772400 15.835100 -745.043518
51.888100 15.953600 -744.958313
52.090099 16.092699 -744.875122
52.256199 16.382799 -744.636719
52.522598 16.472500 -744.617676
52.718201 16.594601 -744.549194
52.903702 16.683201 -744.510681
53.154099 16.721901 -744.536926
53.395401 16.729200 -744.591125
53.591400 16.857700 -744.516724
53.844200 16.907000 -744.533203
54.019600 16.965099 -744.521606
50.611500 15.555600 -745.661987
50.751900 15.485000 -745.765930
50.884899 15.655000 -745.634583
58.007999 17.375299 -745.767273
58.254299 17.408501 -745.797424
58.436199 17.384199 -745.866882
50.268398 15.939400 -745.662476
50.902000 15.628000 -746.124573
51.485001 15.406900 -746.486328
50.760300 15.684900 -745.860229
51.054001 15.711700 -745.679077
50.353401 15.358700 -745.465515
50.546101 15.464200 -745.413818
50.662899 15.586300 -745.326294
54.660599 17.028400 -744.976990
54.780998 16.883900 -745.148193
55.030800 16.928699 -745.170105
55.264301 16.911600 -745.247681
56.495899 17.080999 -745.405701
56.675201 17.165800 -745.370483
70.728798 8.025200 -750.275574
70.479698 8.061900 -750.314880
69.500397 8.578500 -750.869019
65.308098 9.866100 -752.249695
71.009804 7.552900 -750.320496
70.829903 7.573400 -750.342529
68.207001 8.666300 -751.510986
64.676003 9.578600 -752.486084
70.826897 7.766800 -750.247375
69.647797 8.437800 -750.976807
67.241798 9.096600 -751.704529
70.055397 8.259700 -750.549988
67.377701 9.190300 -751.570984
69.776001 8.430400 -750.795227
68.851601 8.873500 -751.083984
70.341499 8.336900 -750.138977
69.746803 8.727900 -750.566223
68.956703 9.008800 -750.877319
70.490402 8.663600 -749.991089
70.235703 8.663400 -749.994019
69.985802 8.804900 -750.149414
67.927002 9.601500 -751.032227
66.845200 9.969100 -751.440979
66.400703 10.023300 -751.504700
70.334396 9.122100 -749.970886
70.138397 9.081400 -749.929504
69.911499 9.105200 -749.958191
69.740997 9.224200 -750.088806
67.864304 9.847500 -750.785828
67.332100 10.319300 -750.772827
67.103302 10.382300 -750.843872
64.687401 11.048700 -751.597778
64.389099 11.127300 -751.686829
60.663799 11.857500 -752.527710
68.890198 10.126400 -750.110291
68.512901 10.184300 -750.178223
67.823097 10.363000 -750.380981
66.969704 10.677900 -750.733704
66.524300 10.736000 -750.802612
65.311401 11.104200 -751.217773
65.150703 11.222200 -751.347778
64.936096 11.209000 -751.336426
69.240097 10.035600 -749.672302
66.076202 11.054400 -750.819702
65.698097 11.164400 -750.943970
69.318001 10.171200 -749.500427
68.692200 10.378400 -749.733826
65.850601 11.271600 -750.742493
69.223297 10.310900 -749.393311
69.034103 10.374200 -749.464783
68.870598 10.466700 -749.567627
68.564796 10.533600 -749.644714
67.923401 10.860800 -750.009216
67.762604 10.949900 -750.108276
67.604202 11.026000 -750.193298
64.782097 11.718300 -750.869690
67.578903 10.995300 -750.000122
69.525101 10.077400 -749.515198
66.630600 10.817800 -750.679016
64.356201 11.382000 -751.448975
66.309700 11.026600 -750.634216
64.543999 11.747800 -751.083191
69.212799 10.447000 -749.272217
69.046204 10.553400 -749.390076
68.883400 10.639200 -749.485596
69.075203 10.571700 -749.107117
68.913300 10.649800 -749.194275
67.030197 11.353100 -749.985718
68.966103 10.741100 -749.008972
66.375999 11.725100 -750.117126
65.309799 12.042400 -750.477478
68.196098 11.184300 -749.224976
66.247498 11.868400 -749.999329
66.091797 11.932000 -750.071106
66.617302 11.741300 -749.771118
68.596199 10.962300 -749.099976
68.434502 11.036500 -749.183411
57.470001 13.351400 -751.866211
67.333603 11.342100 -749.827087
68.495399 10.777000 -749.486877
66.292900 11.538200 -750.349426
65.301804 11.770800 -750.617493
57.921200 13.069900 -752.176575
68.645203 10.694000 -749.417725
64.362000 11.965700 -750.877075
68.220100 10.937000 -749.469788
66.464996 11.555100 -750.175598
68.735497 10.769200 -749.270020
63.824200 12.209700 -750.949219
64.522102 12.028700 -750.722229
67.915703 11.061000 -749.555603
64.384903 12.240800 -750.614929
68.671997 11.033100 -748.939819
67.766197 11.416000 -749.375671
67.600403 11.496900 -749.467285
66.409203 11.850000 -749.875122
64.233803 12.382200 -750.495789
68.818199 11.123500 -748.795776
68.556099 11.234800 -748.922791
68.391296 11.302500 -748.999878
67.903900 11.476300 -749.199280
67.724098 11.631700 -749.373413
67.497002 11.634300 -749.380005
67.263802 11.671400 -749.424622
66.146797 12.041800 -749.850830
65.508797 12.282600 -750.126282
63.434700 12.719100 -750.640686
68.231003 11.449800 -749.021423
66.637802 11.905900 -749.550476
65.915199 12.185700 -749.870972
65.752403 12.265900 -749.962097
67.007500 11.823100 -749.475220
63.960999 12.509000 -750.487671
67.713203 11.742600 -749.646179
68.452202 11.386400 -748.789185
66.181602 12.226200 -749.760925
68.265999 11.445200 -748.758423
65.996399 12.278900 -749.725586
68.095802 11.594100 -748.863586
62.808399 13.039200 -750.565918
68.266998 11.638500 -748.676575
68.004601 11.734300 -748.787781
67.833000 11.842000 -748.910278
67.427200 11.979300 -749.070190
67.260696 12.062800 -749.165771
67.029099 12.078100 -749.187195
66.556198 12.174900 -749.303589
63.111599 13.022000 -750.308228
62.953300 13.091100 -750.387817
62.641998 13.220500 -750.390381
65.048203 12.646700 -749.804016
66.280296 12.237200 -749.459473
66.848801 11.995100 -749.287170
66.106102 12.282200 -749.575928
62.504501 13.123300 -750.557129
67.368401 12.088200 -748.937622
67.127403 12.147500 -749.006287
66.723602 12.265300 -749.142029
67.708603 12.034400 -748.623596
67.541000 12.111000 -748.710571
66.810097 12.331500 -748.963928
64.723297 12.956300 -749.681519
64.552200 13.093900 -749.836487
64.305702 13.229800 -749.990417
62.543098 13.357400 -750.150879
67.095299 12.367400 -748.755920
66.930298 12.432300 -748.829895
64.520401 13.151200 -749.656189
64.360199 13.207600 -749.720703
61.801998 13.617800 -750.204224
67.420799 12.332000 -748.488770
67.121201 12.441900 -748.583374
66.336800 12.721200 -749.000183
67.630798 12.176800 -748.484314
67.248199 12.523000 -748.387085
67.003601 12.585300 -748.459412
61.266102 13.917300 -750.011292
66.857101 12.726100 -748.481323
66.687798 12.810500 -748.577698
66.522102 12.872800 -748.649475
55.118698 14.535800 -750.909424
61.749500 13.800400 -749.953674
62.095901 13.765000 -749.828186
56.239899 14.514500 -750.676514
66.267601 12.905300 -748.769226
63.720798 13.694500 -749.418884
63.097099 13.751600 -749.483887
66.627602 13.010700 -748.286682
66.385597 13.062200 -748.344971
66.220398 13.125100 -748.416016
65.484001 13.377700 -748.701172
64.677399 13.607800 -748.961121
60.754700 14.249300 -749.689026
66.032898 13.347000 -748.204285
65.867401 13.414700 -748.280701
65.678001 13.654100 -748.086670
65.513901 13.714300 -748.154724
61.228199 14.660700 -749.225708
60.995300 14.686000 -749.254395
58.602901 14.874400 -749.468994
65.497597 13.734200 -747.933472
65.086700 13.893000 -748.113098
64.589302 14.138200 -748.390320
58.723400 14.922800 -749.281311
52.789001 15.377600 -749.800476
61.445999 14.652200 -748.885376
59.110699 14.940000 -749.212280
65.048798 14.057100 -747.888977
64.883301 14.124200 -747.964478
57.528301 15.269000 -749.245972
52.652401 15.595600 -749.607727
64.735199 14.174000 -747.854187
64.569702 14.239700 -747.928223
64.335602 14.357100 -747.898071
58.210400 15.261900 -748.919922
57.974899 15.291000 -748.952820
52.520901 15.687500 -749.400085
64.156197 14.474700 -747.818481
61.897598 14.906500 -748.308777
61.331100 15.083700 -748.509827
61.091900 15.123800 -748.555298
58.097301 15.323700 -748.783875
64.459702 14.501700 -747.702881
57.824699 15.390000 -748.722595
64.049599 14.602400 -747.711975
63.877102 14.716200 -747.841309
63.635300 14.741500 -747.870483
57.485600 15.456800 -748.694397
64.099701 14.637800 -747.407471
63.932899 14.691600 -747.468872
63.760899 14.792700 -747.583984
63.512199 14.867700 -747.669678
63.579601 14.849700 -747.429688
63.408600 14.942900 -747.536011
56.814899 15.732400 -748.445313
56.575199 15.787800 -748.508606
63.366600 14.963600 -747.343872
63.197498 15.039300 -747.430298
56.356800 15.812600 -748.318176
63.227501 15.034800 -747.249817
56.047798 15.895400 -748.238770
63.045200 15.145000 -747.222717
62.877998 15.201300 -747.287170
62.709702 15.269300 -747.364929
62.516899 15.366900 -747.342102
55.983299 15.997600 -748.072571
55.584202 16.014999 -748.093079
62.621899 15.352300 -747.182190
62.286900 15.471600 -747.318787
55.352402 16.040899 -747.979004
62.510601 15.529400 -747.185486
55.483299 16.094000 -747.840515
62.270199 15.636300 -747.049622
61.939301 15.713400 -747.138000
51.151100 15.944400 -747.411011
61.934399 15.742600 -746.870605
61.765202 15.819800 -746.959229
54.415199 16.281900 -747.494873
53.853802 16.313101 -747.531128
54.049301 16.365700 -747.263916
61.123402 16.119600 -746.518494
60.957001 16.171400 -746.578186
53.441200 16.445299 -746.902893
53.199799 16.456301 -746.915771
52.717201 16.428801 -746.884888
52.475899 16.451200 -746.910889
52.154301 16.472300 -746.935730
51.832500 16.456400 -746.917786
50.522701 15.527400 -745.851990
50.437599 15.374000 -745.675781
60.726501 16.419201 -746.328186
60.482800 16.427401 -746.338074
60.316601 16.481600 -746.400879
60.069801 16.535500 -746.463379
52.562500 16.523100 -746.464172
52.223801 16.528400 -746.471130
60.084801 16.561600 -746.174072
59.918900 16.615299 -746.236572
51.999298 16.448601 -746.065308
51.713902 16.415600 -746.028076
60.574001 16.611700 -746.337830
59.761902 16.657000 -746.392029
52.256001 16.454700 -746.177673
51.950699 16.501801 -746.232605
61.025299 16.503599 -746.502502
60.728901 16.314100 -746.588318
60.481400 16.379000 -746.663330
53.069599 16.462799 -746.776672
52.587200 16.439800 -746.751404
52.265800 16.473499 -746.790771
52.024601 16.461100 -746.777222
50.397400 15.109400 -745.356201
50.528301 15.208700 -745.453491
59.420300 16.445200 -746.827698
52.894001 16.429899 -746.963074
51.039600 15.850300 -746.299011
50.294899 15.169900 -745.519287
61.388699 16.048800 -746.591614
50.677898 15.692500 -746.184387
50.594200 15.571000 -746.045105
50.263000 15.284200 -745.716675
61.600800 15.895800 -746.712524
53.868401 16.384100 -747.249573
54.564499 16.218700 -747.682617
63.083199 14.969400 -747.677307
56.375198 15.793400 -748.569275
52.047798 15.826600 -748.987976
57.381302 15.424900 -748.842529
