87.360298 73.784698 -682.299072
88.414398 74.361801 -683.176025
94.660103 77.918404 -688.313171
101.429703 80.535103 -694.407715
75.476501 67.835197 -672.625488
77.646202 68.825699 -674.517578
79.954597 69.910301 -676.517700
82.103798 70.764999 -678.445923
84.235703 72.114998 -680.144897
89.273598 75.201500 -684.203613
97.441902 79.222504 -691.203125
98.469803 79.793602 -692.056274
102.206802 80.706100 -695.653198
103.256500 80.940498 -696.672913
104.611099 81.162598 -698.022888
82.969002 71.233101 -679.614014
90.526398 76.069298 -685.624023
92.071701 76.902603 -686.919373
93.100998 77.378700 -687.815796
95.189400 78.459000 -689.585693
99.248299 80.119102 -693.213318
85.210098 72.797096 -681.698120
96.049698 78.919701 -690.678101
105.111000 81.263000 -699.368225
74.039597 67.473999 -672.245728
75.940102 68.028503 -674.041504
99.985397 80.421097 -694.473328
77.854500 68.984001 -675.943726
80.185501 70.165703 -677.932007
85.810898 73.431702 -682.947388
86.823502 74.077499 -683.754822
87.860802 74.795601 -684.557678
93.425102 77.864502 -689.197876
100.676102 80.627502 -695.769226
102.829803 80.747902 -698.018372
74.333900 67.654800 -673.650024
76.264198 68.333298 -675.421875
78.377098 69.468597 -677.194580
80.714104 70.412003 -679.288086
82.794701 71.516098 -681.039429
83.843300 72.188301 -681.872986
88.717697 75.643097 -685.607422
90.319199 76.432999 -686.981079
96.219902 79.343903 -692.042114
97.299400 79.731598 -693.029419
101.459503 80.765602 -697.030212
103.580803 80.826599 -699.268188
72.428497 66.881699 -672.436279
81.496597 70.804001 -680.441284
91.122498 76.895798 -688.118408
93.929199 78.381401 -690.480591
98.149200 80.131798 -694.237671
94.908897 78.978203 -691.532776
84.452797 72.869698 -682.987427
92.074501 77.399902 -689.184692
74.910400 67.887901 -675.013123
76.710503 68.581200 -676.812622
78.807404 69.819901 -678.523682
98.934998 80.453903 -695.473389
71.031502 66.318199 -672.118896
72.963402 67.193199 -673.799377
85.483002 73.850304 -684.277771
86.548302 74.505096 -685.132629
88.885803 76.040001 -686.966980
103.624496 80.567001 -700.684570
92.556801 77.934502 -690.441895
99.599503 80.588898 -696.790222
101.202400 80.630997 -698.470520
75.119797 68.146004 -676.406677
77.369102 69.198799 -678.346680
79.211304 70.095100 -679.921326
81.438103 71.247803 -681.795410
82.461700 72.050003 -682.542725
87.195396 75.177902 -686.242676
89.691101 76.653297 -688.266113
95.553703 79.397102 -693.322327
96.608902 79.763702 -694.285583
102.033203 80.591599 -699.681396
71.589302 66.777397 -673.582825
73.383499 67.459297 -675.193115
80.126503 70.632599 -680.988525
83.124496 72.541801 -683.701416
90.442101 77.140800 -689.495422
93.070000 78.462700 -691.714600
97.314301 79.915298 -695.585571
103.816200 80.641899 -702.145081
84.120796 73.357597 -684.599487
94.047401 78.962196 -692.718384
76.009399 68.606102 -678.066406
69.589996 66.190399 -672.393677
77.849503 69.622498 -679.708923
71.828201 66.877899 -674.988220
73.703300 67.728104 -676.583984
84.899399 74.120300 -685.559875
87.469498 75.823601 -687.521118
98.167000 80.483299 -696.705872
99.754997 80.787498 -698.232300
69.833099 65.993698 -673.856384
74.487503 68.179901 -677.769775
78.633499 70.216904 -681.217896
81.130798 71.781998 -683.152527
85.717400 74.805603 -686.642517
88.271599 76.357300 -688.641785
90.917702 77.615898 -690.859924
102.151703 81.026100 -701.091675
72.112900 67.187302 -676.378723
75.779404 68.929298 -679.443115
79.379601 70.992500 -682.302917
81.836899 72.353600 -684.274719
82.873100 72.887497 -685.122986
89.011703 76.961601 -689.763672
91.666000 78.284798 -691.955811
94.226997 79.516197 -694.090088
95.270302 79.994400 -694.969421
100.108101 80.825699 -699.633423
70.069298 66.282898 -675.249329
76.504402 69.388000 -680.590515
83.626999 73.668404 -686.143677
86.134598 75.496201 -687.962402
92.453903 78.818703 -693.091187
96.096100 80.356796 -696.207397
98.153603 80.829102 -698.136230
102.438004 81.029503 -702.485596
103.518204 81.231499 -703.517822
72.527901 67.626801 -677.712280
74.269798 68.505501 -679.137024
89.457497 77.267502 -691.089783
96.913002 80.605003 -697.368225
100.625900 81.086700 -700.997803
70.554199 66.496300 -676.604492
77.027901 69.863098 -681.830872
79.522003 71.830498 -683.558289
84.203903 74.485802 -687.244385
86.723297 76.053703 -689.168213
77.858200 70.551697 -682.794189
80.346802 72.075104 -684.695801
81.406097 72.320099 -685.677612
87.588303 76.647400 -690.169678
90.057701 78.103104 -692.080811
92.850601 79.335098 -694.418884
98.476402 80.834297 -699.549011
71.232498 67.007500 -677.834717
72.920303 68.056702 -679.113892
74.595703 68.810402 -680.506775
82.235901 73.208603 -686.447571
93.814499 79.793503 -695.485474
103.638802 81.139801 -704.970093
84.607101 75.862198 -687.906311
90.896400 78.470100 -693.220520
100.932503 81.039299 -702.383789
75.464600 69.519302 -681.617920
94.656097 80.132599 -696.633301
99.147499 80.996902 -700.844788
78.247398 71.190201 -684.020996
82.854797 73.902100 -687.545776
85.307899 75.738197 -689.253174
88.078598 77.156097 -691.464783
96.757301 80.591698 -698.826721
101.829300 81.080498 -703.785278
71.514000 67.428596 -679.257080
73.193802 68.468102 -680.515076
91.387604 78.965103 -694.471680
95.352203 80.415298 -697.875671
76.023399 71.001099 -682.746826
78.849197 71.634598 -685.345276
79.996101 72.048599 -686.331421
83.420403 74.646500 -688.682678
85.914001 76.137100 -690.569702
88.643204 77.818703 -692.612976
99.442497 80.851799 -702.276611
74.115501 68.964500 -681.850525
76.859398 70.732101 -683.867920
80.952797 72.870201 -687.095093
92.330399 79.576103 -695.732300
97.174500 80.526497 -700.241089
102.225700 81.098000 -705.179321
89.546204 78.263496 -693.740417
93.240303 79.793701 -696.809204
75.193199 69.840698 -682.986023
71.550697 68.083504 -680.521179
84.031998 75.371399 -689.809875
86.560699 76.893700 -691.671570
100.138603 80.712997 -703.588684
72.185898 68.761398 -681.653687
76.811996 71.047798 -685.264587
81.073303 73.515701 -688.430420
87.239098 77.396103 -692.874390
89.992798 78.650398 -695.070984
93.709702 80.160599 -698.116821
94.872398 80.291801 -699.220825
97.444901 80.574303 -701.666687
100.809196 80.826897 -704.917114
73.241096 69.464302 -683.211121
74.646500 70.347801 -684.219727
77.495499 71.669098 -686.473328
78.616302 72.194199 -687.357422
79.683502 72.780899 -688.160583
81.644501 74.422699 -689.386230
82.735603 74.964203 -690.233521
84.136703 75.916603 -691.206970
87.917397 77.834900 -694.124084
90.639297 79.049004 -696.298706
91.773300 79.554398 -697.204712
95.456398 80.236198 -700.574219
98.032799 80.538597 -703.009216
101.896698 81.150398 -706.590088
75.338799 70.837997 -685.461426
84.772003 76.728699 -692.219482
88.593201 78.312103 -695.315430
98.557999 80.361198 -704.317505
73.202904 70.160202 -684.459717
76.036003 71.390800 -686.718872
79.737000 73.539597 -689.427490
82.778397 75.553497 -691.542175
85.410004 77.111099 -693.454773
86.473701 77.506302 -694.333008
89.242401 78.600601 -696.589111
91.820900 79.688499 -698.659485
92.878502 79.851196 -699.635620
93.956703 79.910202 -700.678711
95.481102 80.301903 -702.015503
96.508102 80.255600 -703.054871
99.162003 80.424797 -705.611694
100.245697 80.767502 -706.533081
73.811203 70.584198 -685.709473
76.722397 71.859703 -688.018677
77.777000 72.548798 -688.752930
80.433701 74.244698 -690.620605
83.397697 76.451897 -692.562622
87.148300 78.273598 -695.456970
89.893097 79.024498 -697.837585
97.038597 80.082603 -704.438599
100.897697 80.997704 -707.848999
74.573898 71.269699 -686.869629
81.108902 75.166397 -691.573486
87.783997 78.243698 -696.786987
93.935097 79.931702 -702.110718
97.666496 80.119904 -705.718506
71.835899 70.391296 -684.983826
78.227402 73.218498 -690.015686
83.821503 76.979103 -693.836487
84.959503 77.366096 -694.785278
90.266800 79.174896 -699.207886
91.343399 79.361702 -700.186829
92.425201 79.749901 -701.079285
94.743401 79.947098 -703.280029
98.506104 80.249802 -706.859619
81.878403 76.038902 -692.528381
75.226700 71.747597 -688.064575
85.901299 77.705299 -695.867981
88.477501 78.646599 -697.976685
95.627403 79.902397 -704.444092
99.466003 80.822502 -707.804810
78.982803 74.037697 -690.901489
76.432800 72.417999 -689.317017
72.411903 70.835602 -686.239014
72.908096 71.220100 -687.536499
79.453903 75.032204 -691.937683
82.254799 76.722298 -693.793884
73.642197 71.811501 -688.648071
74.751801 72.369003 -689.430725
76.396301 73.279198 -690.552002
77.525597 73.928001 -691.310974
80.159302 75.948601 -692.847778
83.017403 76.994400 -695.043274
84.128998 77.246597 -695.968384
85.856102 77.797699 -697.332397
87.016098 78.211700 -698.228271
88.526802 78.654404 -699.439514
92.332703 79.732697 -702.507813
95.982697 79.886101 -705.856018
89.284401 79.059196 -700.626221
90.385300 79.387001 -701.502808
93.011597 79.787102 -703.770508
94.048103 79.646797 -704.803589
96.731003 80.132301 -707.084717
77.802002 74.928101 -692.480713
80.419098 76.599503 -694.143188
81.502701 76.903503 -695.012024
84.318802 77.412804 -697.401001
97.520302 80.726601 -708.168274
78.537300 75.952698 -693.192322
82.433800 76.968803 -696.348389
85.097099 77.480698 -698.591125
86.227402 77.965302 -699.417725
90.767197 79.485802 -702.937317
94.434799 79.747704 -706.233215
76.241501 74.637100 -692.074219
87.127098 78.502197 -700.408813
88.102097 78.926498 -701.503906
91.358498 79.605797 -704.226074
92.454803 79.599098 -705.254211
95.107399 80.119202 -707.487183
89.134201 79.313698 -702.474426
78.985397 76.713501 -694.336182
82.879501 77.272797 -697.694885
80.083603 76.843399 -695.536987
76.563202 75.694000 -693.030396
77.390198 76.616302 -693.832520
80.809601 77.016998 -696.798279
83.507103 77.564400 -699.011108
84.969200 78.661400 -699.770386
92.962898 79.811096 -706.586975
75.005600 75.614403 -692.638672
85.819702 78.680496 -701.014221
89.347504 79.337196 -703.936279
78.488503 76.987999 -695.674988
81.341202 77.468597 -698.062073
86.642700 78.933197 -702.180420
87.801598 79.265800 -703.073914
90.149902 79.565697 -705.091919
93.543900 80.237099 -707.876526
75.522903 76.628403 -693.659790
91.020599 79.826401 -706.275085
76.955704 77.027496 -695.142883
83.480797 78.521301 -700.377197
91.848801 80.277298 -707.358826
84.434097 78.923500 -701.479370
87.982201 79.374298 -704.537109
85.050499 79.279900 -702.739380
86.152901 79.451599 -703.671509
88.584900 79.695198 -705.808228
82.596901 79.194901 -701.367126
86.572403 79.706703 -705.046570
83.555801 79.442902 -702.490723
84.753098 79.724297 -704.105103
78.913902 71.162003 -676.505127
94.462898 81.061996 -704.434387
98.878502 80.532997 -680.619385
98.677200 80.292603 -685.719177
96.142303 80.458603 -708.415405
94.464996 79.474800 -687.505676
78.517197 73.646004 -687.070679
69.800797 66.819702 -677.822388
74.985397 73.043297 -690.791870
94.609497 80.520103 -708.844482
82.004799 79.377502 -702.702515
82.866096 79.563301 -704.059814
96.115402 82.003403 -703.389404
79.533997 77.391296 -697.536011
75.345299 77.064903 -695.002014
86.317802 73.588501 -677.797729
68.343697 66.074898 -673.223816
68.653397 66.189796 -674.624329
92.491898 80.742203 -708.708008
108.307602 82.553200 -694.090515
107.271500 82.059601 -691.731628
105.335999 81.707603 -690.901428
105.073799 81.617302 -689.160217
103.472504 80.974297 -690.254517
106.643303 82.488899 -687.734497
106.483299 83.056396 -686.168579
103.967102 81.259102 -688.039429
105.404701 82.151100 -686.549988
103.292801 81.411301 -685.880005
103.450500 81.714600 -684.228271
100.796898 80.884598 -684.831909
102.724800 81.883003 -682.765991
99.592796 80.538597 -683.957275
101.860199 82.044197 -681.586182
100.544502 81.849403 -681.049377
99.137299 80.913200 -682.259583
93.925797 78.000504 -685.265503
74.082397 76.727898 -693.741821
93.267197 77.175499 -679.987183
91.829300 76.504700 -680.036011
92.784103 76.943199 -678.082275
87.694199 74.374397 -679.282593
119.735100 73.328201 -803.904114
118.890701 72.372704 -804.844604
121.162399 74.082901 -802.402710
118.501602 71.322197 -805.853577
117.727097 70.448402 -806.728271
117.334099 69.491798 -807.802429
122.618698 74.214699 -800.922485
121.126900 72.695801 -802.942322
120.442001 72.095596 -804.052124
117.050499 68.924599 -809.173096
119.977699 70.985100 -804.928589
122.529404 72.974800 -801.619019
119.543404 69.992401 -805.854919
118.848900 69.377701 -806.990723
123.823700 73.814400 -800.082581
118.363503 68.565697 -808.318115
117.450500 67.956398 -810.213379
122.163597 71.800697 -802.538513
121.447098 71.112900 -803.633118
121.106796 70.132896 -804.770813
123.702599 72.472801 -800.872314
118.667397 67.797302 -809.476624
120.383698 69.052498 -806.529724
119.715797 68.439598 -807.673706
124.883003 72.772102 -799.561584
123.474998 71.397301 -801.819092
118.594398 67.209999 -810.879028
123.022400 70.618599 -803.011230
122.550400 69.714302 -804.160583
121.841499 69.167999 -805.612183
120.104202 67.699600 -808.891174
125.089897 71.466797 -800.096191
121.335701 68.348701 -807.315125
124.771500 70.726303 -801.311890
120.438400 67.392601 -810.243408
124.389900 70.062401 -802.614685
128.968002 74.731102 -796.478394
126.089500 70.927902 -798.983826
124.025703 69.683601 -803.953430
123.367599 69.119202 -805.178772
122.651299 68.554901 -806.620178
121.643402 67.763496 -808.653809
128.635193 73.496902 -797.148926
126.493301 70.241699 -800.243530
125.923203 70.067398 -801.818115
130.347794 73.769600 -796.242126
129.081696 72.146202 -797.266113
125.978798 69.929298 -803.249512
125.360603 69.558403 -804.580811
124.699303 69.052498 -805.789978
124.203102 68.916801 -807.178589
123.465401 68.162102 -808.152283
132.041901 75.186401 -795.149170
127.644203 69.776901 -799.106812
133.023193 75.622902 -794.114319
129.016006 70.735603 -797.739929
127.089897 69.218697 -801.084412
130.363297 71.996201 -796.393982
126.603798 68.818100 -802.415405
131.934204 73.760498 -795.478882
131.493607 72.407204 -795.576477
126.264702 68.249603 -803.704773
125.734200 68.121803 -805.057617
134.429306 75.435699 -793.764526
129.200897 69.867104 -798.900513
128.186600 68.944901 -800.178101
125.382797 67.962303 -806.497070
133.617401 74.169197 -794.439575
130.549194 70.763802 -797.190979
124.869301 67.588303 -807.863281
133.130005 72.788902 -794.732788
131.540604 71.055603 -796.146484
124.477501 67.206100 -809.241699
127.826401 68.216904 -801.806274
132.574493 71.395302 -795.063110
124.028702 66.957298 -810.587402
123.493301 66.920601 -811.980225
130.745895 69.818199 -798.240112
127.603302 67.727501 -803.123291
123.225304 66.818298 -813.418030
135.832901 74.610603 -793.906677
130.141602 69.065804 -799.640991
129.006500 68.094398 -801.019409
127.094803 67.057503 -804.386719
126.421402 66.719902 -805.621277
125.802597 66.479202 -806.877014
122.877197 66.519501 -814.870117
135.170197 73.352798 -794.560120
132.107895 69.995499 -796.970703
125.384003 66.048500 -808.267273
133.083694 70.354301 -795.897095
124.974899 65.671501 -809.631775
124.441803 65.766502 -811.244995
122.827698 66.149498 -816.297485
129.086899 67.243301 -802.243286
124.070297 65.439102 -812.637817
123.640099 65.583000 -814.057922
134.408005 70.552696 -794.911926
132.307693 69.213997 -798.208008
131.578796 68.768799 -799.386108
130.739197 68.141701 -800.540588
128.699905 66.733803 -803.549072
128.240402 66.125504 -804.809204
127.500603 65.698097 -806.039978
126.801804 65.342598 -807.288330
123.505501 64.837997 -815.259827
123.112099 65.546303 -817.577087
133.867203 69.393997 -796.657104
130.524704 67.071404 -801.491028
126.348396 64.769203 -808.601685
125.576103 64.488098 -810.174927
125.002800 64.349602 -811.467896
124.195000 64.258301 -813.475281
123.529701 64.449799 -816.674622
135.844193 70.242203 -794.877625
133.709000 68.762398 -797.946899
132.967896 68.308899 -799.121582
132.251801 67.901497 -800.312317
130.260803 66.195297 -802.582825
135.202805 69.406197 -795.990173
129.846207 65.830597 -803.935181
125.004601 63.432098 -812.644226
124.262604 63.440701 -814.668579
132.063400 66.941002 -801.484070
129.524094 65.258598 -805.262512
128.781204 64.777702 -806.388916
128.050095 64.378304 -807.633484
126.952202 63.699699 -809.357300
126.129402 63.285301 -810.823120
123.963203 62.940201 -816.058472
135.442795 68.448303 -797.043579
134.415100 67.933998 -798.873474
133.616104 67.393303 -800.034973
131.706406 65.946701 -802.526489
125.174004 62.358101 -813.566406
123.917702 62.617901 -817.449097
138.491592 70.418198 -794.030823
137.648499 69.723297 -795.017883
136.739105 68.868896 -795.887573
131.251999 65.066498 -803.650879
126.308197 62.311600 -811.893372
124.933899 61.990002 -815.010986
123.720100 62.319599 -818.906006
133.645294 66.578499 -801.241028
130.883896 64.565598 -804.939209
130.169601 64.193199 -806.173096
129.463104 63.837200 -807.416687
128.679092 63.308998 -808.547180
127.700699 62.715900 -810.082214
124.633301 61.698799 -816.469727
135.902206 67.575401 -798.156006
123.845100 61.999001 -820.346619
136.925400 67.942902 -796.977295
135.421204 67.059799 -799.398926
133.316605 65.589600 -802.338379
126.484001 61.414200 -813.024719
124.604698 61.278900 -817.901489
139.314804 69.685600 -794.961304
138.290298 68.647400 -795.771606
134.980606 66.437500 -800.601807
132.779404 64.822800 -803.534119
127.976097 61.999500 -811.287170
126.089401 60.934101 -814.416626
125.501198 60.774799 -815.726929
124.495201 61.207600 -819.331787
123.853104 61.511799 -821.687012
132.434006 63.953899 -804.686401
131.632797 63.432201 -805.886719
130.973404 63.132900 -807.128784
130.290298 62.801201 -808.372986
129.538101 62.368698 -809.611877
138.605103 67.734398 -796.858521
137.752899 67.030800 -797.850586
136.963501 66.486603 -798.982727
135.308304 65.511497 -801.684082
134.484802 64.931198 -802.839783
128.410599 61.161499 -812.375488
127.588303 60.578400 -813.522522
125.875999 59.814201 -816.800903
125.481003 59.983898 -818.241699
124.944298 60.319500 -820.407288
124.529099 60.987900 -822.891724
140.911697 69.282898 -795.104492
136.685898 65.879601 -800.246094
134.117599 64.114899 -803.981689
129.877594 61.519798 -810.788574
127.290604 59.825001 -814.718018
124.992599 60.132401 -821.853271
140.439697 68.362900 -796.315186
133.731201 63.136200 -804.941406
132.977707 62.607399 -806.029419
132.309799 62.265800 -807.253723
131.591995 61.852200 -808.474670
130.926300 61.573200 -809.821411
127.158997 59.328201 -816.077515
125.817101 59.015598 -819.302673
125.036102 60.239799 -824.057373
139.367599 66.826302 -797.640625
138.562103 66.224602 -798.740417
136.768997 64.959503 -801.342529
136.005798 64.441200 -802.491882
130.021393 60.551300 -811.867615
129.243301 60.003601 -812.999329
126.812698 58.657902 -817.294312
125.751999 58.837601 -820.762817
128.620605 59.312099 -814.205688
125.682297 59.256199 -822.772095
138.018295 65.431900 -799.891418
135.617905 63.889801 -803.771729
142.032196 68.648102 -796.182922
141.043594 67.205704 -797.326477
142.283401 67.933701 -797.445618
140.473007 66.206200 -798.288818
135.200394 62.980301 -804.827393
139.881195 65.109100 -799.110107
138.701004 64.410301 -800.629028
137.860199 63.952400 -801.802002
137.168793 63.701599 -803.050903
134.648407 61.957100 -805.723511
133.839005 61.517601 -806.855225
133.114105 61.239899 -808.131470
132.365204 60.933399 -809.405823
131.631805 60.605202 -810.590088
143.765900 68.268700 -797.535522
142.025208 66.573502 -798.273804
136.665100 62.973900 -804.241272
128.559601 58.482700 -815.436218
126.854500 57.870399 -818.549316
131.460602 59.674400 -811.729919
130.591599 59.168201 -812.879822
128.125702 57.994999 -816.746826
126.547501 57.540699 -819.902283
126.269699 58.074001 -821.864929
141.449997 65.293999 -799.108582
140.134399 64.250702 -800.216919
136.333206 62.066700 -805.332397
129.935501 58.417099 -814.003418
139.330505 63.579300 -801.610413
138.526001 63.158798 -802.792603
135.188400 60.953701 -806.629517
134.484894 60.688801 -807.901489
133.660294 60.221802 -809.029419
132.920502 59.915199 -810.302429
143.854797 67.468201 -798.771729
129.891602 57.605499 -815.204590
128.643204 57.058800 -817.682678
127.930702 56.682899 -818.904785
127.205101 56.429901 -820.540588
126.579002 56.161900 -821.802002
142.016998 63.853100 -799.575989
141.252197 63.393501 -800.733398
140.085999 62.667999 -802.424377
139.257004 62.134602 -803.572876
138.456100 61.605900 -804.641602
137.524994 60.917599 -805.661621
136.721497 60.393002 -806.751587
135.893295 59.841000 -807.841125
135.273499 59.584499 -809.130127
134.518295 59.128799 -810.267578
133.687805 58.583599 -811.385376
132.869705 58.023300 -812.416016
132.182999 57.660801 -813.606873
131.414902 57.201801 -814.777527
130.591995 56.747398 -816.145020
129.848099 56.324200 -817.343079
129.219193 56.041901 -818.584595
128.596497 55.769199 -819.834229
127.769302 55.322201 -821.238281
127.148102 55.056000 -822.502686
126.490601 54.749001 -823.764526
125.937798 54.601200 -825.159485
143.368301 63.497799 -799.267578
141.667206 62.416500 -801.691528
131.859802 56.185001 -815.676575
129.002304 54.658798 -820.630493
126.864799 53.591900 -824.563721
126.288399 53.380199 -825.854980
143.579407 62.601299 -800.421997
141.811600 61.395100 -802.715820
141.116501 61.020199 -803.921509
140.226807 60.368401 -804.939209
139.401901 59.802200 -805.999390
138.589493 59.255199 -807.075928
137.723404 58.644798 -808.140320
137.022598 58.277302 -809.387817
136.378098 57.981998 -810.664978
135.657104 57.560600 -811.816406
134.922806 57.125599 -812.970886
134.071304 56.516499 -813.990173
133.182495 55.832401 -814.905884
132.063507 55.208099 -816.783203
131.362198 54.827400 -817.991821
130.656601 54.444000 -819.207275
129.259796 53.702900 -821.667114
128.547501 53.319801 -822.905579
126.544701 52.412300 -826.906616
126.004097 52.241699 -828.213928
145.623703 63.197102 -799.223389
143.520294 61.609200 -801.502380
130.720398 53.565701 -820.333130
128.703400 52.582401 -824.171814
127.991096 52.201199 -825.423218
145.248703 62.209702 -800.206116
143.194397 60.723999 -802.637573
142.419403 60.242001 -803.796509
141.618698 59.730598 -804.952271
140.793503 59.158199 -806.004395
139.988007 58.614101 -807.076172
139.109695 57.982601 -808.127197
138.187393 57.267200 -809.069580
137.686005 57.144199 -810.401123
137.047699 56.852699 -811.680786
136.293304 56.420502 -812.922729
135.455307 55.855701 -814.041870
134.546997 55.175900 -815.046326
133.704498 54.613602 -816.188171
132.965897 54.181000 -817.375183
132.159698 53.636700 -818.448486
130.610992 52.965900 -821.665405
129.948502 52.636501 -822.910828
127.824898 51.535500 -826.763123
127.199203 51.259701 -828.047974
126.615501 51.035198 -829.348022
147.017502 62.911098 -799.229919
144.891098 61.218201 -801.283386
132.049103 52.915298 -819.728271
129.378098 51.677700 -825.103821
131.679001 52.274399 -821.001221
130.385696 51.792000 -823.998413
127.148903 50.257500 -830.452393
144.567200 60.344700 -802.404785
138.226395 56.139500 -811.263184
137.538895 55.775299 -812.520020
136.778397 55.293701 -813.656311
135.946701 54.760799 -814.878418
135.050797 54.091801 -815.888184
134.362900 53.707001 -817.079773
133.628204 53.268902 -818.265015
131.172104 51.862701 -822.415588
129.222000 50.953602 -826.380920
128.588898 50.653900 -827.653687
128.007202 50.416000 -828.943787
146.694305 61.791599 -800.168274
143.880005 59.756901 -803.607727
143.085098 59.203098 -804.647705
142.280594 58.640598 -805.693604
141.473801 58.078499 -806.749084
140.586899 57.421398 -807.780273
139.763702 56.846001 -808.851318
138.909805 56.236599 -809.921021
127.346603 50.285099 -831.970520
130.613403 50.845600 -825.130127
128.568497 49.742199 -830.145020
133.643997 52.470501 -819.506470
131.439102 50.939301 -823.545471
129.951706 50.113899 -827.263916
129.447495 49.859402 -828.644897
128.429398 49.363499 -831.519897
127.912804 49.077099 -832.812500
133.221298 51.989601 -820.806519
132.420105 51.334000 -821.856201
130.960403 49.866699 -826.153076
130.060898 49.231899 -829.819885
129.401993 48.753300 -832.358276
128.966202 48.411098 -833.755493
135.032501 52.890301 -818.091797
131.995804 50.190800 -824.650391
130.812393 49.209801 -828.011108
137.334595 54.260201 -814.485229
136.693497 53.673302 -815.719116
135.953705 52.967899 -816.819275
135.132401 52.303501 -819.414185
133.983002 51.266102 -821.800415
133.315506 50.645100 -822.971985
130.727097 48.530701 -830.913696
129.865707 47.934399 -834.800903
139.323502 55.251499 -810.919678
138.916107 54.922100 -812.242371
135.363998 51.798698 -820.799011
133.490601 50.069199 -824.344727
132.944000 49.589401 -825.671326
132.549698 49.279301 -827.053101
131.872192 48.698002 -828.855591
131.133102 48.185600 -832.257874
130.720596 47.856800 -833.651917
142.056702 57.016998 -807.507385
141.289505 56.270199 -808.521973
140.670395 55.700001 -809.724609
138.752594 53.925201 -813.351013
137.375397 52.703300 -816.576477
135.589203 51.231499 -822.096924
134.870499 50.539501 -823.139221
132.244293 48.287399 -830.213318
130.879898 47.264000 -835.624023
148.824707 62.660801 -799.127075
146.866898 60.703098 -801.133911
146.113602 59.965401 -802.089783
145.358200 59.226299 -803.055786
144.773499 58.699299 -804.334473
144.088699 58.050598 -805.461670
143.356705 57.349201 -806.572510
140.039597 54.165401 -811.542480
138.701797 52.958900 -814.459717
137.429199 51.854401 -817.744080
135.236404 50.039101 -824.437500
134.662704 49.517899 -825.643188
134.122192 49.034302 -826.867676
133.734695 48.730202 -828.246582
132.652695 47.832699 -831.528320
132.322205 47.592999 -832.936279
131.832397 47.176899 -834.307007
148.677597 61.505199 -800.003296
143.279495 56.264599 -807.532776
142.570297 55.580399 -808.572998
141.886703 54.934799 -809.737793
140.141693 53.287701 -812.725220
138.841095 52.121101 -815.668274
137.521393 50.961700 -818.941284
134.112000 48.150299 -829.561218
150.618607 62.368099 -799.499329
148.678497 60.374802 -800.992188
147.831100 59.523998 -801.876709
146.986603 58.677502 -802.776978
146.346695 58.074799 -803.913086
145.705597 57.471401 -805.056519
145.010803 56.807400 -806.178101
141.964798 53.865501 -810.729492
141.198105 53.115898 -811.767883
140.417404 52.445999 -813.924683
139.101700 51.249699 -816.765381
138.454407 50.638901 -817.901917
137.851700 50.164700 -820.072083
150.706406 61.273102 -800.573181
145.108093 55.701599 -807.177124
144.217300 54.796200 -808.007019
143.652100 54.280998 -809.224670
141.418396 52.143700 -812.859314
140.682007 51.523499 -815.040283
138.780396 49.783001 -819.053711
152.435501 61.947102 -800.080872
150.575302 60.004002 -801.247314
148.638199 57.953800 -802.155579
148.144196 57.523499 -803.447327
147.570694 57.004200 -804.720581
146.786499 56.234402 -805.778381
143.659103 53.185902 -810.239929
142.975403 52.536400 -811.410217
141.651093 51.306900 -814.002319
140.891403 50.661301 -816.175171
140.250793 50.064400 -817.404297
138.976196 48.906700 -820.194275
146.630295 55.127899 -806.773926
145.728500 54.207001 -807.586182
145.092407 53.610901 -808.758423
142.848694 51.469700 -812.462891
140.328598 49.238300 -818.573914
139.022903 48.048302 -821.360474
149.832306 57.437302 -803.051086
149.074799 56.705601 -804.200684
148.364594 56.029499 -805.389587
144.934097 52.647499 -809.837891
144.231598 51.967701 -810.889221
142.419693 50.317501 -814.747681
141.565903 49.558701 -816.775818
140.281403 48.410099 -819.744629
147.981903 54.885899 -806.335205
143.157394 50.177200 -813.064819
139.452301 46.918800 -822.130615
147.520798 53.819000 -807.199524
146.662903 52.950500 -808.033630
144.380295 50.783798 -811.780884
142.700607 49.300098 -815.710388
141.844193 48.546001 -817.739319
140.447693 47.280300 -820.666077
150.589905 56.614899 -803.966370
149.745804 55.795601 -805.111328
146.142197 52.220402 -809.204529
139.337601 46.086899 -823.284485
141.329605 47.890499 -818.890503
145.498001 51.438000 -810.337585
151.784897 57.118599 -803.329224
149.382797 54.766201 -806.065796
143.574600 49.226501 -814.104919
144.649200 49.630600 -812.595093
142.854095 48.056702 -816.456787
140.609604 46.111599 -821.502075
151.884293 56.077400 -804.290588
151.086594 55.301601 -805.293030
149.300598 53.500801 -806.925293
148.423706 52.616299 -807.723022
147.552597 51.740002 -808.538330
146.810501 51.046001 -809.739929
146.020096 50.307701 -811.027588
143.771896 48.252899 -815.126587
142.597595 47.213402 -817.593628
141.834900 46.534801 -819.163025
140.275101 45.173199 -822.625977
139.964493 44.973499 -824.004211
144.791397 48.589699 -813.578979
141.462601 45.604198 -820.280396
153.194000 56.360699 -803.721191
150.951797 54.125000 -806.103821
145.913406 49.155102 -811.981018
144.272903 47.282799 -816.085022
142.941406 46.041698 -818.373901
141.389297 44.622601 -821.310303
140.390106 43.874401 -824.809570
153.008804 55.265400 -804.727783
150.645905 52.858101 -806.849609
149.764603 51.958599 -807.625427
148.847900 50.998600 -808.193726
148.105606 50.275002 -809.178589
147.452194 49.666500 -810.324524
145.124207 47.501400 -814.432678
144.065903 46.622601 -817.330627
141.075897 43.834202 -822.532715
152.546402 54.292801 -805.786499
146.171600 47.908199 -812.725586
143.039001 45.109299 -819.446716
147.347397 48.575401 -811.242615
142.660797 44.309399 -820.603027
141.176407 42.970798 -823.690796
152.123398 52.983601 -806.343994
145.434906 46.450600 -815.420288
144.472107 45.677601 -818.367310
141.054794 42.554001 -825.103516
154.550797 55.142700 -804.457520
149.200195 49.574299 -808.493774
148.569199 48.995899 -809.746582
146.334000 46.905499 -813.774475
142.432602 43.345100 -821.680786
153.893295 54.193802 -805.286926
151.613098 51.809601 -806.977417
150.679703 50.817902 -807.508728
145.395905 45.818401 -816.771484
147.433197 47.247200 -811.825806
144.586899 44.799198 -819.538330
144.041702 43.908100 -820.570984
142.516800 42.407398 -822.809570
141.464996 41.540298 -826.136108
148.603195 47.845100 -810.618713
142.123199 41.817200 -824.143127
153.628601 52.910500 -806.009277
146.656296 45.865601 -814.763672
145.621506 44.874599 -817.823425
150.527893 49.389999 -808.016479
147.531403 46.405201 -813.026428
143.800293 42.874100 -821.607422
149.796402 48.342602 -809.007813
146.365204 45.001400 -815.958679
155.404495 54.157299 -805.082886
153.164902 51.749401 -806.732788
152.143906 50.426201 -807.317383
145.738495 44.054501 -819.057312
142.542297 40.896000 -825.195190
148.816101 46.635101 -811.373718
145.428406 43.455299 -820.335205
143.734100 41.697201 -822.537781
149.735901 47.152699 -809.832520
147.865204 45.324902 -813.905396
146.561798 44.072399 -817.034119
143.383804 40.951199 -823.734009
142.619507 40.286400 -826.529114
155.322495 52.796700 -805.541687
151.792206 48.929100 -807.542114
150.918900 47.981300 -808.161987
147.533401 44.632599 -815.106628
145.244904 42.488899 -821.473022
154.628693 51.673401 -806.196899
148.858398 45.544800 -812.310303
156.646194 53.463699 -804.996216
153.956497 50.547298 -807.070923
146.891800 43.286800 -818.213379
143.592804 39.996899 -824.848511
150.183899 46.112801 -810.733887
147.668198 43.616402 -816.152222
146.807297 42.872601 -819.620789
145.362701 41.416901 -822.408020
153.447693 49.200401 -807.346680
149.035599 44.564602 -813.341797
144.821594 40.420101 -823.310486
143.651596 39.270000 -826.085815
156.117493 51.700401 -805.975220
152.505295 47.681702 -807.658325
151.765198 46.901798 -808.664673
148.749207 43.846199 -814.634399
146.756195 41.972900 -820.800720
155.347000 50.487202 -806.630371
150.255005 44.979900 -811.609497
147.798996 42.520199 -817.061584
144.821106 39.305500 -824.312317
157.592194 52.526798 -805.512817
151.314499 45.603802 -809.940613
147.750595 42.039600 -818.413086
146.502594 40.809502 -821.674683
143.985199 38.256802 -827.090210
148.823898 42.813499 -815.678284
155.038300 49.142700 -807.073486
150.164200 43.863602 -812.513794
147.673904 41.425800 -819.755676
146.125900 39.823898 -822.769226
144.841507 38.511700 -825.558594
154.304703 47.961399 -807.364075
149.879700 43.239300 -813.770386
157.530807 51.140999 -806.028076
153.631607 46.758301 -807.895813
151.584305 44.571602 -810.919800
148.408295 41.279499 -817.402710
147.377106 40.275299 -820.663574
156.853699 49.930801 -806.624023
146.216095 38.618000 -823.636475
145.171295 37.580799 -826.637878
158.716202 51.584400 -805.336121
151.376297 43.477299 -811.843323
150.042496 42.094501 -814.665222
149.487595 41.519901 -815.852722
148.537796 40.577801 -818.635925
147.246994 39.255699 -821.659912
150.932297 42.624699 -812.954590
146.216400 37.838699 -824.828125
156.646896 48.478901 -807.136597
155.674393 47.366600 -807.329712
148.556503 39.849201 -819.924927
158.468506 50.134800 -806.403687
154.976105 46.190300 -808.046997
152.682999 43.680401 -810.565613
149.431900 40.257599 -816.564209
147.468506 38.332001 -822.726379
145.720200 36.578899 -827.523804
146.393402 36.954300 -826.026489
151.181900 41.541698 -813.912109
150.464493 40.769501 -814.990479
149.435501 39.735401 -817.912476
148.434799 38.736000 -820.867676
147.419296 37.730499 -824.031616
159.690094 50.554798 -805.762207
158.053406 48.723400 -807.011108
152.665894 42.725399 -811.701416
152.167297 41.625599 -812.629272
149.604202 38.974400 -819.121826
147.601593 36.954399 -825.224976
157.330093 46.831001 -807.706116
156.450607 45.838600 -808.366028
150.693298 39.481300 -815.611877
150.146500 38.905800 -816.896179
148.856506 37.631401 -821.667786
148.640503 37.450100 -823.139282
147.219498 35.964802 -826.686279
151.832001 40.258202 -814.082520
149.740097 38.095200 -820.241089
160.409302 49.625999 -806.598389
159.374603 48.201500 -807.125488
154.098694 42.214401 -811.615417
150.496902 38.269901 -818.148621
148.926697 36.686798 -824.311279
148.440598 35.940300 -825.843872
147.398697 34.790100 -827.598083
153.586700 41.042301 -812.344421
150.137405 37.083801 -821.171509
149.844604 36.756599 -822.563171
158.922501 46.929199 -807.742920
157.982300 45.826000 -808.490601
153.036499 40.034801 -813.350281
152.192093 39.053902 -814.758179
151.585297 38.351200 -815.940430
150.707596 37.356201 -819.231873
151.237595 37.567402 -817.072876
148.772400 34.767700 -826.583679
149.986298 35.833801 -823.700806
149.498306 35.269699 -824.978027
148.383698 33.794601 -827.862305
161.438202 48.827301 -807.187683
150.907303 36.289600 -820.206299
160.752304 47.612099 -807.703003
151.501495 36.629299 -818.204224
150.801498 35.816002 -821.559021
154.422501 39.912899 -812.617920
153.526093 38.847000 -813.986694
152.862000 37.960800 -815.432007
149.778305 34.056599 -825.744019
159.593201 45.655499 -808.696472
152.507797 37.123199 -816.583984
149.497192 33.488998 -827.016174
150.907806 35.110001 -822.870422
150.590698 34.642101 -824.251770
151.784897 35.570900 -819.187073
149.260101 32.482300 -828.093872
151.692795 35.083500 -820.535278
162.472000 47.627800 -807.310730
154.957703 38.500099 -813.269897
154.406693 37.827499 -814.494385
152.922501 36.017700 -817.428711
154.166702 36.844398 -815.568115
151.979202 34.163700 -821.668091
151.685501 33.801399 -823.105774
151.361801 33.402599 -824.523193
150.848999 32.775200 -825.731201
150.335602 32.146900 -826.945190
163.099396 47.087700 -808.495789
153.235306 35.043301 -818.413330
152.887604 34.614399 -819.812683
150.137604 31.233400 -828.110718
154.289093 35.771301 -816.520996
155.450699 36.639301 -814.677124
152.120895 32.522598 -823.581787
151.668701 31.963301 -824.821777
151.239700 31.432400 -826.080383
154.516403 34.897701 -817.617188
153.382797 33.494801 -820.574829
152.903107 32.901299 -821.786072
155.483597 35.616600 -815.700317
154.305496 34.153801 -818.817017
151.279800 30.395201 -827.062927
151.001297 30.045500 -828.415894
153.107101 31.865499 -822.795898
152.729797 31.231001 -824.016724
152.327393 30.720600 -825.279480
155.579193 34.577202 -816.663696
154.626099 33.080002 -819.747986
155.407700 33.738201 -817.871826
154.283005 32.309700 -820.933228
152.570694 29.699100 -826.327881
152.063507 29.056400 -827.526123
154.278198 31.375299 -822.027100
155.657700 32.631901 -818.831177
154.031403 30.562401 -823.229980
153.519196 29.913401 -824.411072
155.355896 31.851200 -820.078918
152.468307 27.833200 -828.171814
153.700195 28.973000 -825.479919
153.268204 28.425900 -826.721130
155.486893 30.829901 -821.155212
155.122192 30.098301 -822.320801
154.687698 29.326500 -823.536377
153.621399 27.202000 -827.374023
154.710098 28.230301 -824.499573
154.308899 27.716801 -825.848511
156.107193 29.556400 -821.385315
155.860703 28.750299 -822.573730
154.020599 25.935801 -827.969421
155.852798 27.762699 -823.648315
154.858704 26.504299 -826.417480
155.663498 26.960300 -824.853821
155.375900 25.315399 -827.021118
156.142303 25.713301 -825.462524
155.352295 24.287701 -828.013794
156.414093 24.533501 -826.244324
156.374298 23.510500 -827.286011
152.661499 61.114300 -801.262024
135.038803 50.736000 -818.668274
135.071899 48.400799 -827.736084
125.568901 66.533096 -811.749084
149.883408 58.906502 -802.020081
160.914795 46.184799 -808.681274
135.031906 74.921799 -795.068176
134.396896 73.024300 -795.795471
143.039200 65.904999 -799.481689
145.904907 48.328098 -815.308105
162.170105 46.181301 -809.383179
136.115707 49.637600 -825.526428
133.988998 47.808701 -830.952393
155.035995 46.776699 -809.391602
147.481094 40.370201 -822.802002
157.022095 26.413900 -824.571411
156.921402 27.869900 -824.772522
151.419495 59.145302 -802.058289
97.409203 78.859497 -789.257080
97.220497 78.432404 -790.615601
98.865799 78.883301 -788.758118
98.575302 78.504402 -790.161987
94.168503 73.310097 -796.589417
98.310699 78.134903 -791.542786
95.588097 74.293404 -795.794128
94.171402 72.650299 -797.941895
100.304100 78.951599 -788.688721
100.215797 78.669403 -790.193115
99.747704 78.415398 -791.517212
96.924400 74.824699 -795.191528
96.129700 74.253899 -797.147217
102.449203 81.133698 -787.754395
95.782799 72.917000 -797.698120
90.148300 66.536102 -806.761230
101.945000 80.120201 -788.622681
97.512901 75.420998 -796.460693
101.552200 79.123497 -789.624329
91.292503 66.972504 -805.247681
90.020401 65.839302 -807.995178
100.386703 77.595001 -792.564087
98.692001 75.416397 -794.794373
104.178497 81.129700 -786.982971
103.448402 80.433701 -788.485229
101.850304 78.516098 -790.910217
98.176804 74.160500 -796.598572
97.515099 73.356400 -797.580627
93.266800 67.916397 -803.275879
92.633202 67.294899 -804.541504
91.599800 66.194298 -806.415222
103.536903 79.888100 -789.803528
101.942200 77.975998 -792.255371
100.287804 75.893898 -794.583130
99.335297 74.709099 -795.953613
97.357498 72.153900 -798.591309
95.171097 69.344803 -801.540894
94.547501 68.681099 -802.684326
91.540604 65.122902 -807.411316
104.961700 80.532303 -788.029419
103.460197 79.004097 -790.964111
99.077400 73.676300 -797.621521
96.654297 70.275101 -800.299194
94.483498 67.821899 -804.005127
93.425797 66.408600 -805.331116
106.255096 81.111900 -786.702393
105.194901 80.313202 -789.414795
103.433701 78.189598 -792.161377
102.768303 77.434097 -793.302185
102.092499 76.664101 -794.454773
101.098099 75.295700 -795.632202
100.341904 74.433899 -796.921509
98.834602 72.309097 -798.593811
96.675499 69.517403 -801.544922
96.002098 68.650398 -802.473511
93.265800 65.145103 -806.286072
106.648903 81.019997 -788.085205
105.262802 79.539200 -790.697327
98.863503 71.309303 -799.674316
96.029297 67.642197 -803.601013
95.329597 66.777901 -804.661316
93.336403 64.162598 -807.342529
109.061203 82.607697 -785.174927
108.549103 82.240799 -786.552185
106.931900 80.413101 -789.419128
106.612801 80.479897 -790.932495
105.592697 79.015800 -792.050903
104.928001 78.151497 -792.978271
104.281601 77.373001 -794.017883
103.703903 76.869202 -795.372803
103.112099 76.250702 -796.533386
102.303299 75.038902 -797.307129
101.584702 73.909203 -797.877197
100.758003 72.672302 -798.672424
98.530602 69.665497 -801.536011
97.523697 68.537399 -803.343079
95.555397 65.781898 -805.655518
94.830299 64.627899 -806.199585
108.736603 81.268700 -787.692627
101.247101 72.284401 -800.028076
100.432098 71.118401 -800.952026
99.455299 69.984299 -802.644470
97.109596 66.488297 -804.991272
94.948898 63.350201 -807.335876
110.849998 82.568001 -785.165588
110.324501 82.139198 -786.496277
108.953201 80.611801 -789.055908
108.440498 80.194099 -790.355713
107.840302 79.565598 -791.565430
107.180702 78.781998 -792.687378
106.644096 78.286102 -793.916504
106.023697 77.542603 -794.957520
105.348801 76.654099 -795.911377
104.666298 75.801201 -796.978394
103.997101 74.887604 -797.851318
103.329697 73.981598 -798.734009
99.634499 69.029297 -803.762329
97.287399 65.475601 -806.044189
94.753197 61.755199 -808.768188
94.031303 60.704300 -809.564209
110.250504 81.322701 -787.717896
103.239799 73.107101 -799.987122
102.511703 72.046501 -800.797180
101.929604 71.450897 -802.010010
101.197098 70.391098 -802.840881
99.436203 67.821404 -804.790771
96.019699 62.505699 -807.835083
93.891098 59.618698 -810.682007
97.312202 64.055099 -806.961304
98.848000 66.376999 -805.729492
102.088303 73.216698 -799.022827
112.105904 82.410500 -785.925781
109.958199 80.547501 -790.111572
113.700302 81.936501 -786.861572
113.059402 81.394203 -788.146423
112.312103 80.521400 -789.138672
111.740196 80.129799 -790.479126
111.045303 79.414803 -791.604980
110.354599 78.763496 -792.849609
109.732903 78.192299 -794.000671
109.085403 77.578598 -795.160278
108.314201 76.694603 -796.219604
107.689697 76.132202 -797.400024
107.061302 75.567001 -798.589600
106.232399 74.544296 -799.575012
105.473801 73.652702 -800.570801
104.666496 72.627701 -801.469727
103.890999 71.559998 -802.158325
103.086304 70.654198 -803.298584
102.223000 69.545403 -804.232971
101.423500 68.501801 -805.063599
100.592003 67.246597 -805.569824
98.883499 65.042099 -807.398315
97.332703 62.754002 -808.453430
96.021797 60.786201 -809.274902
95.264297 59.902100 -810.281677
114.653397 80.778000 -788.278381
113.881401 79.901100 -789.367188
113.248001 79.340302 -790.589172
112.615196 78.733597 -791.713928
112.022903 78.258202 -792.958008
111.442001 77.807800 -794.211304
110.776497 77.206100 -795.469482
110.238998 76.843597 -796.741272
109.539703 76.085999 -797.803528
108.866302 75.380402 -798.876099
108.176399 74.701698 -800.066895
107.459198 73.874603 -801.052612
106.712402 72.946404 -801.940613
105.857300 71.775597 -802.733521
105.122200 70.931198 -803.751099
104.378601 69.917099 -804.449219
103.600304 68.844902 -805.157227
102.334503 67.284103 -806.688110
101.406898 66.120003 -807.767822
100.584702 64.931900 -808.401611
97.055397 59.624699 -810.691284
96.200500 58.564701 -811.713074
114.222504 78.165604 -790.745117
113.754204 78.024696 -792.205872
113.198196 77.669800 -793.557678
112.646599 77.274002 -794.810120
112.046097 76.791199 -796.067627
111.449799 76.320396 -797.334229
110.779404 75.664902 -798.500916
110.106102 74.956497 -799.570190
109.367599 74.080498 -800.542175
108.630501 73.212502 -801.524780
107.874100 72.367996 -802.627319
107.183701 71.595200 -803.630005
106.418602 70.638397 -804.536377
105.630997 69.538101 -805.234619
104.683899 68.371803 -806.393188
103.919998 67.432800 -807.331726
102.850197 65.841301 -808.082214
102.095802 64.875099 -808.929321
100.550201 62.352100 -809.558228
99.729301 61.371498 -810.624329
98.874199 60.129299 -811.285522
98.094002 59.024101 -811.945679
115.458900 78.861198 -792.335083
114.681099 77.935600 -793.356689
114.111900 77.557297 -794.705200
113.508003 77.064598 -795.952820
112.937103 76.691299 -797.317322
112.287903 76.070198 -798.474121
111.627800 75.486900 -799.747681
110.845398 74.577003 -800.817627
110.046097 73.641998 -801.899902
107.898903 71.114998 -804.776611
106.999496 69.912201 -805.691895
106.187798 68.765503 -806.394714
105.545700 68.204903 -807.646484
104.311897 66.195099 -808.178589
102.555901 63.640701 -809.551270
101.809700 62.635201 -810.295227
116.701500 79.237999 -791.700806
110.144798 72.849403 -803.145325
109.414001 71.885803 -803.919983
105.603302 66.793900 -807.826294
104.224297 64.962097 -809.261108
101.812798 61.395000 -811.046326
100.998199 60.212502 -811.694214
100.245300 59.221401 -812.495728
116.397499 78.557701 -793.399414
115.666298 77.764503 -794.509399
115.096100 77.335999 -795.749084
114.541496 76.941002 -796.997803
113.892899 76.427597 -798.356812
113.220497 75.766197 -799.511719
112.555000 75.177399 -800.784180
111.860703 74.431801 -801.852478
108.443199 70.162903 -805.932373
103.499496 63.347599 -810.573730
99.820503 57.976898 -813.438477
99.067101 56.974098 -814.216309
111.370903 73.495499 -802.830627
109.433899 71.087196 -805.142578
107.533401 68.455498 -806.888306
105.602997 66.016701 -809.177612
99.273697 63.708900 -808.466370
100.119400 66.342598 -806.851807
106.290298 75.770103 -797.250977
105.617699 75.203102 -798.404907
107.632103 77.479698 -795.210571
106.865097 76.663803 -796.214600
104.367302 74.136597 -799.724670
109.586700 79.548798 -791.711121
108.895401 78.915901 -792.807922
108.174698 78.233498 -793.908813
111.949997 81.825500 -787.263428
110.908600 80.869202 -788.910400
94.111702 58.522099 -811.578430
97.300400 62.203701 -809.841980
94.131401 57.501900 -812.640381
98.784103 62.133400 -809.323975
97.775902 60.630402 -809.872681
94.148499 56.398300 -813.658630
95.820396 57.734200 -812.893921
93.897301 55.353901 -814.675720
100.840202 64.322800 -809.694824
95.771698 56.485699 -813.621216
97.712502 57.878399 -812.915222
95.642197 55.349400 -814.675293
94.858902 54.497799 -815.502625
117.982697 79.179100 -792.326416
97.363602 56.594398 -813.878784
117.929497 78.778397 -793.724182
117.211197 78.172203 -794.790894
116.024696 77.335999 -796.833313
115.449501 76.805702 -798.129517
110.860100 72.589600 -804.409302
114.971497 76.268501 -799.358398
114.184799 75.611198 -800.554871
113.669601 74.827698 -801.738770
112.918404 74.179199 -802.853271
107.302597 67.492699 -808.005188
98.212303 56.018002 -815.219971
119.303001 78.912804 -793.209595
117.685204 77.782700 -796.078674
112.430199 73.222397 -803.858215
110.953697 71.594398 -805.443481
109.849701 70.156197 -806.245972
109.044098 69.299004 -807.164429
108.310501 68.653702 -808.235474
105.153503 64.334503 -810.172485
119.138702 78.725700 -794.653198
117.190102 77.072098 -797.610596
112.144897 72.946899 -805.538574
107.219299 66.466904 -809.022278
103.923401 62.197498 -811.468872
103.104500 60.944302 -811.742615
102.123001 59.883701 -812.836914
116.889297 76.618500 -798.945129
116.058701 75.924400 -800.227295
115.315903 75.342300 -801.440979
106.588799 64.963303 -809.545776
105.096199 63.327202 -811.173828
101.494698 58.627998 -813.795227
100.581497 57.709801 -814.934875
114.882698 74.609398 -802.608215
114.124802 73.873802 -803.601807
111.295898 70.640404 -806.461182
108.989899 68.410797 -809.499573
107.444397 66.338402 -810.528625
100.081100 56.466000 -815.432922
119.654198 78.209297 -795.909485
118.887398 77.553703 -797.070618
113.757202 73.128998 -804.770813
112.443497 71.537697 -805.943176
110.777298 69.493301 -807.384888
109.934402 68.564201 -808.297485
106.501099 63.914700 -810.505981
99.299599 55.063400 -816.710022
120.756798 78.578903 -794.898682
118.573402 76.776100 -798.319702
117.605202 76.137100 -800.116577
116.931297 75.682404 -801.349915
105.332802 61.829201 -812.066284
103.987999 60.081299 -813.061523
103.106796 59.068501 -813.945190
116.776100 75.124298 -802.653625
115.946899 74.239197 -803.608521
114.008202 72.151497 -805.809021
112.767601 70.769897 -807.137512
110.228699 67.676498 -809.391724
109.299500 66.794998 -810.654480
107.859802 64.420601 -810.849487
106.765900 62.979500 -811.631470
102.738098 57.888302 -814.886475
101.272697 56.158100 -816.284180
99.814102 54.599201 -817.960571
121.260498 78.257301 -796.233521
120.607903 77.886200 -797.557129
119.185501 76.589699 -799.588989
115.804398 73.817398 -804.959778
114.907898 73.209503 -806.606323
111.723000 68.833801 -808.581421
105.554497 60.738701 -813.070618
103.628700 58.812000 -815.521729
102.479202 57.172001 -816.128479
101.106003 55.687302 -817.682617
99.643997 54.127399 -819.373474
120.190804 77.036499 -798.634277
118.831802 76.005501 -800.944275
118.137802 75.501602 -802.163696
108.763702 65.151199 -812.428711
104.973396 59.606701 -814.198486
117.583603 74.927498 -803.830200
112.973503 69.813202 -808.850708
112.675003 70.092598 -810.248291
110.705803 66.764900 -810.384888
