91.052597 27.911100 -742.951416
90.286499 32.042500 -735.285095
90.342400 31.983999 -735.892395
90.391296 31.593599 -736.512817
90.481102 30.792101 -737.675476
90.588898 29.867300 -739.060181
90.623901 29.643400 -739.490295
90.775703 28.651199 -741.359192
90.818001 28.409500 -741.870483
90.871696 28.079700 -742.525513
90.975304 27.499901 -743.776184
90.270203 31.250000 -736.999512
90.353996 30.482599 -738.094299
90.388603 30.257999 -738.522095
90.501602 29.446100 -739.939819
90.535599 29.200199 -740.366699
90.778900 27.712999 -743.348816
90.164398 30.953400 -737.354675
90.438599 28.981400 -740.829773
89.886299 32.067799 -735.583374
89.929298 31.882900 -736.096375
90.142799 29.982500 -738.918091
90.172798 29.667999 -739.327271
90.353699 28.569599 -741.576782
90.393799 28.299801 -742.083008
90.446899 27.982800 -742.741821
89.829498 31.584900 -736.491577
89.920700 30.718000 -737.719727
90.384399 27.565701 -743.617493
89.767197 31.265900 -736.899170
89.859200 30.424200 -738.138184
89.893700 30.218700 -738.571594
89.984100 29.471600 -739.765320
90.019699 29.283100 -740.205688
90.093002 28.788500 -741.143127
90.255203 27.790199 -743.189575
89.964798 29.039801 -740.644409
89.494797 31.937599 -735.838074
89.600700 30.991899 -737.285583
89.733498 29.819599 -739.096313
89.938904 28.438400 -741.771423
89.976196 28.136400 -742.272583
90.111000 27.396500 -743.979370
89.424301 31.686501 -736.252197
89.907700 27.987700 -742.726013
89.204803 31.900101 -735.408630
89.304802 31.458000 -736.663574
89.377602 30.746700 -737.693420
89.422096 30.328800 -738.317017
89.452301 30.060200 -738.736572
89.500702 29.565701 -739.427612
89.534897 29.375799 -739.868530
89.568398 29.168400 -740.305908
89.616798 28.817499 -740.954712
89.651199 28.625900 -741.397522
89.800102 27.783199 -743.321228
89.006104 31.858299 -735.869995
89.092697 31.158899 -737.060425
89.441498 28.422199 -741.831116
89.474098 28.193800 -742.267700
89.589897 27.587200 -743.760620
89.620697 27.312401 -744.191528
88.672203 31.844700 -735.376282
88.741798 31.664301 -736.217407
88.770203 31.375299 -736.626892
88.824898 30.890301 -737.392029
88.853897 30.607599 -737.806396
88.885201 30.368799 -738.232727
88.916603 30.131800 -738.660278
88.945503 29.840401 -739.075928
88.974098 29.540300 -739.490784
89.007797 29.343100 -739.930725
89.042198 29.162901 -740.375000
89.072899 28.899500 -740.801392
89.105400 28.675900 -741.237488
89.209900 27.986700 -742.628174
89.246902 27.852100 -743.086121
88.423103 31.830700 -735.839417
88.503098 31.139500 -736.953125
88.841599 28.475100 -741.584717
88.874603 28.255501 -742.023682
88.992996 27.698000 -743.528015
89.024498 27.440901 -743.962524
88.110901 31.880100 -735.400818
88.176300 31.613100 -736.220520
88.206497 31.358801 -736.639771
88.254402 30.882601 -737.327576
88.281998 30.572100 -737.735779
88.315697 30.380699 -738.174500
88.347099 30.143400 -738.602722
88.379501 29.923000 -739.035828
88.403702 29.534700 -739.430420
88.435997 29.308599 -739.864319
88.472198 29.162600 -740.317322
88.506104 28.968000 -740.759583
88.537201 28.712000 -741.189087
88.630096 28.083099 -742.432129
88.666298 27.930700 -742.886780
88.776100 27.267900 -744.330383
87.881699 31.736000 -735.854675
87.965401 31.126301 -736.992371
88.293198 28.439400 -741.547485
88.327698 28.256901 -741.995300
88.429001 27.809700 -743.281372
88.463600 27.624300 -743.730591
87.561302 31.691299 -735.460571
87.626701 31.567200 -736.239380
87.656197 31.301600 -736.656982
87.703697 30.826000 -737.346802
87.734200 30.575500 -737.770874
87.765900 30.349501 -738.202087
87.798401 30.137300 -738.637390
87.826797 29.841000 -739.053284
87.854202 29.521799 -739.465271
87.884804 29.263599 -739.892822
87.921402 29.130501 -740.349670
87.956398 28.961100 -740.798828
87.984299 28.644400 -741.215820
88.074997 28.130400 -742.405029
88.109001 27.935499 -742.851624
88.205101 27.370300 -744.118103
87.411903 31.076799 -736.995422
87.742203 28.457600 -741.576416
87.777298 28.288900 -742.028076
87.876701 27.802601 -743.308472
87.909302 27.577000 -743.750488
87.970100 27.261200 -744.540222
87.061302 31.689199 -735.486084
87.100601 31.617901 -735.955383
87.132500 31.405300 -736.387329
87.200798 30.786800 -737.366577
87.230698 30.529699 -737.790222
87.261398 30.286699 -738.218079
87.290199 30.005400 -738.637695
87.321800 29.777599 -739.071289
87.349297 29.464600 -739.485596
87.380402 29.224001 -739.918213
87.416298 29.078100 -740.373291
87.451202 28.911699 -740.823975
87.569603 28.094999 -742.436829
87.603798 27.908001 -742.885986
87.701202 27.383301 -744.163086
86.960899 31.198400 -736.785828
87.277000 28.692499 -741.231689
87.317802 28.356600 -741.809875
87.442902 27.686399 -743.461487
87.302101 27.497999 -743.937317
87.335602 27.159300 -744.440796
86.554100 31.543501 -735.463379
86.599197 31.604799 -735.969910
86.628197 31.362000 -736.395081
86.674896 30.921600 -737.096619
86.704597 30.686899 -737.526428
86.732697 30.420601 -737.949097
86.762604 30.186701 -738.380920
86.792900 29.958700 -738.814880
86.823700 29.740801 -739.252075
86.841202 29.396000 -739.578613
86.872101 29.175800 -740.017273
86.908798 29.071100 -740.483215
86.939400 28.844400 -740.921570
87.026497 28.198999 -742.167603
87.059898 28.023199 -742.620117
87.093498 27.852200 -743.073975
86.849503 28.537001 -741.410278
86.869202 27.660400 -743.505920
86.917900 27.384800 -744.185974
86.260696 31.170799 -736.617981
86.609398 28.351999 -741.833374
86.808998 27.248899 -744.632324
86.089203 31.486000 -735.539429
86.129402 31.478001 -736.029480
86.196800 30.953300 -737.038574
86.223701 30.689600 -737.462280
86.250397 30.419001 -737.885376
86.279999 30.204599 -738.323486
86.308899 29.973301 -738.758179
86.338898 29.763000 -739.198914
86.363998 29.454700 -739.616821
86.388100 29.124201 -740.030884
86.421501 28.979601 -740.489502
86.453697 28.808300 -740.942322
86.542397 28.129299 -742.267578
86.576103 27.985100 -742.728699
86.526398 27.785601 -743.205688
86.574699 27.530899 -743.891418
86.271202 28.598200 -741.362427
85.809196 31.314600 -736.372314
86.162399 28.258200 -741.961182
86.324402 27.373899 -744.323486
86.355103 27.106701 -744.809570
85.611000 31.340401 -735.557312
85.699501 31.038200 -736.794800
85.726601 30.806700 -737.228210
85.751602 30.535299 -737.652283
85.779404 30.316700 -738.090698
85.805603 30.065701 -738.521912
85.832703 29.830900 -738.957825
85.860901 29.616199 -739.399475
85.884804 29.314899 -739.821472
85.908501 29.006599 -740.243103
85.940903 28.871700 -740.705994
86.051399 28.069799 -742.420471
86.082001 27.894199 -742.876587
86.124702 27.698900 -743.493713
85.511803 31.445499 -736.025085
85.824699 28.676800 -741.185974
85.849800 28.407200 -741.619812
86.005699 27.526899 -743.983887
85.920799 27.302401 -744.602600
85.322800 31.184500 -736.466125
85.641502 28.232000 -742.011230
85.719002 27.795099 -743.235413
85.135399 31.348600 -735.669128
85.211601 30.944700 -736.880798
85.238098 30.752100 -737.325012
85.260696 30.487801 -737.751282
85.285301 30.256901 -738.187195
85.308502 29.999100 -738.617188
85.333801 29.782000 -739.058105
85.358101 29.542999 -739.494385
85.379303 29.242201 -739.917114
85.402802 28.983801 -740.351013
85.430496 28.808500 -740.804993
85.526802 28.049299 -742.448486
85.603302 27.619801 -743.675415
85.683098 27.129000 -744.975281
84.981598 31.375601 -736.166870
85.256897 28.589500 -741.244629
85.281700 28.367100 -741.689087
85.354698 27.903200 -742.906311
85.431000 27.499100 -744.139099
84.782204 31.171000 -736.608887
84.806099 30.846399 -737.100220
84.829102 30.614000 -737.534302
84.849197 30.326599 -737.955200
84.872902 30.106400 -738.394226
84.892998 29.815399 -738.816406
84.918404 29.623699 -739.264099
84.940498 29.367599 -739.696777
84.958504 29.032700 -740.112000
84.986397 28.885700 -740.572388
85.073799 28.167101 -742.141174
85.146400 27.731001 -743.365723
85.222504 27.360600 -744.606506
85.258904 27.094400 -745.242676
84.574097 31.455200 -735.793396
84.845100 28.752899 -741.051392
84.864700 28.464600 -741.480530
84.926102 27.974199 -742.608704
84.997299 27.555799 -743.838318
84.451797 31.325899 -736.256775
84.714798 27.815100 -743.074280
84.773697 27.459700 -744.317322
84.799797 27.308201 -744.862305
84.340698 31.099001 -736.765625
84.354897 30.749001 -737.251587
84.369202 30.486799 -737.679016
84.384903 30.248800 -738.113281
84.401001 30.018200 -738.550415
84.414299 29.734900 -738.975586
84.431198 29.516899 -739.417480
84.446503 29.268101 -739.853088
84.457100 28.928101 -740.268799
84.479500 28.813801 -740.736816
84.520897 28.336000 -741.783386
84.538597 28.128500 -742.232605
84.594002 27.640600 -743.529480
84.677299 27.138599 -745.320801
84.347198 28.657499 -741.170288
84.403503 27.948500 -742.664185
84.458900 27.487101 -743.968811
83.974098 31.316200 -735.867126
84.004097 31.276501 -736.432617
84.236397 27.765200 -743.104126
84.297401 27.433100 -744.435974
84.319199 27.321600 -744.907471
83.815399 31.033400 -736.840027
83.827904 30.762400 -737.265076
83.839699 30.476900 -737.687683
83.852699 30.213400 -738.116882
83.867897 29.991100 -738.557129
83.882301 29.752199 -738.994080
83.895599 29.490200 -739.426575
83.911903 29.286200 -739.873474
83.922699 28.975500 -740.296997
83.938797 28.764900 -740.744080
83.967598 28.537701 -741.435486
83.982101 28.293301 -741.877014
83.996902 28.054600 -742.320679
84.046700 27.616800 -743.548401
84.124199 27.098700 -745.339722
83.863998 27.846100 -742.788086
83.917099 27.509300 -744.037720
83.555496 31.309401 -736.101013
83.834000 27.389500 -744.510193
83.853996 27.277700 -744.982178
83.421799 31.180500 -736.550110
83.516403 29.089001 -740.081177
83.527100 28.809999 -740.513306
83.548302 28.653799 -741.055786
83.569397 28.411800 -741.662598
83.583801 28.202600 -742.112488
83.622002 27.719801 -743.248779
83.716400 27.101101 -745.597473
83.141502 31.212099 -735.838074
83.186600 30.975500 -736.930481
83.193298 30.639299 -737.340271
83.203903 30.374701 -737.768982
83.216797 30.151699 -738.208984
83.231796 29.967800 -738.658997
83.241600 29.684500 -739.086304
83.254097 29.451200 -739.526306
83.344101 28.004999 -742.505310
83.385597 27.606199 -743.660095
83.402901 27.459801 -744.125305
83.429901 27.339701 -744.760376
82.952400 31.235201 -736.328674
83.045601 29.202999 -739.955017
83.054398 28.910200 -740.383728
83.066299 28.674101 -740.826111
83.084099 28.551600 -741.293884
83.097900 28.351101 -741.745422
83.134499 27.809799 -742.951294
83.219803 27.188499 -745.217285
83.240196 27.060200 -745.742126
82.970001 28.119301 -742.220398
83.045700 27.389900 -744.462585
82.654099 31.272800 -735.910706
82.681503 31.080700 -736.685120
82.689003 30.798100 -737.107971
82.695702 30.500500 -737.528381
82.703796 30.227100 -737.955994
82.718597 30.078199 -738.414429
82.727303 29.815100 -738.846313
82.736198 29.554800 -739.279785
82.843300 27.691500 -743.327087
82.859299 27.561501 -743.795715
82.497803 29.347300 -739.658630
82.507797 29.117599 -740.101074
82.510696 28.750999 -740.514282
82.524300 28.588699 -740.973816
82.539803 28.462200 -741.441284
82.551201 28.255199 -741.892212
82.565498 27.964001 -742.491211
82.578003 27.778500 -742.948181
82.620598 27.461500 -744.203979
82.639099 27.318300 -744.752930
82.654900 27.195601 -745.223694
82.668701 27.033100 -745.687378
82.125702 31.187401 -736.033386
82.142899 31.108299 -736.507813
82.152100 30.881599 -736.944885
82.158798 30.607201 -737.370972
82.167702 30.374399 -737.808411
82.174896 30.108101 -738.238586
82.182999 29.856100 -738.673279
82.192703 29.635599 -739.116272
82.291801 27.702900 -743.315186
82.306702 27.575300 -743.784485
81.911697 29.414801 -739.422119
81.920502 29.184900 -739.864624
81.925797 28.890400 -740.293579
81.930901 28.590700 -740.722778
81.945999 28.478600 -741.194092
81.960701 28.358700 -741.663818
81.971001 28.154499 -742.115784
81.980400 27.934200 -742.565308
82.026604 27.411501 -744.193420
82.042297 27.309000 -744.668274
82.058098 27.209101 -745.143799
82.073799 27.107599 -745.619019
81.532204 31.061600 -736.101624
81.554604 31.094700 -736.605530
81.561699 30.851200 -737.038818
81.566902 30.571800 -737.464111
81.572701 30.300100 -737.892517
81.581802 30.091299 -738.337097
81.585403 29.779900 -738.758118
81.670197 27.781500 -742.942078
81.682297 27.622601 -743.405518
81.744400 26.782801 -745.803284
81.206100 29.577000 -739.038574
81.214600 29.364799 -739.485107
81.222099 29.133801 -739.928101
81.226402 28.844101 -740.358826
81.229202 28.524000 -740.783997
81.243698 28.419399 -741.257629
81.255798 28.271099 -741.721924
81.267303 28.111900 -742.184326
81.276802 27.914499 -742.639099
81.306099 27.586901 -743.729370
81.318604 27.445000 -744.197021
81.329399 27.270100 -744.658386
81.348198 27.245399 -745.148804
81.362000 27.128401 -745.621582
81.374802 26.991600 -746.091125
80.797203 31.024500 -736.258118
80.812698 30.951700 -736.735779
80.821404 30.760000 -737.183228
80.822701 30.434601 -737.598022
80.829201 30.200300 -738.036499
80.835197 29.957701 -738.473877
80.910599 27.777000 -742.950684
80.921402 27.614901 -743.414124
80.532204 29.753201 -738.847778
80.537300 29.502899 -739.285522
80.540298 29.215099 -739.715393
80.546303 28.980301 -740.158630
80.547798 28.662800 -740.584290
80.552696 28.406900 -741.025024
80.565102 28.285500 -741.495972
80.576500 28.145100 -741.963013
80.586098 27.972900 -742.423584
80.616898 27.488899 -743.815125
80.628998 27.361000 -744.286316
80.642303 27.255199 -744.762024
80.656601 27.168800 -745.241516
80.673897 27.136801 -745.731079
80.214302 30.912100 -736.284912
80.235603 30.958401 -736.794189
80.241302 30.731400 -737.233276
80.241402 30.405199 -737.648621
80.248596 30.202600 -738.095581
80.314697 27.822300 -742.859680
80.323097 27.636600 -743.318787
80.396103 26.985201 -746.088806
80.033203 29.901600 -738.486877
80.036003 29.633801 -738.920410
80.042702 29.434000 -739.370972
80.044403 29.146099 -739.801819
80.047501 28.881901 -740.239319
80.051399 28.630400 -740.680725
80.053802 28.351900 -741.117188
80.065903 28.246099 -741.592407
80.076698 28.117500 -742.062805
80.107002 27.476999 -743.755188
80.118599 27.362900 -744.229980
80.131203 27.266899 -744.708374
80.146698 27.223000 -745.196716
80.161903 27.174900 -745.683899
79.918503 27.976500 -742.502075
79.678200 30.941401 -736.538818
79.692497 30.905701 -737.027710
79.691200 30.594601 -737.446899
79.691902 30.318100 -737.875977
79.735497 27.783899 -742.946228
79.742996 27.624300 -743.411682
79.803299 27.089100 -746.043274
79.507599 30.073999 -738.259521
79.505402 29.757099 -738.681274
79.505501 29.480000 -739.114014
79.507301 29.232901 -739.554871
79.508698 28.979601 -739.995300
79.510902 28.737301 -740.439209
79.511803 28.473400 -740.879272
79.513901 28.229099 -741.324829
79.524696 28.143200 -741.805481
79.555702 27.479000 -743.828491
79.564003 27.344999 -744.300171
79.575203 27.265400 -744.782593
79.587402 27.204000 -745.268372
79.336403 28.025600 -742.294128
79.398804 27.168800 -745.775024
79.131302 30.837299 -736.575500
79.147003 30.863001 -737.080872
79.144600 30.568399 -737.505005
79.140602 30.242901 -737.922791
79.157501 27.817200 -742.692383
79.164597 27.686600 -743.164612
79.219498 27.047600 -746.194519
79.034203 29.921900 -738.326477
79.034203 29.681601 -738.767883
79.034401 29.444500 -739.210876
79.031097 29.143101 -739.640015
79.032997 28.935499 -740.091797
79.032898 28.690800 -740.535889
79.030800 28.410101 -740.973083
79.030197 28.155500 -741.417175
79.040604 28.103201 -741.905823
79.058197 27.529100 -743.617126
79.063797 27.386900 -744.087585
79.071899 27.291700 -744.567627
79.080101 27.197901 -745.047913
78.973900 27.225599 -745.572083
78.783997 27.966400 -742.320923
78.640198 30.880400 -736.721313
78.645798 30.781601 -737.195618
78.638298 30.439100 -737.608826
78.632500 30.128000 -738.031372
78.625603 29.557301 -738.976379
78.621399 29.273500 -739.409485
78.619003 29.024099 -739.851685
78.620499 28.845501 -740.311096
78.616898 28.572800 -740.749878
78.610497 28.247801 -741.178284
78.612297 28.074200 -741.641174
78.623299 27.797300 -742.749817
78.625702 27.634600 -743.216125
78.630096 27.439800 -743.842896
78.634201 27.308001 -744.316223
78.639999 27.210400 -744.796387
78.664803 27.192699 -745.955994
78.504204 29.884001 -738.432678
78.514999 27.241899 -745.265503
78.330002 28.065701 -742.039490
78.219498 28.438700 -740.995605
78.209900 27.530500 -743.474426
78.209503 27.340300 -744.103516
78.211899 27.250999 -744.586182
78.226402 27.240101 -745.666077
78.228996 27.154499 -746.148804
78.216202 30.803101 -736.975586
78.217400 30.714800 -737.453308
78.202103 30.327101 -737.773315
78.179497 29.629801 -738.771729
78.170403 29.343901 -739.204895
78.166199 29.150700 -739.660828
78.158600 28.892200 -740.102417
78.150398 28.620701 -740.542114
78.136101 28.138100 -741.354614
78.138397 27.924400 -742.478516
78.133202 27.709999 -742.934509
78.094704 30.074400 -738.166382
77.995598 27.218700 -745.042725
77.813698 28.031401 -741.718811
77.791298 27.440300 -743.683228
77.788498 27.338200 -744.329895
77.786301 27.215599 -745.471680
77.788300 27.220699 -745.971130
77.698402 30.722900 -736.937073
77.693604 30.614500 -737.409729
77.675102 30.231800 -737.815125
77.660698 29.928900 -738.325073
77.646202 29.625601 -738.752991
77.632698 29.342100 -739.186829
77.624397 29.163000 -739.645996
77.607597 28.813601 -740.067078
77.599403 28.637100 -740.528381
77.588402 28.403700 -740.977722
77.568901 27.980101 -742.138672
77.560997 27.809999 -742.603821
77.552399 27.623800 -743.066223
77.537399 27.277201 -744.747620
77.363297 28.114100 -741.354675
77.329903 27.485300 -743.477600
77.323303 27.361300 -743.953186
77.317398 27.264799 -745.183289
77.314499 27.216101 -745.672791
77.306602 27.065901 -746.143677
77.165901 27.225901 -744.434875
77.286903 30.468100 -737.605896
77.264603 30.084400 -738.095825
77.246902 29.782000 -738.523621
77.230598 29.509800 -738.959717
77.210999 29.170401 -739.381714
77.197800 28.959499 -739.834229
77.183998 28.737900 -740.285095
77.169296 28.499500 -740.733215
77.139000 28.020100 -741.798523
77.128700 27.879700 -742.353027
77.118797 27.737400 -742.824097
77.224998 30.712900 -737.065918
76.885399 28.277100 -741.045227
76.827599 27.548100 -743.228882
76.813202 27.351999 -743.690308
76.793297 27.157400 -744.735229
76.789902 27.183901 -745.238586
76.787003 27.222601 -745.743530
76.776802 27.111401 -746.221130
76.861603 30.365601 -737.797119
76.833199 29.917500 -738.272827
76.813301 29.627001 -738.704407
76.792397 29.316200 -739.132629
76.774498 29.067200 -739.575989
76.757202 28.830299 -740.023193
76.739601 28.587299 -740.469971
76.698502 28.000601 -741.428772
76.689301 27.932301 -741.914673
76.677399 27.827400 -742.476379
76.628304 27.237101 -744.108887
76.860703 30.609301 -737.357483
76.469902 27.652901 -742.900208
76.724503 30.796499 -736.935608
76.396896 27.412901 -743.408386
76.359001 27.202801 -744.530029
76.346100 27.184500 -745.023621
76.332298 27.147600 -745.513428
76.321198 27.168800 -746.012878
76.488503 28.406799 -740.826904
76.489502 30.139099 -738.020081
76.282600 28.156900 -741.221802
76.253899 27.877701 -741.661621
76.235397 27.841000 -742.151306
76.149101 27.272100 -743.861877
76.416901 30.535700 -737.194824
76.396301 30.464500 -737.672913
76.337303 29.814100 -738.428772
76.304604 29.448999 -738.841187
76.275902 29.181499 -739.277405
76.247498 28.924000 -739.716919
76.221703 28.729000 -740.171021
76.086098 27.746700 -742.615479
75.923203 27.107500 -746.293823
76.042999 28.517700 -740.622192
75.902298 27.517900 -743.066284
75.842903 27.212299 -744.248718
75.822800 27.176901 -744.737915
75.802498 27.136499 -745.225830
75.784203 27.141199 -745.721313
75.846802 28.282101 -741.014771
75.813202 27.939100 -741.440308
75.788101 27.803101 -741.909485
75.704102 27.342899 -743.474304
75.916000 30.474800 -737.241028
75.891899 30.374800 -737.712097
75.860802 30.098499 -738.142029
75.830200 29.752100 -738.474426
75.796600 29.418301 -738.893921
75.765800 29.153999 -739.330627
75.733200 28.847099 -739.758911
75.705704 28.665899 -740.215881
75.572998 27.726999 -742.337524
75.484100 27.207300 -743.891174
75.397003 27.215099 -746.036926
75.498100 28.435200 -740.616272
75.365898 27.575001 -742.756897
75.278603 27.141100 -744.327698
75.258202 27.150700 -744.824890
75.238197 27.169201 -745.322998
75.186096 27.090500 -746.469971
75.380302 29.287600 -739.070984
75.346100 28.961000 -739.494202
75.245003 28.209101 -740.986877
75.214996 27.995001 -741.439026
75.182602 27.720100 -741.879578
75.111603 27.374599 -743.135620
75.082901 27.193800 -743.597412
74.991699 27.221201 -745.747681
75.272301 30.221800 -737.566589
75.247902 30.153999 -738.045593
75.213699 29.831499 -738.465515
75.098503 28.744301 -739.873779
75.068001 28.521900 -740.322021
74.937599 27.623400 -742.287415
74.839500 27.174999 -744.020325
74.816704 27.149599 -744.511414
74.794403 27.135799 -745.004028
74.744301 27.149000 -746.159424
74.979599 29.559700 -738.784180
74.937897 29.157900 -739.271729
74.830101 28.311600 -740.741577
74.797997 28.069300 -741.187317
74.766502 27.746401 -741.534729
74.700500 27.498600 -742.727112
74.662201 27.290600 -743.348572
74.559700 27.155001 -745.469788
74.837402 30.276199 -737.743286
74.803596 30.090099 -738.276672
74.681297 28.904301 -739.659485
74.646698 28.606600 -740.090820
74.511299 27.604401 -741.950928
74.404503 27.140699 -743.764526
74.379997 27.104099 -744.253784
74.356400 27.088301 -744.746521
74.306801 27.185101 -745.917603
74.537498 29.797001 -738.600586
74.504501 29.442101 -738.932495
74.381897 28.391600 -740.437683
74.350899 28.198601 -740.893616
74.315300 27.887400 -741.325623
74.245796 27.511900 -742.409180
74.217796 27.397200 -742.883423
74.187798 27.233900 -743.348511
74.096298 27.091801 -745.140015
74.359901 30.058901 -737.905029
74.250000 29.143499 -739.265076
74.207703 28.762600 -739.759827
74.060699 27.633400 -741.674805
73.936302 27.094700 -743.723389
73.909897 27.028601 -744.207520
73.886299 27.031500 -744.704224
73.853203 27.188101 -745.557373
73.828102 27.151300 -746.044922
74.133003 30.014000 -738.331604
74.096100 29.673300 -738.748474
73.971802 28.515200 -740.145081
73.939598 28.306000 -740.597412
73.905899 28.058701 -741.042419
73.827499 27.489300 -742.086426
73.800797 27.423000 -742.570679
73.771599 27.292500 -743.042419
73.867897 29.373301 -739.080994
73.829803 29.009199 -739.495972
73.677299 27.789700 -741.389893
73.544701 27.101500 -743.409790
73.467003 27.084200 -744.979187
73.426903 27.090500 -745.805603
73.650703 28.694799 -739.818604
73.497299 27.502199 -741.724915
73.366997 27.023800 -743.872314
73.342400 27.028999 -744.370422
73.666000 29.943501 -738.194214
73.635696 29.802401 -738.657715
73.485802 28.372101 -740.245178
73.451202 28.121901 -740.689880
73.337097 27.334299 -742.189575
73.310600 27.297701 -742.680908
73.164398 27.083900 -745.374023
73.296600 27.908100 -741.090027
73.001801 26.938499 -745.958313
73.400398 29.209900 -739.207886
73.096703 27.114799 -743.086975
73.007797 27.046200 -744.733582
72.979797 27.025200 -743.549011
72.945900 26.957001 -744.117798
73.279900 29.551300 -738.872314
73.211197 28.895800 -739.555176
73.176903 28.571400 -739.899475
73.045898 27.588499 -741.439209
73.234299 29.857300 -738.386414
73.046700 28.239500 -740.351624
72.921303 27.352200 -741.832825
72.889503 27.247999 -742.312073
72.720100 27.074100 -745.187012
72.607201 26.885599 -745.658630
72.831299 27.993500 -740.712585
72.672798 27.180099 -742.796021
72.568398 26.937500 -744.413513
72.850098 29.366699 -739.075989
72.749001 28.402800 -740.026428
72.653702 27.758200 -741.138916
72.496902 27.025999 -743.241577
72.464699 26.938700 -743.724426
72.764397 29.714800 -738.341370
72.667999 29.026400 -739.430786
72.473900 27.518400 -741.522278
72.433197 27.196301 -741.957397
72.255997 26.992300 -744.831116
72.225502 26.952101 -745.321472
72.570900 29.612600 -738.779114
72.471397 28.717100 -739.741699
72.414299 28.205400 -740.296570
72.240097 27.163300 -742.415283
72.129402 26.943199 -744.121704
72.249901 27.950800 -740.672485
72.075203 27.076599 -742.912109
72.040703 26.941999 -743.385986
72.335403 29.338900 -739.100708
72.138397 27.687099 -741.073486
72.290100 29.806400 -738.308777
72.182503 28.994301 -739.453613
72.122597 28.417700 -739.992981
71.988701 27.456200 -741.457581
71.948097 27.160801 -741.898376
71.777901 26.874201 -744.508423
71.750298 26.937000 -745.017822
71.715698 26.810499 -745.492981
71.739700 26.861300 -743.773499
71.778000 27.079100 -742.525085
72.078796 29.591600 -738.673523
71.901901 28.085199 -740.337585
71.640404 26.979000 -743.132996
71.791702 27.823700 -740.716980
71.887299 29.176901 -739.132629
71.828499 28.727400 -739.698792
71.679604 27.574301 -741.121216
71.443703 26.780300 -744.131775
71.538101 27.002300 -742.098816
71.357201 26.848600 -744.734070
71.319397 26.709900 -745.207703
71.530800 27.321600 -741.511414
71.770897 29.510700 -738.250488
71.598198 28.341400 -739.989990
71.350098 26.972200 -742.713623
71.295403 26.843300 -743.439575
71.637398 29.438801 -738.786072
71.458702 29.025900 -739.371582
71.346298 28.049999 -740.328186
71.307297 27.740700 -740.681030
71.014900 26.815001 -744.335022
71.258598 28.673700 -739.636414
71.104797 27.510099 -741.059692
71.057899 27.149200 -741.488220
71.015297 26.908001 -741.942017
70.940598 26.879900 -743.022705
70.886200 26.787500 -743.755920
70.811401 26.749100 -744.831116
70.768600 26.397699 -745.207520
71.207298 29.241899 -738.630920
71.071404 28.282200 -739.920227
70.830498 26.822001 -742.377930
71.052696 29.098400 -739.092896
70.899399 27.861900 -740.410217
70.849098 28.825800 -739.453430
70.693802 27.567900 -740.770691
70.650299 27.331499 -741.223389
70.609703 27.018200 -741.578430
70.514297 26.804199 -742.789307
70.477997 26.768299 -743.282898
70.429901 26.726999 -743.941711
70.392899 26.670799 -744.430725
70.548302 28.764999 -738.783813
70.475304 28.495600 -739.640381
70.433701 28.142000 -739.981323
70.391899 27.784800 -740.323120
70.234497 26.651600 -741.764221
70.199203 26.635000 -742.262817
70.107803 26.658701 -743.602295
70.038498 28.494301 -739.127014
69.998596 28.333401 -739.591675
69.952599 28.011101 -740.022705
69.905197 27.656799 -740.448608
69.858498 27.321400 -740.880188
69.818100 27.008200 -741.234314
69.771004 26.667801 -741.668213
69.730904 26.512699 -742.139587
69.698303 26.550900 -742.648376
69.664001 26.541599 -743.147522
69.631203 26.570400 -743.653015
69.591904 26.435101 -744.127991
69.652496 28.055599 -739.111572
69.437798 28.019300 -739.528198
69.398300 27.870600 -739.996582
69.350304 27.503901 -740.419983
69.304001 27.187500 -740.855530
69.263496 26.873199 -741.209473
69.222298 26.546700 -741.562378
69.180199 26.341101 -742.024109
69.147598 26.371500 -742.531921
69.114098 26.378901 -743.034424
69.078903 26.343700 -743.528381
68.914902 27.579399 -739.895325
68.875504 27.452600 -740.370117
68.826103 27.074900 -740.793884
68.776802 26.705601 -741.221375
68.735802 26.400600 -741.579712
68.690804 26.141100 -742.031921
68.657898 26.179600 -742.542114
68.623497 26.182699 -743.044617
68.587097 26.130501 -743.534912
68.477600 27.247200 -740.044128
68.438904 27.172400 -740.531677
68.391701 26.888700 -740.977417
68.345398 26.484501 -741.316895
68.296204 26.155800 -741.757019
68.253899 25.997801 -742.231018
68.218597 26.011101 -742.737427
68.185600 26.077400 -743.252808
68.023499 26.971500 -740.379211
67.955704 26.650600 -741.071472
67.911301 26.311300 -741.426025
67.860100 25.957199 -741.863525
67.819504 25.861799 -742.350830
67.777397 25.872101 -742.941284
67.728798 25.587299 -743.394592
67.657303 26.747700 -740.620972
67.446999 26.469900 -741.032227
67.402298 26.129400 -741.387573
67.359497 25.834700 -741.753174
67.314903 25.649401 -742.224976
67.280098 25.696400 -742.739685
67.231796 25.423401 -743.196289
66.976799 26.372400 -740.330200
66.930199 26.229500 -740.855225
66.882103 25.968201 -741.311890
66.833199 25.689800 -741.766479
66.788002 25.500099 -742.238892
66.750397 25.495199 -742.745605
66.511101 26.023399 -740.633484
66.437103 25.762400 -741.430908
69.084000 26.114401 -743.989685
70.102501 26.689301 -743.007080
69.968498 26.520800 -744.604614
98.005600 32.354401 -735.682983
98.233101 32.347099 -736.152222
98.201302 32.197399 -736.613586
98.173401 31.910400 -737.050903
98.143204 31.494400 -737.548584
98.735100 29.454500 -740.351318
99.172997 29.570700 -740.062378
98.424698 29.614401 -739.971680
98.817001 29.801500 -739.744873
99.754097 29.801500 -739.622314
99.279602 29.902300 -739.583130
98.438400 29.958000 -739.483582
98.896202 30.022100 -739.328674
99.996300 30.217899 -739.241211
99.442703 30.183399 -739.158875
98.509300 30.245100 -739.049377
99.062202 30.367300 -738.890381
100.087601 30.575199 -738.844727
99.617996 30.639601 -738.798096
98.696404 30.592800 -738.664429
99.202499 30.745300 -738.555176
98.275902 30.758499 -738.435730
100.538597 30.890900 -738.605713
99.978500 30.939400 -738.543274
98.872704 30.910299 -738.259888
100.980598 30.993401 -738.455017
99.581596 31.103901 -738.296875
98.460701 30.980801 -738.013306
100.327003 31.212500 -738.265015
101.442802 31.098400 -738.240723
99.221397 31.091999 -737.946472
101.935997 31.183399 -738.071472
101.000298 31.271299 -737.969727
100.065697 31.362499 -737.868774
98.869598 31.304399 -737.697021
101.652802 31.459000 -737.806885
100.637497 31.437000 -737.667786
99.699997 31.566000 -737.575928
102.301697 31.593100 -737.696716
101.194901 31.562500 -737.543823
100.257401 31.687000 -737.451111
99.242996 31.672600 -737.314270
98.689903 31.664600 -737.239624
101.893600 31.756901 -737.527222
100.816002 31.744900 -737.295776
99.877197 31.889700 -737.207397
102.702400 31.737801 -737.370422
101.490097 31.814400 -737.229126
99.077003 31.911600 -736.934387
100.435699 31.921000 -737.055481
98.584198 31.960300 -736.819885
102.308403 31.943001 -737.203979
101.098701 31.955700 -736.978577
99.613297 32.003399 -736.794678
101.881897 32.185600 -737.024475
102.806801 32.072300 -736.866821
102.317001 32.271900 -736.852173
101.482697 32.241600 -736.735413
100.753601 32.100601 -736.604675
100.282799 32.150700 -736.555420
99.350800 32.167999 -736.437622
98.791199 32.186600 -736.368896
101.907501 32.278801 -736.510376
99.863998 32.237598 -736.231506
101.399002 32.211300 -736.228088
100.433899 32.134499 -736.087280
99.386902 32.188499 -735.964600
98.908997 32.243999 -735.915283
70.726501 26.011200 -741.052490
71.033699 25.882601 -741.433899
66.841698 24.490900 -741.737000
67.241898 24.429001 -742.059387
69.906799 25.912800 -741.060913
70.910500 25.742500 -741.894714
66.713303 24.885401 -741.360229
71.011200 26.429399 -741.159119
71.461601 26.493200 -741.300781
67.061996 25.237801 -741.288025
67.503403 25.430500 -741.210571
67.966003 25.637699 -741.120605
68.548203 25.876600 -741.043884
69.099800 25.954100 -741.218811
70.289200 26.360800 -741.197327
66.315804 25.193001 -741.242798
69.463699 26.348301 -741.055115
68.133904 26.431000 -740.554321
71.849197 29.011900 -738.683472
68.725197 26.685101 -740.535278
71.889603 28.370300 -739.089905
72.208603 28.308201 -739.478882
68.927101 25.096300 -741.468384
60.501202 42.125599 -783.907410
60.458900 41.961800 -784.358276
60.415001 41.750702 -784.795898
60.369598 41.500999 -785.223328
60.322701 41.211399 -785.640625
60.277699 40.832298 -785.963318
60.231602 40.427399 -786.280823
60.180599 40.036701 -786.675720
60.099400 42.026001 -783.537415
60.061699 41.985298 -784.025330
60.015598 41.707802 -784.444092
59.969898 41.444099 -784.867981
59.926300 41.239498 -785.309692
59.879799 40.815701 -785.619873
59.835499 40.456299 -785.949829
59.788799 40.175499 -786.374390
59.510101 40.281898 -786.804382
59.667000 41.384102 -784.480103
59.587700 40.909901 -785.204224
59.762798 41.898800 -783.187378
59.717400 41.796501 -783.730713
59.509300 40.499100 -785.580688
59.409401 39.910000 -786.495728
59.436501 40.168301 -786.013489
59.488602 41.494801 -784.030212
59.410900 41.073002 -784.769714
59.392101 41.645199 -783.329224
59.217701 40.689301 -784.992981
59.259499 41.649101 -782.799927
59.181499 41.346199 -783.646118
59.139301 41.177399 -784.100403
59.010899 40.325500 -785.224182
58.968201 40.146599 -785.678528
58.922600 39.890202 -786.112122
58.942101 40.871601 -784.403076
58.949501 41.512699 -782.335571
58.896599 41.331200 -782.931213
58.822399 40.984798 -783.694519
58.727501 40.493000 -784.634216
58.567101 39.577202 -786.156982
58.618000 40.997700 -783.221130
58.548901 40.644199 -783.912170
58.449501 40.166901 -784.931274
58.408199 40.023102 -785.396423
58.519798 41.283600 -782.014893
58.477600 41.115700 -782.471313
58.305302 40.343102 -784.270325
58.162701 39.694302 -785.750183
58.271099 40.645000 -783.403625
58.171501 40.870499 -782.768188
58.068901 40.321701 -783.765625
57.997299 40.066200 -784.561096
57.956299 39.941502 -785.032227
58.064999 41.078201 -781.580688
58.022301 40.896500 -782.033875
57.931499 40.525902 -783.012024
57.716599 39.730202 -785.391174
57.838501 40.646599 -782.459778
57.752399 40.267300 -783.363770
57.699799 40.099400 -783.967896
57.537300 39.371799 -785.666504
57.577900 39.891399 -784.739075
57.560299 40.865200 -781.296570
57.517700 40.673698 -781.747681
57.446201 40.393799 -782.536377
57.404900 40.241699 -783.000000
57.357899 40.074600 -783.531982
57.302101 39.949100 -784.221130
57.233002 39.738499 -785.030396
56.999199 39.344501 -785.260986
57.158100 40.438499 -781.942017
56.994400 39.870499 -783.810425
56.940300 39.791100 -784.512817
57.093300 40.687801 -781.060730
56.973900 40.213100 -782.374207
56.933201 40.078201 -782.843811
56.893002 39.957802 -783.317383
56.883999 40.512798 -781.447693
56.652699 39.745300 -784.131104
56.596901 39.610401 -784.817993
56.550999 39.187000 -785.135010
56.647301 40.266998 -781.854797
56.503101 39.783699 -783.532776
56.520401 40.559399 -780.710388
56.479801 40.413700 -781.177429
56.385700 40.039299 -782.232422
56.345001 39.888599 -782.698181
56.219898 39.634499 -784.298279
56.175900 39.392700 -784.738220
56.227001 40.183701 -781.542480
56.095699 39.743900 -783.090698
56.056499 39.630199 -783.567688
56.089500 40.354401 -780.846619
55.957100 39.883202 -782.386475
55.824600 39.548698 -784.038879
55.824402 39.995800 -781.780273
55.602100 39.170601 -784.353394
55.762001 40.434898 -780.287170
55.692699 40.162701 -781.083923
55.563801 39.748501 -782.644104
55.523399 39.590000 -783.109192
55.486401 39.525398 -783.601685
55.426899 39.863098 -782.010010
55.260700 39.203201 -783.939087
56.033699 43.079498 -772.732117
55.994598 42.949100 -773.208679
55.951801 42.698502 -773.639282
55.910099 42.481800 -774.083313
55.869499 42.302200 -774.541321
55.827702 42.084999 -774.985718
55.787800 41.928101 -775.452271
55.746899 41.739700 -775.907471
55.707901 41.608799 -776.383301
55.668301 41.461800 -776.853088
55.628601 41.308399 -777.320679
55.588299 41.139702 -777.782898
55.546398 40.922600 -778.228882
55.507198 40.785301 -778.702026
55.468201 40.652802 -779.176514
55.430401 40.556198 -779.662476
55.356098 40.254601 -780.525085
55.287201 39.971699 -781.320374
55.209301 40.338402 -780.067871
55.029701 39.697899 -782.226013
54.991402 39.584202 -782.705872
54.953899 39.491901 -783.191895
54.908001 39.174999 -783.612488
54.988602 40.011501 -780.765625
54.922100 39.785801 -781.580505
54.934898 40.441002 -779.480530
54.765800 40.225101 -779.912598
54.664398 39.821499 -781.116272
54.599499 39.628601 -781.942322
54.562698 39.543800 -782.432190
54.525600 39.449902 -782.918884
54.613400 40.012501 -780.367798
54.374599 39.264801 -783.384216
54.536098 40.338402 -779.245483
54.353100 39.654900 -781.472473
54.370998 39.844898 -780.735229
54.344101 40.101200 -779.677429
54.156700 39.532200 -782.088379
54.117901 39.382900 -782.559326
54.205799 39.938599 -780.108826
54.030998 39.749298 -781.054382
54.068901 40.237900 -778.856018
53.938400 39.785801 -780.490417
53.863400 39.551498 -781.452087
53.920399 40.076801 -779.305481
53.717999 39.459599 -781.921570
53.677898 39.266998 -782.379211
53.785500 39.925098 -779.773193
53.582401 39.639198 -780.814697
53.647301 40.205799 -778.587219
53.521999 39.740101 -780.142090
53.438499 39.515999 -781.254211
53.377602 39.136299 -781.876099
54.075600 42.323799 -771.749817
54.038399 42.212502 -772.237488
53.998501 42.012100 -772.690674
53.962299 41.931198 -773.189087
53.925499 41.828899 -773.678772
53.886101 41.644001 -774.137390
53.847198 41.477699 -774.602783
53.810902 41.388302 -775.096008
53.772598 41.236099 -775.566101
53.734001 41.076801 -776.033630
53.695702 40.927101 -776.504272
53.656200 40.740700 -776.962280
53.617001 40.561001 -777.422913
53.579700 40.439701 -777.903198
53.486198 40.056801 -779.039673
53.286499 39.886501 -779.469299
53.205399 39.581100 -780.482605
53.043800 39.426201 -780.924927
53.006500 39.300900 -781.402893
52.982700 39.415199 -781.878906
53.697399 42.090698 -771.921692
53.198502 40.248001 -778.163818
53.159302 40.071701 -778.625671
53.061501 39.698700 -779.839478
53.557701 41.932499 -772.345581
53.519699 41.799900 -772.824707
53.482498 41.686600 -773.310608
53.444599 41.555599 -773.789490
53.405102 41.370899 -774.248413
53.369202 41.297901 -774.747681
53.332699 41.206100 -775.239624
53.293400 41.027199 -775.700073
53.254799 40.869701 -776.168213
53.214100 40.649300 -776.614380
53.174099 40.451302 -777.068909
53.139400 40.407398 -777.575500
53.018200 39.916801 -779.047729
52.791302 39.496899 -780.243225
52.724201 39.718498 -779.408325
52.619598 39.294800 -780.680908
53.188999 41.873001 -771.627686
53.150299 41.710999 -772.096985
53.115700 41.677200 -772.615112
53.077599 41.534302 -773.090820
53.019001 41.347500 -773.851807
52.977798 41.108398 -774.291626
52.939602 41.104401 -774.891907
52.902901 40.997601 -775.378906
52.863899 40.825699 -775.842529
52.823399 40.606899 -776.289795
52.782501 40.379501 -776.734619
52.747299 40.316601 -777.235779
52.710400 40.204102 -777.719727
52.673000 40.074299 -778.197388
52.633701 39.892399 -778.657898
52.398998 39.540600 -779.719421
52.321800 39.699799 -779.020020
52.229500 39.324402 -780.161499
52.297699 40.000000 -777.848083
52.239101 40.131599 -777.366882
52.163399 39.819099 -778.307312
51.989300 39.481998 -779.288696
51.949699 39.276199 -779.743286
51.947102 39.605202 -778.714417
52.514900 41.892700 -770.203979
52.478699 41.788300 -770.701172
52.441601 41.650002 -771.184082
52.401798 41.427700 -771.633179
52.374901 41.464600 -772.107971
52.337399 41.314400 -772.584778
52.302200 41.231602 -773.087280
52.265499 41.104301 -773.572083
52.228001 40.951900 -774.046875
52.190899 40.809299 -774.525330
52.156399 40.744400 -775.031921
52.118401 40.575001 -775.499573
52.079201 40.370399 -775.954773
52.045502 40.324200 -776.466309
52.008499 40.183800 -776.943909
51.883900 39.779499 -777.918274
51.085300 34.622101 -786.330627
50.996101 34.389400 -786.796387
50.934101 33.751400 -787.232910
51.811600 39.927399 -777.402771
50.810902 33.244301 -787.819824
51.636101 39.577999 -778.336426
51.589298 39.402401 -778.953613
50.922699 34.854599 -785.833923
51.625500 40.115700 -776.612915
50.863300 35.475498 -785.067383
50.826500 35.017899 -785.255981
50.670700 34.033100 -786.948914
50.539501 33.013901 -788.196472
50.497601 32.760502 -788.662415
50.458500 32.467300 -789.044128
50.403702 31.908199 -789.439392
51.418701 39.924900 -777.021484
51.381401 39.756401 -777.491882
51.342499 39.539902 -777.945618
51.295101 39.337601 -778.555481
50.755299 35.644798 -784.177673
50.585499 34.619701 -786.076477
50.542999 34.338402 -786.528320
50.462502 33.783901 -787.362427
50.409599 33.471199 -787.960876
50.195000 31.650400 -789.859680
50.578999 35.427399 -784.598877
50.491299 34.894299 -785.580322
50.122799 32.298302 -789.364990
50.019299 31.433500 -790.297119
51.195499 40.079102 -776.083008
51.160198 39.959400 -776.572083
50.541500 36.041000 -783.387207
50.397301 35.177399 -785.024719
50.076698 32.941601 -788.357910
50.034100 32.660999 -788.817688
49.841900 31.054300 -790.559082
49.804001 30.585800 -790.756409
50.919102 39.779301 -776.990479
50.879002 39.516300 -777.428772
50.840000 39.287601 -777.880005
50.406200 36.241901 -782.426270
50.377399 36.275002 -782.958374
50.302799 35.818001 -783.805115
50.263699 35.601898 -784.270874
50.121899 34.672600 -785.821228
50.081100 34.417900 -786.280396
50.040001 34.157902 -786.739197
50.001499 33.858002 -787.113098
49.964100 33.586102 -787.495605
49.924801 33.268501 -787.867615
49.759899 32.048901 -789.534607
49.718498 31.693701 -789.905212
49.571800 30.225300 -791.012817
49.533699 29.754000 -791.212830
49.496399 29.302799 -791.419312
49.455799 28.983101 -791.810425
49.416302 28.690701 -792.208801
49.359901 27.922501 -792.436218
50.788700 40.001099 -775.741821
50.754101 39.886600 -776.234314
50.234200 36.647099 -782.133728
50.019299 35.362099 -784.625671
49.967499 35.040100 -785.214417
49.647202 32.727402 -788.535278
49.608799 32.434799 -788.917603
49.477901 31.401400 -790.187988
49.423000 30.836201 -790.589417
49.116600 27.658701 -792.810120
49.074001 27.200701 -793.102478
50.535599 39.641602 -776.625916
50.496601 39.405998 -777.075073
50.098999 36.905800 -781.556702
50.002102 36.306900 -782.659729
49.963100 36.085201 -783.122925
49.889999 35.660500 -783.980896
49.749901 34.757999 -785.538818
49.709499 34.403198 -785.894714
49.669601 34.169399 -786.360901
49.628502 33.907398 -786.820374
49.590199 33.610600 -787.196289
49.552200 33.322201 -787.575623
49.514000 33.029598 -787.955078
49.388302 32.111301 -789.243713
49.348499 31.789000 -789.621582
49.203999 30.561501 -790.933899
49.086102 29.268101 -791.715881
49.006100 28.453400 -792.308716
48.837002 26.551901 -793.383911
50.681702 40.777401 -772.053711
50.647202 40.678299 -772.557373
50.614799 40.639400 -773.083923
50.577499 40.454399 -773.552429
50.540199 40.270802 -774.021484
50.503700 40.110699 -774.499512
50.470699 40.050098 -775.014771
50.404301 39.787601 -775.913879
49.952702 37.032700 -781.065979
49.744598 35.823502 -783.499878
49.628601 35.092499 -784.801575
49.091801 31.108000 -790.222473
48.942200 29.686001 -791.426086
48.862598 28.881001 -792.017029
48.784599 28.020300 -792.526123
48.681599 27.008801 -793.322571
50.253300 39.894699 -775.433105
50.183300 39.535400 -776.296875
50.145901 39.349201 -776.765015
49.710400 36.709202 -781.739685
49.673100 36.534401 -782.216370
49.499401 35.442600 -784.162109
49.407600 34.783298 -785.109619
49.365101 34.486099 -785.556824
49.280899 33.920799 -786.463318
49.124599 32.784100 -788.062317
49.086300 32.601601 -788.547913
48.957901 31.536200 -789.731201
48.871700 30.757799 -790.462402
48.813801 30.234600 -790.953491
48.756599 30.031700 -791.749817
48.563499 27.673100 -792.778320
48.444599 26.316900 -793.508301
49.653198 37.225700 -780.216797
49.620499 37.164101 -780.729675
49.569801 36.859798 -781.316406
49.463001 36.338501 -782.671875
49.419998 36.015701 -783.104614
49.362900 35.665699 -783.758118
49.158001 34.233200 -785.926575
49.078499 33.772999 -786.863525
49.036999 33.398800 -787.219177
48.997398 33.072800 -787.589417
48.880001 32.344700 -788.924011
48.841301 31.944099 -789.205200
48.563400 29.458401 -791.605225
48.485699 28.593800 -792.107422
48.356098 27.270399 -793.063721
48.238800 25.851400 -793.707703
49.873100 39.662102 -775.640381
49.800400 39.210899 -776.472290
49.123600 35.168301 -784.373718
49.084702 34.844398 -784.735596
48.588100 31.217100 -789.869324
48.501801 30.424801 -790.599487
48.444099 29.899900 -791.091675
48.358501 29.041800 -791.744080
48.278000 28.212601 -792.334106
48.145901 26.831499 -793.283081
49.759800 39.735199 -775.100281
49.687801 39.414101 -776.057373
49.407101 37.754501 -779.375916
49.366798 37.483299 -779.819092
49.222198 36.728699 -781.630005
49.185200 36.548401 -782.105225
49.070499 35.804600 -783.395508
49.015400 35.387199 -783.954285
48.904499 34.650002 -785.183289
48.813000 34.084400 -786.239807
48.652802 32.903599 -787.899475
48.615200 32.620701 -788.283020
48.498402 31.689699 -789.420715
48.406700 30.856100 -790.212280
48.101898 27.861700 -792.614380
47.969002 26.362700 -793.466125
49.214802 37.179798 -780.406921
49.177898 36.998600 -780.881287
49.022301 36.184898 -782.829773
48.762798 34.395901 -785.644897
48.675400 33.828098 -786.627075
48.602299 33.301399 -787.397400
48.475101 32.308800 -788.661987
48.165001 29.504700 -791.356689
47.808498 25.708200 -793.880127
49.259499 37.924000 -778.564880
48.336102 32.021198 -789.014893
48.132099 30.184601 -790.789429
47.983601 28.773001 -792.007874
47.857899 27.413401 -792.874390
49.480301 39.699699 -774.687073
49.428398 39.464100 -775.369873
49.359901 39.102402 -776.220886
49.198601 38.099499 -778.075317
49.126301 37.710400 -778.966614
48.855801 36.372002 -782.419128
48.664501 35.006302 -784.439819
48.439098 33.577099 -787.003296
48.165699 31.371000 -789.638123
48.074402 30.553499 -790.436707
47.931000 29.152000 -791.573730
47.844898 28.482300 -792.428589
47.719501 27.039499 -793.205811
47.653801 26.554100 -793.884399
47.568699 25.451900 -794.287720
48.998299 37.497799 -779.500183
48.860100 36.806999 -781.257019
48.706501 35.948002 -783.118286
48.658298 35.597198 -783.620422
48.541199 34.814098 -784.910217
48.449200 34.238701 -785.962830
47.909100 29.816999 -791.103821
48.913101 37.372101 -779.987000
48.767899 36.606602 -781.796326
48.240101 33.070000 -787.617310
48.197701 32.771301 -788.072083
47.990700 31.034500 -790.004089
47.549000 26.616100 -793.418518
47.432201 25.095800 -793.970093
49.238800 39.230900 -775.770813
48.547501 35.248901 -784.003113
48.436699 34.632099 -785.343872
47.661201 28.035601 -792.562988
48.039501 31.761999 -789.305176
49.011501 38.225601 -777.620728
48.778500 37.072601 -780.593689
48.278801 33.975300 -786.354919
47.424999 26.165501 -793.727783
49.187500 39.431900 -774.947815
48.034901 32.427502 -788.417297
47.349800 25.602200 -793.807922
48.556400 36.167301 -782.724304
48.977200 38.034500 -777.190613
47.531200 28.582500 -793.496826
47.528599 28.642099 -792.965027
49.086300 39.547901 -774.432983
48.954300 38.879601 -776.112122
48.883701 38.474899 -776.965088
48.781399 37.913300 -778.224670
48.024899 33.411900 -787.204773
47.864101 32.091801 -788.762573
47.660702 30.305300 -790.618530
47.579399 29.503901 -791.276611
47.522099 28.972000 -791.771790
47.479000 28.571199 -792.145203
48.905499 39.152000 -775.268127
48.635899 37.772900 -778.693298
48.600101 37.618301 -779.175903
48.462399 36.916000 -780.926514
48.420502 36.712700 -781.469971
48.372799 36.471001 -782.077576
48.271198 35.821701 -783.243896
48.174400 35.195702 -784.346985
48.059898 34.454800 -785.650818
47.965401 33.794800 -786.681580
47.678501 31.477900 -789.503601
47.604500 30.834000 -790.187012
47.298500 28.205200 -793.046021
47.259300 27.387501 -792.947876
47.218601 26.951000 -793.243713
47.104198 25.833500 -794.182373
48.739799 38.936501 -775.670105
48.679600 38.580601 -776.387207
48.574299 38.062302 -777.739929
48.435902 37.468800 -779.603088
48.399399 37.296799 -780.080017
48.101898 35.554501 -783.637512
48.006199 34.965500 -784.753601
47.966400 34.715900 -785.212585
47.892502 34.251598 -786.067383
47.747398 33.192200 -787.600281
47.709599 32.894699 -787.977722
47.587799 31.908199 -789.170410
47.509499 31.153000 -789.822510
47.382198 29.964001 -790.916321
47.202400 28.176800 -792.359375
47.164101 27.790899 -792.661987
47.042400 26.491501 -793.551025
48.651299 39.394600 -774.585388
48.471802 38.354500 -776.747009
48.434898 38.168999 -777.219421
48.188599 37.096600 -780.528015
48.038399 36.291500 -782.400879
47.999001 36.043301 -782.855591
47.631802 33.644699 -787.018372
47.503201 32.682201 -788.358093
47.271099 30.586000 -790.428894
47.143200 29.285999 -791.429016
47.092400 28.800501 -791.857971
46.831100 26.068701 -793.829529
48.409199 39.226601 -774.995911
48.334900 38.836399 -775.931519
48.171101 37.993599 -778.013123
48.134899 37.828300 -778.492310
48.098400 37.651699 -778.967590
47.948502 36.962700 -780.951904
47.910702 36.753300 -781.417114
47.872200 36.523701 -781.876282
47.755199 35.804001 -783.248291
47.702301 35.539501 -783.927612
47.662300 35.277401 -784.380676
47.566700 34.685902 -785.498230
47.491901 34.195202 -786.345581
47.262100 32.406200 -788.677185
47.181198 31.686501 -789.408997
47.107700 31.047701 -790.091187
47.028999 30.294600 -790.752075
46.976200 29.755199 -791.162476
46.849499 28.498600 -792.185425
