48.323502 19.657101 -753.025696
48.261002 19.659201 -753.327698
48.177502 19.591900 -753.586182
48.109600 19.575701 -753.875793
47.996899 19.413099 -754.075317
47.915100 19.351200 -754.336426
49.100300 18.507799 -746.387329
48.998100 19.681999 -749.310303
48.969299 19.748600 -749.585571
48.937599 19.805099 -749.853577
48.892502 19.816099 -750.091309
48.324799 19.735600 -752.626709
47.739201 19.353399 -754.621582
49.159698 18.736900 -746.235779
48.841000 18.675800 -747.622803
48.837002 18.816000 -747.932007
48.943501 19.471500 -748.782471
47.885201 19.629299 -754.135315
47.810299 19.590099 -754.409729
47.691002 19.508101 -754.806580
48.956501 18.595900 -746.612305
48.856800 18.492001 -746.869995
48.794201 18.521400 -747.226929
48.889000 19.372000 -748.533630
48.897999 19.624201 -749.011414
48.678101 19.705500 -750.220581
48.613400 19.705799 -750.527283
48.573799 19.735399 -750.775879
48.533298 19.761600 -751.021790
48.496899 19.801201 -751.275818
48.460800 19.841101 -751.529419
48.429298 19.896000 -751.792114
48.396099 19.945101 -752.050415
48.313599 19.883200 -752.313477
48.183201 19.820700 -752.802124
48.100601 19.758200 -753.064026
48.021198 19.705799 -753.331787
47.949799 19.679501 -753.615479
48.759300 19.593000 -749.349915
47.843201 19.698200 -753.900085
47.498100 19.446501 -755.013916
48.981499 18.868299 -746.387329
48.653500 18.633801 -747.456482
48.626999 18.717501 -747.754211
48.740398 19.212000 -748.236023
48.681702 19.734699 -749.590393
48.647900 19.785200 -749.854614
48.142300 19.924299 -752.533386
47.591099 19.622999 -754.520874
48.957401 19.003401 -746.092285
48.840302 18.968700 -746.574829
48.749802 18.887899 -746.836975
48.637798 18.714100 -747.008972
48.490398 18.829100 -747.943420
48.584000 19.285101 -748.439575
48.594501 19.488001 -748.807922
48.557701 19.585100 -749.182312
48.469101 19.835800 -750.117920
48.433800 19.880600 -750.377319
48.405399 19.947901 -750.650574
48.366001 19.978300 -750.899414
48.346699 20.075199 -751.190491
48.305302 20.098101 -751.433289
48.265900 20.127199 -751.679688
48.191101 20.091400 -751.960022
48.116600 20.056101 -752.240173
47.975800 19.959499 -752.707581
47.904800 19.935200 -752.993591
47.870800 19.980301 -753.247070
47.811199 19.992599 -753.554688
47.733898 19.946699 -753.825684
47.649799 19.877800 -754.082214
47.558300 19.785101 -754.323975
47.398201 19.622400 -754.746582
47.280602 19.546400 -755.146729
47.180901 19.426600 -755.371704
47.090900 19.314600 -755.566895
48.937901 19.276699 -746.071594
48.867802 19.248400 -746.344971
48.766998 19.179001 -746.679077
48.482300 18.788799 -747.223022
48.397301 18.722500 -747.488770
48.423500 19.083401 -748.107788
48.407001 19.307501 -748.647583
48.404202 19.686800 -749.441589
48.362099 19.764799 -749.801514
47.931099 20.048500 -752.425171
47.391499 19.837799 -754.544800
46.895802 19.298599 -755.780396
48.963200 19.508900 -745.940796
48.584400 19.109600 -746.912415
48.302200 18.839500 -747.693115
48.300900 19.147600 -748.332520
48.296501 19.412701 -748.898682
48.261600 19.957500 -750.184814
48.241199 20.052700 -750.477112
48.199001 20.073900 -750.720520
48.183399 20.184000 -751.020874
48.068100 20.174999 -751.548218
48.024601 20.190599 -751.785889
47.949001 20.152300 -752.064819
47.838100 20.207899 -752.704285
47.807701 20.265301 -752.966187
47.766998 20.288300 -753.206116
47.685600 20.228600 -753.468872
47.605202 20.172300 -753.733582
47.519402 20.098101 -753.986877
47.436600 20.033300 -754.245789
47.237701 19.846300 -754.802429
47.145302 19.749800 -755.041626
47.044102 19.624800 -755.263306
46.953400 19.533899 -755.505676
46.734299 19.280600 -756.021729
46.648499 19.188000 -756.237488
48.788898 19.466101 -746.125610
48.752701 19.525801 -746.418579
48.700199 19.542900 -746.701721
48.407799 19.055500 -747.082275
48.302502 18.936899 -747.336121
48.229099 19.053200 -747.920410
48.189800 19.584600 -749.194824
48.148899 19.835100 -749.900879
48.034599 20.216499 -751.221619
47.823299 20.263000 -752.313782
47.279202 20.042400 -754.428711
46.796799 19.547701 -755.690674
46.454800 19.049801 -756.283997
48.473202 19.468100 -746.838623
48.361301 19.293699 -747.009277
48.266300 19.201900 -747.268494
48.171398 19.110201 -747.528015
48.091599 19.210199 -748.107788
48.066799 19.298901 -748.405273
48.056000 19.410500 -748.684387
48.039700 19.524401 -748.993530
48.025200 19.699499 -749.419617
47.999802 19.780899 -749.705078
48.016602 20.004601 -750.083191
48.000900 20.117100 -750.387207
47.973499 20.190001 -750.664490
47.931499 20.212601 -750.908508
47.848301 20.259800 -751.396484
47.816002 20.314199 -751.659485
47.772301 20.383900 -752.007385
47.712700 20.453300 -752.429626
47.656101 20.478300 -752.746887
47.580700 20.440100 -753.023804
47.507500 20.409000 -753.304688
47.429798 20.362700 -753.575806
47.346901 20.298800 -753.835571
47.260799 20.224400 -754.088623
47.088001 20.073299 -754.592712
46.994900 19.975401 -754.830872
46.901001 19.874901 -755.067505
46.826099 19.836399 -755.341309
46.600899 19.564501 -755.845581
46.499298 19.438700 -756.067017
46.399300 19.318501 -756.291626
46.290600 19.169901 -756.499695
48.625702 19.834200 -746.043884
48.588200 19.890699 -746.335815
48.496601 19.806999 -746.595520
48.228001 19.457100 -747.144714
48.182598 19.493000 -747.431580
48.081001 19.345600 -747.608704
47.978699 19.235001 -747.863892
47.845100 19.914499 -749.877319
47.739300 20.274401 -751.108582
47.607101 20.482100 -752.153381
47.059700 20.256100 -754.266113
46.620701 19.853701 -755.509399
46.128799 19.277599 -756.646912
46.030701 19.161301 -756.870972
48.631302 20.107201 -745.757385
48.576401 20.113600 -746.027527
48.286201 19.783899 -746.718506
48.173100 19.645100 -746.966187
48.121201 19.664400 -747.249390
48.107800 19.745001 -747.476074
48.078499 19.822701 -747.771179
47.929100 19.475500 -747.765625
47.834801 19.385500 -748.025085
47.830200 19.526699 -748.333679
47.798199 19.592100 -748.617004
47.759201 19.629299 -748.875427
47.714100 19.645100 -749.118896
47.676399 19.685801 -749.378479
47.675800 19.796301 -749.606079
47.677799 20.027500 -750.066406
47.679699 20.145300 -750.297180
47.647999 20.204201 -750.565674
47.613602 20.253700 -750.827515
47.563999 20.361099 -751.278625
47.533798 20.423500 -751.546875
47.492199 20.501301 -751.900391
47.441502 20.602100 -752.342773
47.378201 20.605499 -752.646729
47.312199 20.599501 -752.943970
47.232498 20.547400 -753.211914
47.157299 20.510201 -753.488586
47.073799 20.444901 -753.747681
46.994598 20.393801 -754.015198
46.851601 20.289400 -754.473328
46.763199 20.207399 -754.721130
46.670502 20.111099 -754.960083
46.586201 20.042299 -755.215576
46.432899 19.902700 -755.650696
46.343700 19.817600 -755.895996
46.251999 19.724199 -756.136108
46.159698 19.628799 -756.375122
46.058498 19.504601 -756.596985
45.842701 19.212700 -757.015686
45.742699 19.092800 -757.240479
48.411598 20.209900 -746.194702
48.295101 20.061300 -746.439026
47.501801 19.887199 -749.799316
47.416100 20.265301 -750.967285
47.327000 20.622299 -752.108704
46.811901 20.456800 -754.184082
46.398701 20.089701 -755.374084
45.866901 19.539200 -756.747070
45.557201 19.146999 -757.401917
45.437599 18.963900 -757.590271
48.423500 20.293100 -745.536621
48.391499 20.353201 -745.807373
48.105301 20.112200 -746.656616
47.995998 19.982901 -746.905823
47.942799 19.999800 -747.187988
47.904499 20.054800 -747.478271
47.846901 20.059700 -747.757202
47.679901 19.781799 -747.974976
47.570900 19.615700 -748.148193
47.544102 19.700399 -748.444519
47.529598 19.816299 -748.746704
47.481602 19.855900 -749.050415
47.434101 19.863800 -749.288330
47.409599 19.950399 -749.577820
47.354301 20.043800 -750.025024
47.322399 20.103901 -750.295105
47.295300 20.179701 -750.574829
47.264900 20.465599 -751.294922
47.268501 20.588301 -751.526001
47.225700 20.608601 -751.766785
47.151100 20.685200 -752.270020
47.119701 20.742500 -752.532776
47.032398 20.666201 -752.786072
46.964802 20.655600 -753.080383
46.887001 20.610800 -753.352722
46.813900 20.581100 -753.634216
46.744400 20.563101 -753.922180
46.603199 20.465700 -754.384827
46.518600 20.396999 -754.640686
46.426601 20.303699 -754.881470
46.346001 20.247801 -755.144775
46.191101 20.103701 -755.577087
46.107700 20.038200 -755.833984
46.021999 19.964899 -756.086121
45.929401 19.869200 -756.324585
45.831402 19.755600 -756.552612
45.651299 19.528900 -756.935303
45.558701 19.432800 -757.173584
45.387299 19.234800 -757.573303
45.262798 19.035700 -757.752380
45.128101 18.804199 -757.913391
45.006401 18.615000 -758.099182
44.914700 18.520599 -758.336426
48.255100 20.470800 -745.646729
48.194500 20.468599 -745.924500
48.113998 20.414000 -746.190125
48.048801 20.399799 -746.464905
47.956699 20.315100 -746.723572
47.862099 20.224300 -746.981201
47.826599 20.287201 -747.273193
47.761002 20.271299 -747.547424
47.652401 20.182899 -747.875122
47.339298 19.643400 -748.245728
47.345200 19.812700 -748.559692
47.342400 19.959101 -748.868103
47.272301 20.062401 -749.403320
47.212502 20.085100 -749.727600
47.099400 20.150299 -750.386719
47.062302 20.192600 -750.644470
47.069302 20.384100 -750.998291
46.996799 20.636801 -751.846130
46.957600 20.669100 -752.094177
46.932800 20.749901 -752.372498
46.812099 20.724800 -752.884521
46.737999 20.693001 -753.165527
46.659500 20.646000 -753.436523
46.590698 20.631100 -753.726990
46.522400 20.617100 -754.017578
46.381302 20.521000 -754.480896
46.299702 20.462200 -754.742920
46.210602 20.378901 -754.989685
46.129601 20.321899 -755.252319
45.981602 20.201000 -755.698425
45.896599 20.130501 -755.952087
45.804100 20.035299 -756.190979
45.708199 19.928801 -756.423218
45.607601 19.806999 -756.646423
45.447701 19.646400 -757.067688
45.345600 19.519800 -757.288086
45.157101 19.266701 -757.655884
45.042500 19.100000 -757.853821
44.912998 18.885799 -758.024719
44.759399 18.594000 -758.151978
47.977901 20.605200 -746.335876
47.900002 20.557899 -746.602783
47.743000 20.421600 -747.057983
47.688599 20.474400 -747.416809
47.397800 20.107700 -748.030579
47.174999 20.093000 -749.036377
47.079601 20.280600 -749.856812
47.001301 20.239401 -750.137878
46.891602 20.316299 -750.802429
46.894402 20.549999 -751.259094
46.875000 20.651400 -751.552795
46.702999 20.731701 -752.513489
46.305000 20.643600 -754.185486
45.918900 20.372101 -755.433777
45.393902 19.849501 -756.822388
45.133801 19.569700 -757.468079
44.818600 19.111799 -758.011780
44.685902 18.887199 -758.177002
44.547600 18.663401 -758.369324
48.084999 20.577600 -745.409912
48.038700 20.620100 -745.708679
47.983898 20.634100 -745.990173
47.757301 20.512800 -746.796021
47.524399 20.414499 -747.676208
47.439098 20.348600 -747.939209
47.163799 19.829300 -748.174622
47.093601 19.803301 -748.447327
47.138901 19.998301 -748.627502
47.096600 20.207899 -749.241882
47.065800 20.275200 -749.518494
46.883499 20.278500 -750.368530
46.717400 20.614000 -751.807373
46.698799 20.718000 -752.101318
46.583401 20.770100 -752.738770
46.504902 20.725100 -753.011780
46.437801 20.718000 -753.308105
46.364201 20.688700 -753.590027
46.298500 20.685499 -753.887512
46.152100 20.628000 -754.449524
46.072601 20.577600 -754.716614
45.992599 20.525299 -754.982300
45.756599 20.327900 -755.679016
45.666599 20.242100 -755.923584
45.573002 20.144100 -756.160828
45.490299 20.082199 -756.419312
45.225601 19.788799 -757.057007
44.948799 19.455999 -757.671997
44.339600 18.435801 -758.450500
47.899899 20.806801 -746.215088
47.621300 20.628000 -747.145386
46.989700 20.040199 -748.890808
46.738201 20.299101 -750.567871
46.706299 20.417700 -750.951416
46.656200 20.529699 -751.405518
45.808800 20.473801 -755.207214
45.311798 20.048201 -756.654114
45.036701 19.720400 -757.271729
44.741501 19.327700 -757.852478
47.857601 20.831699 -745.133972
47.773800 20.778999 -745.416504
47.736000 20.837999 -745.708801
47.738098 20.962000 -745.946594
47.688400 20.989300 -746.230591
47.619598 20.966000 -746.502625
47.527000 20.880501 -746.760315
47.467899 20.882700 -747.038025
47.440899 20.968599 -747.334412
47.372898 20.947300 -747.606323
47.270699 20.797800 -747.780823
47.176300 20.671101 -747.964783
46.816002 20.052401 -748.397705
46.738499 19.998501 -748.648682
46.731300 20.096901 -748.877930
46.769402 20.273199 -749.053528
46.773201 20.428101 -749.344971
46.744801 20.503799 -749.627075
46.698399 20.516701 -749.867310
46.615101 20.458900 -750.137573
46.538200 20.423300 -750.422180
46.493801 20.441900 -750.664795
46.479900 20.565100 -750.974609
46.438801 20.594299 -751.222900
46.395199 20.614599 -751.465027
46.354099 20.642900 -751.711670
46.318699 20.690399 -751.970215
46.284500 20.741600 -752.230408
46.248402 20.786100 -752.485779
46.211601 20.827299 -752.738586
46.138401 20.800600 -753.023376
46.072800 20.798700 -753.323303
45.994801 20.754801 -753.596375
45.927299 20.745899 -753.890930
45.854099 20.717300 -754.172485
45.778801 20.681601 -754.449402
45.705101 20.650600 -754.728821
45.631401 20.619600 -755.007690
45.555500 20.580601 -755.281311
45.480999 20.546499 -755.557495
45.393002 20.466999 -755.806030
45.300800 20.373501 -756.046082
45.208000 20.277901 -756.284790
45.114799 20.181101 -756.522827
45.017601 20.071100 -756.752808
44.914799 19.942400 -756.971985
44.824001 19.853500 -757.214417
44.726799 19.743401 -757.444519
44.619900 19.601801 -757.656372
44.509499 19.448700 -757.861877
44.403500 19.310101 -758.075928
44.281101 19.118601 -758.259888
44.153099 18.909100 -758.434082
44.020302 18.684299 -758.600281
43.911201 18.503901 -758.744995
43.808399 18.613100 -759.438599
47.479099 20.931601 -745.359619
47.460899 21.042000 -745.664429
47.507099 21.242599 -745.851013
47.457298 21.268900 -746.134583
47.421001 21.330799 -746.426270
47.341099 21.278099 -746.690918
47.245899 21.185301 -746.946472
47.193001 21.203400 -747.227478
47.167702 21.293100 -747.524170
47.092701 21.253300 -747.791626
47.004700 21.160101 -748.012817
46.394199 20.137600 -748.797180
46.424702 20.501200 -749.382202
46.394199 20.569000 -749.659424
46.359798 20.623301 -749.927002
46.311501 20.629101 -750.162170
46.228802 20.573200 -750.433472
46.189602 20.666500 -750.801575
46.162102 20.742399 -751.080688
46.126999 20.791901 -751.341980
46.055801 20.773800 -751.635620
45.987801 20.766199 -751.935181
45.921398 20.763300 -752.237183
45.892799 20.833300 -752.509094
45.828300 20.835899 -752.813416
45.757198 20.816000 -753.102783
45.689899 20.808399 -753.399414
45.649601 20.836800 -753.642578
45.588902 20.850500 -753.951416
45.514702 20.818701 -754.231201
45.447102 20.808701 -754.523987
45.372200 20.773701 -754.801025
45.308701 20.776100 -755.100281
45.230099 20.728300 -755.368530
45.151100 20.678801 -755.635498
45.070900 20.625000 -755.899475
44.986301 20.556601 -756.154480
44.893501 20.460800 -756.393005
44.793098 20.340200 -756.616821
44.696899 20.233200 -756.848572
44.595402 20.108801 -757.070313
44.501202 20.008699 -757.306091
44.401100 19.889099 -757.530701
44.285099 19.717699 -757.725281
44.178501 19.577000 -757.937988
44.059101 19.394899 -758.127197
43.949299 19.244200 -758.334717
43.819302 19.028400 -758.505371
43.697701 18.840200 -758.692322
43.571899 18.638500 -758.871887
43.430099 18.385799 -759.023682
47.206799 20.971201 -745.297119
47.221500 21.121901 -745.530029
47.267300 21.360800 -745.795715
47.242802 21.454100 -746.095215
47.231800 21.542900 -746.323914
47.163399 21.520599 -746.595520
47.081100 21.461500 -746.858521
47.001900 21.410801 -747.123474
46.954300 21.442600 -747.407227
46.906101 21.472401 -747.690186
46.822498 21.410200 -747.952515
46.238701 20.719200 -749.274109
46.155998 20.734200 -749.686523
46.100601 20.724100 -749.922729
46.024899 20.693001 -750.210815
45.948002 20.657200 -750.495483
45.911999 20.704599 -750.757019
45.925598 20.865299 -751.014771
45.925201 20.977501 -751.240479
45.849201 20.943001 -751.523621
45.769600 20.896000 -751.798218
45.697300 20.873899 -752.088379
45.625500 20.852900 -752.378784
45.554401 20.833799 -752.669800
45.484299 20.818001 -752.962402
45.420300 20.822001 -753.266907
45.384800 20.867201 -753.521118
45.325699 20.886999 -753.834106
45.261799 20.889799 -754.135925
45.201801 20.905500 -754.444885
45.135300 20.899200 -754.739685
45.063499 20.874399 -755.022583
44.991001 20.847200 -755.303589
44.917999 20.818001 -755.583130
44.840302 20.772800 -755.852417
44.756500 20.707001 -756.109009
44.668900 20.628700 -756.357971
44.567299 20.504299 -756.579529
44.476101 20.413799 -756.820984
44.371498 20.279699 -757.036926
44.274899 20.171600 -757.268188
44.174500 20.051201 -757.492188
44.066898 19.907301 -757.702820
43.946201 19.721201 -757.889099
43.841000 19.585400 -758.104797
43.722401 19.406300 -758.295898
43.605801 19.233999 -758.491272
43.488499 19.059700 -758.685791
43.359901 18.849001 -758.860229
43.255901 18.667101 -758.978027
43.127399 18.457600 -759.154114
43.008801 18.280300 -759.348572
42.900299 18.084499 -759.460022
47.009998 21.667400 -746.752380
46.607498 21.415501 -748.106689
46.012100 20.530001 -749.089172
45.946201 20.500299 -749.333984
46.936901 21.023199 -745.254211
46.987801 21.237400 -745.445190
47.013599 21.425301 -745.698792
47.032398 21.594299 -745.947205
47.029800 21.706600 -746.181580
46.975700 21.722799 -746.461975
46.875999 21.737801 -746.949280
46.789799 21.669600 -747.209900
46.739899 21.696400 -747.492126
46.661499 21.648399 -747.757324
45.812401 20.773500 -749.922424
45.744900 20.772600 -750.230286
45.673801 20.758801 -750.529175
45.672501 20.927401 -750.869385
45.650200 21.022800 -751.160889
45.611698 21.062300 -751.415588
45.537201 21.034599 -751.702698
45.460899 21.000099 -751.984985
45.387798 20.976700 -752.273926
45.305000 20.919600 -752.541016
45.218399 20.849199 -752.799377
45.173401 20.864201 -753.035583
45.112999 20.882299 -753.348694
45.070202 20.903999 -753.588074
45.046101 20.988400 -753.866028
44.971401 20.956800 -754.146301
44.934502 20.997200 -754.395691
44.862701 20.974600 -754.680603
44.795799 20.968000 -754.974670
44.729301 20.962400 -755.268921
44.660000 20.947001 -755.556519
44.580200 20.896400 -755.822510
44.496201 20.831499 -756.079712
44.405201 20.743299 -756.322571
44.312302 20.648600 -756.561829
44.221802 20.562000 -756.805481
44.120602 20.440100 -757.028381
44.011902 20.293200 -757.236816
43.908100 20.162800 -757.455017
43.807800 20.043900 -757.679993
43.698799 19.896601 -757.888672
43.576599 19.706499 -758.072998
43.466999 19.557699 -758.281372
43.350399 19.386200 -758.477112
43.234699 19.217800 -758.674927
43.110298 19.021700 -758.857300
42.977600 18.799000 -759.025391
42.841301 18.565201 -759.187805
42.726700 18.350100 -759.288025
42.597099 18.138599 -759.464111
46.902500 21.908199 -746.655823
46.513401 21.678600 -747.983276
42.432201 18.146099 -759.687012
46.836399 21.844400 -746.079529
46.831699 21.951599 -746.312195
46.722698 21.983000 -746.871704
46.631802 21.902800 -747.129211
46.580898 21.927700 -747.410583
46.368301 21.805700 -748.141113
45.660599 20.833000 -749.457703
45.549500 20.807899 -749.915527
45.491600 20.837799 -750.239319
45.447102 20.858999 -750.484070
45.414501 20.921000 -750.754883
45.418598 21.051201 -750.992798
45.398602 21.155701 -751.289917
45.320202 21.115801 -751.569214
45.282101 21.156601 -751.823914
45.207401 21.128901 -752.110229
45.126900 21.080601 -752.382874
45.038601 21.005400 -752.638306
44.959801 20.962700 -752.913879
44.884602 20.931900 -753.196594
44.824902 20.953100 -753.511292
44.759300 20.954000 -753.812622
44.706001 20.996000 -754.138611
44.648399 21.022699 -754.454285
44.585201 21.030199 -754.757629
44.524899 21.046700 -755.065674
44.463402 21.058701 -755.370300
44.379700 20.996401 -755.629395
44.300999 20.950100 -755.897888
44.216301 20.883801 -756.154114
44.126499 20.800501 -756.400024
44.033600 20.706400 -756.639404
43.938702 20.605900 -756.874878
43.842499 20.501200 -757.107788
43.728401 20.337500 -757.306519
43.626900 20.215200 -757.529419
43.518799 20.071600 -757.740112
43.410198 19.926201 -757.950012
43.296398 19.764299 -758.150513
43.178299 19.588200 -758.343323
43.067200 19.435200 -758.549622
42.941101 19.233999 -758.728821
42.822701 19.057899 -758.922791
42.703098 18.878000 -759.114929
42.591702 18.673100 -759.220215
42.486401 18.488400 -759.337219
42.210400 18.064100 -759.762329
46.760201 21.648399 -745.341309
46.788300 21.820601 -745.552002
46.721100 21.803699 -745.825012
46.717499 22.113600 -746.451416
46.435101 22.046301 -747.607483
46.351101 21.984301 -747.868896
42.257301 18.370899 -759.437988
42.010700 17.938900 -759.713013
41.872200 17.700300 -759.875610
46.613300 22.171101 -746.682373
46.509300 22.096800 -747.009827
46.162201 21.927601 -748.258484
45.424599 20.848499 -749.498901
45.205101 20.902901 -750.605530
45.195599 21.161699 -751.156921
45.077599 21.159401 -751.689514
44.956200 21.143801 -752.211670
44.875702 21.096201 -752.484924
44.722301 21.025801 -753.045471
44.653599 21.017599 -753.342224
44.577599 20.983900 -753.622314
44.505299 20.962601 -753.909729
44.438099 20.958300 -754.206970
44.404499 21.011101 -754.464111
44.340099 21.070499 -754.873718
44.291000 21.125200 -755.204712
44.210899 21.075199 -755.471619
44.135300 21.040001 -755.746887
44.048401 20.967100 -755.999390
43.584702 20.503401 -757.200623
43.371899 20.227501 -757.628113
43.263599 20.083599 -757.838684
43.147301 19.913300 -758.034302
43.030201 19.741100 -758.229126
42.916801 19.580900 -758.431213
42.799599 19.408701 -758.626709
42.694401 19.275700 -758.844727
42.577202 19.103500 -759.040771
42.074299 18.204901 -759.566528
46.374100 22.111099 -747.256592
45.973400 21.739401 -748.351318
45.527699 21.168100 -749.258972
45.436699 21.088200 -749.516724
45.310699 20.910900 -749.742371
45.052898 21.168501 -751.420410
44.929901 21.148500 -751.940918
44.759701 21.136400 -752.691772
43.895000 20.935499 -756.232483
43.806000 20.855200 -756.480225
43.709801 20.750999 -756.713623
43.612301 20.642500 -756.944519
43.408901 20.397400 -757.389771
42.389500 18.961100 -759.211670
42.271999 18.736500 -759.306091
41.600101 17.452000 -759.844971
46.254398 22.194901 -747.466125
46.154301 22.170401 -747.873413
46.044399 22.001499 -748.042114
44.170601 21.009899 -754.616394
44.113899 21.095301 -755.041504
42.059700 18.552900 -759.398926
41.834400 18.137300 -759.608826
41.708000 17.885500 -759.690308
41.599098 17.690800 -759.803772
46.390999 22.360701 -746.749084
46.285400 22.282101 -747.075012
45.856400 21.832800 -748.143982
45.705700 21.559299 -748.293579
45.320099 21.077999 -749.103027
45.247299 21.036699 -749.353027
44.912998 21.194500 -751.179688
44.817299 21.154499 -751.535706
44.715199 21.207199 -752.102478
44.635899 21.164600 -752.379028
44.529900 21.144100 -752.820496
44.463200 21.143499 -753.122314
44.390400 21.121700 -753.410217
44.305901 21.059900 -753.672729
44.223400 21.004299 -753.938782
44.161598 21.018900 -754.247925
43.962101 21.067101 -755.247925
43.896000 21.064800 -755.543823
43.819599 21.027901 -755.818176
43.375000 20.630199 -757.059387
43.169998 20.380699 -757.502319
43.064301 20.245501 -757.717773
42.955799 20.101299 -757.928223
42.844299 19.947300 -758.133301
42.726799 19.773600 -758.327271
42.614700 19.618000 -758.531982
42.500401 19.455500 -758.732971
42.380001 19.273199 -758.923096
46.083199 22.316200 -747.660278
45.086399 20.958300 -749.533386
44.700600 21.195601 -751.749023
43.960300 21.048800 -754.824219
43.669701 21.007099 -756.062378
43.586201 20.945601 -756.321472
43.500000 20.875000 -756.574890
43.402000 20.764799 -756.804810
43.206299 20.545700 -757.265320
42.190300 19.118900 -759.090576
42.047600 18.864599 -759.241211
41.828999 18.468901 -759.460571
41.367802 17.656500 -759.966980
46.340500 22.169701 -745.815674
46.340599 22.280199 -746.031372
46.335201 22.386499 -746.263672
46.123100 22.385700 -747.226807
45.947601 22.321199 -747.898987
45.851002 22.186399 -748.074890
45.670601 21.911400 -748.357727
45.599300 21.886101 -748.632202
44.440800 21.195101 -752.550598
43.963100 21.034201 -754.408813
41.883499 18.725100 -759.352295
41.654301 18.294500 -759.552979
41.542000 18.087400 -759.658691
41.425499 17.866800 -759.757385
41.180199 17.391500 -759.943970
45.198200 21.289200 -749.096130
44.663399 21.138100 -751.233826
44.480400 21.201401 -752.189514
44.237400 21.167101 -753.227905
43.781502 21.018700 -755.011475
43.707298 20.989100 -755.291504
42.277100 19.471001 -758.832520
43.654202 21.067499 -755.643616
44.522099 21.225800 -751.922424
44.302101 21.217899 -752.902527
44.145699 21.138201 -753.455627
44.077702 21.132799 -753.752991
44.001598 21.099400 -754.032471
42.924000 20.394699 -757.542725
42.820099 20.264799 -757.760986
42.716599 20.136101 -757.980225
42.608299 19.991800 -758.190613
42.491798 19.820299 -758.385498
42.375401 19.649700 -758.581299
45.966900 22.453501 -747.462097
45.457699 21.748301 -748.403015
45.402901 21.747101 -748.649170
45.014702 21.182800 -749.314819
44.624901 20.830099 -750.398193
44.524899 21.132799 -751.437988
43.778400 21.028299 -754.619324
43.501202 21.034000 -755.887024
43.411800 20.952499 -756.134094
43.154701 20.744301 -756.896118
42.081299 19.328199 -759.016296
41.939602 19.074200 -759.166321
43.353500 20.935801 -756.390625
42.973999 20.534100 -757.331787
44.767601 20.987200 -750.718811
46.876701 21.267300 -745.181396
46.817402 21.391899 -745.541870
46.681301 22.066401 -746.109680
45.139702 21.016500 -750.905579
46.467701 21.828400 -745.664124
46.490799 22.325899 -746.456604
43.251801 20.858299 -756.626404
45.683601 22.489000 -747.903809
45.560001 22.322599 -748.139282
45.221001 21.570801 -748.255920
44.516102 20.984100 -750.245117
44.394402 20.855600 -750.539673
44.353901 21.156401 -751.252014
44.303101 21.224100 -751.591980
44.231602 21.214800 -751.883423
44.163799 21.218300 -752.182190
44.098900 21.232100 -752.486572
44.026402 21.217899 -752.773315
43.953701 21.201900 -753.058411
43.879601 21.180799 -753.339905
43.807800 21.167601 -753.625610
43.731499 21.137600 -753.900818
43.664398 21.140200 -754.194885
43.588600 21.111401 -754.469788
43.510700 21.074400 -754.739624
43.423698 21.004801 -754.989807
43.349300 20.979799 -755.265808
43.275101 20.955200 -755.541626
43.234798 20.990999 -755.779480
43.150398 20.929600 -756.033081
43.077000 20.906799 -756.308716
42.996101 20.856899 -756.568420
42.907200 20.778700 -756.811829
42.806801 20.659800 -757.031982
42.712299 20.561800 -757.264099
42.609402 20.434299 -757.479614
42.516300 20.341200 -757.714478
42.411499 20.207399 -757.926697
42.314701 20.101200 -758.154175
42.205299 19.951599 -758.357971
42.088402 19.775801 -758.547729
41.979599 19.628700 -758.753418
41.862499 19.452900 -758.943787
41.732300 19.232000 -759.110229
41.620602 19.075600 -759.311890
41.513000 18.876301 -759.419373
41.391701 18.630400 -759.502625
41.267899 18.376400 -759.581970
41.129902 18.074400 -759.636719
41.003399 17.812000 -759.713074
40.857800 17.485100 -759.756104
40.731602 17.225000 -759.835083
45.633598 22.652201 -747.465698
45.567902 22.644199 -747.733826
45.308899 22.322901 -748.274475
44.422298 21.208900 -750.099670
44.250702 20.890499 -750.269897
44.102100 21.178301 -751.421570
44.025200 21.149799 -751.701294
43.959301 21.161400 -752.005127
43.889099 21.156500 -752.298279
43.844002 21.180300 -752.534424
43.783100 21.208599 -752.846619
43.705700 21.176201 -753.121277
43.643200 21.197500 -753.427917
43.569401 21.176901 -753.708618
43.503101 21.183599 -754.005127
43.431099 21.168800 -754.288330
43.350201 21.121401 -754.551880
43.264301 21.056101 -754.804504
43.190800 21.034901 -755.082703
43.101501 20.957100 -755.327576
43.026600 20.930000 -755.601624
42.948002 20.889900 -755.867676
42.877800 20.878901 -756.150024
42.741600 20.811800 -756.615784
42.647499 20.715700 -756.848877
42.553001 20.618299 -757.081177
42.457001 20.515200 -757.310425
42.361500 20.414301 -757.540588
42.159599 20.173800 -757.979919
41.955200 19.925100 -758.415100
41.846699 19.778700 -758.620789
41.732300 19.612499 -758.816223
41.605598 19.403799 -758.988770
41.493401 19.245800 -759.189087
41.145500 18.619699 -759.568909
41.051601 18.525499 -759.804626
40.749500 17.718901 -759.665283
40.606300 17.400200 -759.713318
40.487099 17.164700 -759.805481
45.379002 22.633699 -747.897583
43.992599 21.110500 -751.129883
43.895401 21.007799 -751.364014
42.662498 20.815399 -756.298523
42.141998 20.338699 -757.680786
41.930801 20.066999 -758.102783
41.250500 19.093500 -759.288513
41.127399 18.841400 -759.367981
40.835999 18.355000 -759.752930
45.040901 22.457001 -748.202271
44.924500 22.333500 -748.480774
43.749100 21.004900 -751.149475
43.603699 21.123400 -751.979309
43.528400 21.088600 -752.239014
43.462200 21.099400 -752.540588
43.421799 21.141100 -752.786682
43.354500 21.146900 -753.083984
43.317600 21.200399 -753.335999
43.238998 21.164000 -753.606995
43.167500 21.152901 -753.892578
43.150398 21.276600 -754.184326
43.058102 21.189301 -754.423828
42.971802 21.123501 -754.675781
42.884998 21.055799 -754.926575
42.806198 21.016701 -755.193604
42.727798 20.978500 -755.460815
42.639000 20.902901 -755.706177
42.554600 20.843000 -755.960388
42.420700 20.726700 -756.326172
42.334202 20.658701 -756.575378
42.251598 20.604500 -756.831970
42.180599 20.590900 -757.111023
42.082001 20.479900 -757.335510
41.911701 20.293200 -757.732605
41.678799 20.004601 -758.216675
41.574501 19.873800 -758.430725
41.459801 19.706800 -758.625427
41.356800 19.580999 -758.842407
41.242500 19.415800 -759.038513
40.883301 18.750799 -759.396729
40.755001 18.538799 -759.569885
40.435501 17.785500 -759.602417
40.301899 17.499800 -759.667786
40.203602 17.277700 -759.695313
43.302799 21.066700 -751.834412
43.186699 20.891100 -752.018921
43.020802 21.112000 -753.114502
42.937099 21.058001 -753.375427
42.870701 21.066500 -753.673096
42.815701 21.116100 -753.994324
42.787800 21.200701 -754.262512
42.692902 21.104700 -754.497070
42.607300 21.042101 -754.750916
42.524300 20.988300 -755.009705
42.452702 20.975401 -755.291687
42.377602 20.949800 -755.565918
42.291302 20.883600 -755.816589
42.202702 20.809000 -756.062317
42.104099 20.698799 -756.287720
42.017601 20.631599 -756.537170
41.942200 20.603300 -756.808472
41.850101 20.515800 -757.046326
41.757099 20.425200 -757.282227
41.659302 20.317499 -757.508728
41.558399 20.198999 -757.729309
41.455002 20.072001 -757.945313
41.351398 19.944000 -758.160889
41.245098 19.807100 -758.371826
41.144600 19.690399 -758.593811
41.038300 19.553499 -758.804993
40.922401 19.383400 -758.998718
40.811501 19.173201 -759.100220
40.702599 18.970301 -759.205872
40.572300 18.751699 -759.375183
40.441002 18.472401 -759.441711
40.322899 18.181200 -759.431213
40.217999 17.936100 -759.445374
40.111401 17.685101 -759.456970
40.011398 17.457300 -759.481201
44.361099 22.405001 -748.439209
43.115200 21.213900 -751.635925
43.005901 21.076900 -751.858704
42.534199 21.055599 -753.824829
42.446800 20.983101 -754.068420
42.376301 20.975901 -754.355530
42.311298 20.988501 -754.653320
42.235500 20.961599 -754.927917
42.170898 20.974199 -755.224609
42.090000 20.927999 -755.487122
42.008701 20.880400 -755.748413
41.918598 20.801001 -755.991394
41.826900 20.715700 -756.231018
41.738400 20.641800 -756.476807
41.662201 20.611500 -756.746826
41.569302 20.521601 -756.983398
41.475399 20.428200 -757.217896
41.378700 20.324800 -757.446777
41.272800 20.189100 -757.658020
41.166302 20.051800 -757.868530
41.058701 19.910500 -758.077026
40.955601 19.785000 -758.294312
40.846100 19.637501 -758.499817
40.746700 19.525299 -758.724487
40.621601 19.324200 -758.901794
40.496498 19.123100 -759.079712
40.367001 18.849400 -759.148193
40.265202 18.613800 -759.166199
40.129200 18.318800 -759.224670
39.993900 18.026600 -759.285522
39.874401 17.834900 -759.455505
42.942799 21.334801 -751.437683
42.851601 21.252399 -751.680176
41.973000 20.880301 -754.755676
41.913200 20.911100 -755.063416
41.831402 20.862101 -755.324524
41.757500 20.841101 -755.601318
41.666199 20.757799 -755.842529
41.577499 20.683500 -756.088501
41.487099 20.603100 -756.330872
41.435101 20.658600 -756.649170
41.331100 20.529499 -756.864014
41.232300 20.419201 -757.089172
41.135601 20.315901 -757.318481
41.023899 20.160200 -757.518921
40.926300 20.053900 -757.746582
40.826401 19.939899 -757.970093
40.716301 19.790199 -758.174377
40.611401 19.658501 -758.388489
40.482700 19.444500 -758.558777
40.363499 19.264099 -758.747498
40.250900 19.106400 -758.948730
40.135101 18.880100 -759.042480
40.029400 18.631001 -759.053528
39.657200 17.812201 -759.194824
42.621700 21.476200 -751.637024
42.292000 20.966000 -752.140015
42.163700 20.792999 -752.380615
41.840401 20.708500 -753.604187
41.747501 20.622000 -753.846130
41.719200 20.706301 -754.114502
41.653198 20.715900 -754.411621
41.346100 20.656401 -755.609985
41.262100 20.599300 -755.866516
41.166698 20.501801 -756.099670
41.083099 20.445801 -756.356323
40.993900 20.430099 -756.706787
40.887199 20.291800 -756.917114
40.789398 20.185400 -757.145081
40.742199 20.256800 -757.470703
40.626701 20.028799 -757.560425
40.513802 19.869400 -757.759521
40.417400 19.768101 -757.990417
40.329102 19.694799 -758.236511
40.079201 19.234900 -758.489319
39.966400 19.077000 -758.690613
41.187401 20.658001 -754.101074
41.116199 20.663200 -754.370483
41.655800 20.646000 -753.301392
41.574200 20.604900 -753.553223
41.482601 20.478399 -753.738892
41.414799 20.697001 -754.254028
41.390800 20.807800 -754.476807
40.624699 20.063601 -757.275818
40.154701 19.461399 -758.285889
39.814499 18.880400 -758.841187
42.473801 20.802900 -752.275879
42.420898 20.840500 -752.517212
42.176201 20.800800 -753.374878
42.021702 20.713800 -753.841187
41.965000 20.775200 -754.125488
41.852901 20.772100 -754.536316
41.757198 20.761000 -754.877075
41.615700 20.759600 -755.398926
41.232201 20.533300 -756.544373
39.495098 17.579500 -759.399414
42.708199 20.807800 -752.374695
42.665298 20.883600 -752.624817
42.506001 20.779499 -753.088196
42.433998 20.787600 -753.364319
42.352200 20.826700 -753.713989
42.166698 20.891800 -754.478516
43.491501 21.082001 -750.639404
43.467300 21.196800 -750.867310
42.938599 20.872200 -752.429199
42.847599 20.909100 -752.809814
42.779800 20.932800 -753.088623
42.702000 20.920401 -753.361084
42.631001 20.931999 -753.637512
45.278400 23.048401 -747.106079
45.183998 22.972000 -747.362671
45.092800 22.907801 -747.622192
44.998798 22.833500 -747.879578
44.904800 22.690100 -748.054199
44.780102 22.433500 -748.205383
44.686298 22.223200 -748.298523
44.013199 21.354500 -749.737915
43.952099 21.370100 -749.982300
43.714901 21.252899 -750.716980
43.657398 21.314600 -751.003723
43.209499 20.975000 -752.248901
43.136200 20.979200 -752.524719
43.071400 21.013901 -752.805481
43.539001 20.928400 -751.606628
40.077702 17.050900 -759.726624
45.643600 22.841900 -746.662170
45.591599 22.925400 -746.955017
45.496799 22.847500 -747.211914
45.406399 22.786699 -747.472595
45.181301 22.568899 -748.042480
44.299198 21.375299 -749.866394
44.218102 21.346399 -750.131409
43.693901 21.066299 -751.732483
41.915401 20.395300 -757.500610
41.735401 20.174700 -757.900574
41.083698 19.233400 -759.176086
40.535801 17.998100 -759.713379
40.203400 17.170601 -759.945129
45.829201 22.288401 -745.697693
45.833199 22.515600 -745.956787
45.820999 22.680700 -746.200989
40.798302 18.578899 -759.838379
45.860298 22.732700 -746.474426
45.751701 22.743099 -746.888977
40.798801 18.107300 -759.634583
45.747398 22.673800 -747.181519
45.924999 22.644400 -746.749390
40.558102 17.217501 -760.104919
46.099800 22.651600 -746.302124
44.922001 21.245600 -748.976501
45.955399 22.552401 -746.991577
45.781502 22.525101 -747.605713
45.467300 22.113701 -748.275818
45.225201 21.560400 -748.505493
46.153999 22.535999 -746.533081
44.441601 20.938900 -750.975281
46.160099 22.492100 -746.794128
44.553799 20.675400 -750.575623
46.482201 21.616600 -744.958008
46.588501 21.738400 -745.143372
46.464802 22.047600 -745.980774
44.838100 20.783899 -750.510376
44.803902 21.065100 -750.979675
46.834999 21.526199 -745.127380
45.320301 20.597000 -749.642883
45.268101 20.679399 -749.937927
45.210899 20.743299 -750.228699
46.478600 21.981501 -748.281006
45.651100 20.640100 -749.741211
45.883999 20.618799 -749.677612
47.655800 20.674500 -745.171997
46.552601 20.386499 -748.987488
47.852001 20.493799 -745.088013
46.694099 19.731600 -748.524719
47.791801 20.754101 -746.486206
47.544300 20.734200 -747.396912
43.617100 18.462799 -759.436707
44.585999 19.106100 -758.154785
48.751701 19.653700 -745.889709
48.671101 19.676300 -746.221130
46.234402 19.410900 -756.445801
48.719799 18.949100 -748.167786
48.690399 19.256300 -748.653870
48.632198 19.387400 -749.033081
48.530701 19.496000 -749.548218
48.968102 18.929399 -748.158020
48.961700 19.114500 -748.407593
48.864799 19.311899 -749.012573
48.767799 19.506500 -749.614624
48.702599 19.542101 -749.903320
49.201900 18.950399 -748.055420
49.175701 19.063000 -748.290771
49.181900 19.294001 -748.549011
49.109200 19.303699 -748.833923
49.030998 19.361601 -749.198730
48.999199 19.519899 -749.511230
48.936901 19.566299 -749.802002
49.401798 19.243700 -748.374207
49.399399 19.443100 -748.625916
49.316799 19.415800 -748.903381
49.256901 19.471600 -749.196777
47.779301 19.132999 -754.342529
47.684200 18.937401 -754.461975
49.449699 17.715799 -747.141113
49.639500 19.470100 -748.562317
49.611198 19.573700 -748.794617
49.539001 19.584299 -749.079224
49.482201 19.651199 -749.374207
49.464100 19.791000 -749.612122
49.443901 19.990400 -749.931030
50.072899 19.640400 -748.639587
50.047001 19.752399 -748.873413
50.021198 19.864401 -749.106628
49.943001 19.852501 -749.386230
49.878899 19.891800 -749.675415
49.851299 19.995800 -749.905884
49.826401 20.109699 -750.137878
49.754902 20.121000 -750.420776
52.582100 20.367800 -754.498413
43.577702 18.361601 -759.220093
40.188801 19.577200 -757.905579
39.973202 19.416000 -757.829712
39.759300 19.143101 -757.740295
39.606701 18.917801 -757.672791
40.309502 19.726801 -757.756714
40.094501 19.576799 -757.681885
39.879501 19.403000 -757.604126
39.730900 19.163099 -757.461975
44.309898 18.694201 -758.416870
40.344799 19.788000 -757.521118
40.130299 19.636900 -757.446289
39.917500 19.405300 -757.361877
39.813099 19.451000 -757.133423
39.587002 19.697300 -757.104980
40.392502 19.891701 -757.187927
40.179798 19.721600 -757.110779
40.040199 19.528601 -757.049927
39.678902 19.405300 -756.939514
39.386002 19.432600 -756.866028
40.536400 20.026199 -757.041992
39.898899 19.453400 -756.802429
45.469700 18.738899 -757.924316
40.684399 20.150499 -756.844604
40.472599 19.973801 -756.766479
40.258701 19.842899 -756.693787
40.035198 19.604500 -756.604919
40.814999 20.237000 -756.606995
40.601299 20.122101 -756.536072
40.390800 19.898500 -756.452087
40.121700 19.709999 -756.357300
40.861301 20.293400 -756.345581
40.648300 20.161301 -756.272522
40.436199 19.986900 -756.194275
40.847099 20.341000 -756.109985
40.635201 20.175200 -756.032898
40.422401 20.021000 -755.956970
40.128700 20.117001 -755.892029
39.837799 20.124701 -755.816406
40.433899 19.873899 -755.760620
40.143700 19.841900 -755.680115
45.112400 19.859501 -756.822388
40.996799 20.453400 -755.818115
40.785500 20.276100 -755.739624
40.605801 20.123100 -755.672485
41.188599 20.500999 -755.516785
40.976398 20.352800 -755.441895
41.376400 20.615601 -755.356812
41.165600 20.435600 -755.278015
40.955799 20.208401 -755.193420
40.452400 20.052299 -755.041199
40.162102 20.037600 -754.963318
41.677399 20.746000 -755.137207
41.465500 20.607800 -755.063477
41.256599 20.369301 -754.977478
41.552299 20.619101 -754.767883
41.306702 20.394300 -754.673828
41.488701 20.514700 -754.497681
41.263699 20.146500 -754.201904
41.542000 20.460899 -754.177612
41.340099 19.962099 -754.058228
42.176399 20.898800 -754.203918
41.231998 19.775600 -753.930481
41.057301 19.998800 -754.067810
41.378399 19.458200 -752.833191
41.092602 19.541800 -752.767883
48.371201 19.416599 -754.083191
52.268398 20.342699 -754.553101
52.115601 20.613701 -754.548584
51.588200 20.584101 -754.402710
53.143902 20.629499 -754.453674
53.491901 20.719000 -754.263977
51.442699 20.734400 -753.715088
52.008701 20.900600 -753.791321
48.810501 19.156099 -752.691711
46.523499 20.683800 -752.286804
53.334301 20.806499 -754.078186
51.289001 20.650000 -753.507813
48.647999 19.057800 -752.537415
53.682201 20.746099 -753.869385
53.500198 20.903999 -753.842773
51.416599 20.613001 -753.246582
51.226398 20.462999 -753.174988
53.754200 20.815201 -753.586609
53.597500 21.006500 -753.571716
51.518600 21.009100 -753.018188
51.302601 20.762800 -752.926025
51.100601 20.570700 -752.845215
50.859299 20.511600 -752.772583
43.439602 21.430300 -750.924805
53.753899 20.952900 -753.293884
53.577000 21.126301 -753.271484
51.657398 21.167801 -752.767822
48.857201 19.593100 -751.801270
53.729698 20.980200 -753.049500
51.245899 20.879900 -752.378418
50.638500 20.309799 -752.136475
50.415100 20.048500 -752.040222
51.054600 20.877199 -752.217773
50.278301 20.251900 -751.923584
53.997398 20.745399 -752.956421
50.361301 19.854500 -751.871826
53.861301 20.787701 -752.762085
53.680302 20.951099 -752.738220
51.868801 21.149000 -752.291626
50.731701 20.748199 -751.785278
50.488899 20.423901 -751.674927
50.237202 20.338100 -751.596619
50.034901 20.252100 -751.489685
51.945900 21.155001 -751.995483
51.674702 20.990299 -751.901611
50.604198 20.676300 -751.579285
49.980499 20.619900 -751.409912
53.389099 21.167500 -752.199524
50.965500 20.816999 -751.524475
50.509102 20.544600 -751.367371
50.250198 20.436399 -751.284973
50.017200 20.420300 -751.222717
53.227100 21.100599 -751.972229
52.135799 21.216499 -751.708923
51.891499 21.147100 -751.635986
51.634701 21.034201 -751.553589
49.973499 20.252701 -751.012817
49.736301 20.224199 -750.947815
51.285000 20.841000 -751.234680
50.428299 20.490801 -750.963806
50.156601 20.339600 -750.872070
49.646702 20.160299 -750.715088
48.753201 19.472900 -750.385376
52.179298 21.121901 -751.287476
51.937401 21.062099 -751.216919
51.601501 20.936701 -751.112610
51.173801 20.757401 -750.976929
50.383499 20.378700 -750.719177
50.127399 20.282700 -750.639709
48.791100 19.126600 -750.128174
48.709301 19.371500 -750.143188
51.825500 20.980801 -750.968384
51.559299 20.836500 -750.879211
51.199001 20.629601 -750.756714
50.951698 20.558901 -750.683228
50.628700 20.490700 -750.590698
50.340801 20.282000 -750.486511
50.018002 20.220699 -750.395020
49.570499 19.997101 -750.247925
49.322498 19.935801 -750.175476
52.413101 20.844101 -750.868591
52.054699 20.909500 -750.787170
51.818298 20.872200 -750.721680
51.476501 20.728901 -750.613586
51.197601 20.543699 -750.515381
50.938999 20.433399 -750.433411
50.686298 20.346500 -750.356323
50.416599 20.202200 -750.266479
50.174099 20.154600 -750.197876
52.190800 20.730900 -750.521606
51.885101 20.716600 -750.442383
51.648399 20.680201 -750.377319
51.372898 20.506201 -750.281921
51.036999 20.390800 -750.180115
50.776699 20.277100 -750.097595
50.526001 20.199200 -750.022827
50.259201 20.066799 -749.935791
49.266201 19.553699 -749.609070
45.924000 20.030500 -748.837524
45.713100 20.178101 -748.806213
51.804401 20.312500 -749.996277
51.518398 20.374701 -749.934021
50.718601 20.234600 -749.712585
50.526100 20.094601 -749.643372
50.268002 19.993999 -749.563721
44.117401 22.479799 -748.395081
43.805801 22.658199 -748.343811
52.695801 19.876600 -749.688782
52.395000 19.993299 -749.631287
49.003101 19.167801 -748.659424
44.659000 22.784201 -748.120728
44.379601 22.872400 -748.064270
44.085899 22.919300 -747.997986
43.790298 22.961201 -747.930481
43.486801 22.981600 -747.857788
46.944801 20.684601 -747.868225
44.832802 22.974899 -747.691223
44.553398 23.062201 -747.634827
44.255100 23.094999 -747.565430
43.959400 23.136200 -747.497986
43.668400 23.191500 -747.433899
43.421600 23.152201 -747.366272
43.175499 23.116100 -747.299377
44.955502 23.082001 -747.332825
44.687199 23.201700 -747.284485
44.403301 23.275801 -747.225403
44.098499 23.290100 -747.151917
43.794899 23.309000 -747.079285
43.556702 23.293900 -747.017822
43.299400 23.226000 -746.943420
43.055500 23.197399 -746.878418
44.927299 23.191401 -747.104614
44.654301 23.296900 -747.053223
44.366100 23.358999 -746.991394
44.059799 23.369600 -746.917114
43.744301 23.355101 -746.836670
43.506001 23.340700 -746.775513
43.271301 23.337400 -746.716797
43.109699 23.267900 -746.539917
45.175098 23.188700 -746.908997
44.895599 23.275700 -746.853821
44.613300 23.354500 -746.796570
44.324501 23.415600 -746.735229
44.013599 23.413900 -746.658630
43.770199 23.384800 -746.594177
43.515701 23.325899 -746.522583
43.321999 23.145901 -746.447083
45.399601 23.039000 -746.834229
45.223099 23.133699 -746.671204
44.884102 23.273399 -746.610474
44.604000 23.359100 -746.555603
44.295898 23.365400 -746.481628
43.975201 23.337200 -746.398987
43.717899 23.270201 -746.325928
45.453899 23.038099 -746.528381
44.217602 23.275299 -746.269470
45.223000 23.137899 -746.409973
44.946400 23.234600 -746.359314
44.649300 23.272499 -746.294495
45.610901 22.841200 -746.357178
45.372299 22.948700 -746.200684
45.104401 23.072901 -746.156921
44.844601 23.219999 -746.118713
46.568802 22.277100 -746.206177
46.089802 22.469299 -746.124817
49.273998 19.159901 -746.241028
45.796101 22.894100 -746.025024
44.807098 23.170799 -745.838013
48.389900 20.054800 -745.779907
47.609299 20.705500 -746.907898
48.332600 19.287800 -747.486023
44.148201 23.245399 -747.393127
42.976799 23.036200 -747.147705
50.378601 19.765400 -748.137329
45.278400 22.781799 -747.720886
50.275398 19.516300 -748.298828
44.388100 23.031500 -747.822083
44.104801 23.122200 -747.786316
43.793900 23.131100 -747.731873
43.382900 23.078100 -747.649292
47.468601 20.625601 -748.134888
46.745899 20.830500 -748.039001
46.774101 21.176800 -748.101196
49.887199 19.484800 -748.483887
53.222599 19.969200 -749.488220
52.979698 19.920900 -749.436890
52.346600 19.819201 -749.418091
52.916599 20.093100 -749.602112
51.270100 20.172400 -749.473999
50.964100 20.186199 -749.421875
50.718498 20.138901 -749.370483
50.458099 20.038900 -749.307678
49.799702 19.632401 -749.123779
52.169399 19.903299 -749.671082
50.190300 19.891899 -749.317993
51.910400 20.228901 -749.766479
51.612301 20.269600 -749.720398
51.311901 20.302500 -749.672607
52.245602 19.984100 -749.888306
49.728401 19.770201 -749.500427
51.676201 20.489300 -750.125488
49.660198 19.847601 -749.773926
52.839500 20.326700 -750.634094
49.160301 19.642401 -749.877625
52.675598 20.529200 -750.709595
52.592999 20.936600 -751.174072
49.479500 20.088301 -750.492798
49.834000 20.213200 -751.259827
51.032600 20.747299 -751.230286
49.770000 20.426001 -751.134888
43.208199 21.153000 -750.585571
42.944302 21.318701 -750.566711
44.114899 20.661301 -750.801086
43.243500 21.406700 -750.770691
42.986301 21.590900 -750.755920
48.853298 19.353800 -751.560120
50.819401 20.754801 -752.786011
50.749802 20.361799 -752.606506
43.380299 20.783001 -751.498230
50.877998 20.266500 -752.879883
51.515499 20.706499 -753.450073
52.368000 20.564600 -754.522400
41.232601 19.269100 -752.634521
41.197601 20.675600 -753.460999
41.473400 20.813700 -753.669678
40.712700 20.771099 -754.396484
40.607899 19.861401 -754.887878
40.803699 20.477699 -755.596313
40.407902 20.239500 -756.097595
40.137299 20.072500 -756.589111
39.658199 19.232700 -756.752808
39.431198 19.168501 -756.706787
45.275299 18.786600 -757.646179
39.172798 19.164101 -756.730591
38.948601 19.283899 -756.790283
39.138401 19.429899 -756.901184
39.959999 19.327400 -758.110474
39.791801 19.091000 -758.049683
39.568401 18.854401 -757.980225
39.865799 19.130600 -758.312683
39.693699 18.826700 -758.241821
39.547199 18.554199 -758.179382
39.322300 18.333500 -758.112305
39.674400 18.900101 -758.479004
39.443901 18.406700 -758.371887
39.517799 18.892500 -758.662170
39.641300 19.090500 -758.800110
40.833801 16.836901 -759.898071
40.580399 16.900801 -760.060425
40.459202 16.738600 -759.861877
41.285599 17.144300 -759.993225
41.027199 16.990101 -759.844482
40.243698 16.742300 -759.709106
41.941799 17.334900 -759.808289
41.442501 17.236200 -759.807617
40.367901 16.953100 -759.704529
39.978901 16.840401 -759.652405
39.817600 17.127600 -759.871582
42.335300 17.685699 -759.627991
39.958000 17.273300 -759.704529
39.578400 17.191500 -759.693726
39.446301 17.115801 -759.376526
42.295601 17.933201 -759.536011
