49.487301 13.304400 -745.299377
49.391998 13.285700 -745.400879
49.291901 13.229400 -745.505798
49.195900 13.206300 -745.607788
49.052200 13.175100 -745.760681
48.950600 13.110600 -745.866577
48.828098 12.889100 -745.987183
51.037399 14.153300 -743.286011
50.954201 14.228700 -743.379272
50.814301 14.208800 -743.528625
50.674801 14.192600 -743.677917
50.573700 14.112900 -743.782471
50.472000 14.029600 -743.887695
50.373501 13.974400 -743.990784
50.269901 13.877800 -744.097412
50.170300 13.816200 -744.201172
50.067200 13.726500 -744.307617
49.957901 13.586700 -744.418030
49.847099 13.436800 -744.529724
49.745800 13.366700 -744.634888
49.649700 13.339300 -744.736877
49.554699 13.320700 -744.838074
49.459400 13.301100 -744.939575
49.319698 13.297500 -745.089600
49.223999 13.274900 -745.191406
49.128799 13.257300 -745.292786
49.033501 13.238900 -745.394409
48.937599 13.216600 -745.496277
48.835701 13.148800 -745.602478
50.658298 14.053300 -743.273987
50.562698 14.099600 -743.379272
50.426102 14.109700 -743.526672
50.327999 14.057100 -743.629395
50.228298 13.990900 -743.733276
50.132599 13.959900 -743.834717
50.027000 13.847100 -743.942383
49.925400 13.768900 -744.047729
49.822498 13.681500 -744.153809
49.714802 13.556000 -744.263184
49.648998 13.396800 -744.325684
49.542999 13.289100 -744.434082
49.447300 13.264900 -744.535889
49.309399 13.274400 -744.684814
49.213799 13.252200 -744.786377
49.074501 13.251900 -744.936218
48.932701 13.232800 -745.087830
48.836899 13.210600 -745.189575
48.739700 13.178300 -745.292480
48.644199 13.159200 -745.394287
50.409698 13.943000 -743.145813
50.278099 13.996700 -743.290100
50.138802 13.984700 -743.439270
50.042999 13.952500 -743.540588
49.946400 13.913500 -743.642578
49.849800 13.876400 -743.744507
49.746601 13.784900 -743.850708
49.644299 13.701700 -743.956421
49.528301 13.508600 -744.071106
49.414799 13.338800 -744.184326
49.310001 13.241500 -744.291870
49.209702 13.181100 -744.396606
49.070499 13.181200 -744.546326
48.931301 13.181900 -744.696106
48.790699 13.171600 -744.846924
48.694801 13.149100 -744.948914
48.597301 13.114600 -745.051880
48.488701 13.040400 -745.164917
50.010700 13.788500 -743.222778
49.927399 13.861700 -743.316406
49.787300 13.843900 -743.466309
49.642300 13.786800 -743.619324
49.540901 13.711100 -743.724426
49.438000 13.623400 -743.830505
49.375301 13.489300 -743.890686
49.258598 13.293400 -744.005920
49.153400 13.192000 -744.113770
49.053699 13.136500 -744.218079
48.956100 13.098000 -744.321228
48.814899 13.083200 -744.472290
48.676701 13.091400 -744.621521
48.535801 13.080500 -744.772522
48.413799 13.042600 -744.901917
49.730999 13.657300 -743.191589
49.601501 13.729200 -743.335022
49.458801 13.691300 -743.486694
49.360600 13.641200 -743.589783
49.257900 13.555400 -743.695801
49.145401 13.392000 -743.808228
49.028099 13.191500 -743.923828
48.921600 13.081200 -744.032471
48.824902 13.049100 -744.135010
48.682899 13.026800 -744.286682
48.542301 13.016600 -744.437622
48.402302 13.011800 -744.588074
48.306900 12.985300 -744.689514
49.451401 13.565600 -743.163879
49.317001 13.596900 -743.310425
49.221298 13.567500 -743.411987
49.121498 13.505300 -743.516174
49.021702 13.443600 -743.620483
48.956100 13.286100 -743.682617
48.838699 13.085700 -743.798279
48.736900 13.012400 -743.904114
48.639702 12.976700 -744.007019
48.540798 12.928800 -744.110901
48.400200 12.917900 -744.261902
48.305000 12.900700 -744.363525
49.119202 13.415400 -743.210205
48.980000 13.408600 -743.359924
48.882401 13.365900 -743.462708
48.771500 13.215600 -743.573975
48.648899 12.974000 -743.692993
48.550598 12.929900 -743.796387
48.452301 12.885800 -743.900024
48.353901 12.842800 -744.003601
48.767700 13.250700 -743.256775
61.979301 10.319900 -749.014099
62.070099 10.233500 -749.106384
62.155701 10.077700 -749.197388
62.244202 9.957700 -749.289429
62.330200 9.800800 -749.380798
62.453201 9.478700 -749.516724
62.539299 9.316000 -749.608582
62.578999 9.185500 -749.653687
61.564400 10.800000 -748.762573
62.055801 10.247800 -749.266785
62.084900 9.989600 -749.308472
62.172298 9.854500 -749.400085
62.375000 9.290000 -749.625793
61.334000 10.916400 -748.678589
61.679401 10.380400 -749.040527
61.769501 10.287700 -749.132385
61.862400 10.231000 -749.225281
61.953999 10.154700 -749.317688
62.031399 9.892000 -749.406372
61.402100 10.720000 -748.872803
61.577000 10.477900 -749.054382
61.932598 10.043000 -749.420776
62.064602 9.853200 -749.558289
62.193699 9.619800 -749.695313
61.098701 11.085600 -748.659119
61.615601 10.274000 -749.200928
61.703701 10.155600 -749.292175
61.792198 10.039000 -749.383789
61.924099 9.850800 -749.521118
62.062698 9.744500 -749.660522
61.453602 10.465500 -749.134888
61.972801 9.612900 -749.681274
62.057598 9.438900 -749.772522
61.291302 10.549800 -749.072815
61.511600 10.260800 -749.300903
61.594200 10.070600 -749.390686
61.679401 9.910100 -749.481384
61.766499 9.772700 -749.572876
62.022701 9.273900 -749.846680
61.141201 10.968800 -749.036377
61.341099 10.432900 -749.257874
61.465000 10.151500 -749.392578
61.769299 9.661800 -749.712585
60.965801 10.768100 -749.037109
61.140202 10.520200 -749.218994
61.222099 10.326600 -749.308472
61.310101 10.206500 -749.400024
61.440701 10.003800 -749.536987
61.525902 9.841500 -749.628113
61.613400 9.706800 -749.719788
61.702099 9.584700 -749.812073
61.849400 9.590400 -749.954224
60.596001 11.014200 -748.836487
60.725300 10.817700 -748.972107
60.814301 10.718900 -749.063477
61.381599 9.881500 -749.656921
61.468102 9.733600 -749.748413
61.550201 9.523700 -749.838989
61.639198 9.403800 -749.931519
60.264500 11.179500 -748.701294
60.696602 11.134100 -749.121582
60.799702 11.211500 -749.217224
60.825401 10.929300 -749.257324
60.986801 10.516200 -749.435486
61.060101 10.209000 -749.522827
61.187199 9.959800 -749.659119
61.376701 9.883200 -749.846497
61.522800 9.970800 -749.983093
59.424301 12.000000 -748.064270
60.125702 11.187500 -748.786621
60.211102 11.051200 -748.876587
60.302601 10.986100 -748.968628
60.392601 10.900900 -749.060181
60.581799 10.841200 -749.246521
60.837101 10.386600 -749.517883
60.942001 10.484100 -749.614075
61.018299 10.213300 -749.702576
61.039501 9.855400 -749.742188
61.129501 9.754100 -749.834778
61.223801 9.707000 -749.928528
61.326599 9.774200 -750.024414
59.884499 11.262300 -748.774719
59.973301 11.168100 -748.865723
60.061699 11.069100 -748.956604
60.150700 10.973400 -749.047791
60.239498 10.875200 -749.138977
60.411499 10.604400 -749.320129
60.677898 10.285200 -749.594971
60.978600 9.760200 -749.914307
59.220699 11.750000 -748.345581
59.573002 11.367000 -748.707275
59.663898 11.299000 -748.798828
59.752701 11.206400 -748.889771
59.884701 11.050800 -749.025879
59.970100 10.915100 -749.115906
60.059700 10.826000 -749.207397
60.150002 10.744000 -749.299194
60.236000 10.608100 -749.389771
60.322300 10.473900 -749.480530
60.407700 10.327000 -749.571228
60.497002 10.224800 -749.663025
60.583199 10.083000 -749.754211
60.670601 9.953000 -749.845825
60.758301 9.824100 -749.937622
60.797199 9.695400 -749.982178
60.887600 9.597500 -750.074890
58.377899 12.438600 -747.734314
58.465000 12.344400 -747.823608
58.597599 12.222500 -747.958618
59.079102 11.700800 -748.452820
59.208401 11.528000 -748.587280
59.345600 11.440600 -748.724670
60.049999 10.612400 -749.451294
60.135201 10.464600 -749.541687
60.310902 10.231200 -749.724426
60.441399 10.033600 -749.861389
57.717300 12.745300 -747.299805
58.959099 11.645100 -748.560120
59.088902 11.479300 -748.694580
59.179401 11.409900 -748.785889
59.605202 11.300700 -749.203430
59.663502 10.851100 -749.284180
59.796700 10.704400 -749.421021
59.884701 10.594600 -749.512085
60.012699 10.378500 -749.647583
60.188801 10.146800 -749.830322
60.275002 10.006100 -749.921326
60.360699 9.857000 -750.012390
58.612499 11.831400 -748.411194
59.011398 11.439500 -748.817505
59.230701 11.184900 -749.043030
59.584599 10.790300 -749.406006
59.804901 10.520800 -749.633301
59.933601 10.312300 -749.768921
60.108200 10.061100 -749.950989
57.457802 12.656900 -747.506409
57.724499 12.441400 -747.775513
57.944099 12.228900 -747.999023
58.209499 11.983900 -748.268616
58.300201 11.923200 -748.359375
58.391201 11.865400 -748.450378
58.612301 11.647800 -748.675598
58.703300 11.586600 -748.766785
59.228199 10.959100 -749.307617
59.359402 10.793700 -749.443176
59.578400 10.511400 -749.669983
59.666199 10.398000 -749.760925
59.961300 10.428500 -750.043884
60.086300 10.548000 -750.158020
57.836201 12.144700 -748.165283
57.967999 12.013300 -748.299683
58.104801 11.931400 -748.436279
58.592800 11.468800 -748.932678
58.767200 11.257400 -749.112488
59.424702 10.449900 -749.791626
59.558201 10.299800 -749.928589
59.693298 10.164700 -750.066406
56.569901 13.001200 -747.098694
56.658600 12.933600 -747.187988
56.792000 12.833000 -747.322083
57.015701 12.673600 -747.546387
58.217098 11.659800 -748.760071
58.395401 11.497300 -748.940918
58.484501 11.413900 -749.031372
58.879799 10.959600 -749.437317
58.969601 10.876900 -749.528503
59.185799 10.568800 -749.753906
59.319698 10.426400 -749.890808
59.403198 10.261500 -749.980286
59.489601 10.128800 -750.070923
56.349800 13.063900 -747.009216
57.737099 12.037900 -748.399719
57.865501 11.868600 -748.532471
58.708599 11.035800 -749.388977
55.959000 13.286100 -746.730774
56.137798 13.165100 -746.909119
56.449200 12.933800 -747.220825
56.848598 12.614200 -747.622009
58.098400 11.577000 -748.879517
58.188099 11.499400 -748.969788
58.715599 10.897000 -749.509705
58.805099 10.809000 -749.600525
59.194500 10.312400 -750.001892
56.311600 12.958400 -747.152588
57.252102 12.270200 -748.092896
57.657101 11.967600 -748.498230
57.835701 11.814000 -748.677979
58.320202 11.297800 -749.171387
58.849300 10.692700 -749.712524
58.940201 10.616200 -749.804016
55.273800 13.538600 -746.182983
55.502499 13.438200 -746.408020
55.686298 13.363200 -746.588501
56.931900 12.413800 -747.836182
57.699299 11.868700 -748.602600
58.365002 11.217100 -749.277527
55.851200 13.169100 -746.866516
56.965302 12.327800 -747.984009
57.103500 12.261400 -748.120483
57.193901 12.200500 -748.210815
57.330898 12.121200 -748.346924
57.506401 11.941400 -748.525513
57.683300 11.771200 -748.705017
57.773602 11.702800 -748.795471
58.131901 11.391500 -749.157227
58.212502 11.216600 -749.244385
58.613602 10.814700 -749.652283
58.704899 10.745700 -749.743896
58.875702 10.471700 -749.923218
55.170399 13.476800 -746.325989
55.354301 13.405400 -746.507019
55.530602 13.268600 -746.684387
55.710201 13.156900 -746.863525
55.938900 13.051900 -747.089478
56.160400 12.878700 -747.312317
56.826199 12.344200 -747.983215
56.963001 12.266200 -748.119324
57.190498 12.128500 -748.345886
57.499100 11.829500 -748.659729
58.209099 11.141400 -749.381592
58.386902 10.960300 -749.562927
58.559799 10.720300 -749.742798
58.692699 10.571100 -749.879089
58.873100 10.402800 -750.062073
58.999401 10.395600 -750.184082
55.573002 13.171400 -746.818298
55.751301 13.046600 -746.996826
56.601101 12.443800 -747.848022
57.901001 11.413000 -749.156128
58.033600 11.275300 -749.291321
58.687698 10.441400 -749.967224
55.315201 13.313700 -746.637878
55.854099 12.973500 -747.174316
56.930099 12.208600 -748.250305
57.154301 12.035600 -748.475220
57.774700 11.447000 -749.103882
58.301498 10.842100 -749.643616
58.526798 10.637700 -749.871277
58.834400 10.250400 -750.188416
55.001598 13.390600 -746.475403
55.407902 13.160200 -746.878113
55.494400 13.074400 -746.965881
55.583698 13.012300 -747.054993
56.486401 12.446200 -747.952820
56.572102 12.343500 -748.040771
56.752300 12.217500 -748.220581
57.333801 11.746300 -748.804871
57.553501 11.514200 -749.028687
57.732601 11.357900 -749.209412
57.821499 11.270500 -749.299377
57.908100 11.158300 -749.388794
58.044300 11.054000 -749.525330
58.304798 10.710300 -749.794495
54.758499 13.405700 -746.409485
54.938301 13.298000 -746.587830
55.127602 13.268600 -746.770874
55.300701 13.101300 -746.946289
55.525002 12.955400 -747.169495
55.701199 12.807500 -747.346680
56.152401 12.520500 -747.795288
56.291401 12.464900 -747.931702
56.378201 12.373100 -748.020020
56.512299 12.270000 -748.154419
56.693699 12.154400 -748.334778
57.342800 11.868500 -748.973022
57.669498 11.240700 -749.321411
57.759300 11.162400 -749.411926
57.847301 11.064100 -749.501770
54.542900 13.381300 -746.365723
54.680099 13.319900 -746.500488
55.049801 13.184900 -746.861877
55.444500 12.843600 -747.258911
55.808201 12.640600 -747.618286
55.948299 12.595500 -747.754822
56.126598 12.458000 -747.933228
56.351299 12.297900 -748.157288
56.753799 11.978900 -748.560303
56.885201 11.842700 -748.693726
57.183899 11.915700 -748.975525
57.508202 11.268300 -749.322205
57.861500 11.397000 -749.653015
57.907600 10.857800 -749.727478
54.780701 13.226500 -746.737122
55.138000 12.980600 -747.092285
56.131901 12.355700 -748.077087
56.358700 12.212200 -748.301880
57.517300 11.180000 -749.466980
57.864300 11.240300 -749.795227
57.910999 10.701700 -749.870117
58.048901 10.625400 -750.006104
54.220200 13.431700 -746.269470
54.400002 13.322300 -746.447083
54.539001 13.273300 -746.582520
54.949902 13.072400 -746.985718
55.537399 12.714700 -747.566101
55.719601 12.612700 -747.745605
55.858299 12.553300 -747.881287
56.214600 12.264500 -748.237183
56.660000 11.885600 -748.683411
56.748299 11.799700 -748.772522
56.837700 11.722700 -748.862000
54.701599 13.123000 -746.822388
55.109798 12.890900 -747.224426
55.293800 12.806900 -747.404480
57.224098 11.309500 -749.327820
57.359501 11.197200 -749.463074
57.495300 11.086800 -749.598816
57.791599 11.119200 -749.879211
54.074902 13.384000 -746.331482
54.484001 13.168300 -746.733398
54.849098 12.981300 -747.091675
55.397598 12.695500 -747.630188
55.483799 12.600400 -747.717712
55.623001 12.544000 -747.853516
55.762402 12.488600 -747.989319
56.117699 12.184200 -748.344971
56.430500 11.924300 -748.657593
56.566299 11.825900 -748.792480
56.743198 11.651700 -748.970825
57.798199 11.045000 -750.009888
53.715302 13.433500 -746.162720
53.852299 13.368100 -746.296875
54.347801 13.065400 -746.786316
54.765900 12.913700 -747.193176
54.905300 12.862100 -747.328918
55.137100 12.770600 -747.554871
55.316002 12.638500 -747.732788
55.449200 12.529000 -747.866028
55.586899 12.457700 -748.001221
56.034698 12.108000 -748.447815
56.211899 11.944800 -748.625977
56.347500 11.845000 -748.760803
56.843300 11.450000 -749.255676
57.107601 11.160100 -749.523987
57.194401 11.047100 -749.613220
57.286800 10.991400 -749.704407
53.404701 13.533100 -746.015930
53.492802 13.465200 -746.103821
54.449902 12.977000 -747.043579
54.587299 12.909400 -747.178406
54.865601 12.801900 -747.449707
55.096298 12.699500 -747.675415
55.274899 12.562500 -747.853394
55.409000 12.459500 -747.987122
55.543999 12.363200 -748.121277
55.943901 12.469500 -748.495972
56.395599 11.678300 -748.972107
56.485600 11.605500 -749.062073
56.576698 11.542400 -749.152527
56.665298 11.453200 -749.242126
56.804100 11.376300 -749.378723
56.891102 11.269200 -749.467773
57.061699 11.014700 -749.645020
57.149300 10.908700 -749.734619
54.256599 13.013700 -746.965027
54.629501 12.887500 -747.327209
56.252800 11.736300 -748.939087
56.877300 11.150000 -749.567688
57.170898 10.790700 -749.867981
54.350201 12.944200 -747.159790
54.719002 12.780500 -747.520081
54.947399 12.656800 -747.744629
55.130501 12.558600 -747.924500
55.305500 12.385000 -748.101074
55.486000 12.258600 -748.280273
56.294300 11.611800 -749.086975
56.385601 11.549700 -749.177429
56.520302 11.433600 -749.312378
56.607300 11.326100 -749.401428
56.697102 11.246300 -749.491516
52.788399 13.639100 -745.689270
53.020000 13.559100 -745.914124
53.611301 13.256100 -746.493896
53.791599 13.146700 -746.671814
54.023300 13.058600 -746.896973
54.490501 12.858000 -747.348389
55.348099 12.285400 -748.197021
56.051899 11.844300 -748.853577
55.898201 12.328000 -748.543518
56.004700 11.948700 -748.667114
52.622601 13.729700 -745.458313
52.945000 13.606800 -745.772217
53.164700 13.476000 -746.114319
55.576599 12.120300 -748.489075
56.555801 11.207000 -749.474670
53.452499 13.204600 -746.524719
54.102798 12.972800 -747.156372
54.287201 12.891900 -747.336426
54.425201 12.828000 -747.471375
54.606400 12.716900 -747.650208
54.833599 12.581200 -747.874207
55.012299 12.441700 -748.052307
55.144501 12.318500 -748.185181
55.277100 12.196900 -748.318481
55.415001 12.122400 -748.453918
55.597698 12.010300 -748.634216
55.736801 11.944800 -748.770325
56.001900 11.680700 -749.037903
56.184700 11.559300 -749.218811
56.270199 11.439600 -749.307190
56.406101 11.332900 -749.442688
52.064701 13.672500 -745.352417
52.205799 13.640800 -745.488281
53.446701 13.114600 -746.698608
53.819599 12.992200 -747.060181
54.325401 12.758200 -747.554688
54.414200 12.686600 -747.643372
54.550900 12.608900 -747.777893
54.640499 12.542900 -747.867004
54.778301 12.472600 -748.002075
54.867001 12.396700 -748.090881
54.957100 12.333000 -748.180298
55.093899 12.251300 -748.315186
55.227699 12.140000 -748.448975
55.408298 12.008900 -748.628296
55.498299 11.940000 -748.718018
55.588501 11.871000 -748.807678
49.190399 13.298400 -742.853577
49.295601 13.344300 -742.950684
49.366501 13.485400 -743.009583
49.584400 13.630000 -743.207825
49.748600 13.746100 -743.356689
50.105099 13.848200 -743.689026
50.252300 13.856400 -743.828308
50.497002 13.867200 -744.060120
50.877201 13.808300 -744.424500
51.020401 13.790900 -744.561523
51.261700 13.781500 -744.791321
51.449001 13.732800 -744.971985
51.589401 13.695800 -745.107483
51.774700 13.632200 -745.287170
51.917400 13.611800 -745.424011
52.936798 13.251100 -746.413574
53.908401 12.870100 -747.359070
54.044300 12.788300 -747.492981
54.177200 12.679900 -747.625671
54.313999 12.602800 -747.760193
54.450199 12.520400 -747.894470
54.587601 12.446200 -748.029419
54.676800 12.375400 -748.118286
54.812199 12.281100 -748.252625
54.993999 12.166100 -748.432129
55.083000 12.089300 -748.521179
55.173500 12.026100 -748.611023
55.309799 11.935200 -748.745789
55.488800 11.785500 -748.924805
55.626999 11.707900 -749.060730
55.938702 11.417100 -749.374084
56.027100 11.326000 -749.463623
56.115700 11.234100 -749.553223
56.301399 11.133900 -749.735474
56.487000 11.169400 -749.909729
48.854301 12.969300 -742.759583
48.959999 13.015000 -742.857178
49.041599 13.220100 -742.922180
49.143799 13.245100 -743.017578
49.259300 13.356200 -743.120422
49.494598 13.610900 -743.328186
49.658501 13.723600 -743.476929
49.814301 13.785400 -743.620972
49.960400 13.784000 -743.759583
50.156700 13.793400 -743.945190
50.397598 13.776100 -744.174683
50.590500 13.763700 -744.358398
50.735001 13.754300 -744.495972
50.924500 13.719300 -744.677917
51.113701 13.682700 -744.859619
51.305099 13.662100 -745.042419
51.682899 13.584700 -745.405273
51.820599 13.526100 -745.539490
52.190399 13.387500 -745.898621
52.799702 13.221100 -746.486572
52.937000 13.155600 -746.620728
53.077400 13.114400 -746.756287
53.769100 12.816900 -747.430420
53.951698 12.717900 -747.609497
54.131001 12.590100 -747.787415
54.265701 12.494000 -747.920898
54.403801 12.425800 -748.055908
54.493099 12.355900 -748.144897
54.721298 12.221600 -748.369385
54.900700 12.083000 -748.547974
55.036598 11.989800 -748.682617
55.171101 11.881600 -748.816711
55.261700 11.817300 -748.906372
55.350899 11.738800 -748.995789
55.489101 11.661200 -749.131470
55.576599 11.563900 -749.220398
55.666599 11.490300 -749.310181
55.804699 11.407500 -749.446228
48.880901 13.086300 -742.957886
48.988899 13.146500 -743.056580
49.709000 13.676100 -743.706299
49.910599 13.717200 -743.894714
50.055599 13.707600 -744.032593
50.298901 13.703000 -744.263184
50.442600 13.685300 -744.400330
50.684700 13.674400 -744.630127
50.825401 13.636900 -744.765625
51.017399 13.617700 -744.948608
51.255798 13.582600 -745.176514
53.035000 13.067600 -746.892212
53.175499 13.024900 -747.027710
53.318600 13.003700 -747.164612
53.587799 12.820500 -747.430481
53.674500 12.732900 -747.517883
53.905201 12.627200 -747.742615
53.992599 12.544000 -747.830505
54.082298 12.478500 -747.919373
54.268799 12.407300 -748.100220
54.401100 12.286700 -748.232788
54.629398 12.150500 -748.457214
54.765598 12.060500 -748.591614
54.989399 11.877600 -748.814514
55.079700 11.810400 -748.904114
55.353901 11.634400 -749.174316
55.436199 11.488700 -749.261108
55.701599 11.218100 -749.528687
48.828800 13.173000 -743.082275
48.939301 13.248000 -743.182312
49.166500 13.441000 -743.385315
49.325500 13.515600 -743.531006
49.478100 13.550500 -743.673096
49.628502 13.572800 -743.813904
49.730301 13.597600 -743.908630
49.832500 13.625900 -744.003418
50.032001 13.651500 -744.190430
50.174099 13.621100 -744.326477
50.368099 13.612000 -744.510620
50.753899 13.579200 -744.877075
50.946098 13.559000 -745.059875
52.032700 13.312700 -746.101929
52.219898 13.256100 -746.282227
52.357700 13.193400 -746.416321
52.496799 13.139900 -746.551025
52.639000 13.110200 -746.687195
53.607498 12.677000 -747.628784
53.924900 12.478900 -747.940918
54.152699 12.342100 -748.164429
54.332699 12.211200 -748.342529
54.560398 12.066900 -748.566528
54.741001 11.935700 -748.745178
54.830101 11.857700 -748.834106
55.014099 11.752000 -749.014404
55.151402 11.665400 -749.149414
48.706001 13.126600 -743.161621
48.920300 13.232400 -743.357422
49.027802 13.289200 -743.455505
49.136700 13.355400 -743.554321
49.242001 13.399100 -743.650879
49.348701 13.453300 -743.748413
49.659599 13.559800 -744.035400
49.907501 13.579200 -744.268188
50.098900 13.549700 -744.450684
50.295101 13.552900 -744.635681
50.488602 13.539100 -744.819275
50.630402 13.506300 -744.955322
50.867500 13.456200 -745.182129
51.582401 13.333000 -745.864624
51.725700 13.310800 -746.001221
51.865799 13.265400 -746.136292
52.102600 13.213600 -746.362976
52.242298 13.164100 -746.497925
52.381599 13.111500 -746.632690
52.521801 13.065000 -746.767822
52.849300 12.958400 -747.083618
53.537998 12.614800 -747.754822
53.674000 12.529900 -747.888428
53.854301 12.405200 -748.066284
54.034401 12.276100 -748.244202
54.125401 12.218400 -748.333618
54.264000 12.149800 -748.468628
54.400398 12.060900 -748.602905
54.581200 11.930400 -748.781616
54.668301 11.835100 -748.869629
54.758801 11.768700 -748.959106
54.934399 11.584600 -749.135986
55.075199 11.527800 -749.272522
55.265301 11.519100 -749.452576
49.632000 13.463800 -744.184021
49.829498 13.471700 -744.369812
50.991798 13.384600 -745.471680
51.328499 13.346200 -745.791626
51.848801 13.223900 -746.289978
52.080601 13.133300 -746.514282
52.405201 13.004200 -746.828491
52.733898 12.904200 -747.144714
52.871799 12.837400 -747.278870
53.061298 12.792200 -747.460510
53.421902 12.550100 -747.815613
53.604900 12.447900 -747.994385
53.787701 12.342700 -748.173523
54.241501 12.042500 -748.619995
54.332199 11.980000 -748.709412
54.467300 11.877100 -748.843201
54.600700 11.757400 -748.976379
54.690102 11.680700 -749.065491
50.531502 13.360500 -745.158813
50.729198 13.371700 -745.344299
51.452400 13.295100 -746.030273
51.595501 13.269100 -746.166687
51.869301 13.126000 -746.433411
52.106201 13.070100 -746.659973
52.243698 13.001600 -746.793823
52.523300 12.897200 -747.063599
53.951199 12.181800 -748.452820
54.088001 12.095200 -748.586914
48.626099 13.027800 -743.486816
48.947399 13.179100 -743.779602
49.514400 13.331200 -744.303284
49.716499 13.364200 -744.491272
51.702099 13.178100 -746.369812
51.935799 13.096200 -746.594482
52.725601 12.774500 -747.357117
53.326099 12.487400 -747.939270
53.509201 12.382300 -748.117981
53.694901 12.297200 -748.297913
54.101398 12.003800 -748.698120
54.190201 11.923200 -748.786621
54.280602 11.855800 -748.875671
54.369202 11.772900 -748.964172
54.509701 11.712500 -749.099976
50.243301 13.344700 -745.083130
50.388302 13.326800 -745.220215
50.637501 13.349200 -745.452576
51.358002 13.236300 -746.135315
51.500301 13.201300 -746.270874
51.733700 13.115500 -746.495117
52.149700 12.926800 -746.896912
52.521900 12.773600 -747.255615
53.127399 12.520300 -747.839111
49.593601 13.259200 -744.593506
49.794300 13.279000 -744.780212
49.998798 13.324700 -744.968689
51.122200 13.262000 -746.024292
51.591999 13.108300 -746.473694
51.827801 13.036700 -746.698792
52.192402 12.826100 -747.053223
52.334801 12.788200 -747.188782
52.616199 12.685000 -747.458618
52.758499 12.645800 -747.594299
53.223301 12.435200 -748.042419
53.405899 12.322300 -748.220276
53.589199 12.213100 -748.398621
53.677700 12.132100 -748.486511
53.820801 12.094000 -748.622803
54.020000 12.113600 -748.808105
54.170300 11.720400 -748.973083
50.101398 13.315900 -745.216370
50.247601 13.304200 -745.353882
50.494099 13.304400 -745.584412
50.687302 13.277800 -745.766724
51.353500 13.118100 -746.399475
52.193802 12.788700 -747.205688
52.754299 12.560700 -747.744019
52.891701 12.481700 -747.877380
53.170799 12.353400 -748.146301
53.533199 12.099500 -748.500916
53.673901 12.041300 -748.636230
53.913300 11.982700 -748.863586
49.204300 13.202200 -744.584412
49.612499 13.281300 -744.960876
49.811901 13.293400 -745.146484
50.009701 13.295600 -745.331299
51.066200 13.105800 -746.330688
51.253799 13.039900 -746.510193
51.441502 12.974500 -746.689819
51.908501 12.790400 -747.137817
52.049999 12.744700 -747.272888
52.651798 12.455100 -747.853516
52.790600 12.385500 -747.987610
53.217602 12.257300 -748.394775
53.347099 12.109800 -748.525085
53.435001 12.023700 -748.612671
53.523602 11.942200 -748.700623
53.614300 11.876300 -748.789490
53.755600 11.821000 -748.924988
50.123199 13.267300 -745.601379
50.508099 13.203300 -745.965027
51.025002 13.030100 -746.458679
51.404999 12.930200 -746.819824
52.613400 12.393000 -747.982422
52.753399 12.331700 -748.116882
52.940498 12.253600 -748.296570
53.031399 12.192500 -748.385376
53.172401 12.138000 -748.520630
49.325802 13.249600 -744.908875
50.259800 13.219800 -745.781982
51.158298 12.956100 -746.636780
51.957600 12.679100 -747.400024
52.240200 12.581700 -747.669800
53.304401 12.038800 -748.697021
48.293400 12.739900 -743.925110
50.382999 13.280400 -745.700012
52.912701 12.329500 -748.118530
49.473701 13.259700 -744.687622
50.802101 13.235500 -745.927429
52.583801 12.589500 -747.629211
49.348099 13.238300 -744.433777
51.216000 13.202200 -746.178284
52.054699 12.865800 -746.981812
53.033100 12.447800 -747.921021
54.347599 11.664100 -749.064087
54.488098 11.599900 -749.199585
48.738400 13.084000 -743.648193
50.845100 13.343800 -745.600830
53.368801 12.383400 -748.057922
52.453098 12.645100 -747.512695
53.377899 12.185800 -748.406921
48.930000 13.147800 -744.532776
49.887199 13.293100 -745.418213
52.099602 12.609900 -747.533325
48.293400 12.763100 -744.336670
48.951401 13.176900 -744.924072
49.349201 13.202200 -745.294800
49.697498 13.229500 -745.619080
49.888500 13.192100 -745.800476
50.080002 13.157900 -745.982117
50.267899 13.099000 -746.162170
50.640701 12.958100 -746.520874
50.783100 12.923800 -746.656677
50.972198 12.870700 -746.837280
51.110500 12.805700 -746.971375
51.342701 12.708500 -747.195618
51.483299 12.658000 -747.330627
52.136902 12.400200 -747.960388
52.226501 12.332400 -748.049011
52.314999 12.255500 -748.137207
52.405300 12.192800 -748.226074
52.503300 12.111700 -748.323425
48.614201 12.987800 -744.929382
48.783600 13.122600 -745.078186
48.987202 13.162400 -745.265808
49.579601 13.168200 -745.819214
49.722801 13.138400 -745.955322
50.103699 13.051200 -746.317627
50.477402 12.912500 -746.676819
50.803902 12.786500 -746.991028
50.944199 12.734200 -747.125916
51.127201 12.633600 -747.304016
51.265099 12.562200 -747.437988
51.404099 12.498200 -747.572510
51.544601 12.444500 -747.707581
51.683998 12.382400 -747.842407
51.823898 12.323500 -747.977417
51.911800 12.242000 -748.065308
48.680302 13.038300 -745.252502
48.830002 13.046100 -745.391724
48.933601 13.076500 -745.486328
49.082298 13.078800 -745.624878
49.232300 13.090100 -745.764221
49.381802 13.098900 -745.903076
49.577999 13.091200 -746.086914
50.331001 12.845900 -746.807617
50.471901 12.797300 -746.942627
50.608398 12.716900 -747.075928
50.746601 12.647900 -747.209778
50.885399 12.582800 -747.344177
50.973202 12.504400 -747.431824
51.111000 12.430300 -747.565674
51.225700 12.338800 -747.679382
51.617298 12.159400 -748.057983
51.740299 12.143400 -748.174011
52.034199 12.224700 -748.224609
48.381199 12.861900 -744.729614
49.183300 13.208800 -745.412781
48.124500 12.622700 -744.257080
48.405300 12.903100 -744.485474
49.107399 13.241500 -745.080872
52.447201 12.390300 -748.078979
52.675201 12.246200 -748.289612
52.811600 12.155500 -748.415771
52.950298 12.081200 -748.543030
53.285099 11.991400 -748.843811
51.513199 12.836500 -747.012695
48.322701 12.851100 -744.141479
48.801102 13.152700 -744.598328
48.803001 13.103400 -744.286621
54.768398 11.581100 -749.185913
54.855701 11.485500 -749.269470
55.330101 11.883800 -749.282593
56.324699 11.099800 -749.880920
48.831299 12.871400 -742.893616
57.030102 11.285300 -749.429382
59.347900 10.149800 -750.082397
59.484001 10.028800 -750.210876
59.621201 10.050800 -750.145874
59.179901 10.762900 -749.530579
59.420101 10.704100 -749.564575
60.505100 9.875500 -749.973083
60.272202 10.345300 -749.624878
60.997002 10.690400 -749.435730
61.478500 9.409900 -749.932373
61.637100 9.338800 -750.077393
61.160301 10.324700 -749.461670
61.124901 10.628400 -749.019226
62.173199 9.751900 -749.800781
62.400799 9.138700 -749.679382
62.491100 9.027300 -749.765320
61.765999 10.585500 -748.840271
62.470299 9.707500 -749.444275
62.695599 9.274700 -749.662170
62.125801 9.627700 -749.851013
61.036098 10.018800 -749.645081
61.115101 9.620300 -749.946594
61.284901 9.610300 -750.096497
48.534801 12.415100 -743.300598
48.673698 12.445000 -743.322693
48.546200 12.573200 -743.330872
48.693901 12.658200 -743.286316
48.836800 12.721900 -743.266907
49.025398 12.695900 -743.382080
49.155899 12.700600 -743.432922
48.605301 12.722900 -743.377380
48.799702 12.724400 -743.460022
48.915401 12.659400 -743.593506
49.119801 12.707100 -743.621277
49.255402 12.735700 -743.643616
49.384499 12.733600 -743.702393
49.555401 12.617900 -743.924805
49.757900 12.600500 -744.035095
48.917000 12.805800 -743.580688
49.432598 12.793500 -743.820618
49.533901 12.969500 -743.638977
49.660099 12.953600 -743.714294
52.370399 12.581400 -745.522583
52.602001 12.579000 -745.626526
54.925598 14.115900 -744.665771
56.768902 13.769200 -745.913086
49.466301 12.830900 -743.642822
54.338600 14.399700 -744.163330
55.044701 14.147400 -744.796387
56.054901 13.965100 -745.472473
56.211800 13.917700 -745.602112
50.112598 13.833500 -743.326111
50.455700 13.937300 -743.342590
50.812302 14.112300 -743.273376
51.163700 14.265200 -743.230286
51.500702 14.346800 -743.272583
51.697899 14.370000 -743.329102
52.580002 14.419000 -743.651978
53.372700 14.464000 -743.940918
53.883099 14.470500 -744.155884
50.316700 14.020600 -743.484314
50.662399 14.139400 -743.482605
51.348301 14.357000 -743.502686
51.648300 14.404700 -743.572815
53.673500 14.488300 -744.352783
57.217098 13.403000 -747.305725
57.327301 13.359000 -747.410828
57.445599 13.319500 -747.513489
51.766701 14.466900 -743.855774
52.038700 14.491200 -743.943909
49.189201 13.819500 -744.520874
49.325199 13.848800 -744.542480
49.104900 13.792900 -744.655884
49.243801 13.835200 -744.661804
49.126701 13.808600 -744.793518
49.264900 13.846400 -744.804688
50.566898 14.199400 -743.569702
53.529999 14.450900 -744.549194
51.016499 14.271000 -743.510620
51.921299 14.443200 -743.685425
52.201401 14.473100 -743.769897
53.497601 14.488400 -744.202026
51.172100 14.159900 -743.396790
52.401100 14.424300 -743.597900
57.378502 13.397500 -747.149780
57.483898 13.363800 -747.240723
57.631302 13.336600 -747.341675
53.782799 14.471700 -743.915283
53.967701 14.462600 -744.009521
54.144001 14.441800 -744.114990
54.847801 14.178100 -744.771790
48.554699 12.227300 -743.299988
48.714401 12.284900 -743.310120
49.023998 12.913000 -743.663818
49.161999 12.926600 -743.715271
49.264400 12.888100 -743.811523
49.519501 12.884800 -743.940674
49.653099 12.987100 -743.884094
49.784500 12.991500 -743.943420
49.943501 13.010900 -743.998230
50.632900 13.872100 -743.308228
50.818199 13.959200 -743.295227
54.512100 14.301200 -744.700012
51.260502 14.330000 -743.646729
64.040901 8.793700 -749.280273
63.854198 8.868900 -749.328979
63.705002 8.877800 -749.284119
63.512299 8.954300 -749.332275
63.341499 8.997000 -749.334229
63.141998 9.084900 -749.398376
62.942501 9.173500 -749.463623
62.747101 9.256200 -749.520874
62.264099 9.456200 -749.655396
61.243599 9.839600 -749.875427
58.546501 10.573900 -750.001587
58.303501 10.630000 -749.996521
57.436001 10.799800 -749.928711
57.044601 10.873900 -749.893982
56.903198 10.877300 -749.843384
56.741001 10.917200 -749.844116
56.565201 10.981500 -749.879089
56.149300 11.102000 -749.910522
64.394997 8.669900 -748.929993
64.225098 8.709600 -748.927185
64.083702 8.816700 -749.046021
63.953999 8.906000 -749.140320
63.727402 9.034400 -749.260071
63.533901 9.112300 -749.310425
63.369099 9.145700 -749.299500
63.176601 9.222800 -749.348877
62.978401 9.309100 -749.411194
62.783600 9.390800 -749.467224
62.606400 9.445200 -749.485596
62.300900 9.590400 -749.601379
61.917000 9.748700 -749.707520
61.737801 9.808200 -749.733398
57.016602 10.997300 -749.799072
56.859001 11.029100 -749.788391
56.692402 11.076900 -749.800293
56.542702 11.095100 -749.770508
56.092499 11.152500 -749.685181
55.937901 11.180000 -749.668823
55.568001 11.219600 -749.586426
64.525497 8.701200 -748.761108
64.339104 8.765600 -748.792480
64.153000 8.830100 -748.824219
63.999199 8.956700 -748.970093
63.882999 9.025400 -749.036194
63.669701 9.133400 -749.128174
63.443401 9.262400 -749.249329
63.327801 9.331000 -749.315613
63.123798 9.426200 -749.390381
62.931301 9.504000 -749.441223
62.743099 9.575300 -749.483093
62.346199 9.752000 -749.614624
61.832100 9.891100 -749.638123
61.658401 9.941900 -749.652222
60.688499 10.250300 -749.771912
60.073200 10.449400 -749.853088
56.716499 11.150500 -749.668396
56.475300 11.207100 -749.665100
56.249901 11.236000 -749.622986
55.861401 11.307700 -749.586182
55.554298 11.359400 -749.548889
55.397701 11.391000 -749.538513
55.169701 11.426000 -749.505371
55.015800 11.453300 -749.488770
54.859100 11.485700 -749.479675
54.722599 11.481100 -749.418091
64.107101 8.974700 -748.829712
63.796101 9.122000 -748.947571
62.832802 9.619900 -749.380615
62.663399 9.661600 -749.381897
61.578800 10.028100 -749.552124
60.170200 10.477100 -749.729126
54.466000 11.634800 -749.366272
54.336201 11.617600 -749.286926
54.198601 11.614900 -749.228027
54.052200 11.628800 -749.192810
53.888000 11.676300 -749.205627
53.754200 11.666500 -749.136719
64.625702 8.910400 -748.664978
64.408997 8.941400 -748.630127
64.289597 9.014300 -748.702209
64.106003 9.187100 -748.912415
63.974701 9.279200 -749.011108
63.860401 9.345000 -749.073608
63.756901 9.282000 -748.929626
63.570000 9.461500 -749.149597
63.387299 9.522800 -749.177673
63.186100 9.613700 -749.246826
62.997601 9.684900 -749.288818
62.748199 9.739800 -749.280090
62.557201 9.816000 -749.329285
61.730301 10.112400 -749.487427
55.241600 11.583300 -749.330078
53.732101 11.802700 -749.092590
53.579800 11.828100 -749.073914
53.447399 11.815500 -749.000977
64.329102 9.303200 -748.759827
64.124397 9.363900 -748.778076
63.989101 9.462200 -748.885925
63.874001 9.529400 -748.950378
63.761398 9.593000 -749.010071
63.563499 9.677700 -749.070618
63.384800 9.732900 -749.090515
63.191299 9.811700 -749.142883
62.999599 9.888100 -749.192383
62.837799 9.917700 -749.176880
62.658501 9.975200 -749.200073
62.497898 10.003400 -749.182800
62.307098 10.080000 -749.232788
60.374802 10.679900 -749.451477
54.142799 11.894700 -748.976074
53.469200 11.984700 -748.857117
52.962200 12.023800 -748.720520
52.669102 12.053200 -748.652588
52.508099 12.096400 -748.659729
64.501198 9.400500 -748.498230
64.279297 9.474900 -748.532593
64.142502 9.575400 -748.643616
63.959400 9.635900 -748.670471
63.766499 9.712300 -748.719727
63.559601 9.811100 -748.799988
63.347900 9.918100 -748.892029
63.161098 9.986400 -748.930176
62.976601 10.051500 -748.964172
62.780800 10.134800 -749.023621
62.591801 10.207900 -749.068787
62.395901 10.292700 -749.130493
62.227200 10.334100 -749.131775
62.038799 10.407600 -749.177917
59.538601 11.137500 -749.387329
59.375999 11.173900 -749.382813
57.257099 11.677600 -749.371399
57.097099 11.712800 -749.365784
56.985901 11.785800 -749.441772
56.954300 11.717800 -749.317505
56.049702 11.835200 -749.152222
53.430401 12.167900 -748.661682
52.333099 12.272600 -748.399414
52.194302 12.272000 -748.343323
51.260601 12.331700 -748.071716
64.328201 9.701000 -748.565186
64.059097 9.807700 -748.634521
63.911900 9.812200 -748.583801
63.741798 9.852800 -748.583374
63.549000 9.929400 -748.633179
63.434898 9.995700 -748.697327
63.245098 10.068400 -748.742004
63.046700 10.155100 -748.806213
62.862999 10.219000 -748.838806
62.689701 10.266600 -748.848816
62.483601 10.367100 -748.932678
62.298000 10.435300 -748.971619
60.729801 10.900700 -749.117920
54.437801 12.191000 -748.756287
54.147499 12.212400 -748.677002
53.844501 12.258200 -748.632629
51.473999 12.398000 -747.926819
51.173199 12.443200 -747.882385
51.040100 12.430700 -747.809204
50.902000 12.428300 -747.750671
50.746201 12.462300 -747.745300
64.027298 9.827500 -748.452576
63.873199 9.842600 -748.416809
63.351601 10.096300 -748.628784
63.155602 10.178700 -748.687317
62.969898 10.245400 -748.723877
61.094501 10.966500 -749.171814
60.942101 10.983400 -749.139587
59.893299 11.312400 -749.267883
59.722401 11.362100 -749.282288
58.576199 11.511200 -749.076172
56.204102 11.976900 -748.908081
55.820000 12.038500 -748.858276
53.559399 12.346700 -748.475098
50.547298 12.514500 -747.565002
50.407799 12.514900 -747.510620
50.273102 12.505100 -747.441284
50.131802 12.508900 -747.392029
63.179798 10.337800 -748.808289
62.991798 10.408500 -748.850525
62.814899 10.461800 -748.868713
62.623600 10.538500 -748.919617
62.459202 10.572500 -748.910828
62.314800 10.574800 -748.857605
59.868401 11.321600 -749.122925
54.629501 12.259700 -748.602783
54.251301 12.314300 -748.543823
53.946201 12.363600 -748.504517
53.358799 12.419700 -748.365479
51.143700 12.526000 -747.667480
51.004902 12.524500 -747.610413
50.858898 12.538100 -747.575195
50.011501 12.560100 -747.277527
63.737701 10.359500 -748.764587
63.579399 10.382400 -748.739685
63.447701 10.363500 -748.656494
63.293900 10.379400 -748.622070
63.119701 10.427900 -748.633179
62.935001 10.493500 -748.668274
62.735600 10.582700 -748.736694
62.547501 10.654600 -748.780884
62.390999 10.676100 -748.754578
61.932201 10.840000 -748.843628
61.745201 10.911900 -748.888184
60.994499 11.091800 -748.888428
54.715000 12.340500 -748.466797
54.415401 12.378100 -748.410522
53.806599 12.473500 -748.327515
53.440800 12.505900 -748.236328
50.505901 12.655600 -747.323914
50.220100 12.669700 -747.234375
50.085098 12.660300 -747.165527
49.924702 12.704600 -747.175171
49.758301 12.762000 -747.203979
63.383900 10.704200 -748.688782
63.195301 10.681300 -748.576599
63.077702 10.640100 -748.461975
62.936298 10.636500 -748.400330
62.757702 10.692500 -748.422302
62.065399 10.999900 -748.656372
53.952499 12.591600 -748.080627
53.655701 12.624600 -748.017883
49.847599 12.837700 -746.865723
49.720901 12.809800 -746.769592
49.590698 12.789300 -746.684204
49.443901 12.804300 -746.651001
61.723499 11.275500 -748.389893
60.585201 11.623700 -748.517029
59.217602 11.895500 -748.427185
58.723301 12.015000 -748.429993
54.170700 12.741200 -747.835999
53.870399 12.779700 -747.781311
51.186298 12.967900 -747.034180
49.635201 12.992400 -746.463074
49.424400 12.994100 -746.382874
49.229401 12.961300 -746.251587
49.102798 12.931900 -746.153015
48.971699 12.911900 -746.068420
62.821899 11.139800 -747.939575
62.662601 11.164600 -747.918030
62.504002 11.188500 -747.895081
62.138599 11.314700 -747.960083
61.451900 11.616700 -748.189880
61.269199 11.682000 -748.226074
61.116798 11.697900 -748.192383
60.943401 11.748700 -748.208130
60.735901 11.856200 -748.304626
60.577301 11.883200 -748.286682
58.181198 12.339900 -748.099121
57.998501 12.412300 -748.146912
57.823399 12.471700 -748.176514
57.688202 12.461100 -748.105591
57.538101 12.477100 -748.072815
57.394299 12.481700 -748.023804
57.159698 12.522600 -747.999084
55.383400 12.808200 -747.772217
55.080799 12.848200 -747.719177
54.781101 12.883400 -747.659424
54.102402 12.972600 -747.539612
53.223801 13.044300 -747.312195
51.500801 13.125300 -746.767273
51.206699 13.153500 -746.698120
50.922001 13.162600 -746.600891
50.125999 13.215200 -746.374329
49.841000 13.225300 -746.278625
48.702499 12.950400 -745.374512
48.663898 12.879700 -745.242004
48.556999 12.803300 -745.073425
48.442001 12.744600 -744.930786
48.293400 12.761300 -744.899780
48.337399 12.502000 -744.487671
48.302898 12.419500 -744.337280
62.358101 11.448900 -747.538208
62.176399 11.510200 -747.568298
61.610199 11.730700 -747.711304
60.521099 12.112800 -747.916321
60.347401 12.164800 -747.934326
59.795399 12.255100 -747.866516
56.015598 12.924400 -747.487915
55.787498 12.955000 -747.448730
55.405102 13.010600 -747.390381
55.107899 13.039600 -747.321411
54.723900 13.099800 -747.270020
54.423599 13.135600 -747.210999
53.514198 13.262200 -747.062683
53.304699 13.259800 -746.976074
50.447701 13.354100 -746.006409
50.238701 13.350000 -745.917297
49.881901 13.361300 -745.795471
49.399200 13.340500 -745.570679
49.189499 13.337400 -745.482788
61.957298 11.842600 -747.310974
61.759800 11.930300 -747.379028
61.578400 11.992100 -747.410278
61.390202 12.065600 -747.458313
61.226002 12.100000 -747.450684
57.682701 12.918900 -747.414673
57.425800 12.997800 -747.444580
57.204601 13.013700 -747.383728
53.901199 13.378400 -746.686707
53.753502 13.391400 -746.650024
53.612400 13.391700 -746.594910
53.315498 13.421200 -746.526672
53.160702 13.448500 -746.510986
53.014702 13.458600 -746.470215
52.851898 13.502000 -746.478088
52.701500 13.521200 -746.450684
52.518299 13.465100 -746.285217
52.226299 13.485800 -746.204224
52.081200 13.494200 -746.161011
51.799400 13.494300 -746.049927
51.658699 13.493900 -745.993774
51.514400 13.501000 -745.948486
50.740898 13.497400 -745.637329
50.600201 13.496800 -745.580627
50.461300 13.492300 -745.518372
50.254902 13.481400 -745.418823
49.982700 13.460000 -745.275696
49.770401 13.461100 -745.193726
49.629299 13.461100 -745.138000
49.492298 13.451900 -745.068604
48.686901 12.880200 -743.799316
61.355598 12.212000 -746.998779
61.175900 12.271400 -747.026917
61.009602 12.309000 -747.023926
60.822498 12.381500 -747.070801
60.534599 12.503200 -747.159973
58.478500 12.967300 -747.121582
58.327499 12.982500 -747.087280
58.024799 13.014400 -747.020996
57.542400 13.113700 -746.995911
56.829102 13.247500 -746.937317
56.585999 13.302700 -746.933289
55.577702 13.464800 -746.805298
55.293701 13.466800 -746.696594
52.316700 13.620100 -745.776428
51.115601 13.618600 -745.299622
50.909599 13.605600 -745.196594
50.630901 13.596600 -745.071472
50.354801 13.581600 -744.937317
50.217602 13.572200 -744.867493
49.955898 13.525400 -744.686218
49.625500 13.473100 -744.468384
60.321602 12.722300 -746.762878
60.147400 12.774400 -746.780884
59.940201 12.882700 -746.879822
59.779999 12.911600 -746.864929
59.629601 12.924100 -746.826172
57.925201 13.281300 -746.748596
57.759899 13.321900 -746.750977
57.640099 13.408200 -746.847900
57.475201 13.448800 -746.850403
57.342201 13.432500 -746.770691
56.846802 13.428700 -746.568298
56.524502 13.498000 -746.556580
56.354099 13.550000 -746.575989
56.210499 13.553100 -746.524414
55.914799 13.574900 -746.443909
55.534500 13.622400 -746.372803
59.244099 13.217000 -746.508972
59.134499 13.282600 -746.575623
58.987000 13.290200 -746.529785
58.855301 13.270400 -746.444580
58.706699 13.279900 -746.401611
56.889599 13.591000 -746.202576
56.499298 13.653200 -746.152222
56.190701 13.697000 -746.103210
55.880299 13.744700 -746.060120
54.857700 13.930200 -745.965576
54.703300 13.953900 -745.944092
52.835400 13.997600 -745.277405
51.343102 13.999000 -744.688782
50.381302 13.927100 -744.187378
58.544701 13.499700 -746.157288
58.348301 13.525900 -746.123474
58.197399 13.539500 -746.086426
57.975700 13.551900 -746.019104
57.821602 13.571400 -745.990723
57.633099 13.652600 -746.052185
57.486900 13.658300 -746.003784
57.105801 13.701200 -745.924622
55.772701 13.921900 -745.765808
54.872299 14.007800 -745.552673
54.630402 14.062000 -745.547729
54.462799 14.110800 -745.562927
54.305099 14.140500 -745.550293
54.160099 14.146100 -745.502014
53.105999 14.120500 -745.041077
51.595798 14.151500 -744.493896
49.895599 13.973400 -743.520874
58.431702 13.635200 -745.984070
58.303699 13.607800 -745.887329
58.151001 13.624200 -745.854187
58.009899 13.619900 -745.791016
57.810902 13.719500 -745.879028
57.659199 13.734600 -745.844177
57.508202 13.748500 -745.807495
57.290798 13.753100 -745.728821
57.046902 13.806100 -745.720886
56.880600 13.848400 -745.726013
56.630901 13.912900 -745.734985
56.292999 14.009100 -745.762390
56.139900 14.028300 -745.733826
55.942799 13.996500 -745.602112
50.701500 14.195700 -743.854187
50.043999 14.043000 -743.336426
58.577801 13.728800 -746.105530
57.882801 13.688700 -745.762207
55.083900 14.097100 -745.337097
50.220100 14.093300 -743.400391
54.475498 14.129300 -745.396484
52.877399 14.180200 -744.847778
51.368401 14.195100 -744.274109
50.409599 14.101400 -743.736511
49.910801 13.998800 -743.366272
56.452702 13.836400 -745.835083
56.144299 13.876700 -745.780212
50.588600 14.096000 -743.943481
55.555599 13.951400 -745.673828
54.015701 14.127700 -745.282471
50.187000 14.021800 -743.582092
51.068001 14.117100 -744.221619
49.719700 13.919800 -743.354492
58.754200 13.314300 -746.184814
58.463001 13.444900 -746.288330
58.303600 13.471500 -746.269592
58.085400 13.474600 -746.187927
56.985600 13.637600 -746.023926
56.673302 13.682100 -745.974426
56.348400 13.750200 -745.959473
54.340801 14.015500 -745.606018
52.953201 14.064500 -745.136230
52.432098 14.103200 -744.993713
59.121300 13.243500 -746.400024
58.158901 13.411900 -746.298828
57.207901 13.566700 -746.179199
55.637402 13.811200 -745.963196
54.639900 13.934300 -745.771912
50.878201 13.997400 -744.376587
50.192101 13.927900 -743.986206
58.967499 13.259400 -746.273987
54.918701 13.946100 -745.812622
51.429298 14.037500 -744.574585
49.463200 13.778000 -743.354675
56.026402 13.863100 -745.856323
51.794201 14.135000 -744.626770
50.066898 13.986500 -743.688782
57.335201 13.909200 -745.628906
57.174801 13.938500 -745.614380
57.014400 13.967800 -745.599976
56.856800 13.992300 -745.578613
56.704601 14.007100 -745.542786
56.479500 14.023600 -745.481079
56.327702 14.037900 -745.444702
54.931400 14.227600 -745.208496
54.704601 14.249000 -745.154297
51.847900 14.354900 -744.195618
51.561600 14.352100 -744.076904
50.802399 14.283400 -743.658875
50.475601 14.211400 -743.407471
56.300098 14.151300 -745.128784
55.999100 14.174400 -745.048218
55.828899 14.223100 -745.062683
55.671398 14.248300 -745.042480
51.111401 14.431500 -743.538696
50.986099 14.391400 -743.421082
54.989700 14.393500 -744.596680
54.818901 14.444600 -744.615112
54.664398 14.464400 -744.587280
54.043201 14.551500 -744.487976
53.891701 14.566200 -744.452820
52.577900 14.601000 -743.990479
52.432999 14.602800 -743.935974
51.865700 14.583900 -743.679077
51.734402 14.548100 -743.566711
51.040798 14.498000 -743.206970
50.886002 14.520200 -743.182983
53.911499 14.613500 -744.176819
53.765499 14.616900 -744.124817
53.611099 14.637100 -744.097717
53.325100 14.632200 -743.976013
53.177700 14.638600 -743.928406
53.028999 14.647600 -743.884583
52.873299 14.670700 -743.861816
52.708900 14.711700 -743.866028
52.553699 14.734300 -743.842712
52.971401 14.831300 -743.846191
52.799198 14.888000 -743.873779
52.643002 14.912800 -743.853882
54.894798 14.481800 -744.298523
54.759399 14.558500 -744.374878
54.233501 14.598500 -744.236694
54.084099 14.608400 -744.195007
53.487900 14.645900 -744.025330
54.513500 14.501200 -744.448730
54.360199 14.518700 -744.418274
54.190498 14.568300 -744.435486
53.814701 14.598700 -744.340027
53.238499 14.598300 -744.114197
52.296299 14.608600 -743.763672
52.160999 14.590500 -743.680298
52.021099 14.581500 -743.610474
