63.096500 61.179901 -807.834229
70.146599 55.870602 -816.488770
71.007103 55.263802 -817.544617
71.792099 54.515701 -818.510315
74.496101 52.289799 -821.831970
75.315002 51.660801 -822.837524
63.720501 60.761398 -809.148376
65.222603 59.681599 -810.992004
66.559402 58.675098 -812.633484
67.835297 57.614101 -814.201599
68.594299 56.804798 -815.136902
75.898598 51.083599 -824.108826
58.856701 62.369598 -803.729919
59.770302 62.162201 -804.844421
71.946701 53.725399 -819.779724
61.348701 61.495701 -807.308899
72.503403 53.053001 -821.006897
60.105999 61.806702 -806.263977
63.571400 60.192402 -810.506226
65.068199 59.053200 -812.345215
66.428703 58.172600 -814.014404
68.480904 56.389400 -816.539185
69.515900 55.716400 -817.809082
70.362099 54.999599 -818.849915
73.152298 52.567402 -822.282776
61.733501 61.094101 -808.654480
66.726097 57.379501 -815.212830
57.328400 62.626900 -804.249329
58.235199 62.323799 -805.356018
62.032501 60.507000 -809.998718
63.581001 59.693401 -811.893005
65.118896 58.784401 -813.775879
70.293297 54.230202 -820.134094
71.062500 53.322899 -821.082825
58.721802 61.802502 -806.693970
59.624901 61.509399 -807.795227
66.785103 56.761700 -816.564026
67.838699 56.246700 -817.851379
68.850403 55.868000 -819.085876
51.118500 65.711098 -798.218872
60.040199 61.073700 -809.122070
61.950600 60.211498 -811.454712
63.489201 59.345299 -813.336121
64.922401 58.171700 -815.094727
49.846699 66.540100 -797.498596
51.440601 64.961502 -799.455078
55.833000 62.822601 -804.808777
56.735901 62.451900 -805.908081
60.456501 60.615700 -810.443481
65.300697 57.411098 -816.362427
57.268002 62.129101 -807.238281
58.176998 61.608200 -808.343811
61.929199 59.784500 -812.901428
63.369801 58.688499 -814.657776
65.836800 56.862400 -817.664978
66.787003 56.077900 -818.824585
51.548599 64.163101 -800.768127
54.472198 63.070702 -804.307190
49.776199 65.826797 -798.827576
58.697601 61.123199 -809.657471
60.519100 60.150902 -811.868896
63.697201 58.158199 -815.965088
51.977600 63.797001 -802.174011
52.925800 63.459599 -803.327209
55.248600 62.589298 -806.153015
61.929699 59.203098 -814.292419
48.227001 66.727097 -798.425476
49.633499 65.257599 -800.145020
55.712002 62.267899 -807.532288
56.622700 61.883202 -808.638123
58.663200 60.841202 -811.118530
60.442402 59.689602 -813.284424
63.761200 57.629398 -817.323303
65.043701 56.679298 -818.886230
66.002602 56.015999 -820.054077
48.403000 65.887001 -799.690491
49.820900 64.407402 -801.419312
52.534901 63.197800 -804.705872
53.428299 62.867901 -805.786682
56.940300 61.659901 -810.034607
58.942600 60.404800 -812.464294
61.577499 58.780602 -815.661377
62.481201 58.238899 -816.757690
66.186501 55.181801 -821.264404
50.047401 63.705700 -802.688293
51.000999 63.512600 -803.837097
53.801201 62.519600 -807.216919
55.184299 62.336102 -808.881775
57.291801 61.189400 -811.431580
59.872299 59.315701 -814.560486
63.181499 57.139099 -818.569824
64.458801 56.124901 -820.119873
66.468002 54.462700 -822.559082
67.222702 53.550400 -823.479614
46.879299 66.418297 -799.660889
47.941700 65.226303 -800.953430
58.639500 59.975700 -813.864502
48.292801 64.440201 -802.144226
50.880501 63.155399 -805.262085
51.834301 62.853298 -806.408875
53.751099 62.324001 -808.711792
57.181599 60.782902 -812.842773
59.764000 58.888100 -815.963684
60.571999 58.151501 -816.942505
61.505600 57.769001 -818.066223
62.991798 56.537899 -819.864502
64.334297 55.510201 -821.487610
67.118797 53.009800 -824.860107
46.613400 65.819702 -800.963684
48.655201 63.726101 -803.436707
49.603699 63.402901 -804.575012
52.286800 62.547199 -807.794373
54.212101 62.278099 -810.098816
58.528599 59.563499 -815.299316
64.671501 54.708599 -822.716309
65.498398 53.905300 -823.717102
67.410797 52.211601 -826.029114
68.276497 51.574299 -827.073486
46.773300 64.858398 -802.042419
56.929901 60.267200 -814.224426
61.175800 57.070801 -819.338623
62.771801 56.099701 -821.257080
68.586304 50.817699 -828.276123
47.169998 64.041496 -803.255981
49.471500 63.046501 -806.010986
50.425400 62.736900 -807.151123
52.164902 62.330502 -809.227173
58.375500 58.973701 -816.672974
59.191002 58.287601 -817.655090
60.013901 57.620701 -818.645630
63.142601 55.269299 -822.408081
65.280899 53.112000 -824.989197
68.951897 49.993401 -829.410278
47.852901 63.339699 -804.592896
52.823799 62.214001 -810.515625
53.806400 62.267799 -811.681580
57.038700 59.718700 -815.564514
61.297501 56.514599 -820.677917
63.939999 54.117100 -823.857788
65.828598 52.304298 -826.132202
66.673401 51.519001 -827.149170
50.842899 62.572201 -808.592102
69.218002 49.218800 -830.606384
45.263901 64.433502 -802.500671
55.618198 60.223202 -814.827271
66.938004 50.695900 -828.390686
46.349998 63.640400 -804.389587
47.768200 63.077999 -806.075073
48.780499 62.756500 -807.276917
56.882301 59.189602 -816.913025
57.692501 58.484699 -817.883118
58.582600 57.846600 -818.946289
59.397701 57.124100 -819.922485
61.062698 55.803799 -821.913574
62.466099 54.727699 -823.591125
63.710800 53.365898 -825.086487
67.339302 49.704201 -829.440125
69.423401 48.526501 -831.923523
50.695900 62.164501 -810.022705
52.270901 62.192402 -811.880310
53.240501 62.293201 -813.022278
64.252899 52.559101 -826.195801
65.008598 51.625999 -827.104675
49.229099 62.490101 -808.621826
55.627300 59.717201 -816.209717
59.806900 56.422001 -821.193604
67.623802 48.708000 -830.542786
44.889400 63.857700 -803.773010
65.466904 50.712002 -828.232178
46.174000 63.103199 -805.734924
60.956100 55.159500 -823.271179
62.204498 53.884201 -824.763184
69.283203 47.854401 -833.200989
46.873299 62.852798 -807.190613
50.460400 61.822800 -811.425781
56.002701 58.795601 -817.996277
56.888699 58.150002 -819.049683
57.765800 57.440300 -820.093994
62.751499 52.852501 -826.039795
65.477402 49.651299 -829.303589
67.480003 47.753300 -831.692810
43.452801 63.533699 -803.845215
44.462601 63.239601 -805.034912
47.450802 62.521500 -808.553223
48.582802 62.115501 -809.888489
51.067299 62.062000 -812.803223
52.035702 62.051701 -813.939087
58.214199 56.657501 -821.288696
59.151299 55.876801 -822.402588
63.053600 51.751301 -827.058472
63.807201 50.800301 -827.960388
65.819099 48.654701 -830.361206
69.380203 47.252800 -834.564392
52.657700 62.011902 -815.284119
60.297298 54.459499 -824.356018
67.551102 47.020901 -832.974792
44.517101 62.756302 -806.411072
48.732101 61.870499 -811.337280
59.203602 55.105598 -823.661316
60.722000 53.533501 -825.459412
63.815399 49.904800 -829.130371
65.915298 47.795399 -831.615723
42.149399 63.129299 -804.404419
43.115898 62.982899 -805.530884
45.048000 62.685600 -807.782715
46.009300 62.462101 -808.904480
46.964699 62.117001 -810.021912
49.260399 61.662399 -812.699280
50.487301 61.877998 -814.121521
54.397999 58.813301 -818.726379
55.289398 58.247299 -819.773315
56.179798 57.594601 -820.820923
57.613201 56.088200 -822.515991
61.043900 52.647301 -826.569885
62.396099 51.042500 -828.172424
64.081398 48.908501 -830.172302
67.655800 46.479500 -834.374023
68.987999 46.776600 -835.917114
50.998798 61.847000 -815.551575
51.974201 61.956600 -816.682190
56.454700 56.791302 -821.990417
58.948898 54.369598 -824.936218
64.246696 47.899300 -831.219788
65.553200 46.969700 -832.755920
42.922001 62.617401 -806.959106
46.781502 61.785301 -811.454773
47.743698 61.480301 -812.577576
57.299400 55.451199 -823.792419
59.164902 53.341900 -826.001587
60.496201 51.694801 -827.581177
61.862999 50.134201 -829.200073
62.462799 48.972000 -829.920715
65.934700 46.298401 -834.005615
67.391403 45.940800 -835.703430
68.661499 46.122601 -837.173218
40.825100 62.702000 -805.216614
43.510700 62.535301 -808.333130
44.478401 62.382702 -809.458130
45.435001 62.057999 -810.573914
48.336498 61.458099 -813.950195
49.321499 61.638699 -815.088013
53.532799 58.420898 -820.039429
54.424500 57.768398 -821.087280
62.759399 47.902302 -830.963379
63.870201 46.987999 -832.270874
41.434101 62.712700 -806.530212
50.292599 61.748798 -816.808472
51.267200 61.782101 -817.936279
54.923901 57.005798 -822.275574
55.722698 56.185200 -823.218689
57.229900 54.658401 -824.997498
59.007702 52.360901 -827.106689
60.343498 50.685299 -828.690430
64.359001 46.164600 -833.439575
66.003304 45.699100 -835.353821
57.668098 53.717701 -826.083679
61.061001 49.291500 -830.106079
67.001801 45.564701 -837.059814
41.646400 62.528099 -807.983826
45.006302 61.528900 -811.888306
45.981400 61.430199 -813.017212
55.779800 55.349201 -824.475220
59.012600 51.486801 -828.297729
61.325401 48.111099 -831.046082
62.087601 47.093399 -831.949829
64.481499 45.426998 -834.753296
67.578003 46.061798 -838.316528
39.425598 62.608299 -806.090393
42.235901 62.414799 -809.340027
43.192699 62.115002 -810.451782
46.567001 61.257801 -814.368225
47.552399 61.370701 -815.503418
48.526699 61.293301 -816.630188
50.920700 61.758701 -819.383728
52.976799 57.823399 -821.850220
57.490501 52.758801 -827.181030
59.646400 49.847698 -829.738708
62.399502 46.096500 -833.005798
65.494301 45.123199 -836.602173
40.004101 62.431599 -807.421997
49.118599 61.439899 -817.960693
53.437000 57.070499 -823.048279
54.203300 56.125801 -823.955200
55.700802 54.575199 -825.720276
62.874802 45.284801 -834.221313
66.413597 45.130402 -838.307495
43.329399 61.450802 -811.804321
56.150700 53.648399 -826.784180
57.274101 51.679600 -828.128418
58.273602 50.707001 -829.305176
59.524200 48.853401 -830.793213
60.456501 47.327702 -831.906128
63.825699 44.692902 -835.856995
67.188797 45.792801 -839.708618
40.423599 62.452000 -808.810913
44.079102 61.381802 -813.051025
45.051102 61.246601 -814.174683
54.439499 55.266300 -825.143494
60.928699 46.318100 -832.842773
41.714901 61.995899 -810.616272
49.307999 61.359600 -819.386719
50.492199 61.520500 -820.748230
64.399002 44.358898 -837.197021
38.060101 62.534100 -806.784973
45.611198 61.094200 -815.527222
46.591000 61.118500 -816.656494
47.562698 61.009499 -817.779480
56.107899 52.630299 -827.835876
58.240799 49.669701 -830.367188
61.208900 45.290501 -833.895630
65.174599 44.327099 -838.491882
52.476200 56.795601 -824.085083
54.424900 54.542500 -826.388977
56.762501 50.828999 -829.177673
58.931900 47.882000 -831.753479
61.818100 44.841099 -835.158325
65.808601 44.571602 -839.767883
66.933998 45.244801 -841.049194
38.395000 62.466400 -808.260925
40.095299 62.275002 -810.227478
41.547298 61.355999 -811.926208
42.521900 61.259102 -813.053223
47.880199 60.890099 -819.244690
52.978199 55.944901 -825.253418
54.865299 53.646301 -827.489502
59.243301 46.777901 -832.716797
62.369099 44.303799 -836.386597
43.193100 61.103401 -814.362488
44.167099 61.010300 -815.487671
48.625801 61.054100 -820.625977
55.565201 51.736000 -828.868286
56.777100 49.819901 -830.315125
57.715099 48.820000 -831.422485
59.694801 45.686100 -833.786316
63.009499 43.903099 -837.653625
38.709202 62.564301 -809.696106
44.826801 60.992001 -816.782715
45.797100 60.854698 -817.903687
49.286701 61.186401 -821.913330
53.061600 55.072800 -826.422302
60.167801 44.811401 -834.877014
63.634701 43.528500 -838.903381
64.623199 43.488998 -840.042786
65.610100 43.975498 -841.166382
66.603600 44.580299 -842.294495
36.677898 62.808998 -807.914307
39.817501 61.626099 -811.559326
46.435398 60.783600 -819.197815
53.501400 54.112000 -827.509399
54.414299 52.835300 -828.594299
55.495998 50.671600 -829.897522
57.300098 47.572498 -832.057190
60.849499 44.539299 -836.223572
37.293701 62.580299 -809.264099
40.423000 61.234600 -812.899292
41.403400 61.189301 -814.027710
47.063499 60.618500 -820.551270
56.134499 48.893700 -831.305420
57.566200 46.523800 -833.017029
61.454399 44.236401 -837.550903
66.516403 43.523800 -843.390686
38.276699 62.142601 -811.006897
42.044800 60.958599 -815.367371
43.016800 60.809101 -816.487793
47.724800 60.709099 -821.896973
54.347500 51.575901 -829.760925
57.920300 45.446701 -834.037476
58.722000 44.642200 -834.981018
62.078701 43.911999 -838.856201
64.285301 43.067699 -841.414001
65.254997 43.402802 -842.518127
43.782001 60.798100 -817.802124
44.754299 60.659302 -818.921814
48.434101 60.927101 -823.136230
51.805000 55.332100 -827.163879
54.959801 49.756001 -830.943298
59.333302 43.983299 -836.126526
62.703400 43.289398 -840.013184
52.770000 53.612499 -828.653870
55.779800 47.818199 -832.277527
35.419601 62.969101 -808.779114
38.455601 61.407902 -812.312622
45.325298 60.478100 -820.232483
53.338299 52.667099 -829.666016
59.896900 43.943600 -837.455017
36.611801 62.483700 -810.557495
39.738998 61.113899 -814.188416
55.994202 46.773201 -833.275513
65.174599 42.973202 -843.928528
40.427299 60.994701 -815.493408
41.453899 60.745701 -816.677979
45.780800 60.187901 -821.655823
51.685200 54.633999 -828.593689
53.608799 51.084702 -830.906677
54.549301 48.795700 -832.054382
56.387600 45.742699 -834.254517
57.093201 44.790100 -835.092407
60.390701 44.052299 -838.895508
62.594501 43.169899 -841.448975
63.434799 42.498501 -842.432678
65.910797 42.893600 -845.259583
36.864799 61.918598 -811.901794
42.100899 60.490898 -817.946289
43.087299 60.511299 -819.075806
46.459301 60.464699 -822.940979
57.639999 44.032200 -836.268188
61.076000 44.160000 -840.201294
35.011101 62.794498 -810.190430
38.067299 61.353699 -813.736816
43.848202 60.467602 -820.385620
47.168999 60.690899 -824.181396
51.863602 53.580799 -829.786377
53.548000 49.906200 -831.833618
54.599400 47.778099 -833.106079
58.257198 43.418800 -837.435181
63.854198 42.297600 -843.880981
52.338799 52.518200 -830.744202
59.032101 43.327099 -838.704102
35.507999 62.391102 -811.542603
38.591599 61.118000 -815.111328
54.821999 46.676998 -834.150330
61.313000 43.925999 -841.664917
64.413498 42.271400 -845.265625
36.623100 61.478298 -813.279114
39.276699 60.745602 -816.338684
40.251099 60.569000 -817.459229
44.052799 60.264900 -821.817627
45.030201 60.141201 -822.939880
52.480598 51.473801 -831.752075
55.413101 45.576199 -835.304016
56.110298 44.570400 -836.135071
59.558399 43.458801 -840.116211
61.849800 43.134499 -842.747925
65.122704 42.233002 -846.521484
33.529701 63.034302 -810.272583
40.869400 60.358898 -818.746521
41.867500 60.491100 -819.881897
45.672501 60.294601 -824.234314
52.993698 49.208401 -832.974426
56.620399 43.738701 -837.303223
62.399601 42.421101 -843.948486
34.027599 62.490501 -811.573914
35.055199 61.703701 -812.772278
36.756001 61.338100 -814.722900
42.425400 60.303501 -821.219116
50.961498 53.605099 -831.179871
53.144501 48.038101 -833.862122
57.111099 43.119598 -838.554016
59.718498 43.847599 -841.499390
62.917198 41.859600 -845.213806
37.316399 60.993698 -816.072876
38.708599 60.602600 -817.671692
43.498600 60.067902 -823.143311
51.193401 52.567501 -832.172729
51.875599 51.070999 -833.003296
53.529400 47.271900 -835.022827
54.810299 45.090199 -836.559509
57.678600 42.871101 -839.904602
60.299500 44.181198 -842.840515
63.489101 41.632401 -846.563171
64.485298 41.580399 -847.698975
35.224701 61.603001 -814.263794
39.333199 60.388302 -818.981812
40.326801 60.402401 -820.111511
44.134201 59.966499 -824.458313
45.131901 60.170601 -825.585571
53.852798 46.263401 -836.017822
55.216099 44.080101 -837.648926
58.336498 42.900101 -841.241821
60.850300 43.546902 -844.077271
32.106602 62.958099 -811.180481
33.536301 61.922501 -812.844971
42.129299 60.213402 -822.679382
51.779301 49.927502 -834.037109
61.361801 42.663898 -845.204712
35.535000 61.245701 -815.694275
37.103401 60.742001 -817.495972
40.664600 60.250599 -821.561829
51.945099 48.597698 -834.827515
55.432701 43.366299 -838.991028
58.650902 43.181099 -842.655518
61.916199 42.059299 -846.409119
37.776699 60.468800 -818.796387
42.519798 59.968498 -824.202393
50.197201 52.907101 -833.197021
50.811199 51.738602 -833.940002
52.203499 47.369900 -835.691772
53.454498 45.417000 -837.188904
56.063000 42.886200 -840.250122
59.258202 43.882000 -843.839722
62.556599 41.587898 -847.675171
63.499802 41.086102 -848.765930
32.022999 62.420101 -812.586426
33.479000 61.550098 -814.273376
38.699299 60.119801 -820.255493
43.592499 59.988701 -825.815125
56.776100 42.450401 -841.470520
35.637901 60.924500 -817.132324
51.027000 50.742100 -834.997620
53.789700 44.485199 -838.379822
59.784599 44.088299 -845.198120
33.867599 61.326801 -815.648987
39.112099 60.097500 -821.647278
40.295898 60.131401 -822.988770
52.181301 46.682499 -837.012512
57.226101 42.641102 -842.897583
60.200199 43.163399 -846.250122
30.516701 62.864601 -812.478699
31.759800 61.820702 -813.931824
35.817200 60.625702 -818.581787
37.153999 60.233898 -820.113708
40.871601 60.010799 -824.338013
41.914001 59.802799 -825.528381
50.196301 51.939301 -835.247070
50.734699 49.696400 -835.951111
51.116699 48.254501 -836.444275
53.788700 43.741001 -839.662170
54.613098 42.997398 -840.627930
57.763199 43.189899 -844.191284
60.610298 42.425098 -847.451172
61.868599 41.279598 -848.925781
62.709801 40.475498 -849.913025
32.258301 61.393398 -815.271179
33.853401 61.097900 -817.090027
37.672001 59.845200 -821.468323
42.471699 59.923000 -826.899719
52.065701 45.747601 -838.378418
55.078899 42.412800 -841.934998
58.212002 43.820400 -845.421570
30.430901 62.403400 -813.857971
34.372700 60.737499 -818.387573
38.239899 59.934799 -822.794128
39.431099 60.010201 -824.136902
50.009201 51.195301 -836.486511
50.863800 47.439201 -837.620605
52.225498 44.610600 -839.286194
55.665798 42.029202 -843.289795
58.789101 43.416000 -846.757507
32.367901 61.182201 -816.755920
34.984798 60.399601 -819.742493
40.129299 59.820202 -825.569519
50.158699 50.022202 -837.327820
53.039398 43.462601 -840.877319
56.327702 42.327499 -844.636902
59.969601 42.250401 -848.746582
60.983200 40.737999 -849.958984
61.580299 39.567799 -850.685974
30.407200 61.787601 -815.216980
35.577202 60.152500 -821.106079
40.743301 59.706200 -826.934570
50.263000 48.726799 -838.155029
50.816299 46.716000 -838.872009
53.507000 42.778099 -842.082886
56.938801 42.490898 -845.954224
28.882999 62.524399 -814.203186
30.927200 61.311901 -816.552979
32.391602 60.866501 -818.215820
36.133400 59.805500 -822.460388
37.503799 59.624599 -824.004883
38.701500 59.668598 -825.344910
51.185501 45.789501 -840.011292
51.877201 44.736599 -840.837708
53.939701 42.038300 -843.280579
57.528801 42.738899 -847.268188
58.488300 42.355301 -848.362122
33.017899 60.628799 -819.556519
49.635601 50.034302 -838.669922
50.264301 48.101700 -839.469788
54.558800 41.608799 -844.597595
55.520302 41.612499 -845.672485
59.274399 41.662498 -849.867981
60.221500 40.079700 -851.006287
29.079201 62.258499 -815.612976
33.664902 60.283901 -820.825928
38.971298 59.553699 -826.778687
40.403702 59.596802 -828.373474
50.642700 47.084000 -840.424622
51.989201 44.014702 -842.081787
56.212299 41.359901 -846.924927
30.599199 60.779701 -817.896973
34.330002 59.992401 -822.080872
35.956100 59.739300 -823.900024
52.505600 43.117001 -843.134277
56.980900 41.500301 -848.187805
31.296600 60.879601 -819.181519
36.634602 59.532101 -825.159424
50.943199 46.387402 -841.679016
57.727600 41.551998 -849.439026
37.397999 59.466801 -826.448120
51.315899 45.255798 -842.581909
52.719799 42.247501 -844.293030
58.556599 40.843700 -850.817322
31.833200 60.480999 -820.546082
34.499401 59.714199 -823.532776
38.744701 59.604500 -828.228271
53.688400 41.282501 -845.723877
54.675598 40.964901 -846.831482
55.608799 40.638599 -848.045288
56.539902 40.548000 -849.187927
32.584000 60.247398 -821.796570
29.005501 61.041100 -818.404114
34.864799 59.729900 -824.939087
56.950100 39.896599 -850.407227
29.670799 60.772400 -819.715881
32.849998 60.034401 -823.256897
35.533501 59.361301 -826.248474
36.998699 59.369499 -827.860413
57.187599 38.680099 -851.264526
30.231300 60.600498 -821.085388
33.327000 59.580399 -824.540894
37.574402 59.210899 -829.221375
30.797100 60.431301 -822.431702
34.081799 59.303101 -826.093323
35.542999 59.172600 -827.699829
27.843800 60.858700 -819.842712
31.354200 60.118401 -823.722229
28.417299 60.735199 -821.174011
31.893999 59.610699 -825.033630
35.641102 59.196098 -829.143372
28.912600 60.340302 -822.473816
32.490002 59.461498 -826.416870
33.509998 59.369801 -827.531189
29.569000 60.264500 -823.850403
34.166500 59.219398 -828.901978
26.896299 60.824600 -821.491211
30.207800 59.837002 -825.137085
35.170898 59.140999 -830.549988
30.874599 59.518002 -826.377991
27.254200 60.514000 -822.923279
31.616400 59.515099 -827.686707
32.636200 59.351501 -828.795593
27.914101 60.033199 -824.182373
33.419201 59.312698 -830.143982
28.651600 59.984600 -825.426270
29.426901 59.696499 -826.648987
25.765699 60.749001 -823.007629
26.516500 60.432400 -824.204407
30.011000 59.518200 -827.990723
31.047400 59.434700 -829.099915
31.811800 59.224899 -830.359375
26.947300 60.170700 -825.602112
27.959200 59.841999 -826.700928
24.971800 60.659500 -824.350586
28.475300 59.727501 -828.132690
29.197399 59.634499 -829.403625
30.226101 59.418301 -830.507813
25.174900 60.608200 -825.838806
26.116400 60.226299 -826.860718
26.500799 60.053699 -828.252319
27.539400 59.904202 -829.353882
24.516899 60.740700 -827.114197
27.979799 59.842800 -830.805908
25.013901 60.617699 -828.488281
26.082899 60.150700 -829.642090
26.229700 60.184200 -831.138184
24.441799 60.739899 -829.839783
73.963799 51.975300 -823.405212
84.761497 48.423599 -828.081116
59.991100 38.253201 -851.689880
58.700001 39.719299 -851.714417
82.259003 49.582802 -828.198425
55.521900 40.009300 -850.101624
79.917801 49.746201 -827.601379
54.578098 40.558998 -849.073120
53.720200 41.030300 -848.014587
76.183502 50.722000 -825.622925
52.415501 41.832600 -846.168823
74.620598 51.536800 -824.651917
51.360001 43.971699 -843.648621
71.795403 53.067902 -822.342285
49.483002 48.230499 -840.686279
57.095699 50.066200 -832.088379
49.293999 51.128502 -837.767822
51.824299 56.305698 -826.059021
54.597000 59.649799 -817.344116
55.799198 61.013500 -813.325623
55.904202 61.420101 -811.937073
29.172701 59.671700 -831.661621
29.505501 61.394501 -816.980896
52.042000 57.879299 -823.112976
50.890400 54.723801 -829.842529
67.550903 56.424702 -820.037415
49.023899 49.672001 -839.983276
68.081001 48.973999 -832.231812
68.007401 48.053398 -833.915222
56.789200 43.769901 -845.093811
67.692200 47.200401 -836.391479
57.255699 44.319801 -846.468872
56.072601 42.728199 -847.716797
65.584602 45.449402 -841.605286
57.214500 42.917301 -848.812988
65.521400 44.583801 -843.325012
87.976501 48.089199 -828.495911
54.474899 60.645000 -816.188171
49.140499 62.688202 -816.783081
50.180401 62.863400 -817.831970
83.889297 52.400902 -818.135010
85.701797 52.217098 -818.109497
48.181400 62.589401 -815.031189
47.340000 62.474602 -813.672729
34.133099 63.767300 -808.779480
82.611000 53.848400 -816.525024
54.577599 61.236000 -814.521729
50.089600 62.909500 -815.082520
85.557098 53.535900 -816.486084
49.539700 62.890400 -813.723022
35.581600 63.615700 -807.433289
85.591797 54.416199 -815.303284
83.795197 54.456902 -814.403076
51.327400 63.186001 -811.045471
67.606499 59.890800 -812.513489
55.842800 62.422798 -810.730530
40.890301 63.936699 -804.339478
78.004997 57.440899 -811.176514
43.471001 64.780998 -803.124878
44.322899 65.526001 -802.185730
58.359200 63.672001 -804.228088
45.209801 66.281898 -801.198120
58.734600 63.743698 -802.376404
45.562401 66.998703 -799.985718
58.744999 64.257301 -799.458923
46.424599 67.514900 -798.772827
56.050201 65.428101 -794.867371
54.774899 64.385101 -801.862610
68.944702 61.273102 -807.662476
52.950100 63.723598 -807.225281
48.485901 64.204597 -806.706787
54.459499 63.443600 -808.123779
59.619900 62.879299 -807.223206
50.157501 64.755096 -804.813599
58.017399 64.396400 -800.970581
64.016403 63.598000 -807.069885
60.129101 63.509899 -804.456787
55.255901 63.998001 -805.455811
51.980598 65.054901 -808.986206
58.577999 63.178501 -809.260681
69.482101 60.612801 -809.508423
61.256901 61.744801 -809.890015
63.365501 61.171799 -811.861023
51.072300 64.177101 -814.403625
75.095001 58.296501 -810.822205
66.104599 60.262001 -811.982117
44.312401 63.720200 -810.423523
71.601700 58.918400 -812.150696
54.954800 62.195801 -813.144897
83.317596 55.706001 -813.314270
82.064499 55.735500 -812.548706
76.780602 56.856701 -813.155884
49.607498 62.769798 -819.416016
48.801399 62.484299 -820.661194
73.070297 56.235600 -816.516785
60.595798 58.947800 -818.158020
48.041698 62.207699 -821.858093
81.139297 54.078300 -816.554504
47.258499 62.008598 -823.104919
46.025299 61.741100 -823.848816
52.705799 59.079201 -821.124084
44.864101 61.455799 -824.682922
78.061302 53.658401 -820.862122
69.260002 55.209000 -820.545471
42.749599 61.474899 -825.712830
70.251297 54.405899 -821.608521
62.130299 56.243801 -822.883911
37.842098 61.242802 -825.816772
73.693497 53.844700 -823.410828
40.111099 60.935001 -827.373718
51.091599 58.001701 -824.239807
80.507500 51.803699 -825.216980
72.637001 52.970901 -824.148499
64.930199 54.556801 -824.878113
61.512901 55.163300 -824.813904
58.397999 55.705502 -824.712585
50.858299 57.307999 -825.631287
66.190697 53.810501 -826.010620
22.903400 61.567699 -825.536682
83.618896 50.208199 -827.857178
81.417397 50.739899 -828.372620
79.162201 50.975800 -827.675720
77.719398 51.133499 -827.256287
85.992996 49.082001 -828.640320
66.896896 52.482498 -828.247009
64.314903 52.800201 -827.633484
60.035599 53.482399 -827.230286
50.580700 55.591801 -828.715515
65.555000 52.084702 -828.711670
62.105202 52.515999 -827.917114
67.205002 51.484699 -829.819275
64.144096 51.815701 -828.924622
49.761799 54.615898 -831.385925
65.797302 50.987301 -829.914185
67.459396 50.665901 -831.036987
63.075401 51.087898 -829.638184
64.535301 50.373100 -830.317383
66.177696 49.980000 -831.266418
63.224998 50.047001 -830.837097
66.619499 49.311901 -832.686096
64.967102 49.365799 -831.752380
76.858902 55.154701 -818.335693
77.187103 55.461201 -816.908325
79.476196 56.532501 -812.882324
64.858803 60.270199 -813.116821
65.522301 62.548901 -807.067871
87.203003 61.961201 -775.136719
85.742203 62.951099 -773.233826
85.736801 62.654701 -774.706909
86.938499 62.192902 -776.582214
84.256203 63.099701 -773.598083
85.011398 62.722698 -775.990112
83.602097 63.020302 -774.879272
85.333099 62.614498 -777.482422
81.514297 64.024399 -772.321106
82.258400 63.691700 -773.524475
83.376099 62.936100 -776.335571
81.885696 63.246399 -774.888489
83.777298 62.815800 -777.753174
80.798203 63.823700 -773.596313
84.354500 62.762798 -779.129272
86.203102 62.511101 -778.677612
87.656799 62.225700 -777.859070
89.095100 61.944801 -778.093872
88.270897 61.834900 -776.097473
89.665398 61.455299 -776.103821
90.468803 61.432301 -777.334595
91.492996 60.962601 -776.347595
84.699303 63.515301 -772.232483
83.255997 63.817600 -772.330811
85.552597 62.556599 -780.017822
79.977600 64.241096 -772.477600
81.853401 63.142200 -776.331909
82.206100 63.020802 -777.767700
82.882103 62.891998 -779.096191
80.376602 63.613998 -775.007202
78.614098 64.823502 -772.304688
79.289398 64.177101 -773.763977
80.113998 63.435799 -776.430603
80.780998 63.235298 -777.767090
81.453300 63.114101 -779.094788
78.843597 63.892502 -775.166016
77.086304 65.417099 -772.100281
77.710999 64.772903 -773.465027
78.676697 63.731800 -776.652588
79.330803 63.411900 -778.002197
79.997498 63.303299 -779.326782
77.272697 64.477097 -774.876587
75.456100 65.959198 -771.856018
76.030296 65.321503 -773.125305
79.695396 63.268299 -780.758484
77.277901 64.115196 -776.353577
77.848801 63.705299 -777.849670
78.506401 63.522202 -779.179504
75.813904 64.828300 -774.529785
73.990303 66.403900 -771.797302
74.558998 65.694099 -773.043579
75.942497 64.535202 -775.970581
78.228600 63.477501 -780.648376
76.122597 64.220802 -777.386780
76.852303 63.789299 -778.897583
74.164902 65.224403 -774.404785
77.913002 63.418098 -782.084778
72.454399 66.820000 -771.754272
73.053001 66.205399 -773.040771
74.383003 64.909698 -775.886108
76.531898 63.706299 -780.318787
74.644501 64.496002 -777.316589
75.289703 64.145302 -778.646179
76.488602 63.628399 -781.818909
72.597198 65.752602 -774.374573
76.886200 63.546398 -783.242188
75.086502 63.972698 -780.081177
71.390701 66.744598 -772.736572
72.735001 65.135101 -775.696472
73.113800 64.825600 -777.130920
73.752197 64.452400 -778.468079
74.875900 63.855598 -781.556519
70.888702 66.175903 -774.012817
73.661400 64.214600 -779.906311
75.173599 63.723301 -783.017212
75.821999 63.450500 -784.362122
69.802498 66.648697 -772.572388
71.123497 65.595703 -775.408691
71.749199 65.121201 -776.747620
72.023598 64.783096 -778.212524
72.266098 64.485703 -779.648926
72.987297 64.057701 -781.176880
73.631798 63.837002 -782.513794
75.191498 63.599701 -785.696472
69.141800 66.442001 -773.899780
69.715103 65.932404 -775.142700
73.912498 63.830799 -783.958374
69.927597 65.453903 -776.502075
70.511803 65.024002 -777.751526
70.812401 64.754097 -779.194885
71.141296 64.427597 -780.616699
71.784103 64.263100 -781.942810
72.427696 64.096603 -783.270996
73.416100 63.830799 -785.312378
68.184700 66.045197 -774.931580
68.497398 65.625702 -776.340210
68.981102 65.211304 -777.651306
72.097397 64.017502 -784.700684
73.041100 63.591801 -786.754883
69.118797 64.919998 -779.075012
69.723396 64.579201 -780.405823
69.979599 64.415001 -781.816101
70.588303 64.228699 -783.140930
66.600403 66.116898 -775.034912
71.654099 63.927502 -786.136719
66.998199 65.593498 -776.390381
67.513298 65.315804 -777.807983
70.598801 64.022301 -784.618286
67.474899 64.822098 -779.251770
68.071503 64.525902 -780.580627
65.547699 65.659302 -776.190186
68.158798 64.358704 -782.021423
68.800400 64.372803 -783.417297
69.921997 64.254700 -785.873230
70.523102 64.126900 -787.196716
65.678299 65.324303 -777.651978
65.880096 64.878799 -779.097717
66.469902 64.461601 -780.435425
68.502899 64.443199 -784.892883
66.491699 64.538902 -781.924072
67.125504 64.523903 -783.323792
68.511597 64.474098 -786.386414
69.105400 64.427902 -787.700989
64.083298 65.208702 -777.224976
64.343300 64.919601 -778.705078
65.005096 64.477699 -780.219788
67.053902 64.495796 -784.768616
64.848099 64.505096 -781.670227
65.475098 64.594101 -783.064087
66.883102 64.664497 -786.206299
69.988800 64.209602 -788.913513
71.333397 63.971600 -789.374817
72.693802 63.702999 -789.853516
72.769699 63.700001 -788.182190
74.069702 63.517601 -790.341370
74.152603 63.528000 -788.692017
75.462601 63.285999 -790.845398
75.506699 63.348801 -789.213318
76.826202 63.127899 -791.361877
75.210800 63.455299 -787.168091
76.828300 63.146400 -789.785828
76.556900 63.326698 -787.786072
78.179497 62.970001 -790.401672
76.575699 63.372898 -786.070129
77.955498 63.088200 -788.283325
78.021599 63.163300 -786.425110
79.359802 62.918800 -788.557129
80.153099 62.659100 -789.822571
77.913002 63.310699 -784.350586
79.454498 62.955799 -786.788818
79.285004 63.130199 -784.905579
80.835899 62.756802 -787.340271
81.638100 62.542500 -788.599670
82.420502 62.022400 -789.830383
78.915497 63.247700 -783.116699
80.522797 62.947899 -785.625122
80.303001 63.035000 -783.466919
81.918503 62.722900 -785.976990
82.726303 62.474201 -787.232483
83.484299 62.141899 -788.411316
81.526100 62.817501 -784.258301
84.715202 61.748199 -789.212524
80.812302 63.046902 -781.757813
83.344101 62.508900 -785.681885
84.153999 62.165901 -786.937378
82.115097 62.867199 -782.363770
82.926903 62.657398 -783.617188
85.469498 61.762402 -787.543091
81.656403 63.043598 -780.537781
84.152901 62.492298 -784.377930
84.968201 62.199100 -785.631592
86.894600 61.431301 -787.747925
82.976402 62.758598 -781.073486
83.799500 62.648602 -782.330383
86.313301 61.759998 -786.166382
85.560898 62.201000 -784.268921
85.174599 62.441799 -782.726929
87.002899 61.839401 -784.451721
87.833900 61.549999 -785.706787
86.604897 62.197102 -783.051270
85.980202 62.455299 -781.425476
88.320297 61.658699 -783.883789
89.167603 61.380798 -785.131775
87.423203 62.304100 -781.515381
87.142799 62.402302 -779.834900
88.733398 61.977200 -782.164978
89.737701 61.479099 -783.632874
88.610298 62.171700 -779.861877
90.157204 61.627499 -782.101318
91.171600 61.169201 -783.567810
89.768303 61.858299 -780.702026
90.196503 61.807800 -779.076172
91.163696 61.506599 -780.468079
91.969002 61.198799 -781.625916
91.512802 61.333199 -778.407104
92.384697 61.142799 -779.649292
93.238297 60.830299 -780.862122
65.328598 64.538002 -784.518799
67.268402 64.418503 -787.587830
67.725098 66.673798 -773.565186
88.321701 61.218399 -787.025879
63.990799 64.612602 -782.962585
68.248001 64.585899 -788.956726
84.529099 62.850399 -781.086609
63.228699 65.518799 -780.334473
65.624001 65.247101 -786.626282
64.870903 66.610397 -777.584717
68.890701 67.024902 -776.359192
72.558899 65.281197 -785.498718
71.797203 67.247704 -774.561523
74.635902 65.697098 -778.273804
81.935204 63.992802 -785.198975
81.654900 64.995903 -773.664917
83.393600 64.280602 -778.678284
83.655602 64.547302 -773.980591
73.122803 64.180000 -791.201904
84.429100 64.002602 -784.033508
64.796600 66.896599 -775.908020
89.013496 63.330299 -781.128601
76.691200 66.021400 -777.073730
83.930298 64.183296 -776.955627
79.764297 65.573196 -773.634888
69.046799 67.813301 -773.113770
87.250603 63.671101 -776.382324
69.907700 65.820297 -781.210571
85.876602 63.283600 -785.255981
85.701302 63.043999 -788.383789
74.288498 64.466301 -786.452087
81.442596 63.323399 -789.795471
68.038002 67.889297 -775.490417
53.334702 62.257000 -772.347778
52.330002 62.991600 -771.148499
52.605400 61.276600 -773.142029
50.780701 62.408199 -769.914612
51.530998 61.900902 -771.717529
52.683102 60.760601 -774.500916
53.559700 60.657799 -776.586670
51.132900 60.873299 -772.669189
53.405499 60.494801 -778.054321
49.235901 63.031799 -768.932678
50.036301 61.511299 -770.885071
51.296200 60.150902 -773.915283
52.108398 60.392502 -775.822876
49.443600 62.852699 -770.351624
49.639099 60.485100 -771.878479
51.908798 59.973999 -777.260376
52.791401 60.181099 -779.336121
47.660801 63.216202 -768.089294
48.231499 61.775002 -769.499023
48.684399 60.959099 -770.603577
49.798599 59.925499 -773.280396
50.529202 59.612301 -775.020203
50.718800 59.514198 -776.519592
51.602001 59.513500 -778.605713
46.280602 62.685799 -767.006714
48.019699 59.792400 -771.234070
51.844299 59.522598 -780.264709
46.376301 62.024899 -768.345825
46.874699 60.453899 -769.589478
48.134602 59.369202 -772.605774
48.719700 59.090801 -773.996582
49.307999 58.904701 -775.390808
50.344002 58.986801 -777.827881
50.566700 58.708401 -779.281372
44.811100 62.014801 -766.411987
46.406200 59.236500 -770.281311
49.170700 58.394501 -776.809021
51.066299 58.757301 -781.242676
45.508099 59.426498 -768.973877
46.662601 58.833199 -771.707703
44.605701 61.025299 -767.483276
46.970100 58.497799 -773.129028
47.522800 58.209900 -774.435181
49.123001 57.942501 -778.191406
47.848598 58.058201 -775.882874
49.678299 57.965000 -780.160522
43.323898 61.428699 -765.957703
44.046398 59.384602 -767.734314
44.992901 58.506001 -769.980286
50.219200 58.064899 -782.182129
45.200901 58.125401 -771.413330
45.755402 57.834202 -772.717590
47.703899 57.649101 -777.262024
43.562801 58.269798 -768.533325
45.942600 57.380001 -774.106995
46.545700 57.396500 -775.508179
47.898399 57.213299 -778.660828
48.990700 57.229099 -781.199097
41.835701 60.660702 -765.310425
43.765598 57.713100 -769.940979
48.115299 56.880199 -780.096313
42.192101 58.904202 -766.988281
44.005600 57.262299 -771.287720
48.895699 57.089001 -782.673828
42.260399 57.749599 -767.875916
44.302700 56.895901 -772.667297
46.114498 56.959801 -776.878174
41.232300 59.602600 -766.093994
42.513500 57.161900 -769.183716
44.612099 56.576801 -774.081726
45.185001 56.787399 -775.401428
46.433201 56.900299 -778.292786
47.746899 56.296799 -781.370300
42.787701 56.789200 -770.628601
46.684299 56.365002 -779.658508
39.936298 59.704700 -764.879028
40.385601 58.236500 -765.987427
40.790001 57.230801 -766.969788
42.959099 56.289799 -772.019897
47.637199 56.230701 -782.815002
40.838299 56.426899 -768.237976
41.400398 56.183300 -769.546875
43.110699 55.960300 -773.502625
43.879002 56.127399 -775.265381
44.490002 56.183701 -776.671570
45.098900 56.183899 -778.075806
46.346699 55.712799 -780.977417
41.553902 55.892399 -770.963623
45.263199 55.886200 -779.498230
46.515800 55.398399 -782.405823
47.324600 55.988201 -784.235413
38.427299 58.403900 -764.533508
39.071201 56.991001 -766.083374
39.611401 56.323101 -767.356018
41.536999 55.645000 -772.463318
42.535500 55.426998 -774.746704
43.851501 55.436401 -777.740601
39.612400 55.688702 -768.704102
40.186001 55.433399 -770.013611
42.920200 55.488602 -776.189026
43.950100 55.213200 -779.189026
44.578300 55.231098 -780.596313
45.161999 55.034801 -781.915283
45.986900 55.089298 -783.761780
37.097198 57.139000 -764.695984
37.603802 56.429901 -765.862488
38.158699 55.792099 -767.131897
40.071800 55.133301 -771.421814
41.056801 54.935799 -773.622620
38.249199 55.082001 -768.441284
38.837002 54.809399 -769.752808
41.242901 54.646099 -775.063171
42.252102 54.785599 -777.278015
39.872200 54.641998 -772.828979
42.536900 54.370602 -778.658691
44.559898 54.344799 -783.073120
43.141399 54.485298 -780.162720
43.837200 54.486500 -781.661072
43.089199 61.056000 -767.332581
35.570099 56.401901 -765.096680
36.081100 55.662102 -766.276611
36.616402 55.117901 -767.505798
34.246498 55.651501 -765.160400
36.889000 54.483398 -768.807373
34.628300 54.931801 -766.372986
38.539902 54.549301 -771.143372
37.501999 54.242802 -770.161926
35.141701 54.248600 -767.549194
32.858002 55.079899 -765.081177
33.078201 54.269699 -766.347107
35.146500 53.644299 -768.883484
36.102299 53.725201 -770.051514
37.324100 53.820400 -771.544800
38.260300 53.820099 -772.689697
39.349201 53.996899 -774.019287
33.676498 53.633900 -767.515686
41.004902 54.406300 -776.465088
31.808201 54.154999 -765.565491
39.831501 53.898399 -775.375793
35.776699 53.050900 -771.323425
37.939800 53.158401 -773.965515
31.498400 53.362499 -766.755310
33.000599 52.962399 -768.595825
33.928200 52.811298 -769.731018
36.369900 52.882000 -772.714172
38.489700 53.215801 -775.300903
39.726299 53.538700 -776.808289
40.630600 53.916901 -777.909180
29.867701 53.349499 -765.496826
34.428299 52.450298 -771.077087
41.137600 53.682800 -779.255920
31.361300 52.650700 -768.035217
34.947201 52.053001 -772.416687
36.243801 52.136002 -773.997314
37.159901 52.440498 -775.111023
41.704700 53.766300 -780.638611
45.354900 55.077999 -785.075012
29.744801 52.612301 -766.733276
31.872400 52.193802 -769.330994
32.786999 51.921600 -770.448730
37.742901 52.515400 -776.479370
38.706600 52.735001 -777.650818
39.660301 52.911900 -778.810486
42.263100 53.742401 -781.971191
43.108398 54.325401 -782.993591
33.399502 51.567001 -771.802124
40.294399 52.805302 -780.181030
43.698898 53.867699 -784.312378
29.840799 51.951099 -768.021179
34.331600 51.298401 -773.497925
35.885799 51.725899 -775.384216
27.913799 52.141998 -766.230103
30.444300 51.570099 -769.317017
31.362200 51.283901 -770.437805
37.452801 52.013000 -777.837585
38.413799 52.188000 -779.004211
40.554298 52.831100 -781.599182
41.986000 53.238998 -783.335327
32.003601 50.898499 -771.764221
34.609200 50.920200 -774.934082
36.198601 51.609501 -776.857483
28.110300 51.451900 -767.484680
32.704899 50.839199 -773.085571
38.758099 52.021999 -780.434082
42.335098 53.182899 -784.769592
28.828199 51.077099 -768.735779
40.624500 52.535500 -783.079285
29.497200 50.697800 -770.001770
30.563000 50.444500 -771.302917
33.182598 50.463600 -774.491089
34.722099 50.711700 -776.361023
37.001801 51.542599 -779.122986
39.260601 51.927601 -781.866516
35.313599 50.797401 -777.674927
40.940201 52.387501 -784.488770
26.352800 50.926498 -767.566223
27.260500 50.539001 -768.674316
30.586700 50.067501 -772.720215
31.550400 50.046101 -773.890686
33.177799 49.890499 -775.869080
35.818501 50.720501 -779.062012
37.010799 51.053398 -780.504395
37.971699 51.207600 -781.668579
39.375500 51.762402 -783.364319
27.653400 49.935902 -770.008118
28.619200 49.875099 -771.181030
33.647999 49.816502 -777.284119
29.034100 49.551399 -772.591492
30.200399 49.467701 -774.004822
31.161600 49.422501 -775.169189
34.110600 49.868198 -778.731812
35.537399 50.359901 -780.450623
36.623699 50.394600 -781.765198
37.688099 50.836498 -783.046082
39.308701 51.550098 -784.995972
25.973600 49.521099 -769.692810
31.636101 49.242199 -776.529419
26.665501 49.272999 -771.034912
27.629999 49.183899 -772.198120
32.298599 48.882702 -777.826294
34.249298 49.597401 -780.164612
37.848400 50.808899 -784.480225
28.258900 48.918900 -773.629517
29.267900 48.748001 -774.854309
32.867100 48.986198 -779.212219
34.789501 49.687401 -781.532227
36.031300 49.941101 -783.033508
24.777500 48.759701 -770.316528
29.688801 48.629101 -776.255127
30.643499 48.575600 -777.409912
25.013700 48.411800 -771.758423
25.973000 48.293098 -772.915588
26.926300 48.153000 -774.066223
27.890699 48.093102 -775.228821
30.856800 48.054401 -778.802612
31.786600 48.317200 -779.919006
32.732700 48.738201 -781.052795
33.690300 48.781898 -782.205811
34.621899 49.182701 -783.322388
23.529900 48.073601 -771.054382
28.211901 48.040501 -776.681274
29.179600 48.029499 -777.844421
24.247900 47.752300 -772.800720
25.285500 47.653999 -774.046814
26.239901 47.496399 -775.193787
30.280399 47.557400 -780.039307
31.214800 47.831001 -781.155823
32.132599 48.022301 -782.253723
33.214500 48.460201 -783.544678
26.770000 47.393002 -776.639526
28.860600 47.404301 -779.142273
22.379601 47.345699 -772.309204
23.831499 47.146999 -774.047119
27.219601 47.235001 -778.093323
24.180099 46.830799 -775.422424
25.127399 46.998901 -776.548523
27.556101 46.841301 -779.445618
28.537901 46.876301 -780.615112
29.460899 47.006302 -781.712830
22.007601 46.825699 -773.628418
25.601200 46.715801 -777.904785
22.677200 46.664299 -774.987793
23.655001 46.270802 -776.645325
25.927299 46.309601 -779.338379
27.034500 46.197800 -780.652771
27.690500 46.484001 -782.024719
21.099899 46.207699 -774.880493
23.839100 45.944500 -778.121094
21.792700 46.083199 -776.221802
24.507799 45.712700 -779.431824
25.484301 45.615200 -780.585815
22.327499 45.761398 -777.537292
22.567801 45.445301 -778.951416
20.134701 45.632301 -776.843323
30.687000 47.371799 -782.476929
47.527000 57.599602 -783.703308
43.439999 55.009300 -785.249573
35.825100 49.912998 -784.538330
21.224701 45.694599 -778.480530
45.003601 62.687901 -767.731689
31.240000 48.238400 -783.486572
50.819401 63.424301 -770.944275
38.856400 59.126598 -765.716492
46.618500 61.215900 -770.801208
49.779999 59.277100 -780.814880
37.420700 58.758301 -765.786987
32.115299 55.353100 -766.466003
22.578800 48.469398 -773.783813
36.542000 51.162701 -783.971313
36.021099 52.119900 -778.237305
38.156601 52.274101 -782.778503
40.936199 54.026600 -782.669312
42.223900 55.019100 -781.289490
41.616100 55.925800 -775.750305
44.296902 55.491100 -784.129517
45.977299 56.487499 -784.491028
46.614101 56.936401 -782.066284
47.646400 57.748600 -781.158203
48.286301 58.444500 -780.035278
48.950600 58.574402 -783.242126
48.893398 58.609600 -781.777100
45.621799 60.898399 -769.002075
49.226501 59.212101 -779.057190
52.042198 61.216900 -778.590210
50.257900 60.413700 -777.552673
47.835602 59.368301 -775.284729
46.442299 58.363201 -776.809875
44.171299 56.733200 -779.031982
43.343601 55.971901 -780.325928
42.658798 56.255402 -777.381775
41.877602 55.159000 -779.851501
39.458801 53.258598 -782.547729
39.251598 53.314999 -781.120911
39.494499 52.941101 -784.187622
34.469799 50.994598 -779.675476
34.736599 50.548500 -782.716980
33.430099 50.140499 -781.217285
26.042700 46.663601 -781.596924
36.709400 52.080700 -781.499573
35.574501 51.832401 -780.430420
31.331200 51.436401 -772.931213
26.459299 51.973099 -766.504578
30.531300 54.341400 -767.380371
28.523001 53.932899 -765.512329
33.056301 56.604401 -765.085388
41.719501 57.745499 -771.163330
36.172699 58.584702 -765.009521
46.094700 63.676899 -768.077576
48.046799 63.333401 -770.067078
44.205399 60.385799 -768.819397
48.559898 60.663399 -773.093628
43.952801 59.149300 -770.838928
36.547600 53.570400 -774.225281
38.038898 54.078602 -776.575500
39.028400 54.297401 -777.954895
30.252399 52.733799 -770.694824
40.452202 54.430099 -780.374329
41.414600 55.300301 -778.457397
37.769299 55.592400 -771.821228
43.340199 56.983601 -776.297424
41.770000 56.493099 -774.114197
43.101398 57.087299 -774.522522
44.680801 58.109100 -773.851624
43.297298 58.083302 -772.410217
45.288799 57.710999 -777.792786
39.010399 55.901100 -770.705994
40.087299 55.352299 -775.748413
34.735401 53.840000 -770.674011
26.509399 48.165501 -779.851074
46.246899 58.799400 -774.776001
52.034801 62.654499 -772.862976
121.945396 66.225304 -779.838196
122.577003 64.433403 -779.838379
123.751198 64.222099 -780.751709
124.595299 63.358002 -781.566528
123.903099 64.987900 -778.448181
125.765800 62.445301 -781.912598
125.375603 63.450100 -780.077820
126.696297 62.937698 -780.368591
127.444702 62.138302 -781.672485
128.020203 62.711102 -779.737122
129.113495 62.453899 -778.831726
130.446701 61.898201 -779.042603
156.056198 42.786900 -790.043518
156.682404 41.853600 -791.014099
157.322098 40.941502 -791.990723
154.839706 43.898899 -789.413513
153.786697 45.243599 -788.876587
154.602707 42.554199 -790.667480
155.086502 41.405899 -791.570313
152.910004 46.471901 -788.546326
151.883896 47.491798 -788.013977
152.679001 44.862099 -789.761230
152.953400 43.588902 -790.494019
153.872498 44.586399 -791.080078
153.241898 42.090801 -791.320984
153.730499 40.957001 -792.223511
147.526993 55.003399 -781.626709
148.010803 54.348099 -782.932373
150.842194 48.487400 -787.898987
151.312302 46.520500 -789.073425
151.536697 44.296001 -790.540283
151.708206 42.929199 -791.194092
152.174301 41.499802 -792.171875
145.608795 55.304798 -781.032288
146.444595 54.593201 -782.505310
149.648193 49.648499 -787.498779
150.841400 45.566502 -790.131775
150.142105 47.732399 -788.961182
146.787003 53.731800 -783.737976
148.450104 50.870201 -786.786926
150.528702 42.274399 -791.823486
143.869293 55.762001 -780.955627
144.911301 55.005699 -782.278809
149.174103 48.791901 -788.739380
149.598801 46.658901 -789.890930
149.899094 44.727901 -790.846924
150.875595 41.324902 -792.990784
145.062805 54.059601 -783.372986
147.087708 51.480499 -786.312073
148.240005 50.037701 -787.976379
145.403793 53.199799 -784.521423
148.566193 47.663898 -789.599976
149.182602 42.976799 -791.786621
142.521698 56.362499 -780.968628
143.505402 55.411301 -782.372986
145.552002 51.938801 -785.823730
147.069000 50.945400 -787.676819
149.386703 41.881100 -792.886475
143.686493 54.502899 -783.593018
147.512207 49.430901 -789.070313
148.195801 46.664700 -790.632996
148.393600 45.133900 -791.314575
139.859604 60.337898 -778.368225
143.992996 53.444901 -784.723694
140.640793 60.229198 -779.593384
142.000595 56.048500 -782.276306
144.123093 52.243698 -785.616089
145.506699 51.508099 -787.249207
147.206894 48.067001 -790.047180
147.787506 43.926800 -791.926880
138.475006 60.588600 -777.629211
141.042801 56.721199 -781.427673
146.368805 50.339699 -788.798584
147.932404 42.665901 -792.758728
142.273499 55.224499 -783.478027
135.705399 61.198200 -775.398682
136.726593 60.957901 -776.501770
138.984604 59.981899 -779.479797
142.472397 54.411999 -784.675781
145.956802 49.266998 -789.739929
146.556702 47.105499 -790.997681
139.688599 59.469700 -780.727173
142.806000 53.381802 -785.690674
143.786194 52.106201 -787.059387
144.922104 51.032600 -788.524170
146.446503 44.985401 -791.873901
136.897507 60.565800 -777.948792
139.574600 57.072399 -781.673889
140.507797 56.568298 -782.759827
146.444901 43.707401 -792.544128
140.920807 55.662102 -783.802185
134.350693 61.513100 -775.968201
135.259903 60.971100 -777.034729
137.232407 60.079601 -779.264893
144.665497 50.088100 -789.616028
145.259003 48.425499 -790.696411
137.783707 59.469398 -780.483276
141.030594 54.915001 -785.051819
142.423599 52.890598 -787.032288
143.531204 51.719700 -788.478882
145.107697 47.051300 -791.415222
138.151505 57.755199 -781.835388
139.180206 57.041302 -783.067505
141.352997 53.904099 -786.143921
145.190704 45.798500 -792.323975
147.130295 40.731899 -795.729919
147.657700 39.594398 -796.585999
148.096207 38.393600 -797.372009
148.758102 37.391499 -798.322693
149.337906 36.210300 -799.243774
135.063705 60.595402 -778.476379
139.548599 56.169800 -784.220215
144.014893 49.173698 -790.691223
