88.568199 66.426201 -723.600891
90.638199 65.159897 -724.975220
91.330399 64.192497 -725.469421
91.932503 63.606499 -725.882996
92.565498 63.216499 -726.303406
93.503899 62.802700 -726.916199
94.143097 62.417000 -727.340210
96.001999 61.283600 -728.574097
96.660103 60.977402 -729.004822
97.323997 60.707600 -729.437012
100.628899 57.925999 -731.679382
101.211304 57.397598 -732.077087
84.468399 68.432297 -721.363098
85.674797 68.451698 -722.116821
86.349701 68.035599 -722.565674
87.312202 66.717201 -723.252380
88.859703 65.966698 -724.268677
89.477600 65.572403 -724.680725
94.445602 61.883202 -728.025330
97.652000 60.311401 -730.132385
98.361298 59.677399 -730.616699
99.017899 59.255402 -731.054626
99.588097 58.697800 -731.447083
101.534203 56.368999 -732.813782
87.700600 66.411301 -723.951172
89.748398 65.040604 -725.323486
90.261597 64.422897 -725.684998
90.864601 63.871498 -726.098572
91.706497 63.363998 -726.659119
92.352798 63.073601 -727.083130
93.122902 62.547298 -727.599915
94.842796 61.606499 -728.739014
95.784203 61.122299 -729.360413
96.435600 60.758598 -729.792175
99.911301 58.328701 -732.128113
100.320999 57.638000 -732.429382
100.820602 57.047401 -732.780701
83.330498 68.145103 -721.452698
84.571297 68.332603 -722.218872
85.262001 68.009399 -722.672913
85.860703 67.583702 -723.075928
86.361702 67.015900 -723.426575
88.073196 65.991699 -724.566101
93.596603 62.167599 -728.276611
97.411201 59.914001 -730.814270
86.762100 66.528603 -724.031921
88.480202 65.503601 -725.174194
94.033203 61.719799 -728.896179
94.987503 61.368698 -729.516724
96.575203 60.450802 -730.570374
97.869301 59.529598 -731.440430
98.521103 59.064301 -731.878723
99.098801 58.598499 -732.270508
81.250999 68.420197 -720.769287
81.978302 68.279503 -721.233704
83.612297 68.148300 -722.265320
87.243500 66.135803 -724.668274
88.786301 64.925598 -725.711975
89.377602 64.336098 -726.120117
90.007004 63.973400 -726.537476
90.646103 63.661701 -726.957825
91.276703 63.277199 -727.377319
91.912003 62.909401 -727.798706
92.550102 62.545200 -728.221680
95.420898 60.978901 -730.119812
99.375099 58.013100 -732.786377
99.859901 57.294601 -733.135986
100.362396 56.741402 -733.486206
82.575699 68.126602 -721.891113
84.101700 67.830498 -722.864990
84.790100 67.485901 -723.317871
85.392998 67.075699 -723.721619
87.636200 65.639900 -725.217529
85.879097 66.561798 -724.263428
92.866600 62.090401 -728.918579
94.098099 61.532200 -729.724182
95.753403 60.584400 -730.819824
96.543701 60.062801 -731.347412
80.389900 68.364601 -720.875977
87.972198 65.189400 -725.817993
97.095497 59.641399 -731.874512
97.753601 59.269699 -732.309509
98.318497 58.700199 -732.698975
81.209099 68.169403 -721.586182
82.882698 67.850998 -722.653320
86.259102 66.110497 -724.875977
88.488197 64.482201 -726.373901
89.253403 64.028503 -726.881409
91.790298 62.608101 -728.558594
94.515297 61.180099 -730.353882
81.769897 67.939499 -722.157227
83.921402 67.360298 -723.540222
84.522797 66.947601 -723.942688
86.797699 65.720398 -725.444275
89.808998 63.680698 -727.458191
90.443497 63.337101 -727.877075
91.070602 62.926701 -728.295471
93.134300 61.799301 -729.658630
98.587700 58.088100 -733.306885
99.078796 57.485901 -733.652527
85.077698 66.597504 -724.513916
94.867996 60.797600 -731.001587
95.814903 60.336300 -731.622681
79.302399 68.207703 -721.012878
80.338203 68.081100 -721.667419
83.013702 67.467003 -723.376282
87.073097 65.237801 -726.051270
92.036301 62.326302 -729.333618
93.534203 61.483700 -730.322021
96.362000 60.028400 -732.179199
97.472900 58.799702 -732.950378
80.868202 67.846497 -722.258972
81.957001 67.615303 -722.952698
85.391197 66.179604 -725.185486
87.493401 64.735199 -726.588196
88.316597 64.183403 -727.136597
96.655701 59.401001 -732.640686
78.435799 68.126900 -720.994385
83.286201 67.003197 -724.091370
83.989700 66.725304 -724.547913
85.850998 65.719704 -725.772888
88.808998 63.856300 -727.736511
89.510498 63.462002 -728.199097
90.136398 63.053799 -728.615479
90.852097 62.722900 -729.082886
92.268997 61.899899 -730.018982
93.768402 61.027699 -731.009827
94.928299 60.436699 -731.770874
97.643600 58.314201 -733.599487
98.208397 57.695400 -733.991089
79.248100 67.930801 -721.812988
82.232803 67.341698 -723.714783
84.461998 66.342796 -725.170898
86.231697 65.217201 -726.348083
92.687302 61.503799 -730.617004
95.341301 59.913898 -732.375977
77.363098 68.095299 -720.957397
79.793198 67.734901 -722.499329
80.609200 67.649696 -723.014771
81.319397 67.421501 -723.473328
84.809601 65.881599 -725.753113
86.572701 64.678299 -726.932129
87.186996 64.254997 -727.343018
91.028397 62.445999 -729.859619
93.939499 60.662998 -731.793091
95.736099 59.522202 -732.989014
96.295502 58.954498 -733.374817
77.889702 67.911201 -721.648987
82.229202 66.877701 -724.424988
82.954803 66.715599 -724.888489
83.649498 66.387802 -725.343384
85.227600 65.483101 -726.386719
87.717796 64.030098 -728.034790
88.352501 63.711399 -728.451477
88.982498 63.349098 -728.868225
89.607002 62.933300 -729.284729
91.373001 61.907501 -730.453186
92.820999 61.264900 -731.398621
94.404999 60.391499 -732.443604
96.582298 58.349602 -733.933899
97.277199 58.320202 -734.369812
76.182297 67.939796 -720.938782
78.369904 67.707497 -722.317078
81.427597 67.072502 -724.263306
85.587799 64.968300 -726.990479
90.080803 62.539001 -729.945984
91.872803 61.658798 -731.119080
94.642403 59.776798 -732.965515
97.197403 57.466900 -734.705505
76.690201 67.855202 -721.647095
78.820602 67.489098 -722.996826
79.570297 67.437103 -723.466919
80.278297 67.190102 -723.923401
83.595901 65.914803 -726.070496
84.295502 65.590401 -726.526794
85.841301 64.432098 -727.563416
86.571999 64.248802 -728.030029
90.452301 62.167400 -730.578979
92.814598 60.894199 -732.131226
93.450996 60.435101 -732.556824
94.930901 59.199600 -733.557190
95.495796 58.686001 -733.941772
96.414703 57.783401 -734.571716
75.416901 67.845398 -721.252014
77.103798 67.608101 -722.317688
80.661598 66.792999 -724.585510
81.381699 66.596001 -725.046509
82.092598 66.350304 -725.505005
82.804703 66.106102 -725.964172
84.674103 65.119102 -727.191711
86.979797 63.909698 -728.705078
87.605103 63.529999 -729.119019
88.231102 63.139400 -729.533813
88.860100 62.753300 -729.950378
90.851898 61.693802 -731.258728
91.632500 61.220402 -731.775330
93.616096 59.833302 -733.099609
75.924500 67.750298 -721.944275
77.595901 67.373100 -723.009827
79.515999 67.091301 -724.223877
83.457703 65.499298 -726.781677
84.972603 64.616898 -727.782288
89.355202 62.450001 -730.651794
92.039803 60.773102 -732.432129
92.679901 60.354000 -732.857788
93.866699 59.294601 -733.665405
95.214104 58.142899 -734.578918
78.106201 67.190598 -723.681885
82.033600 65.927200 -726.207703
83.853996 65.088699 -727.394775
85.382004 64.254303 -728.399597
86.099602 63.991699 -728.863220
89.770203 62.043098 -731.273376
94.195297 58.644199 -734.246826
74.840302 67.480400 -721.929321
76.092499 67.398499 -722.713074
78.689598 67.052597 -724.349976
79.591499 66.636398 -724.937622
80.312103 66.437401 -725.398376
81.022003 66.184097 -725.856201
82.495697 65.545303 -726.813599
86.476402 63.485699 -729.421326
87.188797 63.166801 -729.884705
87.914200 62.921001 -730.351624
88.549004 62.572201 -730.768677
90.242104 61.567902 -731.886230
90.870499 61.108799 -732.306396
92.701698 59.766399 -733.531372
95.420898 58.495899 -735.304016
76.682297 67.189499 -723.332397
82.977600 65.145203 -727.374878
84.027100 64.634003 -728.059814
91.290298 60.621899 -732.830322
91.949799 60.363602 -733.256714
93.036903 59.149899 -734.010315
94.311401 58.075199 -734.871216
77.304298 66.993599 -723.911377
88.871498 62.157600 -731.398621
75.190804 67.393799 -722.697083
81.258797 65.750198 -726.559326
84.483597 64.225800 -728.653625
85.269203 63.912201 -729.159973
78.754898 66.603104 -725.043701
89.353203 61.690701 -731.910400
93.350197 58.596199 -734.579529
77.826897 66.860497 -724.541687
79.267197 66.185600 -725.555420
80.157501 66.053200 -726.114075
83.182297 64.730003 -728.068176
87.124496 62.755798 -730.630676
75.686501 67.120102 -723.388672
81.720901 65.405502 -727.221924
85.742401 63.573700 -729.820496
86.371002 63.214802 -730.231323
87.794899 62.542999 -731.152893
89.968697 61.151299 -732.583130
91.787598 59.765301 -733.794006
93.822502 59.329102 -735.077576
90.496101 60.688000 -733.067627
92.228897 59.160801 -734.232910
76.196999 66.928299 -724.020325
82.148697 64.981300 -727.807495
83.559601 64.345596 -728.716370
91.041298 60.135899 -733.589478
74.618500 67.098701 -723.245483
76.769997 66.585503 -724.599609
77.803703 66.393997 -725.246704
80.242897 65.599297 -726.795593
84.464104 64.042801 -729.487488
88.035797 61.990799 -731.812073
78.293900 65.955902 -725.827271
79.027298 65.791298 -726.287781
80.758400 65.253700 -727.384277
82.450104 64.493401 -728.470825
86.384003 62.882000 -730.987610
88.562103 61.581600 -732.407104
92.347000 58.708500 -734.913025
74.901001 66.677498 -723.957886
81.232300 64.845001 -727.954224
84.771896 63.661098 -730.198486
85.477097 63.304798 -730.653381
86.880898 62.512299 -731.564209
88.971001 61.089401 -732.935913
89.612999 60.724300 -733.352478
90.232002 60.178600 -733.766724
91.002701 59.578098 -734.277283
75.502701 66.477097 -724.545776
76.831299 66.208702 -725.375977
79.346603 65.383400 -726.968079
82.900299 64.317902 -729.211121
83.624901 64.087303 -729.669312
91.396500 59.007500 -734.750305
73.971397 66.693199 -723.773804
77.425598 65.881104 -725.938904
79.932503 64.997704 -727.528992
87.250298 62.085602 -732.192017
75.891701 66.085899 -725.171875
77.992996 65.454498 -726.498901
81.524902 64.662201 -728.711975
87.760101 61.638599 -732.723206
80.417603 64.933098 -728.226013
82.068100 64.343498 -729.274780
83.878304 63.757900 -730.421204
85.436501 63.016800 -731.423279
86.070602 62.678200 -731.833374
90.103104 59.782600 -734.489380
74.025101 66.298203 -724.490479
74.716499 66.029503 -724.930908
76.177803 65.639397 -725.850220
78.362099 65.130096 -727.219482
79.107697 65.005898 -727.683716
82.676498 63.985001 -729.933228
84.424301 63.457699 -731.036621
88.043602 61.137402 -733.400574
88.691002 60.819000 -733.817322
89.316299 60.337399 -734.230896
75.164803 65.610703 -725.554993
76.677696 65.281898 -726.500183
80.742599 64.777397 -729.015381
86.288597 62.292900 -732.562988
86.922897 61.930199 -732.973877
72.757698 64.772301 -724.511475
73.360397 65.282997 -724.846008
77.157600 65.217903 -727.166077
79.347099 64.970497 -728.517578
81.179901 64.511703 -729.665222
81.896103 64.240501 -730.119629
82.884300 63.774799 -730.752380
83.595200 63.457401 -731.206604
84.522003 63.045799 -731.798523
85.236198 62.725498 -732.254883
87.385498 61.739700 -733.629578
73.844398 65.237701 -725.537170
74.537102 65.093597 -725.968506
75.305397 65.027199 -726.440796
77.653702 65.200897 -727.859985
78.411003 65.125603 -728.326172
79.800697 64.761398 -729.196411
87.539597 61.024899 -734.153381
88.161003 60.532799 -734.563782
71.983200 64.923500 -724.819519
75.809601 65.111702 -727.135010
80.266197 64.506104 -729.885681
81.931099 63.958199 -730.934326
83.651604 63.270100 -732.025879
85.274300 62.417999 -733.068726
85.911797 62.080299 -733.478577
86.531700 61.623901 -733.885498
72.512299 64.842300 -725.497986
76.383797 65.183601 -727.828674
78.501503 64.941299 -729.131470
80.755402 64.263298 -730.545715
82.424599 63.725399 -731.595276
84.139999 62.993500 -732.685730
88.303703 60.584499 -735.373718
73.037102 65.020302 -726.122498
73.803497 65.011703 -726.588379
74.571602 64.955200 -727.058472
76.909798 65.108101 -728.468323
77.666801 65.023399 -728.933472
79.002098 64.754204 -729.762024
86.753502 61.562000 -734.677429
87.379898 61.122799 -735.086487
71.547600 64.850502 -725.556030
75.147400 64.961197 -727.735779
79.539703 64.512497 -730.433777
80.974098 63.969501 -731.340881
82.644798 63.425900 -732.391479
84.365700 62.706600 -733.484070
85.080200 62.377201 -733.939819
85.796501 62.047901 -734.396484
88.571404 60.515800 -736.182800
72.034798 65.033501 -726.203796
75.638100 64.916397 -728.401917
77.861702 64.805901 -729.760925
79.989197 64.257004 -731.090088
81.436203 63.769100 -732.001770
83.107697 63.223999 -733.053589
87.598396 61.011002 -735.928894
89.052399 60.380600 -736.854187
70.188400 64.512802 -725.500305
72.554001 65.212601 -726.891479
73.318604 65.205498 -727.356384
74.084297 65.171600 -727.823914
76.170303 64.887100 -729.109985
76.938301 64.845497 -729.579285
78.366402 64.639397 -730.460571
83.513000 62.921600 -733.700623
85.882202 61.893200 -735.207825
86.522499 61.556999 -735.619019
70.614799 64.871597 -726.115112
74.592003 65.069099 -728.515015
78.835403 64.390099 -731.134216
80.078300 64.039703 -731.911316
81.521500 63.522400 -732.820984
82.261200 63.349400 -733.281189
83.982803 62.631699 -734.372925
84.617996 62.291000 -734.780823
87.708298 60.848301 -736.750671
89.190697 60.400002 -737.679626
71.130203 64.869301 -726.785522
75.115601 64.882202 -729.197327
77.006798 64.595497 -730.361084
80.565498 63.815498 -732.567017
86.688301 61.293900 -736.439880
88.213997 60.641800 -737.406616
71.732399 64.934998 -727.457520
72.494797 65.112900 -727.907227
73.259903 65.115303 -728.370178
75.645302 64.818298 -729.833679
77.502296 64.397202 -730.985474
78.995697 64.119400 -731.908020
82.408897 62.975800 -734.049500
83.129402 62.688099 -734.504578
84.876999 62.070702 -735.603271
85.608200 61.819901 -736.062500
89.476997 60.306499 -738.504272
69.736603 65.004303 -726.482971
73.867996 65.030403 -728.982971
78.074699 64.195602 -731.585388
80.788597 63.438301 -733.278687
81.514198 63.187698 -733.734680
83.782997 62.484001 -735.155029
87.036201 61.119598 -737.215027
76.097198 64.650101 -730.550110
79.403801 63.763901 -732.609314
88.370697 60.559799 -738.246216
70.223801 64.883301 -727.188416
74.361900 64.878998 -729.691406
76.684799 64.479301 -731.122620
85.827904 61.599400 -736.841370
87.487503 60.831299 -737.895508
68.735703 64.947304 -726.529724
70.802299 64.908501 -727.781372
71.569702 64.788002 -728.253174
72.409103 65.005501 -728.746277
74.947403 64.732903 -730.298523
78.332603 63.974899 -732.394287
79.808098 63.597099 -733.310974
82.300697 62.856899 -734.866089
83.968903 62.232201 -735.915527
84.779602 61.993500 -736.421082
88.813301 60.565899 -738.952881
69.289803 64.927902 -727.179077
72.967598 64.866699 -729.403809
77.013901 64.232903 -731.888672
80.313698 63.278500 -733.943787
81.216698 63.130901 -734.498779
82.809998 62.534000 -735.500122
86.178703 61.393700 -737.609009
73.524597 64.727097 -730.089478
75.146103 64.499100 -731.082703
75.845200 64.347198 -731.514404
78.568901 63.748199 -733.196777
85.023300 61.754299 -737.221619
86.711700 61.176899 -738.278076
87.436501 60.854000 -738.736572
69.493698 64.707703 -727.991577
70.260300 64.694801 -728.454773
71.027901 64.621696 -728.922729
71.794998 64.642998 -729.383972
74.025299 64.528503 -730.736877
77.184303 63.990101 -732.677979
79.103500 63.493999 -733.868530
81.387703 62.866699 -735.287781
82.979897 62.249599 -736.288879
83.725601 62.080101 -736.750000
72.300903 64.514801 -730.052429
76.014099 64.094002 -732.320129
77.656097 63.754799 -733.333008
79.581703 63.283501 -734.525818
80.293297 62.956402 -734.976624
81.860703 62.621899 -735.944214
84.209999 61.884800 -737.410217
85.152100 61.497700 -738.004089
85.903999 61.354000 -738.467224
68.461304 64.834099 -728.093384
70.301697 64.330399 -729.237427
71.069603 64.338402 -729.700195
72.835701 64.396202 -730.762024
74.145500 64.306396 -731.558289
74.842903 64.175400 -731.987915
78.160301 63.516998 -734.033203
80.703903 62.523602 -735.633911
68.896103 64.617699 -728.770020
71.582901 64.305298 -730.412292
75.288597 63.926498 -732.674011
76.029198 63.797699 -733.129517
76.781998 63.670200 -733.592285
78.637802 63.234299 -734.741272
82.468300 62.148899 -737.125122
83.198997 61.897400 -737.582825
84.197403 61.580299 -738.206421
67.868401 64.503899 -728.614380
69.248001 64.297600 -729.460022
70.170403 64.125198 -730.027588
72.012703 64.246399 -731.130615
72.780701 64.269402 -731.592224
73.478996 64.054802 -732.027527
77.193802 63.465500 -734.306519
79.034798 62.954102 -735.450500
79.790100 62.838799 -735.913574
80.670799 62.724400 -736.452209
68.283997 64.472504 -729.388123
70.589401 63.996201 -730.808228
73.827698 63.830502 -732.769409
74.527802 63.674500 -733.201416
75.229202 63.526798 -733.633728
75.997200 63.454300 -734.101013
77.510597 63.228298 -735.027527
68.572304 64.177498 -730.146729
69.264297 63.971699 -730.577026
70.955299 64.005699 -731.592285
71.724403 64.010803 -732.054810
72.495201 63.958599 -732.522217
76.257103 63.181301 -734.838074
77.861504 63.013401 -735.814819
78.596703 62.800400 -736.271484
79.362396 62.735199 -736.736694
80.132004 62.694099 -737.202576
69.584801 63.855900 -731.357117
72.746002 63.678398 -733.269714
73.446503 63.493698 -733.703430
74.148300 63.325901 -734.136597
74.889999 63.188999 -734.591675
76.566803 62.982498 -735.613770
80.459503 62.593300 -737.980530
68.606796 63.829899 -731.313721
69.916496 63.667198 -732.111328
70.686600 63.677601 -732.572998
71.457298 63.663502 -733.036804
75.194000 62.916100 -735.331421
76.893898 62.815800 -736.359070
77.597702 62.821899 -736.781372
78.349403 62.688801 -737.241821
79.102600 62.564301 -737.702576
69.054802 63.904701 -732.052124
71.839104 63.334400 -733.760925
72.613998 63.261501 -734.230713
73.314697 63.128300 -734.659973
75.538803 62.633499 -736.027771
79.583000 62.572601 -738.457825
80.368896 62.476398 -738.935791
69.423500 63.431301 -732.729797
70.195297 63.389599 -733.195129
70.968300 63.327301 -733.662476
75.988899 62.533199 -736.724609
76.693604 62.535900 -737.146729
77.403503 62.570099 -737.569824
78.287201 62.700500 -738.090515
71.592697 63.025902 -734.488281
72.520897 63.038601 -735.043213
78.732399 62.514702 -738.796814
79.584999 62.507500 -739.307678
70.244499 63.337299 -734.092224
72.951401 63.222900 -735.719116
70.674698 62.904202 -734.776489
71.576500 62.770000 -735.325012
90.571701 59.121201 -734.861877
92.538300 60.748402 -733.715271
102.942703 56.580700 -730.296814
87.005501 67.563904 -722.726013
74.417702 62.720001 -735.128479
77.182999 63.029099 -738.287170
98.169296 57.200100 -734.659302
103.421097 57.302502 -731.648621
98.695801 61.022701 -728.573608
94.602898 64.720901 -724.372375
76.584297 64.688499 -732.462708
71.621803 65.532700 -731.811829
78.482903 68.894203 -724.423279
71.345596 65.983803 -732.476807
76.476097 68.862801 -723.504089
75.414497 66.570297 -726.234375
77.779701 66.872597 -725.967773
80.628098 65.913002 -727.881897
78.762001 63.297298 -739.062317
86.076302 65.764801 -724.109375
93.923798 64.817802 -723.556702
57.670601 59.661301 -689.313171
58.349800 60.068501 -689.739014
59.010899 60.346001 -690.162109
59.480999 60.687599 -690.823914
60.002300 61.062801 -691.458374
57.243698 59.743198 -690.080505
57.982101 59.985699 -690.557678
58.655399 60.373901 -690.980591
60.415100 61.480598 -692.078979
61.150799 61.845699 -692.545410
59.051102 60.658001 -691.736206
61.541100 62.157398 -693.289978
56.690399 59.506199 -690.836792
57.365200 59.852600 -691.260193
58.025398 60.098999 -691.681274
59.366299 60.855202 -692.517700
59.969101 61.386700 -692.879700
60.642502 61.883999 -693.291077
61.719700 62.605301 -693.954712
62.445702 62.947498 -694.412476
58.445099 60.337002 -692.463501
61.037498 61.951801 -694.064514
62.645500 63.476299 -695.019104
56.617001 59.506401 -691.681274
57.295799 59.884499 -692.103271
59.296700 60.878399 -693.356506
59.891998 61.334599 -693.717529
61.612801 63.060299 -694.731323
61.282902 62.295200 -694.815979
62.879799 63.757198 -695.767212
57.656502 60.103699 -692.839172
58.405102 60.447498 -693.309814
60.246700 61.558998 -694.448181
56.082401 59.246201 -692.274475
56.756401 59.557400 -692.697083
59.123199 60.940899 -694.159729
61.538399 62.476002 -695.643188
62.998501 64.178299 -696.483582
57.110500 59.865898 -693.412109
57.783798 60.210999 -693.830017
59.542400 61.179001 -694.916687
60.220901 61.696899 -695.325378
61.891800 62.921101 -696.335571
63.294701 64.673897 -697.130798
64.031898 67.553299 -697.405518
55.825199 59.288101 -693.067627
58.190701 60.513199 -694.530518
60.615299 61.952202 -696.016479
64.411797 67.902603 -698.073120
56.296600 59.666000 -693.707886
58.721100 60.793499 -695.214111
61.000999 62.458199 -696.586304
61.915100 63.124401 -697.136597
64.891800 68.000504 -698.731384
56.818699 59.921700 -694.319214
59.245201 61.157902 -695.818420
63.373402 67.467003 -698.064270
55.212502 59.192299 -693.674316
57.311699 60.103401 -694.981689
59.745998 61.499001 -696.473328
60.343899 62.014801 -696.827026
61.255699 62.603100 -697.380981
62.190102 63.446301 -697.931213
65.131500 68.185303 -699.512512
55.649200 59.357800 -694.385193
57.692299 60.528801 -695.634521
58.362000 60.879501 -696.046509
64.049202 67.567101 -699.275574
65.595901 68.216904 -700.238586
56.065899 59.639099 -695.095276
58.777000 61.229599 -696.745178
59.695999 61.778999 -697.303711
60.363602 62.214699 -697.706787
61.207699 62.927601 -698.204712
64.488098 67.620003 -700.000305
66.044800 68.468903 -700.952271
56.455399 59.898399 -695.771423
57.509998 60.809299 -696.390076
61.525700 63.455299 -698.806091
62.065498 64.356400 -699.091370
62.576900 64.970596 -699.379028
63.153400 65.486900 -699.715881
63.629398 66.743896 -699.934021
64.983902 67.746696 -700.740906
66.533600 68.544701 -701.689392
54.807201 59.320900 -695.198425
56.826599 60.201599 -696.442078
57.880501 61.146099 -697.056213
58.634899 61.580101 -697.513184
59.620201 62.015900 -698.119629
60.279800 62.371601 -698.520874
64.040298 66.967499 -700.623108
65.614098 67.943901 -701.571411
67.003899 68.643303 -702.420715
55.284000 59.513401 -695.889709
60.691601 62.901600 -699.139221
61.538200 63.703800 -699.628174
62.061100 64.417397 -699.914490
64.558899 67.200302 -701.327271
55.843899 59.789398 -696.517395
56.966301 60.561298 -697.186523
58.832298 61.786800 -698.302979
62.392300 65.119797 -700.361572
63.261398 66.483902 -700.824524
65.793404 68.183098 -702.336914
67.249901 68.779404 -703.234375
57.798901 61.266300 -697.901611
59.473499 62.282001 -698.909119
63.850399 66.701500 -701.415588
64.964104 67.503998 -702.076599
66.365097 68.279297 -702.924683
54.484901 59.482601 -696.195129
56.147499 60.099602 -697.219971
59.896900 62.770000 -699.440186
60.647701 63.310200 -699.884277
55.018700 59.725601 -696.867981
56.898399 60.808701 -697.994873
58.084202 61.533798 -698.702698
61.115002 63.786499 -700.483521
61.635502 64.448402 -700.769775
62.396801 65.288803 -701.197571
62.903900 65.899300 -701.478882
64.123901 66.965897 -702.184387
65.297699 67.543900 -702.895020
66.629799 68.437798 -703.684570
67.324097 68.812798 -704.102478
58.521198 62.024200 -699.218018
63.389900 66.371902 -702.023010
65.767899 67.951401 -703.431580
56.194199 60.380100 -698.043274
57.306900 61.103199 -698.703491
59.107700 62.534401 -699.753479
59.872700 63.181099 -700.196777
64.564499 67.086800 -702.920105
55.287998 59.987598 -697.643127
60.291901 63.686100 -700.756104
61.632301 64.878502 -701.528076
66.733398 68.348198 -704.540771
67.428398 68.744003 -704.956604
54.369598 59.772999 -697.494324
56.472099 60.680500 -698.770813
57.583302 61.429699 -699.426575
60.810902 64.098503 -701.297180
62.144100 65.299599 -702.062927
62.729000 65.932503 -702.391479
63.533100 66.493202 -702.864807
64.952797 67.285797 -703.714172
65.897598 67.932297 -704.271179
55.421101 60.264702 -698.422729
58.069500 62.019600 -699.984009
59.020100 62.909000 -700.526428
56.702499 61.139702 -699.430420
57.329800 62.599602 -699.727417
59.518501 63.362598 -701.063599
63.866501 66.735298 -703.589417
67.583504 68.739098 -705.809509
68.816597 71.235802 -706.419189
54.465199 59.916901 -698.308472
59.997501 63.837700 -701.547424
60.905201 64.485100 -702.078491
65.086998 67.395599 -704.530518
66.030602 68.075996 -705.081970
66.728104 68.481796 -705.496521
69.374802 71.479401 -706.968811
55.625000 60.699501 -699.164795
57.244202 61.758900 -700.118530
58.115200 62.605400 -700.612671
61.362900 65.067802 -702.502686
62.014000 65.537697 -702.883179
62.662498 66.025299 -703.260925
64.331299 67.065903 -704.247314
69.887703 71.324501 -707.629883
54.719799 60.328701 -699.019409
58.494900 63.161900 -701.212280
63.080299 66.365700 -703.891724
68.217201 70.822403 -706.835571
55.722301 61.152802 -699.923523
56.461800 62.906898 -700.273071
57.189201 62.316399 -700.769775
58.954601 63.560398 -701.798584
59.937099 64.107903 -702.380676
63.587700 66.638901 -704.510925
64.996597 67.302597 -705.353699
65.944702 68.077599 -705.899170
66.640297 68.438202 -706.313110
67.327599 68.669403 -706.730286
54.904400 60.672199 -699.816223
56.116299 61.569599 -700.518188
57.345699 63.589199 -701.157715
60.330799 64.752403 -702.955627
60.982601 65.174004 -703.337219
61.632599 65.618896 -703.716125
62.277901 66.049599 -704.093079
64.088799 66.864601 -705.176514
68.315903 70.394798 -707.599121
69.001099 70.938202 -707.993713
69.747299 71.119003 -708.450317
57.210499 62.657600 -701.526001
57.807899 63.148701 -701.868530
58.980400 64.000397 -702.547729
62.714699 66.356201 -704.734619
65.150101 67.597900 -706.180115
67.520103 68.764099 -707.589417
70.223701 71.169899 -709.127075
53.999100 60.391800 -700.061829
54.932400 60.863800 -700.615295
56.152199 61.860901 -701.313904
58.212898 63.622700 -702.489197
59.446301 64.346901 -703.214172
63.233799 66.588303 -705.439026
64.181900 67.139702 -705.996582
65.587898 67.892197 -706.827820
66.210800 68.282898 -707.192200
67.765198 69.576103 -708.081116
68.377403 70.007401 -708.436218
68.988403 70.522400 -708.785217
55.359699 61.392899 -701.216919
56.564999 62.319099 -701.910889
59.916801 64.779701 -703.848511
60.502800 65.344101 -704.178589
61.220798 65.663498 -704.607178
61.868198 66.118698 -704.982727
66.715202 68.515602 -707.859985
69.478699 70.707901 -709.446777
70.302299 71.038696 -709.940796
54.172199 60.594799 -700.895325
56.939999 62.779999 -702.486511
57.535999 63.265900 -702.828125
58.378601 63.930500 -703.312500
62.358898 66.455299 -705.640686
63.378300 66.872803 -706.251770
64.316200 67.296501 -706.811523
67.184502 68.866501 -708.505310
67.881599 69.512398 -708.899902
68.566902 69.925598 -709.302185
71.182602 69.901802 -710.940979
54.534698 61.073898 -701.469788
55.464199 61.585800 -702.019226
58.719002 64.444397 -703.873718
64.839401 67.559402 -707.507324
65.541298 67.988800 -707.919312
69.069000 70.158401 -709.989319
69.748001 70.588699 -710.387024
70.420998 70.836700 -710.792603
55.832100 62.065498 -702.597412
56.695202 63.642899 -703.036926
57.632999 63.634998 -703.625122
59.139999 64.872803 -704.489929
59.862801 65.206902 -704.921326
60.588200 65.623100 -705.349182
61.235600 66.079903 -705.725525
62.496399 66.623100 -706.480713
63.511299 67.016800 -707.091370
66.069397 68.167999 -708.620483
67.303497 68.962997 -709.342773
67.991501 69.383301 -709.746887
70.926697 70.698898 -711.501770
53.682301 60.470200 -701.755188
54.640999 61.209301 -702.307983
55.207699 62.834301 -702.558899
56.137798 62.684601 -703.150574
56.796600 62.993801 -703.543213
58.066101 64.053802 -704.270020
63.984699 67.291702 -707.767517
66.534103 68.453400 -709.288879
68.445702 69.567703 -710.414185
69.127602 69.984802 -710.814270
69.805801 70.390999 -711.212830
55.098000 61.586601 -702.993225
58.433899 64.524101 -704.890625
59.103199 65.126801 -705.270508
59.898300 65.420097 -705.748718
61.269402 66.324898 -706.547913
62.522099 66.784698 -707.301392
64.459602 67.419998 -708.471680
65.161400 67.845901 -708.883118
67.319199 69.120300 -710.150391
70.933601 70.592499 -712.315186
53.414501 60.961201 -702.409302
55.472401 62.101101 -703.624084
56.070400 62.571899 -703.968079
56.750999 63.126301 -704.358582
57.057098 63.907398 -704.500122
60.301399 65.720398 -706.414185
62.986000 67.041702 -708.009583
65.613098 68.084297 -709.586792
66.531998 68.460701 -710.137695
67.756500 69.206398 -710.856201
68.510597 69.410400 -711.315002
69.190399 69.766899 -711.717712
69.869301 70.291100 -712.108887
53.926498 60.946602 -703.122986
56.189400 63.850300 -704.355286
57.523899 63.962502 -705.184875
58.436501 64.663002 -705.712219
59.094398 65.162903 -706.092712
61.254799 66.398003 -707.367981
63.432999 67.184303 -708.683289
64.430801 67.425201 -709.293579
70.883400 70.439400 -713.146179
54.361301 61.379700 -703.717224
56.836201 63.372700 -705.141296
60.434399 65.817001 -707.241028
61.787701 66.650299 -708.036194
64.951797 67.682297 -709.954529
65.722397 68.086502 -710.411804
66.641701 68.566597 -710.957581
68.608597 69.291100 -712.144714
69.286697 69.640999 -712.547485
69.962898 70.100502 -712.942078
54.813702 61.736900 -704.323975
55.483002 62.119999 -704.718628
56.017799 62.780499 -705.011230
57.707802 64.235397 -705.976624
59.273201 65.459900 -706.878601
62.272400 66.872902 -708.666809
67.112198 68.838402 -711.572693
71.090599 70.517502 -713.957275
71.757797 70.939499 -714.348083
57.042999 63.633801 -705.919373
58.215199 64.647003 -706.588074
60.695702 65.950699 -708.057495
62.818802 67.041702 -709.316772
63.513699 67.281403 -709.736511
67.641098 68.920303 -712.215515
70.196297 69.995300 -713.746277
53.908298 61.266602 -704.392395
55.885300 63.623600 -705.478088
59.600800 65.498398 -707.682678
61.190899 66.378502 -708.621277
64.127502 67.289902 -710.400330
64.823097 67.639397 -710.813171
65.515503 67.987503 -711.224121
66.204300 68.321701 -711.633728
68.245201 68.902702 -712.873474
68.923798 69.199501 -713.279114
71.983498 70.599403 -715.103821
53.627602 62.161900 -704.380920
54.814098 61.896599 -705.139771
55.490799 62.373402 -705.532288
56.168701 62.908699 -705.921875
58.587002 64.836700 -707.310425
69.483002 69.503197 -713.823914
70.604301 70.023102 -714.491699
71.199600 70.560501 -714.829407
57.315498 63.820301 -706.742188
61.671799 66.640297 -709.285522
66.739502 68.508400 -712.334229
59.949402 65.637299 -708.449097
62.852200 67.012299 -710.177429
53.993698 61.551300 -705.182983
56.516499 63.293900 -706.650818
57.763500 64.248001 -707.370422
58.916901 65.180199 -708.032776
60.507401 66.008499 -708.975403
67.277603 68.641296 -713.044312
68.328201 68.774200 -713.693176
69.830002 69.409897 -714.592529
62.000702 66.739098 -710.080078
63.307400 67.083801 -710.875000
63.996899 67.273300 -711.293884
64.686699 67.514397 -711.709778
65.380302 67.921700 -712.117615
68.930000 68.970001 -714.269775
70.651199 69.819603 -715.291687
71.319801 70.162804 -715.687927
54.449699 61.850201 -705.903076
55.121799 62.282299 -706.295227
55.786900 62.679600 -706.685120
58.129501 64.602699 -708.025513
60.995998 66.077202 -709.721313
66.011902 68.121002 -712.722717
71.936798 70.063103 -716.297791
56.682400 63.471802 -707.452087
59.073502 65.339104 -708.825012
59.777401 65.534103 -709.251587
67.483704 68.441803 -713.873596
57.079300 64.310600 -707.914917
61.358700 66.211304 -710.463623
62.143799 66.652496 -710.925293
66.433899 68.217102 -713.502014
68.089401 68.453598 -714.519714
69.067497 68.793297 -715.108215
69.817101 69.059097 -715.558899
70.713402 69.590797 -716.084229
53.876701 61.491299 -706.375916
55.817902 62.912899 -707.497803
58.210098 64.635300 -708.882324
60.129398 65.742302 -710.010498
62.698799 66.771004 -711.549927
63.461102 66.871300 -712.019592
64.158302 67.265900 -712.429871
64.849297 67.586700 -712.841125
71.243202 69.795197 -716.694214
54.375099 61.898998 -706.984924
55.033901 62.219501 -707.376221
56.635601 63.557999 -708.291687
57.381100 64.144402 -708.720276
58.747799 64.887497 -709.526978
60.648499 65.841904 -710.654114
65.429398 67.671204 -713.525513
66.720200 68.165298 -714.300720
70.098198 69.086998 -716.353210
71.846497 69.717102 -717.405701
59.252201 65.159103 -710.186218
61.145100 66.108101 -711.307617
61.842999 66.353798 -711.727722
65.907898 67.858803 -714.169922
67.266701 68.165604 -714.998779
68.017601 68.213699 -715.464600
68.769699 68.441200 -715.919800
70.640404 69.307503 -717.032593
52.760399 61.477600 -706.755005
53.483898 61.606701 -707.197571
55.208599 62.381802 -708.223022
55.803799 62.916599 -708.559692
56.805698 63.721901 -709.132629
57.538601 64.174400 -709.560425
59.703098 65.407997 -710.830627
62.353699 66.441704 -712.416382
63.044399 66.609398 -712.836121
63.738998 66.913597 -713.249512
64.433800 67.299896 -713.657776
69.269897 68.586502 -716.589478
71.136497 69.403000 -717.700684
53.937901 61.878700 -707.865112
57.976601 64.466797 -710.213684
60.207802 65.689102 -711.524475
64.913300 67.325500 -714.349182
65.979897 67.736801 -714.986877
67.336998 67.907501 -715.820801
69.743599 68.670502 -717.270203
71.605103 69.610603 -718.368896
51.438202 61.267700 -706.743286
52.790901 61.351601 -707.580322
54.436600 62.071201 -708.558716
55.255600 62.458801 -709.043823
56.029900 63.286598 -709.472778
56.924702 63.785900 -709.997925
58.460400 64.707100 -710.894897
60.680698 65.908501 -712.200317
61.382999 66.219498 -712.617615
63.144299 66.540497 -713.693726
63.838100 66.846703 -714.106079
66.504097 67.728699 -715.709473
67.861198 67.997498 -716.537292
68.538902 68.214798 -716.945313
70.262497 68.791100 -717.981628
51.918598 61.238701 -707.411377
58.940300 64.941399 -711.546326
61.918201 66.276199 -713.315125
64.979401 67.120102 -715.167480
69.059601 68.261101 -717.635376
70.779900 68.838203 -718.669678
52.975399 61.482601 -708.409424
53.713699 61.782799 -708.849487
55.447300 62.747799 -709.866211
56.190601 63.248100 -710.296570
57.093700 63.874298 -710.818176
57.741501 64.270599 -711.195801
59.430599 65.384102 -712.175293
63.984699 66.757004 -714.921021
65.512398 67.331398 -715.834717
66.646797 67.557198 -716.526184
69.581902 68.332199 -718.302917
71.221901 69.183296 -719.268677
50.549702 61.086601 -707.239990
52.156799 61.313099 -708.224487
54.206299 62.136002 -709.445618
58.284000 64.500198 -711.828186
59.956001 65.448799 -712.806580
60.665798 65.848000 -713.222229
62.128101 66.187500 -714.109375
62.893101 66.324600 -714.576172
67.232597 67.504997 -717.197876
67.912300 67.729301 -717.606079
51.122398 61.143501 -707.843994
61.285801 65.870697 -713.853027
64.356903 66.742996 -715.704529
65.881203 67.265297 -716.617798
68.522797 67.914803 -718.216919
69.948097 68.399902 -719.070984
54.674702 62.433998 -710.166016
56.317402 63.404202 -711.122620
58.735802 64.773300 -712.534912
63.320202 66.335197 -715.278381
70.584297 68.516296 -719.644470
71.297699 68.867599 -720.064514
52.861599 61.608601 -709.243713
55.339401 62.932899 -710.692871
56.970001 63.861000 -711.642883
64.927299 66.853600 -716.377502
66.447098 67.271500 -717.291626
69.087700 68.005096 -718.879517
53.489601 61.820000 -709.728394
59.342800 65.014702 -713.143127
57.524101 64.229103 -712.155823
60.064400 65.452904 -713.648376
67.261497 67.248703 -717.983887
49.846401 61.201801 -707.689392
51.431801 61.219601 -708.668091
62.131599 66.154099 -714.966370
67.840401 67.508904 -718.521912
50.421200 61.075901 -708.344299
51.971001 61.480999 -709.273621
53.851101 62.154900 -710.389404
58.012501 64.444801 -712.807983
60.544998 65.650703 -714.291870
61.242001 65.847603 -714.708923
63.545898 66.369003 -716.095581
65.302002 66.801697 -717.150330
69.462799 68.022903 -719.636719
54.589199 62.630901 -710.995972
55.484901 63.037399 -711.521301
56.216702 63.402901 -711.948425
62.621498 66.264900 -715.707581
64.221703 66.448601 -716.680786
68.399696 67.537903 -719.182678
70.653603 68.544998 -720.505615
52.456100 61.516602 -709.989197
56.740898 63.832298 -712.473206
58.502998 64.670097 -713.502075
59.297100 65.048302 -713.965698
65.772598 66.784302 -717.832275
66.531303 66.896698 -718.291077
50.716900 61.176399 -709.211914
53.001400 61.829201 -710.572021
61.455101 65.991203 -715.493103
67.098503 66.888100 -718.898376
69.670898 67.860901 -720.414673
51.284302 61.261299 -709.834778
53.584301 62.114300 -711.189514
54.659199 62.688900 -711.811279
57.107300 64.011497 -713.226624
59.653301 65.159698 -714.713013
60.362598 65.490196 -715.126404
62.768200 66.332497 -716.546387
64.366600 66.472603 -717.516724
67.708199 66.954399 -719.533203
68.545502 67.596802 -720.005127
70.795502 68.481102 -721.327087
55.223801 63.000702 -712.357788
55.878201 63.352402 -712.735779
57.660702 64.308601 -713.765503
58.612400 64.680000 -714.324219
61.909801 66.080299 -716.252625
63.370602 66.469498 -717.121582
64.960197 66.409599 -718.098328
65.794800 66.440102 -718.607117
51.804901 61.373001 -710.553711
69.927803 67.930702 -721.220886
53.912399 62.241901 -711.962097
56.379799 63.642200 -713.382874
60.676498 65.680801 -715.882813
66.326401 66.368500 -719.297729
68.834900 67.403801 -720.767212
52.592201 61.700001 -711.390076
58.931999 64.860703 -715.070190
66.920799 66.387100 -719.865417
67.837402 66.936401 -720.391479
52.873901 62.353699 -711.802673
54.296501 62.487999 -712.664612
55.212799 63.101398 -713.185730
56.834202 63.906700 -714.125916
57.630798 64.215302 -714.593384
59.462601 65.118500 -715.656128
61.040901 65.966797 -716.567200
61.885700 66.128998 -717.073608
62.578201 66.322800 -717.484924
63.341000 66.435303 -717.944397
64.098000 66.425903 -718.408081
64.928802 66.359100 -718.920776
69.252502 67.484901 -721.493774
55.732899 63.149601 -713.846008
58.164902 64.515404 -715.243103
59.989300 65.404297 -716.299988
65.429497 66.207603 -719.570618
67.251701 66.320503 -720.676270
68.091103 66.771599 -721.159790
56.169300 63.498001 -714.476624
58.463699 65.210197 -715.765015
65.978600 66.211403 -720.283630
68.564697 66.949600 -721.812988
54.318901 62.598999 -713.815186
55.051601 62.917599 -714.240784
56.610401 63.863400 -715.128784
57.323700 64.081299 -715.549072
58.847099 64.902199 -716.423706
60.105301 65.404602 -717.157410
60.816601 65.815697 -717.564026
61.513699 66.034103 -717.974426
62.277802 66.113503 -718.434692
63.035301 66.065102 -718.899170
63.798901 66.165199 -719.357788
64.489098 66.366798 -719.765076
66.452599 66.045303 -720.982117
67.209900 65.926598 -721.451111
57.776699 64.374100 -716.212830
59.291100 65.140297 -717.083984
64.989998 66.422203 -720.467285
53.156101 62.361198 -713.896179
55.182800 63.114799 -715.078674
55.905800 63.374199 -715.501221
60.217300 65.424896 -717.987488
60.914001 65.587196 -718.400330
61.609600 65.761497 -718.811707
65.508904 66.350098 -721.143127
53.660099 62.780800 -714.502686
54.365398 62.804699 -714.929382
56.387299 63.662498 -716.101074
57.111099 63.997200 -716.518677
57.995998 64.469002 -717.025208
62.147900 66.051804 -719.442871
62.915501 66.220001 -719.898010
63.679401 66.340797 -720.354004
66.030899 66.364403 -721.780273
66.707397 66.072899 -722.210083
52.335400 62.362000 -714.046326
58.521702 64.723701 -717.650330
59.235298 65.062500 -718.061584
64.253601 66.376999 -721.024475
52.851101 62.403000 -714.715393
54.630600 63.021400 -715.756409
55.353901 63.276402 -716.179382
59.743900 65.281799 -718.716187
60.444302 65.498703 -719.127686
61.141800 65.701500 -719.538330
64.816399 66.386398 -721.727112
66.929604 65.954002 -723.039978
51.569500 62.229198 -714.338684
53.339001 62.663300 -715.385193
55.830898 63.511501 -716.843323
56.558998 63.887402 -717.260925
57.204899 64.244598 -717.629822
61.668999 65.811600 -720.238708
62.362999 66.017097 -720.646912
63.053799 66.189102 -721.055176
65.332397 66.320503 -722.431030
66.085899 66.136299 -722.900879
53.863201 62.767799 -716.091125
57.724499 64.415398 -718.325012
58.369701 64.836502 -718.688599
59.069698 64.985497 -719.103516
63.555901 66.271004 -721.740417
51.682201 62.371498 -715.176819
52.394798 62.434700 -715.604126
54.332802 63.059601 -716.736023
55.054100 63.286701 -717.157715
59.585701 65.053398 -719.784485
60.291901 65.349403 -720.192505
64.062798 66.242203 -722.416382
66.177399 65.844398 -723.722778
66.858597 65.668999 -724.146729
52.957001 62.637100 -716.244629
55.614601 63.565701 -717.791870
56.327900 63.757999 -718.210876
60.824100 65.460602 -720.819885
61.521099 65.665298 -721.228271
62.289501 65.814003 -721.683594
64.581299 66.139297 -723.049316
65.335899 65.985497 -723.516174
67.886299 65.859596 -725.068420
56.884300 63.994900 -718.767517
57.600300 64.280296 -719.182129
58.313202 64.561996 -719.595215
62.900799 65.998901 -722.278076
50.895199 62.268200 -715.457214
53.396198 62.949902 -716.925598
67.020401 65.816200 -724.980896
51.541500 62.410801 -716.051697
54.032001 63.051498 -717.515930
54.756302 63.305801 -717.937317
58.808601 64.728897 -720.294617
59.512600 64.940399 -720.706482
63.380901 65.998100 -722.976685
65.581200 65.888603 -724.314575
52.146500 62.533798 -716.660278
55.340599 63.285500 -718.541809
56.146801 63.639702 -719.005920
60.105900 65.204102 -721.296509
60.801899 65.348000 -721.707825
61.574501 65.528801 -722.162903
63.947701 65.818100 -723.578491
64.708702 65.831398 -724.037598
66.152901 65.793503 -724.913025
56.722500 63.842499 -719.661987
57.368698 64.209602 -720.028076
58.071999 64.343903 -720.443909
62.130199 65.630997 -722.809814
67.160400 65.845901 -725.833008
58.638500 64.529602 -721.122986
59.345699 64.774300 -721.533508
62.674702 65.544899 -723.490784
64.968300 65.798698 -724.857727
55.114300 64.719803 -719.317017
59.924801 64.859001 -722.209473
60.627998 65.106903 -722.617310
61.397800 65.208099 -723.075012
63.249901 65.697197 -724.159912
64.014198 65.789398 -724.614807
65.535004 65.762299 -725.533875
66.295998 65.771301 -725.992371
66.795197 65.717300 -726.651672
58.958500 64.578598 -722.376221
61.599098 65.281898 -723.922974
62.292599 65.442398 -724.330811
64.127197 65.634300 -725.425110
59.487099 64.751198 -723.082214
60.260300 64.889000 -723.539673
62.802700 65.393303 -725.040771
64.636200 65.599197 -726.133911
65.397400 65.629204 -726.591370
57.655300 64.172096 -722.477905
58.359100 64.349602 -722.890503
60.694099 64.985001 -724.256409
61.544399 65.204498 -724.754578
63.229000 65.406700 -725.757080
65.819702 65.526398 -727.311279
58.784199 64.454803 -723.668213
59.560799 64.626602 -724.124512
61.955002 65.129501 -725.532898
63.560398 65.248100 -726.491821
64.324997 65.344902 -726.945801
56.417301 63.790001 -722.857971
57.126701 64.011002 -723.270081
57.842999 64.370903 -723.677124
59.933498 64.735001 -724.910583
60.699699 64.765999 -725.369690
62.312401 64.964798 -726.326904
64.712700 65.425003 -727.740479
58.153099 64.183296 -724.461914
58.854401 64.362801 -724.871521
61.013199 64.651901 -726.149902
62.627102 64.897400 -727.103699
63.393398 65.002403 -727.557312
55.913300 63.700401 -723.699524
56.689301 63.773399 -724.160583
59.203201 64.716797 -725.606384
59.874401 64.374702 -726.032593
61.336201 64.537804 -726.899414
57.147202 63.853001 -724.912476
57.848099 63.996201 -725.323425
58.548599 64.157097 -725.732605
60.317101 64.254799 -726.786926
61.784500 64.581299 -727.645020
55.108700 63.624100 -724.138977
55.874001 63.542198 -724.603088
58.979500 63.988201 -726.433777
60.759102 64.338898 -727.476501
56.344700 63.669498 -725.317383
57.120300 63.757599 -725.775696
57.897800 63.899700 -726.231506
59.444500 64.117104 -727.142578
55.091999 63.527000 -725.015930
56.334900 64.468300 -707.501099
53.672298 62.345699 -700.920593
61.585800 65.141800 -699.822815
63.453499 66.793404 -698.552612
63.277599 65.295097 -697.725525
62.396999 64.395500 -697.041077
62.299900 63.606201 -696.546387
54.022301 60.715801 -699.255310
55.764000 59.731300 -691.331909
54.097099 60.456902 -697.088806
62.071098 63.176399 -695.570374
62.334999 64.896896 -697.780518
55.898300 64.063004 -719.690613
63.703602 68.087601 -698.552429
70.878998 69.862602 -708.800171
62.730301 67.110397 -700.151001
63.474899 66.167900 -699.328674
63.210999 65.532097 -698.578186
62.760300 64.745201 -698.478516
62.723000 66.205200 -699.920410
61.051102 65.199402 -700.713013
60.527199 65.429604 -702.063171
67.847000 69.843903 -707.209717
61.304699 66.490097 -704.398926
64.860001 65.738297 -716.638428
65.196899 65.842697 -717.461487
65.821503 66.983299 -725.789185
66.152496 67.085403 -726.595581
71.273201 70.591698 -716.453979
70.425301 71.123596 -712.753479
71.210899 71.349197 -715.063416
69.881302 71.421097 -710.540100
71.146004 71.731003 -714.249023
71.038498 70.352303 -718.036316
59.185799 63.298500 -712.014771
68.351402 70.133904 -706.399414
69.335297 70.655502 -706.116882
60.651699 65.367897 -726.833130
62.451599 66.914200 -721.686829
63.427799 66.455902 -727.279114
64.850098 68.202797 -718.715576
56.937801 65.153397 -720.281311
78.070000 57.169201 -739.588928
72.884102 58.575298 -737.101929
67.985199 60.170399 -734.413879
68.692398 60.186199 -734.835876
69.403198 59.987701 -735.274719
73.348900 58.284401 -737.751221
78.113899 57.239300 -740.672913
73.719597 57.810902 -738.370483
77.405899 56.127998 -740.690002
78.085197 55.881599 -741.113098
78.718803 55.388901 -741.525574
79.388802 55.075901 -741.947693
80.053200 54.723000 -742.369080
67.045898 59.727001 -734.646729
67.833801 59.760399 -735.115479
68.544601 59.632000 -735.549377
69.256699 59.506802 -735.983826
69.968201 59.478401 -736.411194
72.045403 58.146900 -737.744385
72.795799 57.869999 -738.211975
74.117203 57.415600 -739.033325
80.277199 54.176601 -742.938293
66.321098 59.209400 -734.695313
69.410301 58.881599 -736.566101
70.125397 58.810398 -736.998779
73.143204 57.486599 -738.895325
74.535599 57.190800 -739.748718
76.657501 56.062801 -741.095825
77.342697 55.895000 -741.517273
78.002800 55.543098 -741.936401
78.671898 55.228600 -742.358276
79.315598 54.768101 -742.775024
80.608597 53.828602 -743.613220
66.758598 59.217201 -735.457397
67.469902 59.255798 -735.880005
68.182503 59.146999 -736.313477
70.338699 58.322701 -737.659424
71.063904 58.004799 -738.114929
71.792603 57.672798 -738.573486
73.440399 57.163200 -739.593811
74.841003 56.893799 -740.449829
75.506699 56.594799 -740.868286
79.631897 54.464500 -743.481506
80.935699 53.563000 -744.323181
64.197800 58.977600 -734.485413
64.910599 59.014000 -734.908081
65.621498 58.718899 -735.352722
68.242104 58.474998 -736.933228
68.958000 58.446602 -737.362305
72.099197 57.351898 -739.312378
73.793900 57.028301 -740.345886
75.831497 56.311600 -741.611328
76.505203 56.036701 -742.032288
77.187698 55.800098 -742.455994
77.850700 55.458302 -742.875183
78.495697 55.011700 -743.291016
79.865700 54.064400 -744.174072
81.070503 53.031502 -744.964478
65.969200 58.465599 -736.107300
66.683899 58.752998 -736.512878
67.321198 58.349499 -736.920471
69.157799 57.996201 -738.038818
69.878601 57.877899 -738.476318
70.526604 57.529598 -738.886414
71.246201 57.570999 -739.312012
72.462402 57.178398 -740.063477
74.093597 56.729500 -741.066223
74.790604 56.571098 -741.492310
78.799301 54.670700 -744.011719
80.159103 53.637901 -744.893494
81.259300 52.436798 -745.632324
63.721699 58.373600 -735.265930
64.436798 58.321098 -735.694824
65.070198 57.890099 -736.101685
67.622597 57.972599 -737.614075
68.339600 58.051899 -738.034973
71.635597 57.350201 -740.044495
72.851196 57.048599 -740.788696
75.118202 56.255699 -742.192627
75.803802 56.035599 -742.615723
76.486000 55.794498 -743.038330
77.161400 55.514500 -743.459717
77.818001 55.130199 -743.877075
79.113800 54.229801 -744.710876
80.393898 53.173801 -745.546326
81.709999 52.248402 -746.393921
65.558800 57.758701 -736.841125
66.277702 57.604099 -737.279114
68.677200 57.569500 -738.707275
69.401199 57.386002 -739.150513
70.282600 57.397598 -739.673523
73.195801 56.674801 -741.455383
73.911102 56.596298 -741.885925
78.170601 54.734402 -744.547974
79.448700 53.708199 -745.379578
80.563400 52.604599 -746.119690
81.698898 51.542702 -746.869080
63.087601 56.905602 -735.849426
63.813400 57.197498 -736.259277
64.531601 56.858898 -736.709290
65.575600 57.059898 -737.314514
66.537903 57.100399 -737.882385
67.258698 57.227001 -738.301086
70.708603 57.210499 -740.348816
71.515503 57.099800 -740.835327
74.356903 56.244301 -742.581421
75.046501 56.041199 -743.004822
75.726997 55.791100 -743.426208
76.394897 55.472500 -743.844788
77.074699 55.206902 -744.266907
80.844002 52.112801 -746.721375
67.783699 57.248299 -738.990906
69.461403 57.513500 -739.966919
72.049400 56.909500 -741.544128
78.112900 54.353001 -745.320374
78.678596 53.883301 -745.689087
79.389099 53.292400 -746.152283
81.722603 51.199299 -747.684204
62.735199 57.479301 -736.325378
64.572304 57.254398 -737.430115
65.693001 57.311501 -738.090210
68.333199 57.456902 -739.644470
70.011597 57.580502 -740.630371
72.582703 56.720600 -742.215271
