29.922600 26.374001 -765.210022
29.500401 25.768200 -765.600403
29.264099 25.402300 -765.778870
29.089100 25.134300 -765.915588
28.937099 24.865299 -765.980713
28.593901 24.312201 -766.208008
38.373699 33.735600 -749.787781
37.698502 33.998199 -752.245972
37.474899 33.950901 -752.859924
37.377102 33.933998 -753.134216
37.245602 33.885899 -753.465271
37.144001 33.857700 -753.734375
35.805401 33.047298 -756.625793
30.778900 27.792500 -764.189209
30.524700 27.432400 -764.431274
30.144600 26.928600 -764.844727
29.704599 26.333599 -765.305786
29.552299 26.061701 -765.367126
29.270201 25.637400 -765.598694
28.729601 24.794001 -765.997986
28.551201 24.518999 -766.134583
27.899799 23.341999 -766.376282
27.803200 23.318300 -766.636780
38.085899 33.868900 -750.273621
37.974800 33.951401 -750.737488
37.857399 34.014099 -751.191223
37.266499 33.971100 -752.939087
37.159199 33.926800 -753.201782
37.031502 33.889400 -753.537720
36.772499 33.804100 -754.204407
35.902802 33.283100 -756.093628
35.772400 33.173302 -756.329712
35.589699 33.045300 -756.698730
35.341000 32.860600 -757.185730
35.217499 32.771000 -757.430420
30.546101 27.750401 -764.259827
30.305401 27.426100 -764.513611
30.194300 27.258301 -764.603882
29.907200 26.875999 -764.913574
29.760599 26.677900 -765.067322
29.320299 26.024599 -765.442322
29.200399 25.836800 -765.529480
29.016100 25.544399 -765.658020
28.895000 25.354200 -765.745605
28.762199 25.134600 -765.824890
28.514500 24.742100 -765.998596
28.351400 24.446301 -766.057129
28.206100 24.196400 -766.129517
27.653799 23.153400 -766.266113
38.056499 33.818298 -749.756470
36.826500 33.930901 -753.704407
35.551498 33.167099 -756.478516
30.547701 28.082300 -764.242615
30.317400 27.663900 -764.323975
29.956100 27.207800 -764.751526
29.533501 26.596600 -765.135315
29.380600 26.382799 -765.285217
28.531900 25.047300 -765.893921
37.811501 33.939999 -750.216187
37.704700 34.034100 -750.686218
37.028702 34.076099 -752.830322
36.848202 34.018101 -753.299072
35.627701 33.340698 -756.040588
35.356098 33.154099 -756.596802
35.072800 32.935299 -757.141113
34.954102 32.858398 -757.391113
30.304399 27.882099 -764.241821
30.095301 27.579100 -764.431213
29.964300 27.419500 -764.595093
29.751699 27.109301 -764.784180
29.607100 26.915701 -764.938904
29.224400 26.468800 -765.446777
29.081100 26.279900 -765.604980
28.822201 25.735800 -765.585815
28.708000 25.563299 -765.678406
28.587900 25.375700 -765.766907
28.306200 24.895700 -765.914307
28.172600 24.674999 -765.994507
28.051600 24.486601 -766.084473
37.766602 33.821899 -749.717712
37.448399 34.110401 -751.131470
36.361801 33.888000 -754.146484
35.429901 33.316700 -756.160400
35.149502 33.105701 -756.707581
30.449900 28.396299 -764.117676
30.100901 27.788500 -764.280701
29.407400 26.833300 -764.983215
29.289700 26.649700 -765.070313
28.863899 26.093901 -765.547913
28.379400 25.273001 -765.807678
27.845100 24.330000 -766.038330
37.509701 33.978699 -750.133423
37.391499 34.106899 -750.690613
36.553501 34.077801 -753.229980
35.209202 33.310600 -756.220093
35.079601 33.203201 -756.458008
34.772099 32.981098 -757.072021
34.648602 32.891102 -757.317322
30.092400 28.107700 -764.169373
29.851101 27.721399 -764.332397
29.724501 27.573299 -764.499878
29.588100 27.400200 -764.660095
29.453899 27.233101 -764.822571
29.046700 26.603201 -765.130615
28.884199 26.365101 -765.273621
28.771500 26.195801 -765.366211
28.658899 26.026800 -765.459229
28.518400 25.786600 -765.531311
28.400999 25.606100 -765.621704
28.126301 25.144100 -765.773804
35.087502 33.358398 -756.035583
34.849701 33.203300 -756.535828
34.409698 32.866501 -757.386475
29.879900 28.039600 -764.095215
29.497499 27.528200 -764.505005
29.332600 27.282000 -764.642883
29.205299 27.133200 -764.811523
29.052000 26.917700 -764.960083
28.815300 26.548599 -765.134399
28.150801 25.505301 -765.613281
34.868198 33.338402 -756.185425
34.645599 33.162601 -756.607483
34.430698 33.008499 -757.038696
29.642599 27.925100 -764.156372
29.500900 27.737900 -764.311523
28.845600 26.825800 -764.959412
28.610399 26.461100 -765.135681
28.495199 26.285601 -765.226379
28.381599 26.114201 -765.318787
28.231899 25.851000 -765.383972
34.645599 33.267200 -756.303772
34.202999 32.924702 -757.153320
29.631701 28.120300 -764.016785
29.289600 27.654400 -764.369812
29.123600 27.405500 -764.506714
28.960800 27.165400 -764.647095
28.648001 26.720100 -764.940918
34.701500 33.402401 -755.921814
34.456902 33.230000 -756.415771
34.002499 32.856800 -757.253906
29.400900 27.994499 -764.109619
29.283300 27.810301 -764.194275
28.932100 27.383301 -764.633179
28.721901 27.022100 -764.736816
28.438801 26.594601 -764.965210
28.323900 26.420000 -765.056091
28.151300 26.157600 -765.192871
34.536400 33.336899 -756.082214
34.284000 33.143902 -756.568420
29.050100 27.649200 -764.406616
34.035099 33.016800 -756.931030
28.498301 26.875401 -764.733398
34.463100 33.403702 -755.844910
34.300800 33.270302 -756.143677
33.836201 32.932899 -757.066589
33.729698 32.828499 -757.237122
29.202400 28.050200 -763.985107
29.058201 27.857000 -764.138428
28.836599 27.524500 -764.320374
28.704399 27.363701 -764.485229
28.572599 27.144100 -764.560608
28.294701 26.729500 -764.792419
28.172800 26.536699 -764.877380
27.995899 26.263300 -765.010620
27.870399 26.062099 -765.094116
34.088501 33.205002 -756.302612
33.239201 32.628399 -758.048401
34.206902 33.385300 -755.857727
34.071602 33.263699 -756.091003
33.881599 33.117401 -756.455688
33.657299 32.940201 -756.879211
28.863400 27.889099 -764.032715
28.696501 27.638100 -764.168396
28.527500 27.382099 -764.303406
28.370501 27.157801 -764.448975
28.258101 26.988600 -764.540283
28.089800 26.736300 -764.678528
27.925600 26.494900 -764.820923
27.784500 26.244801 -764.878418
33.480301 32.888401 -757.049805
33.849201 33.191502 -756.206909
32.983501 32.635300 -758.031982
30.536301 30.291000 -761.988708
28.055099 26.902500 -764.527527
33.317402 32.795898 -757.171021
27.867300 26.605200 -764.635010
33.983501 33.375099 -755.849976
33.652000 33.090099 -756.441406
28.452299 27.573500 -764.145813
28.297300 27.353600 -764.292175
33.830200 33.289700 -756.000305
33.368500 32.898899 -756.832703
28.086300 27.133400 -764.412720
33.620098 33.133400 -756.207275
33.195202 32.848000 -756.963623
28.247200 27.473101 -764.101318
33.428398 33.040901 -756.428589
28.088499 27.292200 -764.213928
33.008900 32.781300 -757.065430
32.647099 32.667900 -758.008179
33.398300 33.176300 -756.183716
33.023399 32.836102 -756.826477
33.202099 33.044102 -756.425781
29.933800 30.221901 -762.249878
32.824299 32.805199 -756.928589
32.435299 32.680302 -757.939880
32.611301 32.746399 -757.098694
32.703899 32.870098 -756.718628
30.847200 31.677999 -760.654419
32.510601 32.768700 -756.867371
32.162399 32.754299 -757.923706
32.446499 32.843601 -756.660217
32.289600 32.726299 -756.969604
31.923100 32.802101 -757.898621
30.681601 32.165199 -760.027222
31.266899 32.814098 -758.788208
27.978800 24.454500 -766.559326
28.029499 24.481400 -766.312988
28.186600 23.872601 -766.382385
29.065800 25.827801 -765.711121
32.052502 32.680698 -756.893982
32.102901 32.707600 -756.647278
32.220600 32.870300 -756.180786
32.274300 32.918598 -755.939392
32.601700 33.037800 -756.278320
32.672199 33.197498 -756.064880
32.734402 33.304699 -755.838684
32.938099 33.414001 -755.786926
32.847801 33.081100 -756.360779
32.910999 33.193802 -756.135925
33.666401 34.743900 -753.674316
33.730202 34.920898 -753.517883
29.990700 26.607901 -765.274170
32.446400 33.036098 -756.101196
32.507801 33.143398 -755.874512
30.149799 28.451300 -763.920898
32.570400 33.238899 -755.665588
32.653702 33.596699 -754.998596
29.970900 26.292601 -765.497803
33.080799 33.295502 -755.946716
33.177200 33.163399 -756.220703
33.283798 33.366100 -755.848999
33.946098 34.744499 -753.674500
32.559898 32.201801 -759.357300
34.306499 34.984100 -752.648315
33.496399 33.392502 -755.787109
33.603802 33.324200 -756.012329
34.519600 35.008701 -752.744385
34.373798 34.407101 -754.041016
31.649599 28.737801 -763.643616
31.729700 28.945101 -763.425903
34.393398 34.126499 -754.400085
34.867199 34.968300 -752.690613
31.671200 28.506701 -763.760681
34.582199 34.339298 -754.061829
35.113098 34.822201 -752.698730
35.348202 34.751598 -751.308228
31.884800 27.967699 -764.200073
31.953100 28.191299 -764.068481
34.839401 33.997398 -754.418823
35.690701 34.682400 -751.025513
35.453899 34.656898 -752.709778
35.147999 33.967800 -754.442322
35.245602 34.114799 -754.059692
35.957802 34.550701 -750.551514
35.484901 34.236599 -753.654785
35.689201 34.502201 -752.799194
36.037601 34.639900 -750.982483
31.751400 26.038300 -765.631470
35.516399 33.909599 -754.498230
35.610802 34.048302 -754.112122
35.720501 34.192699 -753.643372
36.248100 34.590199 -751.043823
32.404900 26.884899 -765.101013
32.444698 26.893900 -764.881226
32.981899 28.575600 -763.725220
35.939602 34.258598 -753.208191
36.405300 34.333401 -750.599915
36.060101 33.976799 -754.111023
36.150700 34.089600 -753.717896
36.247601 34.149700 -753.226624
36.355202 34.278099 -752.753113
36.667000 34.398899 -751.089905
36.723400 34.285702 -750.632629
33.201500 26.507799 -764.482727
36.551498 33.993900 -753.744080
37.063999 34.273499 -751.106018
37.122002 34.168598 -750.650574
37.182598 33.980999 -750.084778
33.735600 27.528500 -763.843689
37.414799 33.810501 -749.907776
37.429699 33.710098 -749.707397
33.756500 27.451700 -764.109924
33.804001 27.264500 -763.959229
36.644600 33.743198 -754.631287
33.743401 27.653601 -763.661377
34.035999 29.427700 -762.428101
32.430500 25.834200 -765.220276
29.537600 24.309299 -766.701782
29.661501 24.605600 -766.332825
30.117500 26.803301 -765.108276
32.878601 33.758598 -754.793884
29.792801 25.603399 -765.961670
30.063700 26.622900 -765.606018
32.895599 28.201599 -763.720825
36.055901 34.359299 -752.748413
36.020500 33.864498 -754.553528
34.848999 30.322500 -761.619324
34.158901 27.722401 -763.696777
34.557098 28.862400 -762.708130
34.528099 28.584700 -763.000488
37.056000 33.804901 -754.269714
35.193501 30.959101 -760.935181
33.800499 26.819300 -763.993408
36.743301 34.138199 -752.815918
36.981400 34.253300 -751.564819
36.388699 33.790798 -754.632629
34.623501 27.899599 -763.260071
34.760399 28.443399 -763.102173
34.851898 28.893200 -763.099915
34.911598 28.987301 -762.860413
34.969398 29.155500 -762.720703
37.230301 33.639999 -754.750793
37.410301 33.772800 -753.848816
37.879398 33.842602 -753.182800
37.881100 34.014000 -755.309814
38.113701 34.126801 -754.066284
38.310200 34.005901 -752.757874
38.339401 33.916801 -752.478027
38.375801 33.872601 -752.209717
38.417198 33.860001 -751.949585
38.467999 33.814800 -751.594482
39.052101 34.118698 -751.521973
39.064301 34.009899 -751.320374
39.077702 33.909100 -751.120789
39.087200 33.782700 -750.913574
39.107601 33.631802 -750.612976
39.119999 33.523602 -750.409973
38.466099 33.824799 -758.154724
38.526901 33.941601 -757.929321
38.636501 34.189201 -757.566528
38.684799 34.228600 -757.323303
38.738701 34.303101 -757.088623
38.791599 34.370998 -756.852173
39.036900 34.591000 -755.641724
39.133202 34.667198 -755.154175
39.181499 34.706100 -754.910583
39.258900 34.660099 -754.391113
39.296600 34.630402 -754.129211
39.340199 34.638401 -753.876770
39.384399 34.649799 -753.625305
39.459999 34.589901 -753.099426
39.111301 34.626301 -757.164001
39.160198 34.671200 -756.922607
39.287102 34.766800 -756.272827
39.380901 34.830101 -755.783020
39.629002 34.983101 -754.471191
37.932999 31.305901 -760.981201
38.266300 32.413101 -760.287903
39.777901 34.913601 -754.123596
37.951000 32.177799 -760.655518
38.008301 32.362202 -760.526123
39.331799 34.787899 -755.268616
39.414799 34.885201 -754.871094
39.503601 34.845299 -754.267822
38.704800 34.090500 -757.818420
38.957600 34.504501 -756.738220
38.524300 34.069901 -757.395203
39.055599 34.627701 -754.743896
39.246799 34.560902 -753.452698
38.164398 33.578201 -758.036316
38.227901 33.720100 -757.815918
38.343601 33.936100 -757.359985
38.397800 34.021702 -757.127075
38.450001 34.095200 -756.891296
38.733700 34.437000 -755.538025
38.810398 34.495300 -755.129517
39.395500 33.984100 -750.807922
39.404499 33.865398 -750.601929
39.406898 33.703300 -750.382996
39.406502 33.523201 -750.158508
38.414200 34.089199 -756.639404
38.814701 34.496101 -754.623291
39.268200 34.116798 -751.277527
38.036800 33.597500 -757.738220
39.201099 33.444500 -750.167786
37.602798 32.351700 -759.778015
39.299702 34.011200 -751.043884
39.135601 34.459099 -753.291992
38.327301 31.568800 -760.801819
38.420101 31.965300 -760.715881
38.489799 32.222198 -760.601074
38.562401 32.414799 -760.388184
38.806099 33.070499 -759.685608
38.861801 33.244499 -759.555298
38.977402 33.536999 -759.198914
39.048500 33.723801 -758.988220
40.515900 34.594002 -753.497070
39.501801 34.748798 -753.978210
39.212601 34.458099 -753.023193
38.960499 34.440899 -757.201294
38.989498 34.514400 -755.871582
39.004200 34.534500 -754.948608
38.920700 33.810699 -751.307129
38.905800 33.706902 -751.026184
38.898800 33.648800 -750.755127
38.784100 34.391499 -755.890930
38.789799 34.181702 -752.285706
38.772099 34.062801 -752.003479
38.753300 33.937000 -751.719116
38.735199 33.821201 -751.522095
38.727798 33.755299 -751.163879
38.362400 33.381500 -758.920227
38.568199 34.125301 -752.711975
38.560699 34.064899 -752.442688
37.932201 32.252602 -760.190674
38.264000 33.899601 -756.932983
38.335400 34.167000 -754.954712
38.348999 34.185902 -754.109619
38.348301 34.122700 -753.244873
37.914600 33.012600 -758.864014
38.141998 34.055199 -755.334900
38.150799 33.961201 -753.187622
38.139599 33.879902 -752.913696
38.141300 33.871799 -752.655090
37.877701 33.914799 -753.631287
37.738098 33.880001 -753.984985
37.739498 33.846199 -753.379211
37.230701 32.697102 -758.658691
37.479500 33.763401 -754.349976
37.550400 34.022400 -752.520691
37.283298 33.726299 -755.459717
37.416100 34.136799 -751.606628
36.960098 33.944599 -750.157776
35.438999 29.756300 -762.097229
34.539799 29.141399 -762.366272
34.069099 29.745800 -762.189270
34.030201 34.270000 -754.332825
33.515999 32.555901 -758.123291
33.721199 33.392502 -755.810425
33.503101 34.419998 -753.897400
31.570000 32.793098 -757.876099
30.833300 30.249201 -762.006104
31.385099 32.795200 -758.324829
30.573299 31.632999 -760.556213
29.981199 30.679800 -761.294312
27.666000 22.312901 -765.730530
27.797501 22.392099 -765.913086
28.147600 22.571501 -766.123779
28.101601 22.578699 -766.364685
28.488501 22.850500 -765.957886
28.806499 23.141500 -765.867493
28.790400 23.162399 -766.110779
29.088699 23.308201 -766.231689
30.440901 24.044201 -765.623901
30.232201 23.958000 -765.676270
29.880400 23.815701 -765.790588
29.622299 23.716299 -765.918396
29.386499 23.627100 -766.049683
31.578300 24.743601 -764.967529
31.342300 24.654100 -765.094421
31.034800 24.541100 -765.292175
30.870899 24.493799 -765.510986
30.711500 24.448700 -765.731018
30.443701 24.344900 -765.855896
29.544701 24.008801 -766.384094
32.095001 25.177900 -764.614380
31.983900 25.154499 -764.838196
31.779301 25.079300 -764.968811
31.597500 25.014601 -765.103027
31.384800 24.945000 -765.313416
31.191500 24.875200 -765.446899
32.624699 25.549601 -764.264771
32.452499 25.489100 -764.398376
32.318901 25.455500 -764.617981
32.132599 25.388700 -764.750427
31.953800 25.334499 -764.964172
31.482000 25.165100 -765.297119
30.348801 24.795401 -766.423218
32.772400 25.693199 -764.026123
32.605301 25.671499 -764.478821
30.140200 24.786400 -766.217285
33.031799 25.867500 -763.878296
32.789600 25.802200 -764.239014
31.568100 25.381399 -765.257629
29.951599 24.628700 -766.319214
33.627701 26.254601 -763.411072
33.438400 26.195000 -763.617615
33.335499 26.174999 -763.838379
33.129299 26.107700 -764.043213
30.863199 25.327999 -765.937622
34.164299 26.666901 -763.112671
33.943501 26.583700 -763.233826
33.884300 26.583500 -763.460388
33.663898 26.491800 -763.503479
33.437698 26.433201 -763.861816
34.805901 27.108400 -762.695374
34.598202 27.031200 -762.816895
34.452099 26.991100 -763.027588
34.184898 26.886700 -763.140198
35.017700 27.292400 -762.582275
28.282301 24.768400 -766.337280
34.651299 27.268900 -762.795471
34.530998 27.240601 -763.010193
30.345301 25.749001 -766.007813
35.160702 27.531300 -762.498230
35.009998 27.540300 -762.664978
34.840000 27.479401 -762.817627
35.417500 27.804501 -762.450928
31.707001 26.521601 -765.472473
29.977200 25.808901 -765.858826
35.599899 27.989500 -762.234497
35.240200 27.886700 -762.717712
31.021700 26.358500 -765.515198
31.007000 26.378700 -765.753296
36.102299 28.361401 -761.965088
35.836700 28.266300 -762.150513
35.623699 28.195299 -762.346130
36.324200 28.681000 -761.773682
36.112202 28.610300 -761.968018
31.541000 26.971399 -765.119629
29.576500 26.166401 -765.570313
29.499100 26.171600 -765.919128
36.368401 28.962601 -761.604187
36.187599 28.923500 -761.959412
31.790600 27.314800 -764.675781
37.100700 29.550501 -761.280884
36.876499 29.474300 -761.470398
31.530399 27.506300 -764.635071
29.386200 26.655800 -765.353210
37.483700 29.985901 -761.147278
37.104698 29.839300 -761.306213
37.503300 30.237200 -760.932495
37.397301 30.214701 -761.143188
33.198700 28.650999 -763.427185
31.025801 27.803400 -764.263916
30.170300 27.480600 -764.691406
37.393600 30.452299 -760.706726
34.975399 29.591801 -762.366272
31.991501 28.455601 -763.744019
31.876600 28.430300 -763.963806
31.549601 28.292000 -763.990295
37.920799 30.969801 -760.708313
33.801102 29.595100 -762.393188
33.580898 29.522100 -762.590210
33.345901 29.442400 -762.785217
28.921700 27.747801 -764.692200
32.197800 29.048700 -763.195374
30.957701 28.582300 -763.808228
29.916901 28.192400 -764.336914
29.568100 28.062799 -764.523315
35.074501 30.054501 -761.858704
32.807999 29.009701 -763.234497
37.539398 30.458799 -760.995789
28.877899 27.147499 -764.986511
28.752100 27.117701 -765.210083
37.280201 30.011600 -761.243713
33.605400 28.641001 -763.284119
30.936600 27.625000 -764.579712
30.839899 27.609200 -764.815918
31.947300 27.783400 -764.341980
29.146700 26.674999 -765.343018
29.024200 26.646400 -765.566895
28.971001 26.649200 -765.801392
36.690601 29.370300 -761.581726
33.131901 28.049601 -763.665283
31.727800 27.569300 -764.857117
31.718100 27.597401 -765.150208
29.907499 26.814899 -765.209229
29.643101 26.722099 -765.411926
36.614498 29.195000 -761.747681
31.056999 27.151300 -765.177917
30.865101 27.082001 -765.307617
36.371899 28.493000 -761.915527
31.360300 26.680099 -765.289490
31.408300 26.448700 -765.411682
29.819000 25.823999 -766.049683
31.466499 26.376301 -765.640198
34.372299 27.119400 -763.208313
29.589600 24.785000 -766.479675
32.958500 25.965599 -764.150574
33.225399 25.988501 -763.726624
32.494801 25.763599 -764.646179
28.273100 22.848200 -766.198792
28.233299 22.857000 -766.437805
27.396601 23.174801 -766.185913
27.851000 23.042601 -766.108521
27.339800 23.427900 -766.162720
27.841600 23.265800 -766.111511
28.078600 23.155001 -766.159180
28.429600 23.011299 -766.187012
27.330000 23.684799 -766.185120
27.713301 23.559000 -766.150696
27.974400 23.471901 -766.130127
28.176500 23.383400 -766.158508
28.400999 23.280800 -766.198914
28.303801 23.693501 -766.155029
28.729601 23.503799 -766.222290
29.021200 23.698999 -766.249573
28.988400 24.018900 -766.143372
29.372900 23.856899 -766.185913
27.529200 24.975300 -765.771729
27.630899 25.035200 -765.566528
27.677700 25.249701 -765.460510
27.873199 25.265400 -765.317627
30.044001 24.155600 -765.976685
30.317301 24.111799 -765.857422
29.207001 24.159100 -766.150696
29.660601 23.995600 -766.145081
29.892900 23.969101 -766.022095
27.615299 25.492500 -765.538879
27.791300 25.531799 -765.321228
27.827101 25.725500 -765.173096
27.710199 25.796301 -765.431519
28.009399 25.852400 -765.084229
27.669399 25.996500 -765.317322
30.847601 24.648899 -765.724487
30.996700 24.674500 -765.556519
27.670401 26.269600 -765.288879
27.873600 26.457500 -765.101624
27.941401 26.730900 -764.972229
29.344801 26.257999 -765.536072
29.560900 26.496500 -765.418030
28.247999 27.396400 -764.513611
28.374300 27.552401 -764.351074
30.297899 26.668501 -764.763916
30.613001 26.577299 -764.569824
28.723900 28.303400 -763.952026
28.753700 28.488600 -763.804016
28.880699 28.666100 -763.692200
29.009001 28.847700 -763.522522
28.943800 29.065201 -763.394104
28.768400 29.079000 -763.826721
28.960400 29.098801 -763.640015
29.217699 29.207800 -763.214294
29.257799 29.592501 -763.020874
29.473900 29.632999 -762.905273
29.789301 29.930201 -762.037476
29.960300 29.939699 -761.889099
29.175400 29.633400 -763.222717
29.520300 29.802401 -762.604675
34.929600 27.732700 -762.953674
32.487000 28.845600 -762.453003
32.593201 28.906799 -762.242920
32.021400 28.489201 -762.958679
32.174999 28.513201 -762.792603
31.331900 27.789400 -763.838684
31.468500 27.823000 -763.664917
28.407900 27.764799 -764.291077
28.070000 26.961901 -764.861816
29.429899 24.085699 -766.186584
28.600201 23.906000 -766.141418
27.363300 24.768900 -765.821899
27.565701 24.763201 -765.677002
27.688200 24.810699 -765.482178
29.220900 23.474800 -766.098083
28.919600 23.367901 -766.078674
28.473200 23.546301 -766.165100
27.824301 23.920099 -766.070679
45.207100 33.166500 -749.786804
45.022202 33.307800 -749.788086
44.786900 33.360699 -749.762512
44.552299 33.415298 -749.737305
45.932499 33.262199 -748.581787
45.757401 33.471802 -748.598999
45.613701 33.684101 -748.621826
45.443600 33.849400 -748.630188
45.203300 33.891499 -748.601074
44.943401 33.900002 -748.561584
44.730099 33.990299 -748.547119
44.436699 33.942299 -748.490173
44.194500 33.677399 -748.394714
43.979401 33.613400 -748.346802
47.773399 31.670300 -746.492126
49.670399 31.428600 -746.540283
49.437500 31.587601 -746.542786
48.785301 31.482401 -746.424316
48.583000 31.591299 -746.419922
48.657299 31.906401 -746.502625
48.335499 31.611900 -746.388672
48.049900 31.558599 -746.335083
47.653999 31.628300 -746.293579
47.453899 31.743000 -746.290771
48.990898 31.612101 -746.474915
48.418800 31.970501 -746.447815
48.181000 31.841200 -746.384216
49.768700 32.108501 -746.485474
49.614899 32.310902 -746.510620
49.349701 32.290199 -746.468628
49.071602 32.244801 -746.419128
48.820801 32.254799 -746.386292
48.589699 32.304199 -746.365173
48.336399 32.142799 -746.292480
48.043800 32.073700 -746.235474
47.767399 32.037701 -746.188416
47.544201 31.938801 -746.134216
47.332699 31.863400 -746.087219
47.195499 32.099201 -746.122375
50.677700 32.390202 -746.416504
50.467499 32.304501 -746.367676
50.278000 32.433899 -746.371826
50.089001 32.563999 -746.376221
49.882000 32.657700 -746.369629
49.665501 32.732201 -746.357178
49.433998 32.777100 -746.335876
49.172298 32.762299 -746.296387
48.911900 32.751099 -746.258118
48.660099 32.757900 -746.224976
48.408699 32.766300 -746.192383
48.022900 32.512501 -746.080322
47.815701 32.442402 -746.035400
47.656799 32.299999 -745.980408
47.428902 32.191299 -745.923828
47.166401 32.016800 -745.846985
46.884300 31.972700 -745.797913
46.631699 31.986700 -745.766479
45.920799 32.122299 -745.700378
45.770599 32.332500 -745.728821
45.707500 32.541901 -745.768982
45.563301 32.761501 -745.800415
45.362099 32.873901 -745.798889
45.115700 32.902000 -745.771606
44.868801 32.930000 -745.744202
44.643101 32.997700 -745.729004
44.389099 33.013802 -745.697876
44.180199 32.952499 -745.654785
43.873299 32.873600 -745.594299
51.755699 32.166698 -746.276428
51.246601 32.152401 -746.204285
51.180500 32.363602 -746.244995
51.022701 32.557598 -746.269287
50.791302 32.599400 -746.247925
50.569901 32.662102 -746.232727
50.366501 32.761799 -746.228699
50.146900 32.828701 -746.214783
49.908699 32.858101 -746.189514
49.672100 32.891399 -746.165283
49.432701 32.919800 -746.139587
49.186100 32.934299 -746.109802
48.951500 32.973598 -746.087280
48.681000 32.942200 -746.043396
48.406502 32.904301 -745.997375
48.135700 32.874599 -745.953796
47.924099 32.794800 -745.906372
47.631401 32.557400 -745.810974
47.328701 32.469799 -745.749512
47.061600 32.285702 -745.669983
46.756401 32.029499 -745.568481
46.547798 32.128101 -745.563477
46.439499 32.418900 -745.617371
45.874401 32.168400 -745.482117
45.726700 32.383499 -745.512695
45.586399 32.611900 -745.547485
45.353199 32.664600 -745.528381
45.120499 32.718700 -745.509583
44.881001 32.760601 -745.487122
44.645302 32.810101 -745.466919
44.434898 32.906799 -745.461182
44.110901 32.794701 -745.391113
43.792000 32.808800 -745.351318
52.419300 32.067101 -746.191772
52.199100 32.174099 -746.187683
51.970402 32.219200 -746.167786
51.726501 32.408501 -746.180115
51.559399 32.583302 -746.199219
51.348202 32.665401 -746.190430
51.145000 32.764099 -746.186584
50.916302 32.810200 -746.166992
47.458199 32.670700 -745.672119
46.983501 32.583302 -745.588013
46.389400 32.102901 -745.394775
46.141499 32.126598 -745.367310
45.540501 32.472000 -745.368774
44.769001 32.661301 -745.310608
44.520302 32.686901 -745.283386
44.286999 32.741798 -745.265320
44.006699 32.988602 -745.286316
50.683800 32.905399 -746.102112
50.437302 32.915401 -746.071777
50.128799 32.971199 -746.044312
49.797699 32.981800 -746.002930
49.565498 33.023300 -745.982117
49.315701 33.029900 -745.950500
48.808899 33.031300 -745.883728
48.542599 33.007702 -745.842773
47.760799 32.808701 -745.692017
46.929798 32.357498 -745.474670
45.972698 32.011600 -745.265686
45.782101 32.146099 -745.272522
45.295101 32.543701 -745.302490
45.047100 32.568802 -745.275574
44.068100 32.700699 -745.177307
48.313702 32.947701 -745.797424
48.047798 32.925999 -745.757324
47.226299 32.484699 -745.544312
52.299900 31.957199 -746.018982
52.161598 32.375599 -746.101074
51.998699 32.560001 -746.124084
51.823601 32.717701 -746.139099
51.628899 32.833000 -746.141418
50.889999 33.028099 -746.092224
49.059700 33.055901 -745.861511
46.683399 32.225101 -745.354614
52.805000 32.191898 -745.968201
52.591599 32.283001 -745.962524
52.447102 32.508301 -745.997803
52.282398 32.688702 -746.019775
52.104198 32.839298 -746.032776
51.917900 32.971901 -746.040527
51.705799 33.049301 -746.031616
51.470200 33.077000 -746.007813
51.215500 33.064800 -745.971924
50.764999 33.167000 -745.937988
50.518700 33.174599 -745.908020
50.476601 33.434200 -745.964783
50.277100 33.539101 -745.964111
49.925598 33.330601 -745.868591
49.669399 33.320400 -745.832886
49.378201 33.239700 -745.775879
48.891499 33.105900 -745.680786
48.626801 33.082901 -745.640991
48.357201 33.051102 -745.598389
48.105000 33.055401 -745.566772
47.883900 32.952801 -745.513489
47.648998 32.824100 -745.452271
47.352001 32.742401 -745.394226
47.048801 32.481300 -745.292297
46.890301 32.337601 -745.237183
46.550301 32.176201 -745.154480
46.308300 32.039799 -745.090515
45.998600 31.941500 -745.026794
45.742401 31.948900 -744.995422
45.602901 32.182598 -745.033386
45.410301 32.313000 -745.039673
45.172600 32.356899 -745.019470
44.907001 32.347900 -744.982971
44.667702 32.389900 -744.961975
44.435101 32.445099 -744.945129
53.090801 32.220699 -745.767090
52.872501 32.234600 -745.742126
52.768600 32.549900 -745.804382
52.618500 32.762299 -745.836121
52.445599 32.924400 -745.852722
52.245998 33.028099 -745.851685
52.045799 33.130501 -745.850281
51.830299 33.199902 -745.839111
51.595901 33.229599 -745.815674
51.453400 33.454498 -745.851379
51.267502 33.586899 -745.859070
51.078499 33.712299 -745.864685
50.874401 33.805801 -745.860718
50.647301 33.851700 -745.842285
50.387299 33.829700 -745.803223
50.141701 33.838402 -745.773376
49.924599 33.734798 -745.720215
49.640800 33.667099 -745.667114
49.420898 33.560001 -745.612671
49.151901 33.525200 -745.569275
48.945999 33.448799 -745.524170
48.783798 33.290901 -745.465088
48.570099 33.200199 -745.415527
48.309898 33.187599 -745.378723
48.006901 33.090000 -745.315796
47.695702 32.977798 -745.248413
47.375099 32.849098 -745.175720
47.043098 32.530201 -745.055786
46.756500 32.472801 -745.004700
46.466301 32.240501 -744.911072
46.225899 32.107399 -744.847778
45.974400 31.953800 -744.778076
45.764099 31.881901 -744.733521
45.547001 31.966000 -744.725525
45.381401 32.149899 -744.748291
45.110600 32.130699 -744.708374
44.802700 32.041698 -744.646973
44.567299 32.092602 -744.628723
53.166801 32.500099 -745.575378
53.019199 32.719002 -745.609070
52.849602 32.888599 -745.627930
52.678398 33.054100 -745.645630
52.511600 33.228600 -745.666016
52.309799 33.326599 -745.663330
52.095001 33.396900 -745.652222
51.939400 33.593899 -745.679504
51.778999 33.779800 -745.703491
51.586300 33.896400 -745.706482
51.360401 33.942902 -745.688293
51.144600 34.011002 -745.676575
50.925301 34.071899 -745.662720
50.669800 34.057899 -745.625977
50.405300 34.026299 -745.583801
50.150101 34.015099 -745.547791
49.847500 33.907398 -745.482300
49.572701 33.858398 -745.434570
49.349098 33.743999 -745.377686
49.122601 33.625000 -745.319519
48.807400 33.498001 -745.247681
48.599998 33.419998 -745.201721
48.293800 33.314400 -745.136292
48.075500 33.216599 -745.084229
47.781601 33.138802 -745.026978
47.507702 33.102200 -744.982422
47.221600 33.042599 -744.930725
46.957699 32.859501 -744.851990
46.690899 32.672001 -744.771912
46.105000 32.199699 -744.581421
45.813499 32.137798 -744.528381
45.560101 31.982599 -744.457825
45.340801 32.063099 -744.448608
45.022598 31.953400 -744.380615
44.797100 31.855700 -744.327576
53.345501 33.231098 -745.549622
53.181198 33.411701 -745.571777
52.935001 33.411400 -745.539612
52.716999 33.473499 -745.526001
52.505299 33.549301 -745.516724
52.318001 33.677898 -745.523315
52.138901 33.823502 -745.535217
51.950100 33.948200 -745.540588
51.759300 34.068401 -745.544678
51.547001 34.142799 -745.534973
51.317402 34.181198 -745.514221
51.086800 34.217899 -745.492920
50.862000 34.267399 -745.475525
50.633701 34.310001 -745.455872
50.332001 34.201401 -745.390076
50.104301 34.075401 -745.329773
49.825100 34.016102 -745.278870
49.517700 33.900700 -745.210815
49.225601 33.818600 -745.152588
48.985500 33.842999 -745.127075
48.756599 33.890900 -745.108704
48.443100 33.769299 -745.038330
48.228100 33.677502 -744.987915
47.987801 33.705002 -744.963074
47.674801 33.589100 -744.893982
47.443100 33.467300 -744.834229
53.339600 32.766998 -745.272278
53.209301 33.023102 -745.317322
53.157600 33.270302 -745.370422
52.549099 33.733601 -745.403015
52.375301 33.890499 -745.418274
52.197498 34.038300 -745.430786
51.995098 34.133400 -745.427307
49.641602 34.072701 -745.104004
49.382900 34.057701 -745.066406
49.143299 34.082500 -745.041016
48.903000 34.106400 -745.015320
47.819302 33.798000 -744.798523
47.314602 33.473202 -744.653503
47.049599 33.288101 -744.573914
46.799301 33.133099 -744.503479
46.472698 32.998402 -744.427979
46.214901 32.831699 -744.353699
45.923302 32.768600 -744.300171
45.700500 32.672401 -744.247681
45.549000 32.881302 -744.278381
45.603100 33.151699 -744.351074
53.008499 33.426399 -745.292603
52.839699 33.595200 -745.311401
52.721802 33.873402 -745.363403
52.549500 34.032902 -745.379517
51.826801 34.246399 -745.336426
51.597301 34.284100 -745.315430
51.356800 34.299400 -745.287598
51.141102 34.367298 -745.275818
50.911701 34.407001 -745.255310
50.649799 34.379799 -745.214417
50.374599 34.326302 -745.165283
50.158699 34.224602 -745.112183
49.879700 34.166000 -745.061523
49.262199 34.271900 -745.006226
49.051800 34.355400 -744.998779
48.716599 34.188702 -744.914429
48.524899 33.973499 -744.836975
48.256901 33.944500 -744.794922
48.002300 33.943199 -744.761108
47.639999 33.730099 -744.661926
46.601002 33.200298 -744.397217
46.077400 33.019199 -744.284485
45.587502 33.406101 -744.314087
49.674301 34.283901 -745.014587
46.312000 33.165699 -744.302795
45.865700 33.136398 -744.237183
45.594700 33.775700 -744.356628
53.270199 33.920101 -745.301819
53.098499 34.080502 -745.318176
52.869701 34.116901 -745.297119
52.668598 34.213402 -745.294128
52.437500 34.245701 -745.271729
52.184799 34.232498 -745.235413
50.009899 34.360401 -744.981628
49.558701 34.462200 -744.947205
49.313099 34.473301 -744.917786
47.824600 34.025501 -744.614319
47.373901 33.639702 -744.461670
47.205502 33.476398 -744.400024
46.963799 33.337700 -744.334717
46.565399 33.396999 -744.296875
46.346199 33.471802 -744.286377
46.129902 33.552399 -744.277588
45.887299 33.417000 -744.213013
54.054798 33.718201 -745.176880
53.863998 33.836899 -745.180725
53.678799 33.967999 -745.188171
53.504398 34.122101 -745.202820
53.323799 34.262402 -745.213196
53.122799 34.358101 -745.210022
52.932400 34.476398 -745.213806
52.723099 34.554001 -745.205200
52.546902 34.702499 -745.218079
52.331299 34.766899 -745.205505
52.073898 34.742802 -745.165894
51.787399 34.658401 -745.107788
51.550900 34.507401 -745.039978
51.302101 34.505001 -745.006775
51.063999 34.525902 -744.980713
50.809601 34.513699 -744.944275
50.564999 34.522598 -744.914429
50.330898 34.554001 -744.891296
50.106499 34.605801 -744.874512
49.887100 34.668301 -744.860779
49.640900 34.676701 -744.830505
49.376801 34.649799 -744.789429
49.091301 34.580898 -744.735229
48.854500 34.442600 -744.670471
48.621201 34.312401 -744.608276
48.384701 34.345299 -744.585205
48.064899 34.213699 -744.511292
47.662102 34.087700 -744.427795
47.480900 33.898399 -744.357971
47.227299 33.902199 -744.325684
46.922798 33.807598 -744.262817
46.699299 33.872101 -744.249084
46.441200 33.870098 -744.214722
46.154598 33.813999 -744.163513
45.945499 33.742599 -744.118713
45.667801 33.540798 -744.033325
45.476799 33.671001 -744.039917
54.399101 34.116299 -745.061584
54.116100 34.196899 -745.044128
53.932301 34.329498 -745.052429
53.764500 34.496799 -745.071228
53.573399 34.612801 -745.074280
53.381302 34.726299 -745.076782
53.220798 34.907799 -745.099976
52.999401 34.957500 -745.083130
52.769798 34.990101 -745.060974
52.509499 34.957500 -745.018921
52.255402 34.939499 -744.981201
52.015800 34.952900 -744.953003
51.807701 34.860401 -744.903198
51.521000 34.776699 -744.845215
51.263401 34.755600 -744.806274
51.045799 34.818699 -744.793091
50.833000 34.891998 -744.783081
50.564400 34.850498 -744.737671
50.304199 34.827499 -744.697998
50.091801 34.903301 -744.688599
49.871498 34.963200 -744.674316
49.620399 34.961102 -744.640930
49.323299 34.866901 -744.578979
49.105801 34.765999 -744.525818
48.859600 34.608601 -744.455078
48.611801 34.449402 -744.383911
48.378700 34.488701 -744.362915
48.162498 34.562302 -744.352478
47.958000 34.659100 -744.349182
47.750401 34.749901 -744.344177
47.585999 34.925499 -744.365417
47.296501 34.856499 -744.310608
47.013901 34.802399 -744.260376
46.713200 34.549801 -744.159424
46.460701 34.556801 -744.127930
46.237301 34.456299 -744.074219
46.030399 34.388302 -744.030518
54.718201 34.347000 -744.927612
54.440701 34.384800 -744.900574
54.265800 34.536499 -744.914795
54.084301 34.673000 -744.924377
53.894001 34.789902 -744.928223
53.718700 34.939201 -744.941772
53.542599 35.086601 -744.954773
53.331001 35.156200 -744.944214
53.088600 35.159698 -744.913330
52.830898 35.131100 -744.872620
52.586899 35.132999 -744.841125
52.334000 35.116501 -744.804016
52.132500 35.036598 -744.758118
51.872898 35.008099 -744.717224
51.628799 35.013302 -744.686523
51.427601 35.109200 -744.683716
51.221001 35.194099 -744.677429
50.977299 35.201900 -744.647522
50.695702 35.132099 -744.593628
50.486698 35.042702 -744.544312
50.264400 35.097198 -744.528625
50.035400 35.138500 -744.508728
49.777699 35.122002 -744.471008
49.520599 35.107800 -744.433899
49.202301 34.971199 -744.358826
49.044300 34.821701 -744.301575
48.806198 34.680500 -744.235779
48.529202 34.462898 -744.146423
48.341702 34.593498 -744.153870
48.219898 34.854000 -744.201721
48.069302 35.056599 -744.231506
47.943600 35.307098 -744.276428
47.766800 35.456402 -744.289673
47.520000 35.468800 -744.260498
47.352299 35.306801 -744.198914
47.094101 35.134201 -744.122925
46.864399 35.018501 -744.064575
46.581501 34.965302 -744.014526
46.286301 34.889900 -743.957520
46.060501 34.621101 -743.862183
54.926800 34.408798 -744.846619
54.600601 34.541698 -744.836487
54.048100 34.932301 -744.859985
53.742100 35.149799 -744.873413
48.659000 34.874901 -744.141785
48.359501 35.115601 -744.161621
48.211601 35.322498 -744.192993
48.071201 35.543301 -744.228821
47.876900 35.657398 -744.231323
47.626598 35.662201 -744.199829
46.697300 35.173801 -743.958679
46.406200 35.105499 -743.903870
45.917702 34.754002 -743.754028
54.583302 34.763199 -744.778076
54.407600 34.911900 -744.791626
54.032501 35.155300 -744.802429
53.528000 35.292099 -744.770203
53.303600 35.333698 -744.751221
53.037201 35.285198 -744.704529
52.778099 35.253502 -744.663025
52.524300 35.234299 -744.625183
52.248501 35.169399 -744.573303
52.032398 35.232300 -744.560486
51.834099 35.333099 -744.559387
51.616600 35.393700 -744.545898
51.407600 35.472099 -744.537903
51.171799 35.495201 -744.512817
50.877399 35.397400 -744.450500
50.660999 35.291401 -744.396301
50.414902 35.296299 -744.365417
50.170601 35.305302 -744.335815
49.906700 35.275398 -744.294006
49.636501 35.233501 -744.248474
49.432899 35.159000 -744.203674
49.164200 34.953999 -744.118408
48.957901 34.876099 -744.072388
48.649899 35.099499 -744.087097
48.440498 35.351501 -744.121521
48.291801 35.555698 -744.152222
48.068501 35.777901 -744.177612
47.274799 35.544800 -744.017029
47.058601 35.289501 -743.926208
46.473999 35.309502 -743.854919
46.229401 35.343399 -743.831299
55.323399 34.656300 -744.694519
55.099701 34.696800 -744.675415
54.870499 34.725399 -744.652588
54.650799 34.956001 -744.680786
54.400600 35.117599 -744.687988
54.209301 35.230598 -744.690979
53.935600 35.339901 -744.682312
53.715599 35.389900 -744.666016
52.387199 35.332699 -744.479614
52.186699 35.427799 -744.476929
51.987301 35.525501 -744.474976
51.765800 35.576698 -744.458923
51.020302 35.564602 -744.359070
50.050098 35.440300 -744.202576
49.306198 35.113602 -744.025818
48.855000 35.048100 -743.951172
48.436298 35.717602 -744.061279
48.298698 35.942600 -744.098816
48.091900 36.030701 -744.093506
47.837299 36.025398 -744.059204
47.625900 35.941200 -744.010986
47.367599 35.766701 -743.934692
47.121899 35.618301 -743.866272
46.907799 35.531898 -743.817322
46.620098 35.468399 -743.764282
55.048100 34.846600 -744.510681
54.892502 35.040001 -744.538208
54.690601 35.129200 -744.533997
54.365200 35.302299 -744.534424
54.152500 35.367699 -744.522888
53.560799 35.489601 -744.476318
53.313599 35.481300 -744.442078
53.042599 35.422798 -744.392578
52.791500 35.408100 -744.356384
52.596699 35.514900 -744.357483
52.409199 35.637100 -744.363281
52.192699 35.697498 -744.349976
51.975498 35.757000 -744.336487
51.716000 35.727901 -744.295715
51.476700 35.741901 -744.268127
51.236599 35.755199 -744.240295
50.911098 35.592300 -744.158020
50.705299 35.508202 -744.110596
50.485500 35.566601 -744.096497
50.265900 35.625500 -744.082520
49.877300 35.509800 -744.003723
49.636799 35.359200 -743.935425
49.213699 35.178699 -743.836121
48.968102 35.189899 -743.807007
48.817501 35.558998 -743.878418
48.687599 35.800400 -743.921021
48.543701 36.012798 -743.954590
48.355801 36.137600 -743.960876
48.137100 36.201900 -743.948425
47.463902 36.036301 -743.820374
47.194000 36.004002 -743.777527
46.922600 35.806400 -743.693604
46.677601 35.661400 -743.626221
46.431099 35.633598 -743.587280
55.631199 34.875301 -744.362000
55.405499 34.910099 -744.341309
55.251099 35.106201 -744.369690
55.062500 35.224300 -744.374390
54.854000 35.298100 -744.365479
54.641800 35.363499 -744.354187
54.425701 35.420601 -744.340271
54.200600 35.458302 -744.320374
53.976200 35.498001 -744.301086
53.758202 35.551998 -744.286072
53.529900 35.584202 -744.264526
53.279202 35.568401 -744.228088
53.080299 35.665100 -744.226196
52.908199 35.819199 -744.241882
52.687302 35.868801 -744.225525
52.464500 35.914700 -744.207886
52.204899 35.883099 -744.166382
51.979900 35.925598 -744.147827
51.732601 35.921700 -744.114685
51.481300 35.910500 -744.079407
51.270000 35.812302 -744.027771
51.051201 35.699699 -743.971619
50.786301 35.663399 -743.928284
50.566299 35.720699 -743.913879
50.328300 35.741600 -743.888184
50.057400 35.695801 -743.841797
49.830601 35.572300 -743.781921
49.563702 35.368500 -743.697021
49.310799 35.363300 -743.662903
49.023399 35.289902 -743.607483
48.879799 36.006100 -743.765686
48.749802 36.245499 -743.807922
48.555698 36.357300 -743.810425
48.334000 36.414501 -743.795715
48.037701 36.326302 -743.735474
47.783199 36.320900 -743.701172
47.532902 36.324799 -743.669678
47.328201 36.254601 -743.625916
47.049301 36.204899 -743.577515
46.416302 35.477200 -743.315674
46.208698 35.242699 -743.230896
46.032200 35.068600 -743.164978
45.614101 34.761799 -743.035095
55.584000 35.045300 -744.187073
55.421799 35.223202 -744.210083
55.219002 35.308998 -744.205078
55.018398 35.399899 -744.201599
54.810001 35.473301 -744.192688
54.594501 35.530998 -744.179077
54.373600 35.577202 -744.161926
54.140202 35.596401 -744.136414
53.904701 35.611500 -744.109619
53.681000 35.653099 -744.090881
53.482700 35.750401 -744.089294
53.290001 35.859600 -744.091370
53.102600 35.980202 -744.096924
52.871601 36.007198 -744.073730
52.635502 36.023800 -744.047180
52.408100 36.059601 -744.026611
52.170898 36.075500 -743.999817
51.922199 36.067799 -743.965576
51.660702 36.034199 -743.923401
51.159401 35.844799 -743.811584
50.915100 35.850498 -743.781311
50.680500 35.876801 -743.757385
50.258801 35.859699 -743.698486
49.940201 35.717300 -743.622009
49.665600 35.497299 -743.531982
49.461700 35.422100 -743.486877
49.205502 35.410599 -743.450928
49.029999 36.063000 -743.589600
48.890900 36.284401 -743.626282
48.694302 36.390800 -743.627197
48.480598 36.463501 -743.617493
48.236698 36.477200 -743.589294
47.995300 36.496700 -743.562805
47.760399 36.529400 -743.540527
47.492001 36.497799 -743.497925
47.242401 36.341099 -743.426819
46.910500 36.027000 -743.306030
46.611698 35.778599 -743.205872
46.393902 35.687401 -743.155090
46.089100 35.430698 -743.052124
45.749901 35.305500 -742.977112
55.828400 35.026699 -744.049500
55.685299 35.248001 -744.085815
52.559399 36.182499 -743.912170
51.493099 36.001701 -743.729126
50.476398 35.942200 -743.582581
50.123699 35.897900 -743.525879
49.135300 36.249699 -743.484924
46.027401 35.617100 -742.925171
45.881001 35.847000 -742.963196
56.009701 35.183800 -743.941711
55.847099 35.342098 -743.960022
55.659000 35.459801 -743.964783
55.453701 35.538700 -743.957886
55.183498 35.651901 -743.950989
54.907001 35.751099 -743.939819
54.680599 35.783798 -743.918579
54.449799 35.806999 -743.894470
54.193699 35.775600 -743.853577
53.994801 35.869999 -743.851318
53.822300 36.021900 -743.866577
53.625999 36.121899 -743.866089
53.401402 36.160801 -743.846680
53.173500 36.193001 -743.825073
52.940701 36.215302 -743.800476
52.722801 36.270100 -743.785889
52.415699 36.308498 -743.755676
52.147701 36.258900 -743.708679
51.869499 36.189098 -743.655273
51.319901 36.068199 -743.554077
51.078800 36.079498 -743.525574
50.838699 36.093498 -743.497986
50.322601 36.050701 -743.420593
49.921501 35.740398 -743.291504
49.700199 35.629002 -743.235229
49.410198 35.548302 -743.177612
48.996899 36.389301 -743.333008
48.801300 36.497299 -743.334473
48.591900 36.577900 -743.327393
48.352001 36.598900 -743.301575
48.128300 36.652401 -743.285889
47.890900 36.679501 -743.261780
47.634499 36.670601 -743.226379
47.392899 36.528801 -743.159912
45.976299 35.484600 -742.716980
45.760101 35.679798 -742.737488
56.212200 35.308300 -743.870178
51.683498 36.162498 -743.498413
50.589802 36.110298 -743.344116
49.163700 36.243999 -743.193298
50.109901 35.920799 -743.217285
56.008999 35.429501 -743.829102
54.167999 35.974400 -743.728516
53.992599 36.119202 -743.742004
53.799702 36.225601 -743.743713
52.577900 36.382801 -743.625916
49.574299 35.702702 -743.070374
47.215500 36.581200 -742.986328
56.355900 35.426899 -743.727783
55.909698 35.602001 -743.714417
55.643101 35.721600 -743.710083
55.362099 35.809200 -743.695984
55.131901 35.831600 -743.672119
54.917301 35.889400 -743.658997
54.690701 35.921001 -743.637817
54.467701 35.961201 -743.619324
53.592098 36.335701 -743.600586
53.356499 36.350399 -743.573975
53.134499 36.394901 -743.556702
52.891399 36.394699 -743.525513
52.407700 36.402599 -743.465393
52.143799 36.361301 -743.421204
51.874901 36.310902 -743.374084
51.518700 36.250599 -743.313416
51.285900 36.278000 -743.290283
51.032299 36.263000 -743.254028
50.770901 36.233200 -743.213074
50.400101 36.149502 -743.144592
49.922501 35.852200 -743.008972
49.686100 35.878201 -742.985107
49.147499 36.465099 -743.062805
48.943401 36.555599 -743.059326
48.731499 36.630600 -743.050781
48.519798 36.706501 -743.042725
48.299900 36.766602 -743.029480
48.048302 36.765301 -742.996887
47.752300 36.679001 -742.937317
47.542000 36.597198 -742.889893
47.129200 36.288898 -742.759827
56.515400 35.513699 -743.587585
56.270699 35.589901 -743.575500
55.952499 35.773300 -743.580872
55.522800 35.884899 -743.554016
54.651501 36.085400 -743.492920
54.471802 36.220402 -743.503784
54.285198 36.340000 -743.510071
54.004700 36.429901 -743.496826
53.758400 36.419701 -743.462708
52.740002 36.490299 -743.350281
51.728802 36.418499 -743.203125
50.658798 36.242100 -743.022095
50.302101 36.019100 -742.920471
50.089298 35.922699 -742.869080
49.769299 35.778599 -742.792114
49.514301 35.767601 -742.756714
49.149799 36.206501 -742.820313
47.927799 36.761902 -742.803528
47.354698 36.627800 -742.696716
56.160301 35.760201 -743.482483
55.747299 35.909100 -743.467285
55.292099 35.963402 -743.422913
55.075401 36.015999 -743.408508
54.848900 36.046902 -743.387390
53.528500 36.502899 -743.333679
53.288601 36.508099 -743.304382
53.050098 36.516800 -743.276184
52.553902 36.495800 -743.207581
52.282600 36.437599 -743.158386
52.034199 36.429199 -743.124573
51.539902 36.420101 -743.059326
51.290100 36.411400 -743.025330
51.023399 36.368698 -742.980530
49.340199 35.802898 -742.623474
49.063900 36.418499 -742.743225
48.893398 36.576500 -742.761230
48.682701 36.654400 -742.753906
48.484699 36.757500 -742.754578
48.241299 36.771400 -742.726990
47.757000 36.642899 -742.632874
47.552502 36.571800 -742.588989
54.187801 36.507500 -743.351379
50.451000 36.174400 -742.791077
49.941502 35.807499 -742.633789
49.708500 35.670502 -742.569580
49.217300 36.024502 -742.596130
47.362900 36.496799 -742.478577
53.957401 36.519600 -743.276978
52.842701 36.550900 -743.142822
51.849800 36.512001 -743.006470
50.790699 36.350101 -742.830627
50.231201 36.044601 -742.682373
49.475300 35.684601 -742.495422
48.006802 36.754299 -742.577576
49.269402 35.672199 -742.407227
53.728901 36.570202 -743.161316
53.415699 36.588299 -743.125977
53.164902 36.567299 -743.088684
52.421700 36.530899 -742.984985
52.182301 36.538799 -742.956482
51.609501 36.529800 -742.881287
51.178600 36.479900 -742.813782
48.821499 36.709900 -742.571777
48.584000 36.733002 -742.547424
48.325401 36.713799 -742.509583
47.771099 36.604698 -742.411621
52.651402 36.587002 -742.964783
50.962299 36.450500 -742.715515
50.640400 36.288898 -742.633728
50.354900 36.206299 -742.576477
49.143902 35.920799 -742.350403
54.011501 36.647099 -743.097778
52.968300 36.650299 -742.965576
51.975399 36.602299 -742.826782
50.153999 36.089298 -742.465027
49.052101 36.149601 -742.339600
53.588001 36.649700 -742.979309
52.303501 36.663101 -742.818726
51.433498 36.538898 -742.676208
48.891998 36.297901 -742.290771
53.315701 36.677601 -742.882813
51.752201 36.619400 -742.668213
51.205200 36.494701 -742.566711
50.865601 36.467899 -742.516479
50.593300 36.237999 -742.423706
53.855801 36.716801 -742.838928
53.136902 36.726398 -742.749329
52.898800 36.734501 -742.720886
52.658100 36.737701 -742.690918
52.188202 36.771702 -742.639282
50.436199 36.164200 -742.261780
53.702202 36.796398 -742.689087
53.462700 36.799400 -742.659424
52.510101 36.830601 -742.545776
52.024300 36.830299 -742.483826
51.804401 36.705200 -742.424072
51.540100 36.661098 -742.379272
51.263000 36.590801 -742.326172
51.045700 36.475101 -742.269226
50.832500 36.369099 -742.215088
50.311501 36.308498 -742.133423
53.234600 36.861801 -742.504028
52.996399 36.868801 -742.475525
52.764900 36.891701 -742.451782
52.267799 36.864201 -742.381592
50.677799 36.420101 -742.066711
53.570900 36.934601 -742.398682
52.588299 36.896999 -742.264282
52.147099 36.816200 -742.187683
