94.632797 46.573101 -766.981079
94.542503 46.282398 -767.538513
94.453697 46.000500 -768.100525
94.349403 45.629700 -768.617126
94.252197 45.300098 -769.155701
94.153503 44.961700 -769.690613
94.057899 44.641701 -770.235413
93.963501 44.328499 -770.783997
93.868500 44.012100 -771.331726
93.775597 43.707401 -771.885498
93.675400 43.362000 -772.420471
93.580200 43.017101 -772.869385
93.502998 42.802299 -773.467102
93.419800 42.553398 -774.048828
93.332001 42.278999 -774.618774
93.250900 42.042000 -775.205872
93.164398 41.774200 -775.779175
93.079903 41.518501 -776.358093
92.985298 41.205601 -776.912415
92.911102 41.007702 -777.516602
92.828300 40.761101 -778.099915
92.753502 40.559101 -778.701782
92.676003 40.342602 -779.297607
92.603996 40.155998 -779.905396
92.524101 39.925999 -780.495422
92.460602 39.786098 -781.121216
92.402496 39.676601 -781.757996
92.361504 39.634499 -782.335083
92.328201 39.634602 -782.927002
92.240799 39.336102 -783.404724
97.358299 56.407001 -744.424072
97.272400 56.145699 -744.998779
97.161903 55.753399 -745.533813
97.069603 55.434200 -746.010986
96.982399 55.142799 -746.498108
96.892502 54.837399 -746.982178
96.799400 54.515099 -747.462891
96.713203 54.229599 -747.955627
96.625603 53.937801 -748.447815
96.532600 53.617298 -748.933289
96.438004 53.289101 -749.418213
96.356201 53.028599 -749.922974
96.272301 52.757500 -750.426086
96.179604 52.440498 -750.918213
96.072800 52.049702 -751.392883
95.978996 51.728100 -751.887329
95.895103 51.458599 -752.396423
95.821404 51.243198 -752.919922
95.740799 50.991901 -753.435486
95.652802 50.702099 -753.942993
95.559898 50.387001 -754.445923
95.457901 50.024502 -754.939575
95.341400 49.587399 -755.418518
95.229401 49.150002 -755.817078
95.129601 48.800999 -756.320129
95.040604 48.508999 -756.837219
94.945198 48.184299 -757.348816
94.852097 47.871498 -757.864624
94.746002 47.467602 -758.280518
94.634499 47.012001 -758.605103
94.520897 46.600700 -759.126282
94.431099 46.323399 -759.709412
94.357697 46.110401 -760.236694
94.254799 45.725201 -760.664185
94.170601 46.854900 -766.214417
94.087402 46.609200 -766.796692
94.000000 46.339699 -767.366089
93.897697 45.984299 -767.890808
93.795799 45.632000 -768.417908
93.694397 45.282700 -768.947510
93.603798 44.995201 -769.508972
93.512901 44.705898 -770.069885
93.411400 44.356998 -770.601624
93.314796 44.035999 -771.147888
93.214600 43.694302 -771.684814
93.110001 43.328499 -772.211121
93.004097 43.011799 -772.936584
92.913803 42.726700 -773.502319
92.829697 42.477001 -774.084473
92.740501 42.198101 -774.653503
92.654404 41.937000 -775.230774
92.579903 41.741100 -775.837097
92.487297 41.443600 -776.398376
92.399200 41.171001 -776.971130
92.322800 40.964298 -777.572327
92.233398 40.685200 -778.142578
92.166298 40.529598 -778.765015
92.080498 40.269901 -779.343689
92.001801 40.050201 -779.939026
91.923500 39.832600 -780.534973
91.853401 39.660099 -781.148987
91.814400 39.631302 -781.733582
91.778198 39.617802 -782.322693
91.743500 39.611801 -782.913086
96.831299 56.621498 -744.048279
96.776802 56.531700 -744.677307
96.663101 56.098202 -745.114380
96.569702 55.774700 -745.588318
96.468102 55.407200 -746.050110
96.371399 55.092400 -746.612122
96.276398 54.761501 -747.088501
96.192101 54.488098 -747.583374
96.101601 54.182201 -748.069885
96.012703 53.885101 -748.560486
95.925201 53.596199 -749.054626
95.831398 53.298698 -749.629883
95.748497 53.034401 -750.133423
95.660896 52.745998 -750.631409
95.568199 52.431198 -751.123779
95.463402 52.052601 -751.601074
95.357498 51.668900 -752.079224
95.277496 51.447201 -752.682617
95.206001 51.269798 -753.297607
95.127899 51.033699 -753.816528
95.033997 50.715000 -754.316528
94.931801 50.353401 -754.808228
94.825996 49.973202 -755.297607
94.716202 49.548302 -755.696411
94.604202 49.137699 -756.183411
94.484100 48.685101 -756.663696
94.399498 48.417999 -757.186279
94.294601 48.045898 -757.687988
94.194099 47.672401 -758.108582
94.076401 47.186100 -758.424927
93.985802 46.889900 -758.948181
93.895302 46.602001 -759.499084
93.801003 46.300400 -760.067993
93.732597 47.339298 -764.968628
93.652000 47.111900 -765.563171
93.569603 46.874100 -766.151428
93.475800 46.570499 -766.703918
93.376801 46.237000 -767.240784
93.269402 45.856201 -767.753601
93.179199 45.573200 -768.318420
93.102402 45.367699 -768.922974
93.007698 45.058998 -769.474487
92.900398 44.679298 -769.990723
92.801903 44.350201 -770.533203
92.703499 44.021198 -771.076477
92.607101 43.675598 -771.524414
92.505402 43.328899 -772.060913
92.430702 43.135101 -772.671021
92.341301 42.857601 -773.241028
92.256699 42.607601 -773.824097
92.164299 42.313599 -774.386780
92.076500 42.045700 -774.961914
91.997200 41.825401 -775.558472
91.906700 41.542500 -776.127075
91.818398 41.271999 -776.701599
91.735497 41.031300 -777.289185
91.653397 40.794998 -777.878784
91.568497 40.543800 -778.461975
91.497200 40.367298 -779.076599
91.430000 40.213699 -779.700073
91.354103 40.011700 -780.302979
91.265297 39.738499 -780.877319
91.195900 39.572300 -781.494385
91.167297 39.603001 -782.102905
91.123596 39.550598 -782.677429
93.496902 47.639599 -764.393494
96.276604 57.583599 -743.766724
96.204300 57.386101 -744.329773
96.080101 56.893902 -744.742676
95.956001 56.378601 -745.069092
95.846703 55.942902 -745.423523
95.749001 55.595001 -745.890198
95.652603 55.279099 -746.450684
95.556801 54.942299 -746.924072
95.463799 54.645100 -747.493225
95.375702 54.349998 -747.981873
95.280403 54.041500 -748.550415
95.194504 53.758598 -749.045227
95.106300 53.464401 -749.538086
95.015800 53.157700 -750.028870
94.917801 52.812599 -750.510681
94.830101 52.521599 -751.008728
94.734901 52.192101 -751.497925
94.641998 51.875099 -751.991882
94.544296 51.533199 -752.481323
94.481697 51.399899 -753.107178
94.412102 51.230202 -753.723999
94.324203 50.940601 -754.229797
94.224701 50.591202 -754.722778
94.122299 50.227100 -755.214172
94.012497 49.825001 -755.698914
93.905197 49.412300 -756.100830
93.795898 48.989700 -756.502686
93.697800 48.650299 -757.007874
93.591904 48.246799 -757.418274
93.471802 47.770302 -757.815308
93.371803 47.423100 -758.325012
93.282303 47.130199 -758.847717
93.194099 46.844601 -759.373108
93.118202 46.622601 -759.912292
93.168297 47.923599 -763.754517
93.034103 47.532799 -764.711670
92.946999 47.265900 -765.285400
92.851997 46.953499 -765.834106
92.760300 46.660099 -766.393494
92.653000 46.277802 -766.905273
92.564903 46.005100 -767.476501
92.510101 45.893700 -768.043213
92.422096 45.621498 -768.613892
92.324997 45.297600 -769.157898
92.217796 44.888500 -769.570313
92.112503 44.518700 -770.093018
92.024002 44.244499 -770.664429
91.920998 43.860100 -771.093079
91.834503 43.597000 -771.670898
91.759804 43.400398 -772.280884
91.660500 43.065800 -772.824219
91.572899 42.796501 -773.399170
91.482498 42.512199 -773.967224
91.390297 42.217701 -774.530884
91.313599 42.009602 -775.134521
91.219498 41.704498 -775.693787
91.128304 41.415600 -776.260925
91.054001 41.220901 -776.869995
90.984100 41.050400 -777.489075
90.911201 40.862900 -778.100220
90.824600 40.599800 -778.678589
90.737900 40.336201 -779.257202
90.663300 40.139198 -779.863586
90.569603 39.837299 -780.426819
90.522202 39.763000 -780.997009
90.461502 39.641499 -781.632690
92.900200 48.158298 -763.252930
92.763702 47.752602 -764.202881
95.762299 57.834301 -743.661011
95.694199 57.664799 -744.260315
95.584297 57.247002 -744.696411
95.454498 56.699100 -745.010498
95.324799 56.152199 -745.328125
95.175301 55.598598 -745.976501
95.081703 55.295300 -746.541321
94.988701 54.971298 -747.018677
94.893898 54.662399 -747.584595
94.805801 54.364799 -748.072815
94.705597 54.028400 -748.633423
94.618202 53.735199 -749.125671
94.523201 53.427299 -749.697510
94.433701 53.124199 -750.189819
94.337502 52.786301 -750.673889
94.249496 52.491600 -751.171326
94.149498 52.134800 -751.653687
94.055298 51.809101 -752.146118
93.968697 51.523102 -752.650330
93.889503 51.300999 -753.254272
93.823402 51.147301 -753.875916
93.750999 50.936600 -754.401428
93.650597 50.580399 -754.893005
93.535698 50.148602 -755.369019
93.418999 49.708698 -755.845581
93.300499 49.260300 -756.322998
93.198601 48.874699 -756.734070
93.085098 48.453201 -757.222290
92.971703 47.984901 -757.536682
92.884903 47.703499 -758.059326
92.791702 47.389301 -758.576477
92.695900 47.061699 -759.092590
92.601601 46.742901 -759.612122
92.465401 47.473499 -764.744873
92.375504 47.188599 -765.309570
92.275398 46.873600 -765.947998
92.180000 46.556400 -766.495300
92.083504 46.233398 -767.039917
92.014000 46.064800 -767.666992
91.932503 45.827202 -768.256714
91.837097 45.510502 -768.804688
91.737801 45.143799 -769.238525
91.632301 44.770302 -769.759216
91.537498 44.429901 -770.208679
91.439598 44.100101 -770.753174
91.340202 43.762199 -771.294617
91.282600 43.631699 -771.849487
91.190002 43.332100 -772.409912
91.095596 43.022701 -772.965881
91.003197 42.724098 -773.527588
90.913200 42.439701 -774.096375
90.822800 42.152401 -774.664185
90.725700 41.828400 -775.215576
90.651802 41.633701 -775.825989
90.581299 41.457901 -776.444275
90.493797 41.187199 -777.020020
90.411499 40.945301 -777.608582
90.334900 40.735401 -778.210876
90.244598 40.449501 -778.780579
90.175003 40.277699 -779.398804
90.093903 40.042702 -779.990173
90.010399 39.794399 -780.576172
89.962601 39.715900 -781.145081
92.570602 48.342602 -762.506470
92.440804 47.994099 -763.564819
94.838600 56.130001 -745.664673
92.266403 48.240299 -762.981812
92.109802 47.743301 -763.972900
91.876099 47.032398 -765.568970
95.064697 57.925900 -743.692078
95.001900 57.780899 -744.288025
94.897598 57.393200 -744.735779
94.775398 56.886101 -745.065186
94.499496 55.804501 -746.041321
94.375900 55.317299 -746.468628
94.280899 54.982800 -746.944885
94.194504 54.719002 -747.526489
94.112099 54.476700 -748.115173
94.022102 54.169800 -748.603699
93.928902 53.846802 -749.088989
93.836899 53.530102 -749.577576
93.756203 53.273701 -750.084412
93.663803 52.956200 -750.575623
93.581497 52.692200 -751.082581
93.481499 52.334900 -751.566223
93.388298 52.014400 -752.061218
93.296204 51.700001 -752.559387
93.205597 51.393902 -753.061218
93.119202 51.110401 -753.569885
93.057800 50.981499 -754.199890
92.979401 50.764301 -754.808899
92.879601 50.411499 -755.304688
92.770699 50.012100 -755.791687
92.641197 49.482800 -756.169312
92.529198 49.068802 -756.658081
92.424301 48.668400 -757.069275
92.314102 48.241199 -757.476807
92.231300 47.980400 -758.004578
92.150101 47.727699 -758.535278
92.064102 47.451000 -759.062073
91.948898 47.023800 -759.560791
91.778900 47.516499 -764.437988
91.696602 47.274502 -765.028015
91.538200 46.769100 -766.014771
91.443199 46.455101 -766.565308
91.369003 46.259399 -767.179077
91.295700 46.068199 -767.794373
91.205299 45.780102 -768.358215
91.100998 45.413101 -768.881470
91.001801 45.075100 -769.420715
90.905899 44.728401 -769.867310
90.803703 44.346199 -770.297302
90.702797 43.999599 -770.835022
90.648003 43.885201 -771.398682
90.560799 43.615299 -771.974182
90.470703 43.329700 -772.542175
90.382004 43.052200 -773.114319
90.290398 42.730801 -773.578308
90.213699 42.520302 -774.182190
90.132202 42.283298 -774.773621
90.035500 41.960999 -775.326172
89.940300 41.620701 -775.784424
89.856102 41.368401 -776.369629
89.787102 41.200699 -776.992126
89.699303 40.901600 -777.470215
89.613800 40.642300 -778.052917
89.534500 40.417702 -778.650391
89.468201 40.264198 -779.277283
89.401001 40.105099 -779.901306
89.325798 39.902199 -780.506714
89.233299 39.578701 -780.977722
94.465599 56.575100 -745.463806
91.880898 48.432201 -762.024475
91.829201 48.338501 -762.611023
91.738602 48.048500 -763.175171
91.465797 47.859501 -763.639099
91.214996 47.083401 -765.293701
94.429802 57.708099 -744.181885
94.326103 57.380199 -744.831726
94.040199 56.249001 -745.792114
93.922897 55.796799 -746.230225
93.815903 55.400902 -746.687927
93.708900 55.004601 -747.147705
93.601196 54.605999 -747.608887
93.516296 54.353100 -748.197083
93.432297 54.080399 -748.697876
93.342903 53.780102 -749.192078
93.254898 53.487301 -749.689697
93.169601 53.209202 -750.192627
93.087196 52.946602 -750.700806
92.993698 52.626099 -751.194885
92.909599 52.355000 -751.703430
92.816299 52.036701 -752.200989
92.725800 51.733101 -752.703918
92.628098 51.392399 -753.199219
92.531303 51.056400 -753.697327
92.457802 50.867199 -754.314819
92.382896 50.646702 -754.842712
92.300598 50.387798 -755.362610
92.200500 50.037102 -755.863098
92.090302 49.609699 -756.265625
91.966400 49.136200 -756.743408
91.855202 48.729599 -757.238403
91.744598 48.327099 -757.736511
91.660896 48.063702 -758.265381
91.585197 47.841801 -758.803711
91.484001 47.488300 -759.314209
91.237801 47.623199 -764.184998
91.149498 47.349499 -764.758728
90.975098 46.786201 -765.806824
90.889099 46.526299 -766.387878
90.833000 46.407398 -766.953613
90.744797 46.134399 -767.526672
90.664101 45.904400 -768.122192
90.568001 45.586102 -768.671692
90.471100 45.235600 -769.116394
90.369499 44.886902 -769.651978
90.274002 44.544300 -770.102783
90.178703 44.203602 -770.555481
90.103996 44.007500 -771.168274
90.017700 43.745800 -771.748779
89.927002 43.431599 -772.216125
89.848801 43.215099 -772.818420
89.765900 42.972099 -773.407776
89.675400 42.687199 -773.977783
89.583603 42.394798 -774.544678
89.486900 42.075401 -775.099915
89.393501 41.774300 -775.664001
89.300400 41.475201 -776.229614
89.209999 41.164299 -776.703430
89.125900 40.915501 -777.291992
89.044601 40.682499 -777.887329
88.960503 40.433300 -778.475891
88.887802 40.247601 -779.090820
88.848198 40.216599 -779.682373
88.766701 39.981800 -780.276123
94.011398 57.000999 -745.249573
91.355400 48.582298 -761.629211
91.292999 48.432098 -762.184814
91.204803 48.162399 -762.762573
90.913002 47.922298 -763.268127
90.658798 47.169300 -765.033325
88.340797 39.957401 -779.887878
93.659302 57.230301 -744.825928
93.528503 56.778702 -745.507874
93.410599 56.322399 -745.943726
93.295197 55.880199 -746.386292
93.174500 55.410099 -746.823120
93.066704 55.009800 -747.283325
92.958504 54.608002 -747.745422
92.863998 54.279900 -748.230774
92.784698 54.032902 -748.740906
92.702003 53.768101 -749.246887
92.614403 53.477798 -749.746887
92.529999 53.204399 -750.252930
92.443298 52.919701 -750.756897
92.360802 52.657001 -751.268005
92.278702 52.396999 -751.780884
92.181000 52.055199 -752.273987
92.089996 51.749401 -752.778015
91.992302 51.408600 -753.274719
91.889900 51.043701 -753.767517
91.799797 50.743698 -754.277527
91.731003 50.555801 -754.815186
91.656197 50.336498 -755.346313
91.555397 49.981701 -755.847595
91.442596 49.564800 -756.337097
91.342102 49.188801 -756.754517
91.239197 48.800499 -757.171204
91.160004 48.560101 -757.704529
91.071899 48.273998 -758.229309
90.999397 48.069302 -758.771912
90.912498 47.790298 -759.300476
90.662697 47.800701 -763.766174
90.572800 47.518700 -764.337830
90.379997 46.880001 -765.440430
90.300301 46.656502 -766.044006
90.220299 46.431702 -766.646179
90.131401 46.155201 -767.220520
90.066299 45.986301 -767.761108
89.979797 45.723400 -768.341980
89.884804 45.411800 -768.897888
89.792801 45.089298 -769.359375
89.700600 44.765900 -769.821289
89.602600 44.409801 -770.267822
89.524803 44.196602 -770.874573
89.433403 43.878601 -771.341125
89.339798 43.576099 -771.904724
89.259499 43.349098 -772.504517
89.180099 43.126801 -773.106079
89.087402 42.829700 -773.672729
88.999100 42.557301 -774.250977
88.904602 42.250702 -774.814026
88.809502 41.940498 -775.375977
88.720200 41.663101 -775.953125
88.634903 41.408001 -776.540405
88.544502 41.124401 -777.115479
88.450104 40.819199 -777.681824
88.371696 40.602001 -778.285889
88.314697 40.476700 -778.841309
88.258102 40.353401 -779.396912
90.897499 48.749802 -761.307678
90.822502 48.529499 -761.838196
90.740097 48.291100 -762.436829
90.425003 48.066399 -762.892700
90.156799 47.267601 -764.734375
92.972801 56.673401 -745.681885
92.868698 56.292198 -746.143616
92.759399 55.884201 -746.599121
92.644402 55.446098 -747.047791
92.539200 55.060902 -747.514587
92.434898 54.681702 -747.985413
92.319199 54.241798 -748.440491
92.219498 53.888000 -748.922729
92.137901 53.631001 -749.433777
92.060097 53.394100 -749.951477
91.976196 53.125000 -750.461182
91.891296 52.851398 -750.970886
91.813301 52.614399 -751.491272
91.731796 52.359299 -752.007996
91.628197 51.987598 -752.495911
91.531097 51.651001 -752.994629
91.441902 51.356602 -753.505371
91.342102 51.007000 -754.004272
91.240898 50.650299 -754.503296
91.159897 50.400501 -755.029175
91.085602 50.185299 -755.564087
90.976700 49.790001 -756.059021
90.792503 49.151901 -757.005127
90.618599 48.568901 -757.968994
90.527298 48.267502 -758.492920
90.443298 48.004700 -759.025879
90.175697 47.920200 -763.436279
90.086899 47.646801 -764.016479
89.827499 46.837200 -765.670776
89.742996 46.589001 -766.264221
89.650398 46.293301 -766.831787
89.582199 46.108700 -767.367798
89.497597 45.859200 -767.959473
89.409500 45.589298 -768.540283
89.308296 45.244999 -769.083130
89.212097 44.900501 -769.536926
89.112099 44.534500 -769.980774
89.048599 44.376202 -770.529114
88.969398 44.157501 -771.136230
88.872902 43.840698 -771.695129
88.769798 43.457699 -772.133911
88.681801 43.189301 -772.717529
88.598701 42.948799 -773.314270
88.507401 42.661900 -773.889282
88.423103 42.414299 -774.482605
88.329597 42.115200 -775.052612
88.246300 41.872898 -775.648376
88.161201 41.620701 -776.239929
88.075401 41.337502 -776.729980
87.986198 41.062801 -777.312317
87.909599 40.858101 -777.924622
87.835098 40.664700 -778.541382
87.753304 40.431198 -779.141113
90.731300 49.466702 -756.462891
90.318298 48.733898 -761.129028
90.253998 48.572601 -761.684692
90.180496 48.358002 -762.208679
89.736504 46.988098 -765.116577
90.471802 48.848400 -757.473816
89.852303 48.152802 -762.676208
89.621101 47.473099 -764.325500
92.418999 56.544601 -745.736511
92.316299 56.219299 -746.386230
92.210999 55.830299 -746.850525
92.103401 55.429001 -747.312927
91.989899 54.997299 -747.768372
91.882896 54.600700 -748.236816
91.778297 54.218102 -748.711426
91.584396 53.510300 -749.598816
91.508904 53.284100 -750.122986
91.434700 53.065102 -750.649902
91.353699 52.810299 -751.167725
91.274101 52.562801 -751.688416
91.183899 52.259602 -752.195496
91.091301 51.944302 -752.700684
90.995499 51.612499 -753.203430
90.896202 51.262501 -753.703125
90.801003 50.934898 -754.210083
90.708397 50.621498 -754.722229
90.611099 50.283501 -755.229980
90.519302 49.975300 -755.746521
90.086304 48.526199 -758.202515
89.994102 48.218201 -758.727600
89.635902 47.806000 -763.604614
89.296501 46.768398 -765.884583
89.200897 46.454300 -766.447510
89.111900 46.178101 -767.030884
89.041100 45.977200 -767.562988
88.955498 45.720402 -768.156311
88.865196 45.407700 -768.629578
88.759300 45.034801 -769.163086
88.528999 44.357899 -770.809875
88.440201 44.083000 -771.393982
88.249702 43.431599 -772.423706
88.153801 43.116600 -772.989624
88.056099 42.792099 -773.551575
87.972397 42.517601 -774.048218
87.295197 40.486301 -778.739014
91.578796 53.928799 -749.174072
90.218300 49.332901 -756.743286
89.331001 47.180500 -764.733276
88.569099 44.805099 -769.689819
88.502602 44.628899 -770.234619
88.232903 43.757198 -771.876709
87.788498 42.325298 -774.600708
87.716599 42.117901 -775.129395
87.638100 41.873501 -775.641113
87.565102 41.660400 -776.167114
87.492302 41.447800 -776.693176
87.418999 41.232498 -777.218079
87.341499 40.993801 -777.732788
90.182999 49.695400 -756.174011
89.982002 48.989201 -757.195618
89.715500 48.660198 -760.746277
89.672203 48.610199 -761.335693
89.603600 48.424198 -761.882507
89.126198 47.009800 -765.260620
87.101097 40.631100 -778.217529
89.379303 48.046600 -763.064270
89.760803 48.810902 -757.705872
89.166901 47.617001 -763.902771
91.764603 56.146500 -746.591003
91.674202 55.839100 -747.082825
91.560303 55.405300 -747.537109
91.441704 54.946602 -747.986328
91.338600 54.572800 -748.463379
91.044701 53.510700 -749.839172
90.946800 53.166302 -750.332092
90.866501 52.917099 -750.853088
90.791199 52.694599 -751.382385
90.713799 52.461201 -751.909424
90.623199 52.157799 -752.418701
90.528999 51.835400 -752.924377
90.432404 51.500999 -753.428711
90.332901 51.151299 -753.930725
90.243797 50.857899 -754.448486
90.144501 50.510399 -754.954529
90.064102 50.263500 -755.486389
89.542297 48.506100 -758.385071
89.259499 48.220299 -762.329712
88.738197 46.687698 -766.021118
88.636597 46.341099 -766.570007
88.549797 46.080799 -767.165771
88.466202 45.808300 -767.663330
88.383797 45.543201 -768.164795
88.299301 45.265900 -768.660217
88.037003 44.502701 -770.546387
87.956703 44.249802 -771.054382
87.772797 43.669399 -772.214783
87.686798 43.383701 -772.707397
87.606003 43.128101 -773.214905
87.506203 42.793400 -773.775085
91.117302 54.258202 -748.924683
91.025398 53.945301 -749.423279
89.734497 49.587502 -756.563904
88.839798 47.347500 -764.291016
88.760300 47.099098 -764.802185
88.091904 45.045799 -769.222229
88.012100 44.825600 -769.838501
87.734398 43.944500 -771.574585
87.284302 42.491600 -774.301270
87.204002 42.239201 -774.811584
87.136803 42.060699 -775.356201
87.059998 41.828400 -775.875916
86.980499 41.580101 -776.388428
86.908897 41.377102 -776.921387
86.830002 41.132801 -777.435974
89.719597 49.974300 -755.845886
89.496498 49.177502 -756.931274
89.181602 48.158699 -758.840881
89.164398 48.666698 -760.958496
89.095100 48.479198 -761.509827
88.874496 47.899399 -763.327087
88.563599 46.943901 -765.392700
89.253197 48.979900 -757.411987
89.179802 48.769600 -757.958679
88.784203 48.140800 -762.726685
91.022797 55.874001 -746.877625
90.950401 55.684502 -747.491821
90.838997 55.259800 -747.950623
90.733498 54.867699 -748.421509
90.565399 54.239899 -749.162292
90.473297 53.921398 -749.659912
90.373001 53.558998 -750.146423
90.281502 53.244499 -750.648193
90.165497 52.799400 -751.115479
90.069199 52.460499 -751.614075
89.997299 52.251598 -752.149292
89.909798 51.960098 -752.663330
89.826103 51.689301 -753.184021
89.737602 51.393600 -753.699402
89.651703 51.111500 -754.219482
89.552696 50.761002 -754.724182
89.441399 50.345501 -755.214783
89.269501 49.759300 -756.175903
88.905998 48.587799 -758.453430
88.817703 48.690300 -760.417786
88.649597 48.261501 -761.883789
88.426903 47.656200 -763.689270
88.294800 47.216400 -764.465576
88.125099 46.737202 -765.776978
88.042099 46.463600 -766.274475
87.964203 46.219501 -766.788086
87.876900 45.921200 -767.272705
87.800201 45.683800 -767.789978
87.732597 45.499401 -768.335083
87.648804 45.221298 -768.830872
87.557602 44.929798 -769.411377
87.475700 44.691700 -770.019226
87.398804 44.453098 -770.535522
87.327301 44.245800 -771.067322
87.207901 43.850399 -771.777588
87.126602 43.586899 -772.281677
87.043900 43.315701 -772.782471
86.966797 43.076500 -773.298828
86.882698 42.797100 -773.796204
88.992699 49.441799 -756.661987
88.590500 48.611099 -760.957886
88.339897 47.942402 -763.075073
88.057999 47.066898 -765.002625
86.642303 42.564899 -774.287903
86.560501 42.295601 -774.790710
86.484596 42.059700 -775.309326
86.418404 41.878899 -775.853027
86.346497 41.665501 -776.381592
89.070702 50.059502 -755.618774
88.325401 48.185001 -762.383118
90.281303 54.708500 -748.804993
88.702698 49.120300 -757.135376
88.639503 48.957500 -757.692017
87.983200 47.396000 -763.952820
90.374802 55.665298 -747.533020
90.277100 55.334301 -748.104004
90.030296 54.420300 -749.261108
89.912697 53.983200 -749.807678
89.814003 53.624100 -750.294617
89.717003 53.274700 -750.786072
89.618797 52.919300 -751.277771
89.523499 52.580002 -751.775574
89.417297 52.182899 -752.259705
89.324699 51.859299 -752.765320
89.245598 51.608700 -753.291199
89.164101 51.345200 -753.814880
89.075401 51.043999 -754.330200
88.972198 50.665199 -754.827881
88.404900 48.755699 -758.191711
88.297302 48.724098 -760.042603
88.175003 48.467899 -761.337280
87.904198 47.685902 -763.418884
87.630501 46.854099 -765.369690
87.568199 46.696800 -765.930786
87.476997 46.369701 -766.398682
87.407898 46.172100 -766.937073
87.338097 45.970501 -767.472778
87.263802 45.742100 -767.994019
87.185699 45.492100 -768.503479
87.112198 45.268700 -769.026978
87.002800 44.894600 -769.655273
86.919998 44.617298 -770.151306
86.840897 44.361599 -770.658630
86.767601 44.139198 -771.182617
86.654297 43.771702 -771.906372
86.568398 43.505501 -772.499207
86.486603 43.234402 -772.999573
86.405998 42.970001 -773.503418
88.679100 50.325901 -755.219727
88.556900 49.896000 -755.878479
88.481903 49.668701 -756.417603
88.068100 48.745098 -760.602722
87.901199 48.250500 -761.841919
87.810600 48.017700 -762.645020
87.564796 47.258801 -764.358887
86.126900 42.710300 -773.979614
86.056999 42.506699 -774.512390
85.978104 42.251598 -775.021179
85.913803 42.080200 -775.568481
85.812599 41.698799 -776.020325
89.866798 55.198002 -748.547729
88.235603 49.322498 -756.858582
88.165398 49.121399 -757.405579
89.617104 54.773602 -749.008606
89.500099 54.338902 -749.553711
88.997200 52.495602 -751.985107
88.783997 51.697201 -752.955383
88.704697 51.445801 -753.481628
88.625397 51.194901 -754.008911
88.545799 50.942600 -754.536682
87.446098 47.780300 -763.014099
87.365097 47.513500 -763.515320
87.213501 47.132099 -764.881470
87.093697 46.726898 -765.583008
86.579597 45.167198 -769.250000
86.233704 44.030602 -771.400024
86.122597 43.675999 -772.129395
89.263298 54.051498 -749.985291
89.155403 53.642700 -750.457886
89.062698 53.316601 -750.955627
88.956398 52.917702 -751.435181
88.757401 52.195202 -752.420715
88.178802 50.139099 -755.449280
87.807800 48.956902 -757.883911
87.708801 48.599098 -758.379517
87.670601 48.822300 -759.879028
87.570396 48.587101 -760.840271
87.493599 48.359200 -761.405518
87.412598 48.155102 -762.131287
86.869400 46.551102 -766.155273
86.798500 46.344101 -766.687622
86.720901 46.096802 -767.197998
86.653603 45.910400 -767.740723
86.571098 45.634602 -768.235779
86.335197 44.875999 -769.758118
86.252197 44.597599 -770.252808
86.172997 44.341801 -770.759216
85.877701 43.384701 -772.638123
85.797798 43.124500 -773.143188
88.197304 50.547199 -754.877380
87.996696 49.850498 -755.978516
87.044502 47.327900 -764.016174
85.616402 42.872898 -773.669922
85.539101 42.629101 -774.182800
85.459099 42.369900 -774.688782
85.375801 42.091400 -775.186279
86.357903 45.400799 -768.744873
87.796700 49.569901 -756.490479
87.704102 49.277302 -757.099915
89.199600 55.162899 -748.387024
89.069000 54.757900 -749.272827
88.321404 51.994801 -752.794312
88.153297 51.391998 -753.650513
88.039902 50.958199 -754.132080
87.252098 48.744801 -760.280518
86.970497 47.948799 -762.460510
86.884300 47.683998 -763.054993
86.693901 47.141399 -764.513916
86.633904 47.002201 -765.083984
85.738602 44.210602 -771.107117
85.650703 43.904800 -771.587891
85.556999 43.595501 -772.157715
88.761002 54.450298 -749.740784
88.651901 54.035099 -750.209412
88.550102 53.660801 -750.691711
88.454002 53.317902 -751.184387
88.348602 52.924801 -751.665405
88.235001 52.487900 -752.137085
87.646202 50.358799 -755.053284
87.554497 50.045399 -755.569580
87.268898 49.153900 -757.476379
87.191597 48.919701 -758.015930
87.111298 48.929501 -759.457397
86.950302 48.501999 -760.790588
86.866501 48.250801 -761.386230
86.603104 47.561401 -763.604492
86.346001 46.842300 -765.609375
86.269699 46.605900 -766.124573
86.194397 46.375198 -766.642700
86.114098 46.115101 -767.145020
86.038902 45.884701 -767.663086
85.963501 45.653599 -768.180603
85.849098 45.314701 -769.006104
85.767799 45.048500 -769.505310
85.685699 44.777302 -770.002075
85.606598 44.524601 -770.508606
85.254501 43.363701 -772.643188
85.169701 43.077999 -773.135071
85.067596 42.750801 -773.787170
84.987000 42.489399 -774.291382
88.717697 55.028198 -748.728699
87.831299 51.830601 -753.136108
87.560699 50.857899 -754.492615
87.264397 49.802200 -756.012512
87.184502 49.553398 -756.546326
86.586601 48.095001 -761.940674
86.313499 47.347599 -764.122925
84.681000 42.158401 -774.664917
88.468300 54.884899 -749.247620
87.781403 52.362499 -752.492920
87.561600 51.586498 -753.639221
86.908997 49.285500 -757.053894
86.667297 48.870701 -759.828186
86.595100 48.665100 -760.374512
86.333702 47.957802 -762.481628
86.254601 47.706001 -762.990295
86.052498 47.163399 -764.634583
85.984596 46.979401 -765.179626
85.501701 45.511902 -768.519287
85.138901 44.353600 -770.832886
85.056602 44.082802 -771.330811
84.970497 43.790001 -771.818298
88.209297 54.555199 -749.845825
88.103798 54.161800 -750.320374
87.998299 53.769501 -750.797607
87.893402 53.380901 -751.277893
87.776398 52.927200 -751.742920
87.304497 51.231300 -754.080688
87.137398 50.616100 -754.857300
87.036499 50.227901 -755.270691
86.681999 49.106499 -757.547119
86.574501 48.685799 -757.962524
86.355400 48.442799 -760.909485
86.291100 48.283100 -761.473389
86.034103 47.611698 -763.607788
85.746498 46.783600 -765.736877
85.670303 46.550999 -766.254211
85.594803 46.322201 -766.773376
85.516998 46.079102 -767.284912
85.440598 45.845100 -767.801025
85.257004 45.287399 -769.059509
85.175201 45.020802 -769.558716
85.094398 44.760399 -770.061218
84.710503 43.485100 -772.320007
84.630798 43.231800 -772.827576
84.545303 42.944500 -773.319275
84.468201 42.706100 -773.834290
87.413101 52.122299 -752.878479
84.247398 42.495098 -774.355774
84.158897 42.229698 -774.969421
86.697800 49.943699 -755.716797
86.630096 49.765301 -756.266785
86.292801 48.936298 -759.204712
85.967201 48.095600 -761.903625
85.720596 47.497200 -764.077820
87.296997 52.843899 -752.054382
87.030701 51.872601 -753.316101
86.807297 51.057999 -754.376587
86.334396 49.351200 -756.677917
86.051903 48.841599 -759.773682
85.970001 48.587002 -760.311218
85.759300 48.164799 -762.477478
85.692398 47.990601 -763.030273
85.459396 47.271198 -764.574402
85.380699 47.024700 -765.085083
84.942001 45.715801 -768.146301
84.862000 45.461399 -768.652222
84.594597 44.599499 -770.301880
84.512802 44.335201 -770.803528
84.431503 44.073601 -771.306580
84.345596 43.785099 -771.796875
87.274200 53.523701 -750.923218
87.188301 53.241100 -751.434326
86.991699 52.568600 -752.516296
86.719101 51.563900 -753.774475
86.488197 50.710499 -754.830017
86.386803 50.347698 -755.334412
86.045700 49.170399 -757.177979
85.948097 48.833599 -757.705322
85.689201 48.463902 -760.876770
85.629402 48.333801 -761.458923
85.418602 47.883400 -763.535217
85.087196 46.798000 -765.523926
85.012497 46.575600 -766.047974
84.939201 46.361900 -766.576721
84.863701 46.134701 -767.097717
84.792099 45.930901 -767.630798
84.567001 45.224998 -769.088379
84.488503 44.980099 -769.599670
84.042801 43.502899 -772.214905
83.956299 43.211102 -772.705078
83.890297 43.039501 -773.252625
83.812798 42.800598 -773.768127
83.708702 42.528599 -774.625977
83.619598 42.252399 -775.213379
86.156601 49.792301 -755.937927
85.817398 48.929199 -758.789429
86.793503 52.246201 -752.947205
85.572197 48.871399 -759.347412
85.502800 48.714500 -759.990112
85.331703 48.440800 -761.945618
85.245300 48.253601 -762.772827
85.069199 47.721500 -763.960327
84.925201 47.249802 -764.809875
84.382698 45.565201 -768.320618
84.122902 44.759300 -770.003174
84.030800 44.436501 -770.476624
83.949799 44.179600 -770.983398
83.868797 43.923100 -771.490723
83.263298 42.122002 -775.669373
86.334198 52.378700 -752.508484
86.239601 52.051899 -753.014587
86.157402 51.793800 -753.539612
86.054703 51.424198 -754.038025
85.950302 51.045799 -754.536072
85.842003 50.619701 -754.940308
85.735603 50.231899 -755.440491
85.604797 49.766800 -756.094482
85.498497 49.381199 -756.599915
85.416000 49.125099 -757.136414
85.374702 49.092098 -757.722717
85.345497 49.124699 -758.322388
85.127602 48.652100 -760.419922
85.095001 48.666599 -761.017212
84.868301 48.199001 -763.276611
84.677498 47.575001 -764.412292
84.529404 47.077099 -765.248230
84.446800 46.809898 -765.749023
84.368698 46.569500 -766.264526
84.281403 46.273899 -766.750305
84.197601 45.999401 -767.247803
84.118698 45.754601 -767.761108
83.974403 45.313301 -768.721313
83.897301 45.079201 -769.239929
83.455299 43.604801 -771.774597
83.372597 43.338299 -772.278625
83.313698 43.211800 -772.849670
83.246498 43.036400 -773.396606
83.171303 42.813301 -773.920715
83.094704 42.582199 -774.441101
83.028900 42.414600 -774.990601
82.871803 41.960400 -776.123596
84.981903 49.097401 -758.810486
84.915001 48.924599 -759.365906
84.877701 48.910400 -759.953979
84.757896 48.759399 -761.483093
84.698898 48.635201 -762.068176
84.633499 48.471699 -762.629211
84.489197 48.061100 -763.700989
84.292099 47.396400 -764.815125
83.739601 45.606400 -768.184021
83.501801 44.829102 -769.612183
83.419800 44.564899 -770.116577
83.341904 44.324600 -770.632996
83.259804 44.060001 -771.137512
82.656799 42.288700 -775.430115
85.387901 50.880798 -754.561584
85.279999 50.512001 -755.150085
85.169998 50.077400 -755.555420
85.040398 49.646702 -756.303894
84.937798 49.281101 -756.815002
84.881302 49.166199 -757.383911
84.867699 49.282902 -758.003418
84.664597 48.997002 -760.477722
84.211998 47.819801 -764.184692
83.989304 47.070000 -765.438416
83.901901 46.773602 -765.924011
83.821404 46.518902 -766.432678
83.744202 46.284302 -766.952026
83.660202 46.008999 -767.449585
83.428703 45.273602 -768.899475
82.932800 43.703499 -772.025513
82.842796 43.393501 -772.508728
82.766502 43.164398 -773.031311
82.690201 42.935101 -773.553589
82.619102 42.736599 -774.090393
82.549698 42.547798 -774.631287
82.323700 41.907902 -776.308289
84.287102 48.374100 -763.089783
82.843498 43.958199 -771.521973
82.232498 42.207500 -775.826782
84.490303 49.132500 -758.445007
84.474098 49.242599 -759.061218
84.439400 49.251499 -759.654419
84.318001 49.043301 -760.960327
84.219299 48.792000 -761.760620
84.149101 48.608002 -762.311218
83.818100 47.629700 -764.556274
83.261398 45.828300 -767.830872
83.185799 45.609798 -768.359314
83.033203 45.129902 -769.301514
82.949203 44.860500 -769.803528
82.866997 44.602100 -770.311218
82.789101 44.369598 -770.832092
82.141701 42.397701 -775.035522
84.629997 50.459599 -754.973877
84.537804 50.153900 -755.494507
84.428497 49.727402 -755.902771
84.338203 49.433701 -756.429626
84.292603 49.383900 -757.013672
84.232300 49.253700 -757.578918
84.088203 49.314800 -760.130310
83.782700 48.596199 -762.800476
83.708199 48.383801 -763.333374
83.628601 48.140900 -763.848389
83.420799 47.425701 -764.935913
83.332298 47.128300 -765.421082
83.247200 46.851299 -765.918213
83.162102 46.575199 -766.415771
83.082100 46.329498 -766.930176
82.792603 45.429401 -768.754883
82.395203 44.183998 -771.227417
82.310600 43.911499 -771.728821
82.227402 43.647099 -772.234619
82.149002 43.410900 -772.754211
82.075104 43.202099 -773.286987
82.000198 42.987301 -773.816711
81.924301 42.766102 -774.343079
81.754601 42.250900 -775.452087
81.695702 42.129902 -776.024109
81.598099 41.792500 -776.529114
83.928398 49.421799 -758.109375
83.895699 49.441898 -758.706482
83.863899 49.466099 -759.303223
83.744598 49.268299 -760.610779
83.683601 49.133999 -761.172791
83.621803 48.995998 -761.734070
83.543701 48.780399 -762.313171
83.258598 47.945000 -764.266724
82.714798 46.155399 -767.362427
82.631302 45.889400 -767.866028
82.429001 45.279999 -769.200623
82.336098 44.957901 -769.675720
82.252899 44.693901 -770.181091
82.174301 44.457401 -770.700623
81.555000 42.590599 -774.777527
84.093498 50.264400 -755.101501
82.366402 45.685902 -768.329224
81.536301 43.115398 -773.510986
81.143204 41.979198 -776.220581
83.794296 49.979599 -755.497375
83.702202 49.679501 -756.021301
83.627701 49.476002 -756.569214
83.575996 49.397598 -757.146484
83.436798 49.505798 -759.710815
83.093002 48.713799 -762.703125
83.019096 48.510601 -763.241577
82.947197 48.319500 -763.786621
82.787102 47.763599 -764.590210
82.693497 47.438702 -765.059692
82.613602 47.197899 -765.576477
82.525002 46.904400 -766.064270
82.429398 46.567299 -766.528687
81.693802 44.269199 -771.024719
81.613998 44.029598 -771.542786
81.538597 43.816002 -772.073914
81.457298 43.567600 -772.587585
81.253502 42.992802 -774.029907
81.093597 42.544899 -775.170227
81.011703 42.292599 -775.682190
83.234398 49.564301 -757.642029
83.200600 49.582100 -758.239380
83.167503 49.603199 -758.836426
83.047203 49.408501 -760.145386
82.981102 49.250000 -760.702515
82.925797 49.150200 -761.271729
82.863503 49.012501 -761.833191
82.533699 48.067902 -764.124573
82.035500 46.435799 -766.936523
81.944801 46.129299 -767.418518
81.866699 45.899101 -767.941589
81.782501 45.632500 -768.445313
81.701599 45.385799 -768.959717
81.623100 45.153301 -769.481384
81.537903 44.880600 -769.982300
81.441704 44.541599 -770.449890
81.060402 43.413601 -772.985413
80.856102 42.835800 -774.426575
83.001297 49.757801 -755.554993
82.936699 49.607700 -756.116089
82.864403 49.415501 -756.667480
82.724899 49.518200 -759.237183
82.394203 48.760300 -762.145996
82.326897 48.597198 -762.709778
82.247597 48.360100 -763.229919
82.055397 47.749401 -764.378784
81.965897 47.449299 -764.863220
81.885597 47.205700 -765.379517
81.794601 46.896500 -765.859497
81.710800 46.631401 -766.364197
80.987602 44.366798 -770.791809
80.914200 44.164398 -771.329224
80.829201 43.892700 -771.831970
80.755501 43.688599 -772.368286
80.617996 43.305698 -773.361389
80.540001 43.075699 -773.884399
80.399902 42.644100 -774.763489
82.481102 49.602600 -757.090271
82.470200 49.744202 -757.717590
82.439102 49.775799 -758.318115
82.281097 49.375000 -759.584412
82.217300 49.228401 -760.145081
82.153900 49.084499 -760.706482
82.087898 48.926399 -761.265320
81.784599 48.118198 -763.574524
81.262703 46.482300 -766.763611
81.168999 46.157200 -767.236328
81.090599 45.925400 -767.759521
81.010201 45.681099 -768.276001
80.926201 45.415401 -768.781128
80.850403 45.198799 -769.312012
80.762001 44.906399 -769.803589
80.673103 44.611000 -770.294128
80.305901 43.531601 -772.765808
80.068604 42.755798 -774.114929
82.125000 49.441502 -756.405029
82.041603 49.763500 -758.773804
81.684097 48.879002 -761.714478
81.607002 48.676498 -762.311401
81.529900 48.452400 -762.840210
81.365601 47.978401 -763.975830
81.292801 47.780701 -764.518494
81.210297 47.522999 -765.026978
81.123703 47.240898 -765.521912
81.037697 46.962002 -766.018921
80.249702 44.442402 -770.682617
80.167900 44.189701 -771.195313
80.087303 43.944199 -771.711914
80.002296 43.672798 -772.215576
79.886703 43.373699 -773.124390
81.764297 49.384102 -756.855896
81.808998 49.772999 -757.372070
81.789398 49.868599 -757.988281
81.675003 49.676899 -759.216309
81.604797 49.496300 -759.769470
81.536003 49.323200 -760.324585
81.480598 49.222900 -760.895081
81.151001 48.294498 -763.237488
80.660500 46.818199 -766.424316
80.568100 46.501499 -766.901123
80.477501 46.195202 -767.384216
80.390800 45.913399 -767.880798
80.305099 45.637699 -768.380981
80.221703 45.375599 -768.888611
80.139198 45.119301 -769.399414
80.062798 44.900299 -769.929321
81.436798 49.815102 -758.446899
81.102097 49.036598 -761.327087
81.031998 48.864201 -761.900574
80.959801 48.673500 -762.449707
80.786697 48.186199 -763.672729
80.708900 47.959702 -764.199524
80.623596 47.686901 -764.699829
80.545998 47.462002 -765.227173
80.466698 47.226299 -765.748230
79.660103 44.575199 -770.252014
80.979599 49.652500 -758.132385
80.950104 49.723499 -758.827393
80.896500 49.634201 -759.400879
80.826797 49.457298 -759.955505
80.767502 49.336899 -760.522278
80.474197 48.576900 -762.805420
79.878601 46.713100 -766.433289
79.793900 46.444401 -766.937317
79.709702 46.179001 -767.443115
79.620499 45.883099 -767.932922
79.528503 45.570202 -768.414185
79.461502 45.408699 -768.975281
80.263802 49.275398 -760.798828
80.192497 49.090698 -761.352783
80.118401 48.890598 -761.904297
79.984703 48.593300 -763.099487
79.909897 48.385799 -763.637878
80.017601 49.473900 -759.393982
79.983002 49.489498 -759.991028
79.699699 48.808498 -762.339783
79.496399 48.323101 -764.036194
79.634399 49.371300 -760.438599
79.582703 49.296398 -761.015625
79.511703 49.116901 -761.570923
79.361702 48.759499 -762.813477
79.304497 48.665798 -763.418518
79.172798 49.025902 -762.067871
78.971703 48.619499 -763.939575
78.999100 49.246601 -760.890198
78.935402 49.110100 -761.455017
78.832298 48.950298 -762.557800
78.773804 48.852699 -763.161316
78.597504 49.025902 -761.925476
78.418098 48.674999 -763.606079
81.346199 48.894100 -756.741394
91.483498 47.214802 -759.866272
90.688004 39.300499 -782.313599
91.227600 39.173801 -783.116028
93.706299 45.725800 -760.421875
98.171997 56.261600 -743.655701
98.800598 55.235001 -746.146790
98.667397 54.585899 -747.171387
98.607002 54.317699 -747.696594
98.796799 52.790001 -750.596375
98.543297 51.328499 -752.042480
103.869003 58.065201 -741.965820
103.870598 58.285301 -742.493713
103.801201 57.907799 -742.979492
103.727501 57.493401 -743.460205
110.774101 41.620300 -762.931885
113.047798 41.449001 -762.090881
119.052399 43.014702 -756.207581
118.993401 42.769501 -756.732178
118.938301 42.565399 -757.274292
118.864899 42.168301 -757.736023
119.223297 43.524502 -755.124207
119.168404 43.320499 -755.666382
119.319702 43.723000 -754.516724
119.566704 44.573399 -752.970520
119.508598 44.338699 -753.499573
119.448700 44.084999 -754.020081
119.781898 45.167900 -751.250671
119.732101 45.029301 -751.825500
119.678101 44.843498 -752.377625
119.604500 43.085800 -755.958618
119.540100 42.796200 -756.466003
119.480400 42.556099 -756.994995
119.412498 42.229099 -757.487793
119.851997 43.791698 -754.304688
119.788597 43.512402 -754.815674
119.732399 43.312302 -755.361877
120.129997 44.607601 -752.686401
120.073898 44.409401 -753.233398
120.013802 44.167702 -753.760376
120.336098 45.040001 -751.433289
120.274300 44.809399 -752.008911
119.958199 42.278500 -757.212524
120.612297 42.286701 -756.836914
122.178299 44.017899 -752.669128
121.993599 43.397800 -754.126892
121.920403 43.192402 -754.765686
121.854401 42.988098 -755.313171
121.775902 42.631500 -755.793030
122.486504 43.860802 -753.124084
122.418999 43.655102 -753.671387
122.793999 43.227501 -754.476196
122.718498 42.967499 -755.027283
95.790604 41.995602 -776.228027
95.163803 41.929001 -776.107910
80.031898 43.047100 -773.605530
95.537903 42.147999 -775.723083
95.317497 42.354198 -775.198425
95.894699 41.647701 -776.706116
95.289200 41.723202 -776.774475
95.974602 41.505100 -777.367371
85.399902 41.588902 -775.609619
95.796303 41.211498 -777.870178
86.335403 41.071499 -777.154114
95.954597 42.419399 -774.964417
95.444099 42.580002 -774.674072
96.442398 42.953800 -774.653687
96.017097 43.143799 -774.268127
95.510399 42.933498 -774.104614
97.168404 43.407902 -774.262024
96.601303 43.511501 -774.183716
95.836502 43.324902 -773.733398
96.949799 43.767700 -773.812317
96.382698 43.713600 -773.685486
95.668602 43.475700 -773.204285
96.752800 43.912102 -773.292419
96.182701 43.846199 -773.160889
95.818001 43.877499 -772.683472
96.641197 44.035599 -772.733521
79.524696 44.871498 -769.632813
96.235497 44.150398 -772.316101
95.814697 44.192299 -771.868103
96.166298 44.279598 -771.379517
96.014503 44.605801 -770.809021
78.228500 48.834400 -762.318787
96.783798 47.907299 -756.912415
85.363800 51.254101 -754.101379
107.285698 57.065201 -744.354675
104.322098 57.705399 -743.274109
104.907501 58.068001 -743.019775
105.638802 58.396000 -742.785278
104.455200 58.256302 -742.632324
105.150200 58.489601 -742.411072
104.814301 58.256199 -741.954529
103.507500 57.061600 -743.774719
99.143700 55.830399 -745.085083
94.688103 45.590500 -761.070801
79.607498 44.028099 -771.263123
87.806503 39.944599 -779.480713
84.788300 50.905201 -754.518005
87.566200 53.958199 -750.347412
99.123398 56.684101 -743.274780
86.711197 52.608799 -752.015808
97.276497 50.596901 -754.527405
115.945000 44.355202 -751.186218
120.517998 44.123699 -751.790283
121.055496 43.963299 -752.067993
121.591499 43.802399 -752.346191
116.266197 44.193001 -751.657288
119.283699 44.897099 -750.864807
117.907501 45.328701 -750.230103
118.568398 45.221401 -750.432922
114.836403 44.596802 -751.365173
117.270302 45.865898 -749.676819
116.606903 46.079399 -749.546875
122.219398 43.452301 -752.738220
122.459999 43.038200 -753.394714
121.172501 43.264599 -752.619385
51.114799 50.750198 -753.956909
50.738602 50.906799 -754.380981
50.527100 51.287601 -754.779907
50.298801 51.076000 -754.023193
49.952599 51.213600 -754.455627
49.857498 51.539200 -754.916016
49.818298 51.522598 -755.543030
49.502701 51.818699 -753.997620
49.420601 51.531200 -754.516785
49.291698 51.633202 -755.075928
49.297798 51.807598 -755.621826
49.175598 51.367401 -753.844299
48.932701 51.871201 -754.235474
48.862099 52.074299 -755.931091
48.790298 51.772800 -755.350281
48.637501 51.807301 -754.737488
48.385899 52.461700 -753.371216
48.295601 52.133099 -754.294006
48.228901 51.922199 -755.147217
48.232300 52.052399 -755.760315
48.453899 53.562000 -757.356628
47.993198 52.479401 -756.102173
48.065399 52.954300 -756.546387
48.150600 53.651600 -757.856384
48.181000 53.914299 -758.404785
48.246899 54.351002 -758.828186
48.301998 54.754002 -759.402588
47.823502 52.921101 -753.802917
47.750401 52.606899 -754.330872
47.658600 52.180599 -754.803284
47.625099 52.103901 -755.447571
47.839500 53.592602 -757.287415
48.053200 55.182701 -759.753418
48.018398 55.094700 -760.374695
47.309799 52.241199 -755.962280
47.389801 52.754398 -756.416382
47.430801 53.056900 -756.899414
47.537300 53.800900 -757.890808
47.609100 54.609001 -760.494507
47.356400 53.999500 -753.272217
47.246799 53.394798 -753.276672
47.175800 53.076401 -753.772278
47.106899 52.770000 -754.272705
47.051102 52.552101 -754.879578
46.986698 52.272301 -755.388977
47.125599 53.334099 -757.371887
47.272099 54.284801 -758.324707
46.981899 53.735699 -752.776672
46.651699 52.349300 -755.892212
46.694000 52.651798 -756.377625
46.773499 53.166100 -756.911072
46.832802 53.624100 -757.834900
46.900398 54.152100 -758.928772
46.670700 53.681801 -753.299072
46.581001 53.248901 -753.763916
46.526299 53.016899 -754.282593
46.466900 52.770500 -754.881104
46.404499 52.494400 -755.390625
46.543701 53.525002 -757.300415
46.565498 53.795300 -758.400879
46.528900 54.240601 -752.300171
46.115200 52.445999 -756.128113
46.313202 53.905300 -758.917419
46.333199 54.101799 -759.581116
46.218700 54.166401 -752.800171
46.123199 53.723400 -753.507080
46.041100 53.326900 -753.981384
46.007198 53.216702 -754.613098
45.944901 52.933102 -755.118774
45.872002 52.589600 -755.611206
45.833302 52.501999 -756.642883
46.039700 53.754902 -757.527771
46.060001 53.942299 -758.139587
46.083199 54.309299 -760.078674
45.978802 54.638699 -751.883789
45.957699 54.596901 -752.531189
45.503799 52.498901 -756.111084
45.732700 54.054901 -758.596680
45.743401 54.182800 -759.190979
45.773201 54.505600 -760.548218
45.785500 54.642101 -761.137573
45.592602 54.389000 -752.998230
45.483898 53.824699 -753.343018
45.447201 53.688801 -753.966675
45.391800 53.446400 -754.563416
45.329399 53.155201 -755.066528
45.238400 52.701801 -755.531128
45.187099 52.537899 -756.644470
45.265499 53.019402 -757.085999
45.392502 53.838902 -758.171875
45.468498 54.421799 -759.675476
45.509102 54.854801 -761.609680
45.522202 54.871399 -751.581116
45.576698 55.234600 -752.174622
45.160599 53.487400 -757.559998
45.316399 54.828701 -762.175781
45.374901 55.007999 -752.681702
44.884399 52.612900 -756.013672
45.101898 54.078999 -758.639404
45.163399 54.574001 -760.197815
45.187901 54.769402 -760.799927
45.022301 54.175499 -753.086914
44.950100 53.819302 -753.569519
44.914200 53.678501 -754.191528
44.856800 53.414799 -754.782471
44.768299 52.966900 -755.246887
44.820202 53.520302 -758.078308
44.952702 54.357300 -759.156494
45.059299 55.259102 -762.463806
45.130299 55.652401 -751.822693
44.505699 52.585499 -756.447083
44.547298 52.865799 -757.005676
44.611000 53.264198 -757.507324
44.786598 54.435101 -759.713928
44.855202 54.952801 -761.265320
44.894100 55.216301 -761.797119
44.964298 55.465401 -752.412476
44.830502 54.744598 -752.708618
44.580700 53.847401 -758.601624
44.818699 55.535900 -762.919922
44.569099 53.830700 -753.020691
44.368999 52.925900 -755.672485
44.606701 54.630299 -760.364929
44.412102 53.573299 -754.455200
44.337101 53.192200 -754.934692
44.439098 54.095699 -759.141113
44.371799 53.970299 -753.580200
44.228500 53.500000 -757.962830
44.523399 55.469799 -762.160889
