-45.863800 45.841900 -818.938416
-47.575298 44.955502 -823.163330
-45.946201 45.743999 -820.815308
-44.958500 48.298599 -815.260315
-43.441601 48.571098 -813.045776
-46.756401 46.009201 -822.219727
-45.366501 47.341599 -818.317078
-42.104900 48.757401 -812.120972
-41.347801 49.100300 -810.658081
-44.919601 48.330399 -817.005493
-47.563999 46.311001 -824.321228
-45.258202 47.135399 -820.255920
-44.065399 49.560799 -814.696716
-45.806499 47.272999 -821.830811
-42.825600 50.002800 -813.711487
-40.668098 50.577000 -810.253113
-46.785801 47.363499 -823.317017
-44.403198 49.771301 -816.443420
-41.584099 50.290501 -812.324219
-44.762798 48.568699 -819.658875
-44.412800 49.596001 -818.450928
-46.978500 47.916100 -825.399292
-45.824600 48.630199 -822.857910
-44.990501 48.899700 -821.444092
-43.550400 51.116100 -815.999512
-42.747002 51.408699 -814.581299
-40.845402 51.724201 -811.870483
-40.141102 52.103401 -810.416687
-43.710701 50.962502 -817.796814
-41.390701 51.820400 -813.677673
-46.171501 49.293400 -824.926025
-43.970798 50.092400 -821.040894
-43.883701 50.870800 -819.605103
-46.674000 49.396400 -826.796082
-45.112900 50.056400 -823.879028
-42.900200 52.333801 -817.439880
-42.306801 52.790798 -815.977295
-41.028198 53.389599 -813.488281
-40.066700 53.562801 -812.092224
-39.282700 53.877102 -810.656677
-44.165501 50.896198 -822.795227
-42.931099 52.179401 -819.176819
-45.660702 50.586102 -826.284973
-43.294701 51.688599 -821.674988
-41.054901 53.777199 -815.512329
-44.777000 51.225899 -825.059875
-41.838501 53.534000 -817.705383
-40.382999 54.856400 -813.754211
-39.518799 55.099098 -812.342285
-38.522499 55.292801 -810.862915
-46.167400 50.922501 -827.846985
-42.557098 52.875702 -820.736816
-43.663700 52.074402 -824.168579
-41.953602 53.698101 -819.475586
-42.957100 52.792000 -822.860779
-40.843498 54.746201 -817.167603
-40.292301 55.249802 -815.692688
-45.080502 51.993198 -827.124878
-39.446899 56.190300 -813.706177
-38.598801 56.462002 -812.282104
-37.706501 56.703098 -810.857910
-44.062599 52.520802 -825.883789
-41.094501 54.938900 -818.771729
-41.978699 53.806900 -821.966675
-45.215401 52.104301 -828.776428
-39.532398 56.668201 -815.371277
-42.899101 53.297699 -825.029785
-41.100300 54.701801 -820.860107
-40.011902 56.102798 -817.483215
-38.449001 57.468102 -813.635315
-37.505501 57.702099 -812.226318
-42.130901 54.104801 -823.764282
-44.366901 53.427299 -828.199097
-40.344501 55.877499 -820.006775
-36.419998 58.632599 -811.455078
-43.408199 54.110802 -827.024902
-41.104401 55.145802 -822.918823
-39.265999 57.566700 -817.212585
-38.612900 58.043201 -815.769470
-42.367500 54.671600 -825.844177
-40.386902 56.000999 -821.665588
-39.610901 57.094299 -819.161926
-37.656101 58.703899 -814.587280
-36.855598 59.064602 -813.165588
-48.614799 55.331100 -832.520081
-44.308498 54.074600 -829.712402
-41.366001 55.265099 -824.704773
-47.109901 55.299198 -831.897705
-45.739101 54.877201 -831.037170
-43.443401 54.878502 -828.533203
-39.436699 57.108200 -820.817871
-35.686699 59.952702 -812.459106
-42.512299 55.629799 -827.323181
-40.349400 56.298901 -823.970886
-38.810299 58.515099 -818.983887
-38.162601 59.003700 -817.549011
-37.278198 59.295101 -816.151489
-34.887501 61.606899 -810.095520
-41.521301 56.237000 -826.142822
-39.569801 57.100399 -822.739990
-36.557098 60.146900 -814.936584
-48.238400 56.669399 -833.528076
-44.425499 55.786098 -830.702393
-45.870300 56.340698 -832.080322
-43.236099 56.072601 -829.616028
-38.599701 58.527500 -820.941528
-35.494900 60.938099 -813.996521
-34.553299 61.193001 -812.595703
-40.376099 57.160900 -825.372375
-37.724400 59.718300 -819.049194
-36.893799 60.051800 -817.651672
-34.192902 62.297901 -811.393311
-42.261902 56.832100 -828.538025
-39.236301 57.690601 -824.314819
-46.710300 57.334801 -833.410278
-41.250599 57.428200 -827.301514
-38.647301 58.468201 -822.928528
-36.098598 60.944099 -816.509521
-44.650101 57.416500 -831.945618
-43.323399 57.144402 -830.893616
-37.695301 59.883701 -820.767517
-34.499401 62.245399 -813.844971
-35.253700 62.035198 -815.562683
-40.098202 58.405998 -826.566772
-36.510899 60.834400 -819.190674
-33.817402 63.314201 -812.709778
-42.101700 57.846100 -830.037415
-37.546700 59.632099 -822.563110
-45.597198 58.555000 -833.351624
-41.178299 58.416901 -828.775330
-39.031700 59.082901 -825.510315
-35.771400 61.813599 -818.107910
-38.059399 59.560699 -824.246094
-36.570400 61.068901 -820.831116
-34.247501 63.285301 -815.216797
-43.618801 58.658501 -832.148987
-35.001999 62.815800 -817.085571
-33.167400 67.305496 -808.843628
-33.393398 64.135902 -814.090820
-32.407902 68.079399 -807.557678
-42.154301 58.884102 -831.398682
-39.897701 59.380299 -828.299622
-36.514702 60.898701 -822.583496
-35.620701 62.093300 -819.977173
-32.989601 65.173302 -812.908813
-44.293999 59.530499 -833.459106
-40.892300 59.146198 -830.351379
-38.835999 59.903599 -827.112122
-37.803200 60.478001 -825.929321
-36.970699 60.812901 -824.577576
-34.851700 63.192200 -819.040771
-33.953701 64.091301 -816.844177
-32.543098 67.511101 -810.637573
-33.164101 64.829300 -815.592712
-31.860399 68.324699 -809.396484
-31.105600 69.051498 -807.588379
-42.858299 60.041500 -832.898071
-32.448601 65.689102 -814.347412
-32.274200 66.654999 -812.881226
-44.298401 60.214600 -834.976379
-41.172699 60.166100 -831.648193
-39.613201 60.111401 -830.027771
-38.632801 60.343700 -828.658020
-34.987701 62.935501 -821.290283
-33.876999 64.458397 -818.535889
-37.648899 60.967499 -827.518372
-35.921799 62.030800 -824.247314
-31.681499 67.896896 -811.968811
-30.574499 69.329697 -809.214111
-36.709900 61.613800 -826.356201
-34.111599 64.030296 -820.384583
-33.105999 65.472298 -817.418884
-31.000999 68.852501 -810.743713
-43.052700 61.229000 -834.451721
-41.726101 61.194302 -833.039917
-32.172298 66.117897 -816.231323
-31.595900 67.084801 -814.357300
-40.100300 61.364498 -831.876709
-38.378502 61.131599 -830.283630
-37.321602 61.697601 -829.139771
-35.532001 62.714699 -825.889771
-33.376301 65.471397 -820.036377
-30.791201 68.312798 -813.604980
-29.238400 70.291397 -809.397522
-36.434799 62.217800 -827.863403
-34.832100 63.430901 -824.583984
-33.582100 64.445099 -821.940979
-30.291401 69.233002 -812.325073
-29.699400 69.848900 -810.903198
-32.711498 66.283699 -818.800293
-31.066999 67.280899 -815.881287
-41.752701 62.192001 -834.639893
-31.786200 67.022598 -817.673096
-40.485500 62.352299 -833.510925
-38.631599 62.154301 -831.679016
-30.194300 68.483803 -815.182678
-37.315102 62.513802 -830.688171
-35.270901 63.313499 -827.463013
-33.074699 65.988998 -821.871887
-29.690201 69.503502 -813.968018
-29.088699 70.324799 -812.333130
-28.368700 70.857399 -810.903381
-36.091801 62.746700 -829.586426
-34.443802 64.043900 -826.243713
-32.374298 66.866898 -820.663513
-30.360901 67.807899 -817.324829
-41.266399 62.572300 -836.217773
-38.945702 62.921799 -833.239929
-31.508600 67.674896 -819.549072
-40.033501 63.099899 -835.237671
-37.561798 63.262901 -832.319702
-29.502600 69.125397 -816.792786
-28.499599 70.651299 -813.962280
-27.771500 71.324600 -812.397522
-27.239700 72.057899 -810.982178
-36.201401 63.799500 -831.509521
-35.247501 64.098701 -830.124329
-34.241001 64.283501 -828.808777
-33.653198 64.979401 -827.383789
-31.908300 67.138000 -823.050171
-31.405001 67.910004 -821.633301
-30.069500 68.495300 -819.508179
-28.605900 70.224899 -815.963623
-39.504501 62.999298 -837.280396
-38.507198 63.557098 -835.568604
-37.479401 63.697701 -834.284729
-32.614700 65.894302 -826.514526
-29.025200 69.448601 -818.643127
-27.270300 71.675301 -814.253906
-26.276199 73.359802 -811.299622
-26.698900 74.658699 -810.327271
-27.038401 75.930496 -809.293579
-27.490900 77.229401 -808.353821
-36.232399 64.283096 -833.411621
-30.106899 68.943298 -821.601379
-28.110100 70.508499 -817.700989
-27.382999 71.334000 -816.000916
-35.106701 64.965599 -832.399780
-34.303398 65.445900 -831.003113
-33.367298 65.722900 -829.681580
-32.417900 65.992996 -828.352905
-30.943899 68.166199 -824.390320
-28.743900 69.352501 -820.704285
-26.931101 78.779297 -808.512817
-37.962399 63.714001 -837.477722
-37.070801 64.092796 -836.100281
-30.183800 69.067001 -823.268188
-27.966499 70.258400 -819.576294
-26.212799 72.368301 -815.405029
-25.224300 73.921501 -812.663879
-25.557400 75.222801 -811.632080
-26.034300 76.515999 -810.765625
-26.841999 77.907097 -810.154724
-31.430099 66.791496 -827.295776
-26.778500 71.508499 -817.518372
-35.797001 64.543297 -835.079529
-28.842800 69.675598 -822.585571
-25.925501 77.890701 -811.689819
-26.173300 79.305603 -810.644775
-34.782200 65.367500 -834.005005
-33.109100 66.572998 -831.044373
-32.207401 66.928101 -829.720520
-29.784901 69.127197 -825.015991
-27.654200 70.255997 -821.620422
-26.756599 71.358200 -819.612488
-25.571699 72.589203 -817.168518
-24.900700 73.233704 -815.832825
-24.389601 75.199799 -813.456909
-33.795200 66.217102 -832.950684
-31.100901 67.603699 -828.723999
-37.992901 64.896599 -839.408691
-36.732101 64.568001 -838.319885
-35.751801 64.871399 -836.975708
-28.492001 69.981499 -824.469177
-25.591801 72.430801 -819.109619
-23.602200 76.662102 -813.160278
-24.367100 78.747299 -812.140686
-34.648602 65.462700 -835.847473
-27.292400 70.605797 -823.328003
-26.586700 71.519402 -821.759521
-24.316099 73.612602 -817.452820
-33.539200 66.184303 -834.824707
-32.611099 67.359001 -832.804077
-31.724899 67.755997 -831.499084
-29.917101 68.754997 -828.674072
-25.622801 72.448898 -820.825378
-22.432800 77.771500 -812.773376
-35.417500 65.514297 -838.448914
-30.551500 68.506798 -830.641785
-28.145599 70.136101 -826.654480
-24.636900 73.499298 -820.002014
-22.450800 77.244904 -814.456299
-36.748699 65.612999 -840.939514
-34.027802 66.025002 -837.663574
-32.252800 67.191803 -834.775818
-28.679300 69.833000 -828.717407
-25.816900 72.211304 -823.645020
-23.429899 74.333099 -819.299316
-35.405899 66.278198 -840.088318
-32.728600 66.706299 -836.866821
-31.112200 68.108002 -833.981689
-30.446699 68.870598 -832.641174
-29.340099 69.582497 -830.869873
-24.709700 73.205399 -822.927917
-24.000999 73.866402 -821.624573
-21.065100 77.394997 -815.575989
-20.425600 78.142303 -814.276001
-33.959702 66.654800 -839.440796
-28.146700 70.451103 -830.168884
-25.492300 72.218697 -825.907593
-22.722300 74.675102 -820.965088
-21.775801 75.109703 -819.604126
-32.630600 67.362099 -838.836121
-31.732901 67.795700 -837.536072
-30.810400 68.247498 -836.195313
-29.885300 68.958702 -834.644287
-29.197500 69.719498 -833.305725
-28.414700 70.369400 -831.954773
-26.968000 71.427002 -829.573120
-24.344999 73.271698 -825.312927
-23.633900 73.948402 -824.016602
-22.873600 74.575897 -822.707581
-20.599199 76.118599 -819.059204
-20.027500 76.958801 -817.780273
-19.137300 77.480598 -816.418030
-33.327202 67.367798 -840.995483
-27.268400 71.381897 -831.397095
-24.845400 72.602303 -827.863586
-32.063400 68.198898 -840.216370
-31.101500 68.513397 -838.951172
-30.205601 68.963699 -837.648926
-29.354601 69.517502 -836.313110
-28.456200 69.958199 -835.015625
-27.781700 70.752197 -833.677917
-25.989599 72.142799 -830.688171
-23.724100 73.571701 -827.167175
-22.961300 74.204903 -825.862305
-22.235201 74.882103 -824.561523
-21.322901 75.363403 -823.217712
-20.000401 76.188599 -821.169312
-19.253000 76.862297 -819.848816
-18.441000 77.474899 -818.507874
-17.368401 77.603500 -817.271484
-24.699600 72.608398 -829.810730
-26.585400 71.693802 -833.064087
-23.590000 73.521500 -828.982727
-19.825701 76.051300 -823.058105
-15.802200 78.149597 -817.188477
-30.779800 69.213997 -840.440430
-29.768499 69.503304 -839.147583
-28.897699 70.053802 -837.805481
-28.044701 70.638901 -836.456177
-25.399500 72.484802 -832.247681
-22.496000 74.567902 -827.585083
-21.682600 75.159798 -826.272522
-20.807899 75.690498 -824.941284
-18.705099 77.023903 -821.697571
-27.099501 71.376900 -835.359375
-24.219000 73.189903 -831.330322
-25.903200 72.377701 -834.862915
-22.407801 74.407402 -829.668091
-29.208200 70.522598 -840.612915
-28.248800 70.886200 -839.335327
-27.391800 71.469803 -838.005981
-24.692101 73.098396 -833.970703
-26.126101 72.298698 -837.282776
-33.256302 72.766998 -845.832825
-32.232300 73.148697 -844.487427
-27.403999 71.617699 -840.524414
-26.524500 72.176498 -839.203918
-24.822901 73.135002 -836.736816
-23.942301 73.628899 -835.461670
-34.062599 74.049004 -847.085388
-30.414900 73.138100 -843.932312
-29.200100 72.805801 -842.902588
-25.235901 73.026703 -838.621277
-32.798698 74.907997 -846.317688
-31.164499 74.224503 -845.104187
-27.699499 73.065002 -842.330078
-26.260300 72.583199 -841.177917
-23.945400 73.776398 -837.956970
-23.054501 74.266998 -836.695679
-33.700600 75.280800 -848.104980
-29.638599 74.466202 -844.495728
-25.046801 73.506897 -840.442078
-32.572899 76.319901 -847.391113
-31.109200 75.990997 -846.122925
-27.821400 74.833199 -843.555481
-26.379601 74.373596 -842.397278
-23.752701 74.252998 -839.806274
-22.697100 74.714203 -838.422974
-29.591600 76.257500 -845.524780
-25.186001 75.256599 -841.740723
-31.040501 76.958298 -847.482422
-28.082100 76.499901 -844.814819
-26.806000 76.271599 -843.684021
-23.797400 75.725899 -841.022583
-22.540800 75.507599 -839.904785
-25.297800 76.378799 -842.923584
-29.407000 77.396896 -847.057495
-27.922600 77.402000 -846.266479
-26.627001 77.228897 -845.093994
-23.769800 76.780502 -842.549622
-22.492300 76.615601 -841.389893
-25.065901 77.227997 -844.322021
-27.105301 78.279198 -847.634827
-25.881599 78.118401 -846.538513
-23.524401 77.713097 -844.482788
-22.312700 77.627403 -843.353577
-24.286301 78.268600 -846.116882
-11.894700 78.426003 -834.828674
-25.746599 79.081100 -848.078918
-24.161501 79.167900 -847.586182
-7.899000 79.749397 -837.212524
-27.358601 70.548798 -828.043884
-45.179600 40.398102 -811.624878
-44.081402 61.453999 -833.111206
-29.908899 77.801598 -845.093994
-35.264500 65.123901 -816.967773
-21.565901 78.789001 -811.841370
-6.745000 83.145897 -832.881775
-37.755699 59.494301 -811.877014
-39.782600 63.230801 -831.055481
-13.759900 76.692001 -835.927673
-10.761700 80.928101 -820.909485
97.933701 36.204601 -871.497314
100.295303 37.664799 -869.819824
98.871101 37.401299 -870.728821
96.979500 37.253300 -872.325378
101.099899 38.905998 -868.826294
99.603401 39.003201 -870.506714
98.198502 38.728600 -871.372925
102.158997 40.020699 -867.874512
101.003899 40.321301 -869.614685
99.955399 40.748199 -870.819824
99.003304 41.234100 -872.097717
103.049698 40.914001 -866.797913
102.081100 41.402302 -868.726807
100.906998 41.909100 -869.975220
99.976700 42.347099 -871.246521
102.962601 42.415199 -867.492310
104.033897 42.591900 -865.799072
102.131500 43.098999 -868.739014
101.483299 43.728001 -870.105103
99.994102 43.853298 -871.862488
103.592300 43.854099 -866.716370
104.846603 44.010399 -864.703430
102.848602 44.637001 -867.990601
102.227402 45.056499 -869.465820
101.260101 45.225498 -870.786499
100.202904 45.817600 -871.970581
104.240799 45.252998 -865.656311
105.745399 45.693401 -864.027710
103.546097 46.022202 -866.927917
102.917297 46.430599 -868.396423
102.191902 46.779900 -869.842712
101.110603 47.145500 -871.023193
99.757797 47.346901 -872.345703
104.633102 46.713600 -864.642090
103.366402 47.618599 -867.190125
102.994698 48.180901 -868.726196
102.163300 48.458302 -870.148804
106.048203 47.145802 -862.905396
100.514702 48.577301 -871.532288
104.076599 47.944000 -865.538208
105.271400 48.341499 -863.699280
103.029099 49.807201 -869.045898
102.275398 50.129700 -870.490784
99.694504 49.742699 -872.355713
106.900803 48.578999 -861.698120
103.553200 49.217098 -866.481201
100.864899 50.553799 -871.314026
104.366997 49.381599 -864.647705
105.905098 49.487900 -862.629578
103.222801 50.480000 -867.481201
103.145401 51.411400 -868.826904
102.128098 51.781898 -870.064087
107.733902 50.508099 -860.980286
103.676300 50.614399 -865.469482
101.485199 52.366100 -871.455811
104.775597 50.362099 -863.411499
106.310699 50.824799 -861.750122
103.461098 51.863899 -866.485413
102.187897 53.370800 -870.379028
104.033600 51.600498 -864.231384
103.017899 52.756302 -867.800293
107.998596 52.103600 -860.106384
105.188004 51.799000 -862.515991
100.245300 53.458500 -871.436523
106.654602 52.471199 -860.958313
103.708397 52.929699 -865.178589
102.624496 54.053001 -868.773315
101.240402 54.681900 -870.632385
104.256500 52.935001 -863.297974
103.075798 53.781502 -866.407776
99.367104 54.848099 -872.040222
107.843201 53.724701 -860.031311
105.336502 53.193001 -861.680420
102.760597 55.039398 -867.449707
102.132797 55.553600 -869.218872
106.351898 54.068699 -860.673828
103.700500 54.284698 -864.004822
100.099197 55.856201 -870.478882
114.129700 58.408901 -859.523193
104.604599 54.616901 -862.145386
103.167198 55.314701 -865.145081
112.103897 57.905499 -859.796326
107.733200 55.463299 -859.573730
102.222504 56.535500 -867.799316
98.790398 56.427601 -871.333008
101.141899 56.888901 -869.002380
106.323402 55.739101 -860.398315
103.921097 55.782200 -863.122192
102.699600 56.590401 -866.111023
110.293900 58.146999 -859.513916
104.876602 55.984501 -861.085571
103.341103 56.747601 -864.320618
99.939697 57.620201 -869.828674
113.592102 59.834900 -858.265930
112.120697 59.280300 -858.760498
108.700600 57.758400 -859.440796
107.173897 57.018902 -859.622803
102.149300 57.899899 -866.914185
98.087898 57.913101 -871.396729
104.165100 57.181599 -862.013672
101.067200 58.494801 -868.032288
97.471298 58.848999 -872.669617
110.457397 59.605202 -858.621216
105.771896 57.779202 -860.072998
103.631104 58.198700 -863.242981
102.734802 58.429001 -864.679626
99.965302 59.120499 -869.077881
98.701500 58.979500 -870.172424
96.743896 59.745899 -873.836304
112.740303 60.895000 -857.259521
108.828201 59.545502 -858.828003
107.335403 58.911301 -859.188477
101.921997 59.306900 -865.872314
97.568703 59.603001 -871.203186
111.079803 60.976501 -857.708130
104.785698 58.986198 -860.600830
101.053497 60.153599 -866.986816
96.734299 60.484299 -872.346924
109.459801 60.980900 -858.022583
106.039803 59.868301 -859.532288
103.711403 59.657799 -861.643799
102.844002 59.867298 -863.000671
102.079903 60.197399 -864.484375
99.943298 60.820999 -868.039673
98.716904 60.745602 -869.222229
111.556602 62.154701 -856.687317
107.807999 61.023102 -858.517090
101.375999 61.114201 -865.664307
97.374901 61.187302 -870.142883
95.914398 61.795502 -872.924194
104.917900 60.914600 -860.190308
100.422699 61.805302 -866.816528
96.613098 62.021900 -871.373901
109.953598 62.624001 -857.075806
106.243301 61.534599 -858.970703
103.778603 61.347900 -861.281616
102.764801 61.448898 -862.580627
98.984100 62.132702 -868.026123
108.393898 62.559700 -857.679199
101.778702 62.025200 -863.835876
97.610802 62.356499 -869.020081
110.722397 63.537300 -855.894897
101.036598 62.817001 -865.080872
95.846199 63.394699 -871.884888
106.944397 63.187599 -858.063171
105.498001 62.978199 -859.245178
104.221199 62.817402 -860.335876
103.073196 62.806400 -861.577393
100.047203 63.468300 -866.199829
96.834702 63.546700 -869.887573
91.883202 65.925598 -879.983521
91.233902 66.331398 -881.490784
109.319801 64.330200 -856.380676
102.044601 63.457100 -862.730713
98.826103 63.931301 -867.223572
107.830200 64.475998 -857.143677
101.152100 64.156303 -863.964111
97.467300 64.200302 -868.159729
96.034103 64.710503 -870.757629
92.465500 66.366203 -877.981628
110.028000 65.385002 -855.339417
105.979103 64.520897 -858.197998
104.730301 64.404099 -859.373901
103.628998 64.407700 -860.620422
100.384598 64.891899 -865.223816
102.356499 64.666496 -861.630371
96.829803 65.317802 -869.191772
92.873703 66.658401 -876.327881
91.264603 67.028099 -878.884399
90.549301 67.342201 -880.316223
108.620201 65.869400 -855.978821
99.017197 65.398598 -866.060486
94.779701 65.588402 -871.295227
106.907303 65.799004 -856.947083
101.556099 65.612396 -862.764221
97.741798 65.552101 -867.054626
104.851997 65.724098 -858.367920
103.877701 65.848099 -859.746277
100.514297 66.034203 -864.024475
95.778503 66.300400 -870.056396
93.505203 67.401802 -874.881714
119.003502 74.762299 -858.885315
102.837997 66.276398 -860.929810
91.699600 67.742203 -876.828674
89.288399 68.308800 -880.764282
108.990898 67.385201 -855.054810
99.364998 66.741600 -865.044189
97.065201 66.804398 -867.859619
90.140701 68.226303 -878.778076
107.537697 67.282600 -855.831421
105.917000 67.044296 -857.259888
101.888901 67.058197 -862.009216
98.036598 66.790298 -865.995178
94.605598 67.321899 -870.540894
93.814301 68.333702 -873.469421
92.092903 68.199997 -875.228516
95.924797 67.438797 -868.902100
118.816902 75.298599 -857.259399
103.842697 67.006699 -858.608826
100.582497 67.278503 -862.965515
102.844498 67.545403 -859.833374
90.471199 68.857803 -876.915588
89.050797 69.298698 -879.429199
108.462502 68.846397 -854.528015
106.413002 68.446198 -856.192383
104.751297 68.160500 -857.615723
99.481400 68.134804 -863.809326
98.396500 68.137299 -865.099182
97.476997 68.277000 -866.454712
94.082199 68.975899 -871.809082
118.206398 75.968498 -855.332214
101.933701 68.621696 -860.654480
100.980202 68.765800 -862.063110
96.428802 68.828102 -867.592529
94.933899 68.735802 -869.193420
92.549896 69.283501 -873.072571
90.938301 69.369698 -875.153015
89.402603 69.806099 -877.811584
107.031303 69.520401 -855.106384
103.499397 68.998001 -858.320923
105.565102 69.836601 -856.320984
99.687798 69.537102 -862.777100
98.662102 69.580704 -864.086792
97.630600 69.623596 -865.402222
93.766403 69.625397 -870.026184
89.976196 70.402298 -876.040405
113.924301 74.851402 -854.835693
111.881599 73.575104 -854.850586
104.272797 70.108002 -857.357422
102.329498 69.824303 -859.143677
95.238701 69.931900 -867.837219
92.875298 70.251900 -871.275818
91.277298 70.296700 -873.274292
88.620399 71.207802 -878.189880
117.142197 76.988998 -853.887085
115.652802 76.179901 -854.134521
107.385803 70.926102 -854.057312
101.238098 70.311699 -860.258789
96.480904 70.459900 -866.243225
90.435402 70.996399 -874.510010
106.159500 71.390099 -855.039307
105.072304 71.397102 -856.358521
103.229797 71.136299 -858.076172
100.160797 70.945801 -861.400513
98.995003 71.008499 -862.919922
97.847099 70.996902 -864.276917
94.337601 71.066299 -868.624023
89.147003 71.818100 -876.287170
114.134399 76.556198 -853.572021
112.635399 75.795799 -853.931396
111.208603 74.921898 -853.988403
108.414703 73.363899 -854.390930
102.000504 71.738098 -859.023193
95.454300 71.646301 -866.729614
93.122902 71.664497 -869.570984
92.105103 71.689697 -870.844177
91.138702 71.769897 -872.159973
88.359299 72.745300 -877.360107
115.752403 78.221100 -852.927429
109.553200 74.849098 -853.991028
106.616096 73.015404 -854.046326
105.547203 72.984001 -855.274902
104.371101 72.862099 -856.460693
103.261902 72.804901 -857.689026
100.917801 72.550301 -860.030212
99.393204 72.395302 -861.573181
98.147903 72.390602 -863.065186
96.977798 72.360199 -864.417786
94.685097 72.682999 -867.794312
90.433502 72.828697 -873.195618
89.610397 73.055702 -874.618896
113.065598 77.432503 -852.693970
111.588600 76.690300 -853.064697
107.294701 74.510498 -854.101013
102.223999 73.690399 -858.656006
96.350502 73.510101 -865.394226
93.468002 73.402199 -868.664307
92.223198 73.196297 -869.773621
91.295403 73.321297 -871.129822
88.939598 74.188499 -875.617126
114.352203 79.084198 -852.204773
109.878098 76.859596 -853.374878
108.421402 76.108398 -853.704773
105.737900 74.796600 -854.449524
104.636803 74.738098 -855.665771
103.422401 74.584099 -856.837402
101.033997 74.476196 -859.511780
99.803101 74.279701 -860.622681
98.518097 73.996803 -861.634521
97.762001 74.263901 -863.053223
95.616203 74.649399 -866.371826
94.414803 74.507500 -867.550903
90.473900 74.389000 -872.076721
89.794998 74.717400 -873.518677
112.625999 79.049103 -852.190308
111.187599 78.386002 -852.668030
106.758698 76.262901 -853.984070
102.099197 75.216301 -857.622925
97.061302 75.395798 -864.047119
93.045197 75.046501 -868.233521
91.843201 74.872101 -869.353516
88.983803 75.749001 -874.471802
109.535202 78.491997 -852.990173
108.025803 77.832100 -853.563171
105.246498 76.569298 -854.527710
104.020500 76.396103 -855.682129
100.804199 75.836304 -858.510498
99.729797 75.820602 -859.780579
98.411201 75.502502 -860.771973
97.785004 75.880798 -862.247925
95.962402 76.199203 -865.057922
94.884804 76.152496 -866.272888
90.866501 75.755501 -870.380920
90.045601 75.997200 -871.833313
88.210701 76.781197 -875.542175
112.487999 80.481003 -851.422913
111.024498 79.932999 -852.156006
106.344803 77.898598 -853.965088
102.726402 76.981598 -856.609070
93.351700 76.434502 -866.931580
92.024597 76.336700 -868.354187
89.159103 76.898598 -872.893372
109.415901 80.112503 -852.752319
108.004799 79.487297 -853.276428
104.428398 77.976700 -854.745117
101.444504 77.508202 -857.471924
98.480698 76.904404 -859.917603
96.952499 77.281998 -862.484985
96.084396 77.454903 -863.864502
94.940598 77.445099 -865.231384
90.996201 77.112701 -869.379883
90.072800 77.246902 -870.752808
88.343399 77.869003 -874.027527
111.323700 81.654602 -851.558228
106.319504 79.540100 -853.610229
103.142799 78.566704 -855.611572
100.131302 78.089401 -858.352295
97.439796 77.737602 -860.943420
93.372299 77.656998 -865.713501
92.316597 77.686897 -867.047607
89.181198 78.168503 -871.754395
109.693703 81.874298 -851.924011
108.276703 81.433098 -852.805481
104.757698 79.853104 -854.076721
101.842697 79.233101 -856.435974
98.643898 78.552803 -859.025085
96.370598 78.769402 -862.193481
95.191002 78.822304 -863.724609
91.330704 78.602699 -867.989990
90.574402 78.881203 -869.435791
88.430199 79.240501 -872.718079
111.160103 83.542000 -851.085571
106.645699 81.755699 -853.187500
103.248901 80.305397 -854.566772
100.346100 79.757004 -857.062378
97.221703 79.153297 -859.722778
93.630798 79.168999 -864.132813
92.774399 79.359100 -865.539673
89.623703 79.860397 -870.338013
112.013199 85.052696 -850.663513
109.509903 83.741898 -851.227295
108.100998 83.099403 -851.727417
104.973602 81.956902 -853.381104
101.773804 80.801102 -855.098389
98.946602 80.328003 -857.666504
96.299004 80.194801 -860.665771
95.286903 80.238197 -861.993225
91.771103 80.320000 -866.471985
90.986603 80.567497 -867.910889
88.699097 80.861603 -871.286682
110.320000 85.091003 -850.755676
106.580803 83.468498 -852.262024
103.401299 82.239700 -853.833618
100.318703 81.251297 -855.748901
97.603104 80.882797 -858.404907
94.052101 80.888100 -862.817871
93.110397 80.993896 -864.189514
90.113899 81.511703 -868.903198
108.328003 84.810600 -850.925781
104.983101 83.579803 -852.722717
101.927002 82.575104 -854.596619
98.961899 81.700897 -856.609985
96.308403 81.389900 -859.325378
95.181999 81.372101 -860.699585
92.134300 81.768600 -865.280273
91.363800 82.016800 -866.724976
88.999603 82.149200 -869.938477
88.165199 83.995003 -874.561401
87.799103 84.568703 -876.131592
87.493500 85.139801 -877.621216
88.595497 84.116699 -872.964783
86.834396 86.004601 -878.858887
109.723602 86.592300 -850.105225
106.670502 85.144897 -851.149780
103.518600 84.150002 -853.200806
100.466202 83.199699 -855.212891
97.620903 82.385399 -857.227722
94.210800 82.375397 -861.523621
93.217400 82.424698 -862.876770
90.248299 82.881104 -867.523315
89.078102 84.260002 -871.045715
108.039398 86.379700 -850.451721
105.111801 85.114304 -851.715576
102.002701 84.222504 -853.936218
98.912003 83.248802 -855.974487
96.273003 82.630997 -858.129517
95.291397 82.683800 -859.480530
92.170799 82.993103 -864.049927
91.308296 83.157997 -865.466919
89.092697 83.346703 -868.651184
87.467499 85.144402 -873.591125
87.254898 85.776703 -875.090027
87.111298 86.472397 -876.624329
87.844398 85.009300 -871.833313
103.614098 85.545998 -852.300903
94.324699 83.621902 -860.430725
88.959900 84.788498 -869.508911
86.384399 87.374298 -877.765015
106.409698 86.703598 -850.458374
100.449600 84.778297 -854.357300
97.557999 83.992203 -856.533020
93.289299 83.842102 -861.683105
90.257500 84.196098 -866.224609
91.724899 84.496803 -864.483826
102.214500 85.661697 -853.129028
98.969498 84.821404 -855.176270
96.095299 84.027199 -857.305176
95.074997 84.055397 -858.642090
92.362701 84.519997 -862.926270
87.422203 86.807098 -873.430481
87.217400 87.475304 -874.940674
104.704399 86.621201 -850.741089
88.842003 84.666397 -866.996521
87.781502 85.717796 -870.287476
86.488098 88.074799 -876.304382
87.507500 86.718498 -871.640930
90.702400 85.545502 -865.200073
100.659798 86.120903 -853.463684
93.404999 84.984703 -860.499817
88.522598 85.831398 -868.194214
103.155602 86.807999 -851.357300
106.039597 87.824699 -849.335571
97.483398 85.482399 -855.616821
91.580002 85.851997 -863.494629
86.988998 88.379501 -873.564087
92.494797 85.636597 -861.726807
89.384003 85.944603 -866.103821
94.152901 85.341103 -859.061890
88.092796 86.999603 -869.340820
86.335800 89.017899 -874.980530
87.715797 88.091599 -870.650024
88.771103 87.419296 -867.702087
86.961502 89.038399 -871.827271
101.646500 86.916702 -852.077271
99.084900 86.282501 -854.104004
96.004303 85.430603 -856.427002
86.161102 89.889702 -873.071899
104.499100 88.079201 -849.800293
94.729301 85.655998 -857.479126
90.633698 87.126198 -863.855774
89.170601 87.553596 -866.009827
88.099098 88.638702 -868.567688
107.063202 90.838997 -849.768677
93.138298 86.572800 -859.636108
91.727898 87.084702 -861.822876
87.286499 89.510696 -869.732422
102.915604 88.199699 -850.322876
100.272598 87.712402 -852.594421
97.571999 86.837196 -854.445129
88.585899 88.885002 -866.785583
86.397797 90.309303 -870.944519
105.210403 89.947502 -849.206177
96.173302 86.969200 -855.326477
93.863701 87.021500 -857.896606
89.614403 88.393501 -864.202393
85.259598 90.924500 -872.055786
107.157303 92.479401 -849.266479
103.650597 89.463699 -849.352112
101.355400 88.641998 -850.821411
98.640503 87.994301 -852.957825
94.688301 87.135696 -856.171021
92.063103 87.825897 -859.851929
90.809303 88.421204 -861.935974
88.837601 89.395103 -865.259583
87.848701 90.248398 -867.374390
86.643700 90.827103 -868.395020
99.841003 88.990799 -851.377686
97.153397 88.422699 -853.556519
92.982697 88.390900 -857.961182
89.885300 89.587502 -862.702026
85.587196 91.438698 -869.510010
105.342499 91.776802 -848.543884
102.088402 89.905502 -849.757874
95.860703 88.398598 -854.552002
91.138802 89.087303 -860.368408
87.897400 90.697304 -865.715881
88.985100 90.404999 -863.796997
103.674202 91.035400 -848.501709
98.389198 89.416397 -852.148926
94.362602 88.521103 -855.323120
91.862999 89.310898 -858.867126
86.677902 91.292297 -866.619812
106.021202 93.287300 -848.039917
100.498703 90.141701 -850.161072
93.302200 89.068398 -856.436829
90.269997 90.290298 -861.023804
85.575798 91.895599 -867.792603
96.838501 89.899002 -852.651611
92.251198 89.881302 -857.383911
89.365799 91.265503 -861.952271
87.827698 91.597702 -863.924683
84.683701 92.917801 -868.687683
104.393898 93.060097 -847.562073
102.129402 91.686501 -848.341919
98.977501 90.729897 -850.509888
95.373001 90.066803 -853.477173
90.872200 90.585503 -858.708496
86.546700 92.114197 -864.903381
100.643402 91.536903 -849.005005
97.528503 90.769798 -851.343811
93.947800 90.176804 -854.357178
90.219803 91.603897 -859.795776
85.336197 92.616997 -865.956482
92.689697 90.366600 -855.472229
88.066101 92.219704 -862.288208
84.496498 93.573898 -867.128296
91.253098 91.148804 -857.182373
88.985298 92.230103 -860.663208
102.761497 92.965599 -847.443604
86.820297 92.690498 -863.268372
90.504799 92.108299 -858.259399
85.537399 93.380699 -864.100525
99.061401 91.840797 -849.318787
96.058601 91.443398 -851.750488
84.370499 94.153900 -865.091675
101.157997 93.016602 -847.720520
97.638603 92.069099 -850.113892
94.608101 91.668404 -852.548096
93.295700 91.455498 -853.566895
91.814499 91.708801 -855.160278
89.325302 93.130501 -858.733521
88.027000 93.500099 -860.262878
86.990898 93.787102 -861.476196
90.939400 92.701202 -856.195801
85.662201 94.246696 -862.394897
99.508698 93.029800 -848.086792
89.953400 93.560501 -857.225281
84.381203 94.729500 -863.307617
82.983200 96.394600 -866.035583
97.996803 93.003197 -848.773621
96.240196 92.919998 -850.284912
94.954803 92.759499 -851.304688
91.957298 92.383698 -853.681213
88.346298 94.478203 -858.749878
83.491898 95.837898 -864.303284
82.846901 97.886002 -866.658325
93.473297 92.907204 -852.113586
90.990097 93.307098 -854.678711
87.193604 95.160599 -859.663513
85.929398 95.093803 -860.737915
100.394203 94.308197 -846.631287
84.722702 95.648300 -861.679871
83.491898 97.529099 -864.361877
89.918900 94.264603 -855.473083
88.946701 94.825600 -856.795898
83.907700 96.724800 -862.811890
83.181000 98.957001 -865.311279
98.889999 94.350403 -847.320129
96.593498 93.855202 -848.915588
95.293198 94.210297 -849.828003
94.041397 94.146599 -850.859314
92.053497 93.732903 -852.242981
87.820099 95.799400 -857.583618
86.089996 96.361801 -859.537109
85.180901 96.913902 -860.771973
83.971397 98.408600 -863.032227
90.769402 94.266998 -853.154724
97.311401 94.820099 -847.497681
89.045403 95.609001 -855.194702
86.199600 98.015800 -859.542786
85.212799 98.557503 -860.817627
83.259399 99.819397 -863.491882
86.825996 97.139297 -857.946777
100.213600 99.355103 -847.973389
98.775703 98.682899 -848.669128
97.460602 97.710999 -849.027222
95.687302 95.148201 -848.534912
92.553902 94.858704 -850.966614
84.167702 99.527100 -861.713379
94.266602 95.469597 -849.583313
89.679100 95.500099 -853.478516
87.953903 96.695000 -855.856201
91.054398 95.097198 -851.554077
86.865097 98.769302 -857.877075
86.108498 99.630302 -859.170288
100.992996 100.841003 -847.198425
85.039703 100.398102 -860.202087
95.910599 97.662598 -848.553101
88.575897 96.635300 -853.898804
87.303299 98.205902 -856.140381
83.876404 101.149803 -861.210571
98.922699 100.018600 -847.195801
97.615700 99.164101 -847.645386
94.418800 96.819099 -848.554810
92.939003 96.462997 -849.520081
89.711304 96.032600 -851.883789
101.465599 102.067802 -846.093323
91.387001 96.338097 -850.205200
87.791298 97.992996 -854.412109
86.740303 99.788902 -856.613586
85.701698 100.521400 -857.706909
84.770302 101.290802 -858.824219
99.748199 101.458397 -846.347778
87.278000 99.485199 -855.092773
95.948303 99.082397 -847.502075
88.574898 97.255699 -852.174011
94.391800 98.461899 -847.992126
92.798401 97.939598 -848.623291
89.806396 96.931702 -850.314880
88.025299 98.694199 -852.967285
97.611099 100.532600 -846.388916
101.418999 103.631401 -845.387329
85.853600 101.146698 -856.071228
84.933701 101.931503 -857.343323
99.638702 102.771698 -845.075806
98.430702 101.563400 -845.387024
91.185699 97.793297 -849.217224
94.832199 100.230499 -846.987976
93.365799 99.754898 -847.929688
92.051498 99.484596 -848.861511
87.095596 100.098602 -853.295898
86.252197 100.930901 -854.460876
88.512802 97.975304 -850.266113
85.033600 102.505501 -855.698608
90.626099 100.346802 -849.149780
89.551697 99.105301 -849.343079
87.764397 99.334801 -850.956909
93.253998 100.898804 -846.577515
91.937202 100.766197 -847.600708
86.805901 100.503899 -851.730530
86.090797 101.450897 -852.855774
110.215698 73.392097 -854.912781
111.862099 72.968903 -856.405518
113.427902 73.755798 -855.982727
115.579201 75.115303 -855.423706
115.325302 74.095200 -856.678284
113.737396 72.972801 -857.414795
117.144897 75.086899 -856.273804
117.080498 74.330597 -857.726074
115.736801 73.427299 -858.398682
117.764198 73.866096 -859.486206
105.126701 56.809700 -863.612183
103.410202 53.070499 -871.582275
98.377098 71.107597 -865.848999
98.589500 89.514702 -853.828430
96.725800 72.428200 -867.388184
95.255402 75.864601 -868.166626
94.557999 72.333801 -869.979126
95.221298 37.474098 -872.371887
107.275299 65.628098 -858.799072
107.500099 49.901402 -862.926514
109.201897 79.297997 -854.358276
107.008003 62.027500 -860.327393
90.933098 88.384003 -854.024719
92.781197 88.703697 -854.841614
63.510700 77.814400 -874.022888
62.164902 77.055397 -874.550781
69.247299 82.269699 -872.533020
67.867897 81.264099 -872.815125
66.531403 80.347702 -873.154114
65.208000 79.469498 -873.523315
60.546902 76.305801 -874.743225
59.138000 75.481796 -875.262817
57.746799 74.816101 -875.944702
70.380600 83.562698 -871.892212
63.664799 79.172501 -873.102173
72.350403 87.544601 -873.190308
62.396099 78.067398 -872.812012
56.252499 74.614899 -875.257629
71.551399 85.466797 -871.392517
60.970001 77.502098 -873.392883
65.213501 80.540199 -872.190308
57.789001 75.585503 -874.313782
59.119900 76.672897 -874.025513
73.160896 88.874199 -872.305420
68.273903 82.641899 -871.110718
66.658997 81.564102 -871.635620
63.645901 80.126503 -871.601807
73.520302 90.165703 -870.641785
68.085701 83.760201 -869.895081
66.705399 82.685997 -870.202515
65.341202 81.823601 -870.685120
62.348301 79.190300 -871.077820
60.964802 78.363800 -871.610474
59.627701 77.493599 -872.061218
58.192101 76.610298 -872.590881
56.445999 76.496399 -874.098511
71.973999 89.576797 -870.771973
69.241699 85.666496 -869.108582
63.762798 81.310997 -870.265381
56.601601 76.162598 -872.254517
73.687500 91.364998 -869.267822
62.503502 80.383499 -869.840027
72.019302 90.162300 -868.969421
67.804001 85.206398 -868.501526
66.490097 84.248703 -868.857910
65.140404 83.239601 -869.202576
60.870998 79.588303 -869.899719
59.523102 78.683296 -870.331726
58.088799 77.791801 -870.852783
75.642799 96.890099 -870.791992
63.573002 82.464798 -868.820374
68.538696 86.879501 -867.646912
62.325100 81.373001 -868.538818
76.335197 97.545799 -868.937500
66.426399 85.337502 -867.594482
65.013199 84.512199 -868.146729
60.798302 80.688904 -868.687988
59.503799 79.702599 -869.006714
58.146301 78.780701 -869.432373
56.621601 78.054199 -870.161377
76.956001 97.857498 -867.322510
74.738297 97.296799 -868.773193
70.538696 89.831100 -866.426880
69.247597 88.645699 -866.588074
67.120598 86.649200 -866.819275
63.373299 83.135101 -867.229187
78.349701 99.001801 -866.237488
61.803101 82.534203 -867.443115
75.245499 97.370399 -867.102783
67.869698 87.922600 -866.040894
65.664200 85.630302 -866.134277
59.511501 80.834602 -867.628113
58.082699 79.893700 -868.108276
56.708000 79.277702 -868.793518
76.988197 98.198700 -865.733582
64.145401 85.209198 -866.591614
78.932999 99.686897 -864.769775
72.522102 94.610497 -866.286377
60.164700 82.312500 -867.307312
83.326202 103.226097 -863.229492
73.801399 96.167900 -865.870422
69.514198 90.365997 -865.086670
66.389297 87.469803 -865.516785
62.768799 84.405998 -866.234497
79.741096 100.050102 -863.175781
77.401901 99.027397 -864.358521
75.583603 97.717697 -864.893799
70.503304 91.901299 -864.779297
61.360500 83.447098 -866.075806
81.664497 102.992104 -863.194519
67.949799 89.650299 -864.682678
64.894699 86.803299 -865.106812
58.643299 82.060402 -866.776611
57.130901 80.700996 -867.023621
72.651100 95.402496 -864.729126
83.576698 104.192596 -861.916626
74.186996 96.843102 -864.294983
71.366501 94.148804 -864.655579
63.407700 85.876999 -865.186279
78.066200 99.938599 -863.149292
76.058701 98.521599 -863.539429
66.406601 88.840401 -864.490479
59.686699 83.040901 -865.823730
69.060097 91.694099 -864.024414
80.680801 102.565201 -861.889771
79.643700 101.021301 -861.640381
70.324600 93.129898 -863.594727
61.923199 85.207703 -864.789917
82.029503 103.938698 -861.416321
74.648499 97.805603 -863.049683
64.987297 88.078300 -864.004211
60.522099 84.035400 -864.760620
57.304100 81.935204 -865.872314
76.656303 99.472198 -862.367615
72.902199 96.526199 -863.323425
71.679901 95.247002 -863.413208
67.543198 90.834702 -863.557495
63.511700 87.235703 -864.292114
73.852097 95.461601 -867.668274
73.608002 95.474197 -869.294312
69.656601 87.975197 -868.220825
83.631699 104.782303 -859.964478
77.994102 100.583801 -861.643982
80.788803 103.464104 -860.395996
82.075302 104.787300 -859.433105
79.536697 102.441002 -860.212891
75.064796 99.946098 -862.509277
83.295303 105.331703 -858.045776
78.095100 101.539398 -860.229675
76.490097 100.465500 -860.958313
73.358398 97.766403 -862.039673
70.419502 94.488503 -862.635010
74.650497 98.993103 -861.219971
69.048103 93.085403 -862.563782
66.174103 89.885803 -863.158325
80.626801 104.187401 -858.938599
71.920502 96.762703 -862.044983
81.764999 105.184303 -857.522888
79.173897 103.396500 -858.698914
67.591599 92.335503 -862.245178
62.010700 86.544502 -863.697021
58.531898 83.027702 -864.653625
83.971603 106.232002 -855.484619
77.756203 102.471100 -858.606018
76.432602 101.592102 -859.227112
75.149399 100.382896 -859.630371
73.189102 98.924599 -860.463074
70.515800 96.196800 -861.186890
69.538101 94.723999 -861.186829
66.165901 91.314003 -862.117126
64.553398 89.710701 -862.577026
63.481300 88.369499 -862.729614
60.695801 85.555199 -863.499329
82.417000 105.848602 -855.878418
80.134697 104.929901 -857.284973
71.647003 98.159103 -860.645874
68.102600 93.717102 -861.148926
59.340401 84.371498 -863.304688
56.830502 82.823799 -864.552002
62.085701 87.479698 -862.319519
71.629097 92.734703 -865.910889
71.166397 91.727600 -867.096619
83.159302 106.193497 -853.909424
80.816002 105.426300 -855.631226
78.627403 104.197998 -856.992981
85.069603 107.968102 -852.341125
77.323097 103.179100 -856.942505
76.101898 102.279503 -857.598511
74.842697 101.270699 -858.235718
73.689697 100.148399 -858.723999
83.595703 107.296997 -852.765930
81.487198 106.037903 -854.039917
79.148300 105.082497 -855.664612
72.205002 99.414299 -859.130493
70.280098 97.160896 -859.764771
66.581703 93.050201 -861.088318
69.085701 95.792900 -859.718994
64.563904 91.147903 -861.524414
77.698700 104.278198 -855.643677
67.659798 95.003899 -860.161926
63.124298 89.957703 -861.794983
82.109497 106.556503 -852.331177
79.840500 105.919899 -854.049927
75.419601 103.556999 -856.864624
73.541901 100.946602 -857.295471
70.735001 98.662102 -858.709473
60.549599 86.722900 -862.103394
57.670200 84.228897 -863.482117
84.174202 108.418098 -850.950378
66.113403 94.600700 -860.492188
64.972801 92.751602 -860.630981
59.207699 85.871399 -862.503418
78.252098 105.180603 -854.312683
74.541397 102.316299 -856.266724
72.103600 100.204903 -857.441528
69.053200 97.113503 -858.698181
61.610699 89.151001 -861.565125
80.458801 106.285698 -852.565796
76.125999 103.943001 -855.330017
56.140400 84.620300 -864.044373
82.502998 107.699097 -851.229675
63.078201 91.277000 -860.854919
67.536499 96.343102 -859.239075
81.001404 106.890099 -851.045471
78.760201 106.416000 -852.817017
76.738297 104.680199 -853.854492
73.199600 101.598396 -855.651672
70.681000 99.447197 -856.949097
69.440903 98.376602 -857.582886
60.061100 88.207497 -861.489319
57.599400 85.568802 -862.527588
82.878403 108.533203 -849.457275
74.753502 103.437202 -854.425720
71.771896 100.719200 -855.887573
65.903198 96.012100 -859.039185
64.490097 94.135696 -859.481628
63.327000 92.690399 -859.887878
61.531601 90.732498 -860.631470
79.364197 106.604698 -851.061829
77.300301 105.778503 -852.519897
67.859802 97.939102 -857.470825
60.153198 89.740997 -860.751099
58.483200 87.519402 -861.273621
81.315201 108.130699 -849.279724
75.487900 104.453003 -852.820984
73.412598 102.694000 -853.893188
70.150497 100.553398 -855.841187
68.893700 99.731400 -856.592896
66.367599 97.214401 -857.739685
57.000000 86.899696 -861.580017
79.851303 107.386902 -849.467773
77.767502 106.403000 -850.873474
71.795601 102.480904 -854.440796
66.575302 98.978104 -857.527771
64.502899 95.916199 -858.053284
63.066601 94.288399 -858.624512
61.904999 93.179497 -859.173279
60.766701 91.897598 -859.629517
58.690800 89.001297 -860.227417
76.245201 105.558098 -851.079224
74.052200 103.843102 -852.276001
70.248596 102.206398 -854.909729
59.516201 90.356598 -859.325317
57.139599 88.546997 -860.642700
80.763000 108.728798 -847.611694
78.389999 106.793602 -848.873901
74.847397 104.647301 -851.067017
72.488197 104.052498 -852.874084
68.721298 101.638100 -855.151123
67.569298 100.605301 -855.725098
65.139000 98.484001 -856.960083
79.290802 107.983704 -847.686401
76.804802 106.199203 -849.110779
70.843697 103.774200 -853.294312
65.995697 100.135696 -856.006470
63.643600 97.468201 -856.948608
62.668598 95.758400 -857.088928
61.476700 94.495697 -857.603088
60.390999 93.384399 -858.087830
59.336201 92.124397 -858.483826
58.059502 91.292900 -859.250488
57.028400 89.901901 -859.571777
75.201897 105.821503 -849.551880
73.251999 105.117500 -850.957214
69.278702 103.321701 -853.671326
77.560097 106.650803 -847.231689
71.717499 104.820801 -851.555725
67.769203 102.907997 -854.200317
66.562202 101.949898 -854.855530
64.393303 99.917801 -855.905273
63.091000 98.843002 -856.225830
62.085899 97.312103 -856.473511
60.981098 96.021896 -856.727173
59.952999 94.801003 -857.123230
58.716599 93.440697 -857.643188
73.681900 106.425598 -849.778870
65.025299 101.253403 -855.170776
57.423199 92.480202 -858.216919
76.058502 107.074402 -847.687622
70.095100 104.577103 -851.822998
74.551003 107.058296 -848.494080
72.089203 106.235199 -850.280212
68.512299 104.227303 -852.071777
66.323402 102.928802 -853.435486
63.004902 100.608398 -855.365417
76.963402 107.562302 -845.831970
70.531403 105.759399 -850.622620
61.475700 98.995300 -855.724182
60.461800 97.468399 -855.996277
59.308899 96.238297 -856.372375
72.559700 107.480400 -849.234375
64.877800 102.277100 -853.780029
75.610397 108.189796 -846.553223
57.803902 96.084602 -857.080688
79.621399 110.231300 -843.469177
78.370697 108.980499 -844.057678
77.128502 109.134598 -845.170898
74.158401 108.316704 -847.383484
70.996300 107.301498 -849.684387
68.916000 105.552101 -850.788696
66.822403 103.916199 -851.947083
63.391102 101.668800 -854.010071
61.501202 100.444099 -854.690796
58.871399 97.804604 -855.927673
75.707298 109.820297 -845.703979
72.608398 108.547401 -847.853516
69.396698 106.959801 -849.980530
65.277298 103.281197 -852.092712
60.068401 99.011597 -854.906494
56.128502 96.229500 -857.202881
78.362602 111.296997 -843.581299
67.273804 105.307198 -850.728088
79.578697 111.555603 -842.328613
76.940598 110.752701 -844.257813
74.107300 109.743301 -846.275391
71.069801 108.486801 -848.373474
63.696899 102.582100 -852.408630
62.107498 101.085197 -853.195190
57.270199 97.185204 -855.832886
65.718399 104.540497 -850.939087
67.863800 106.344101 -849.616272
74.661201 111.032204 -845.342285
69.485199 108.088501 -848.625610
60.506100 100.391502 -853.407715
58.480900 98.855904 -854.557129
54.557701 96.658600 -857.057617
78.292503 112.600502 -842.513184
72.456497 109.835403 -846.403076
64.174103 104.749397 -851.516602
55.656300 97.238503 -855.976685
76.866402 112.209000 -843.215271
75.599197 111.704102 -844.091675
62.103901 102.215698 -851.995483
70.867599 109.552696 -846.885681
67.803902 107.941803 -848.870117
66.217003 106.022003 -849.523193
56.839199 98.611801 -854.741211
73.025497 111.309196 -845.348572
63.128399 103.609299 -850.909180
58.908600 100.147499 -853.218628
69.292000 109.248802 -847.467896
60.666401 101.416603 -851.947510
53.008598 97.106201 -856.820984
77.130798 113.706398 -842.217773
64.697899 105.377296 -849.697327
75.537003 113.157501 -842.970825
74.072998 112.350304 -843.910217
71.427597 110.965698 -845.632080
57.330399 99.566498 -853.472412
55.137600 98.450699 -854.910400
61.493698 103.091400 -850.744873
53.653198 98.037697 -855.540527
72.454102 112.345703 -844.217285
69.776398 110.824203 -845.925476
67.634804 109.221497 -847.165588
66.325699 109.031097 -848.181580
65.287102 106.741302 -848.288879
63.104198 104.983299 -849.512512
59.010799 101.480003 -851.739014
76.604897 114.859100 -841.147278
60.051498 102.333199 -850.721130
57.506802 100.804001 -852.320984
55.688202 99.485901 -853.391479
75.088799 114.751999 -841.934326
73.990997 113.620399 -842.475281
70.851799 112.166901 -844.592896
63.731300 106.184998 -848.537170
61.098999 104.560402 -850.182983
68.093201 110.797897 -845.849182
64.748596 109.586899 -848.216675
54.016399 99.265602 -853.772522
72.366501 113.754997 -842.505188
69.201401 112.168098 -844.607727
66.587402 110.258301 -846.155273
62.008301 105.519897 -848.427490
59.840401 103.628098 -849.614014
58.410702 102.404900 -850.404175
55.921398 100.778198 -851.938477
70.772499 113.494797 -842.890991
64.981499 110.119797 -846.592712
63.165199 109.987000 -848.043823
60.407398 104.864304 -848.705078
72.504799 114.575798 -840.930298
69.163696 113.102303 -843.216309
67.658897 111.946404 -844.092285
