39.081501 60.122700 -785.282593
39.409801 59.069302 -789.853516
39.773300 56.988400 -796.459900
39.561600 53.576599 -800.425903
39.438999 51.970600 -802.098022
39.396301 51.436798 -802.636414
39.364799 50.949100 -803.193298
39.318802 50.398300 -803.733215
39.309399 49.921299 -804.459412
39.284100 49.295200 -805.302612
39.478100 58.279099 -792.645020
39.516602 58.051800 -793.354004
39.557400 57.834202 -794.066223
39.586102 57.567902 -794.757324
39.701302 55.313202 -799.525391
39.505901 54.308399 -799.553772
38.892799 62.000000 -782.169312
38.891602 60.851200 -784.071411
39.580200 56.553299 -797.055786
39.282001 52.403999 -801.437317
38.681198 62.475601 -781.300781
38.686798 61.336201 -783.221130
38.715801 59.833599 -785.934082
38.841000 59.637199 -787.309509
38.888000 59.405899 -788.084717
38.948799 59.257301 -788.839783
39.077000 58.678101 -790.869019
39.316200 57.151299 -795.388916
39.374802 55.748600 -798.186829
39.289101 54.881302 -798.892822
38.928699 48.850899 -805.777100
38.896500 47.598999 -807.564697
38.357899 61.670601 -782.585083
38.377300 60.553101 -784.569824
38.479099 59.790199 -786.664124
38.645199 58.916302 -789.476624
38.792400 58.405899 -791.538574
38.839901 58.204498 -792.263672
38.873199 57.946301 -792.962585
38.896099 57.646599 -793.643311
38.934399 57.408901 -794.350281
39.004799 56.752300 -796.009216
39.027401 56.096401 -797.268188
38.884300 54.272701 -799.046814
38.851799 53.737400 -799.648376
38.813900 53.178001 -800.244629
38.791500 52.681400 -800.867004
38.732201 51.906700 -801.635681
38.676201 51.304501 -802.149597
38.628502 50.735500 -802.679016
38.615799 50.273102 -803.327576
38.614601 49.857899 -803.994385
38.611698 49.434502 -804.660583
38.592999 48.362701 -806.252319
38.544300 47.069000 -807.956116
38.046799 62.306400 -781.653198
38.053398 61.129101 -783.616516
38.062401 60.210999 -785.179077
38.109001 59.270699 -787.090515
38.154400 59.054100 -787.819092
38.244202 59.014099 -788.630798
38.343201 58.617699 -790.096680
38.587399 56.951900 -794.826477
38.640400 56.177200 -796.523071
38.638000 55.491001 -797.615417
38.590401 54.894699 -798.185913
38.286900 49.012600 -805.194214
38.455700 48.993599 -806.629028
38.246799 47.839802 -806.761780
37.838501 62.809200 -781.078125
37.837200 59.845699 -785.855713
38.139500 58.334999 -790.811401
38.196301 57.968899 -791.875793
38.244801 57.768101 -792.603577
38.256901 57.420200 -793.266174
38.292500 57.167999 -793.970398
38.323502 56.459400 -795.373291
38.286800 54.305401 -798.547119
38.244301 53.320599 -799.784912
38.210499 52.773201 -800.388123
38.175201 52.217300 -800.991882
38.102299 51.459599 -801.609070
38.038200 50.818501 -802.111816
38.034100 48.521801 -805.788025
38.003700 47.383801 -807.373230
38.000099 46.735699 -808.390930
37.647400 62.019901 -782.245605
37.628300 61.536999 -782.862915
37.648602 60.804100 -784.209717
37.654598 59.416698 -786.489929
37.821602 58.641800 -789.125488
38.149502 55.598598 -796.747925
38.087502 53.786499 -799.144226
37.844200 50.338402 -802.661316
37.866600 50.019501 -803.360229
37.859402 49.573002 -804.018188
37.421200 60.419399 -784.819885
37.437099 58.978100 -787.246277
37.485199 58.767399 -787.980103
37.609299 58.299400 -789.753723
37.722900 57.913502 -791.309509
37.869701 56.701302 -794.455994
37.896599 56.005199 -795.787292
37.910599 55.132000 -797.293213
37.878502 54.591702 -797.887085
37.627998 49.099602 -804.551880
37.609402 47.962700 -806.208130
37.121899 62.730400 -781.248474
37.105000 61.286301 -783.392212
37.113602 60.034599 -785.442627
37.179699 58.385300 -788.596985
37.330200 58.019001 -790.419128
37.419800 57.532501 -791.928772
37.449001 57.246700 -792.622314
37.482899 56.979801 -793.323792
37.504101 56.133598 -794.837585
37.517899 55.131302 -796.536682
37.505600 53.974201 -798.265198
37.488899 53.203899 -799.344971
37.454601 52.687401 -799.879028
37.412399 52.135601 -800.403076
37.382999 51.594398 -801.015503
37.319500 50.948299 -801.513489
37.311501 50.494999 -802.164124
37.318501 48.668201 -805.110474
37.368999 47.781898 -806.929626
37.236099 46.941799 -807.159973
37.281601 46.711899 -807.899414
37.306599 46.391399 -808.612915
36.838402 62.337898 -781.824524
36.815601 61.833099 -782.434692
36.808601 60.827400 -783.969604
36.847099 59.674400 -786.114197
36.846901 59.267300 -786.757507
36.925301 58.107800 -789.242798
37.064098 57.697102 -791.043030
37.150600 56.429001 -793.767578
37.203300 55.670601 -795.405518
37.205700 54.660301 -797.025085
37.166401 53.428799 -798.650085
37.351601 53.962601 -799.339294
37.034401 50.122799 -802.791382
37.026100 49.666199 -803.445313
37.009800 49.174099 -804.089905
36.910999 47.297901 -806.242188
36.645500 60.429298 -784.611511
36.681702 58.854599 -787.407776
36.665798 58.362999 -788.054626
37.014999 55.202801 -795.968872
36.994900 54.097000 -797.554688
36.696602 57.925400 -789.975281
36.774899 57.273300 -791.660828
36.817101 56.838402 -792.700928
36.866100 56.025600 -794.395813
36.811798 52.805302 -799.036621
36.798401 52.334202 -799.669617
36.773102 51.728100 -800.417480
36.720600 51.128101 -800.928406
36.705898 48.709400 -804.631470
36.581902 47.460400 -805.572327
36.606701 46.823700 -806.786926
36.639198 46.537701 -807.510071
36.463001 63.102699 -781.106628
36.356899 61.402302 -782.900024
36.400501 57.974300 -788.663513
36.709702 54.675900 -796.437927
36.668499 53.514500 -797.924011
36.570801 50.682999 -801.569519
36.565800 50.241001 -802.223694
36.480801 48.057301 -804.955322
36.559200 46.378300 -808.253479
36.260300 60.125599 -785.226990
36.412601 57.535702 -790.568787
36.520699 56.391800 -793.267883
36.550800 55.536598 -794.863708
36.196098 61.072102 -783.548706
36.268501 57.728001 -789.401672
36.392200 49.761700 -802.935608
36.381699 49.292500 -803.583618
36.237202 46.947201 -806.054993
37.067902 48.155102 -805.660522
37.753101 57.193100 -796.932922
36.045101 62.560299 -781.497620
36.045300 62.129101 -782.148376
36.013500 60.594398 -784.158386
36.051899 59.705101 -785.857483
36.079700 59.417801 -786.550903
36.245201 56.828499 -792.000183
36.311600 55.986301 -793.891479
36.328999 55.085400 -795.409424
36.373798 54.313499 -796.991882
36.296001 52.947800 -798.316284
35.861801 59.018200 -787.140503
35.858101 58.593201 -787.748718
35.896198 57.365101 -789.968079
35.962898 57.070202 -791.046570
36.029800 56.451500 -792.617004
36.067299 53.623100 -797.252197
36.053501 52.482300 -798.848083
36.041302 52.008202 -799.450317
36.027401 51.524101 -800.050720
36.015202 50.880199 -800.909485
35.978600 48.680500 -803.891113
35.940102 46.484901 -806.849121
35.965698 46.143299 -807.608887
35.529800 61.796200 -782.564880
35.492901 61.239700 -783.055786
35.516800 60.323002 -784.667175
35.529900 59.956100 -785.346008
35.549301 58.142899 -788.269714
35.548401 57.684101 -788.954773
35.651600 56.593700 -791.581299
35.716599 55.969700 -793.140686
35.750999 55.519001 -794.148682
35.766499 55.141602 -794.865601
35.780300 54.673901 -795.703491
35.783501 54.277699 -796.332214
35.728600 53.062698 -797.646973
35.699799 50.376499 -801.432190
35.696701 49.940498 -802.061523
35.696899 49.519901 -802.698914
35.643700 48.109501 -804.325317
35.601101 47.511101 -804.824829
35.612598 47.141399 -805.492615
35.264801 62.863602 -781.269104
35.259499 62.402302 -781.913086
35.195499 60.862999 -783.623474
35.232899 59.570999 -785.923096
35.272400 59.306702 -786.695496
35.258301 57.320499 -789.551575
35.253300 56.877300 -790.171326
35.295502 56.664101 -790.892273
35.429401 53.663898 -796.679382
35.405998 52.551399 -798.131775
35.393902 52.074699 -798.734985
35.389801 51.635300 -799.356812
35.388901 51.127102 -800.113403
35.345299 48.923100 -803.017517
35.323299 48.386501 -803.616089
35.305698 46.667000 -806.037292
35.320599 46.094898 -807.039978
34.873001 60.424999 -784.195496
34.949001 58.844299 -787.278687
34.944698 58.410099 -787.886719
34.962799 56.162498 -791.418518
34.999199 55.909801 -792.140320
35.026798 55.604000 -792.859070
35.052799 55.286201 -793.580688
35.094398 55.069199 -794.299072
35.101200 54.686001 -794.936401
35.096298 54.245899 -795.547913
35.076698 53.105999 -797.066406
35.040401 50.564999 -800.520996
35.040298 50.139599 -801.156616
35.021999 49.622101 -801.756287
35.025398 49.212002 -802.402283
34.973400 47.834301 -803.969482
34.972599 47.138599 -805.002014
34.595299 62.836498 -781.607727
34.591301 62.376598 -782.252319
34.551399 61.754200 -782.799011
34.478802 61.031601 -783.186584
34.501099 60.086899 -784.797729
34.527599 59.789299 -785.488892
34.530102 59.351601 -786.161621
34.541000 57.952400 -788.339294
34.559700 57.600101 -789.038025
34.560398 57.139801 -789.726929
34.542900 56.616600 -790.338196
34.646301 53.672298 -795.679688
34.642502 53.231602 -796.297180
34.626400 52.518398 -797.203125
34.629299 52.107800 -797.839172
34.643600 51.751900 -798.501221
34.623798 51.228600 -799.090576
34.633701 50.850399 -799.745605
34.580700 48.607899 -802.571228
34.590599 48.224300 -803.233826
34.559898 47.286201 -804.334717
34.576401 46.626900 -805.468384
34.012501 60.571098 -783.558777
34.037102 60.261299 -784.244995
34.127300 59.098598 -786.799988
34.124901 58.671200 -787.405884
34.095299 56.162102 -790.818481
34.089901 55.702301 -791.443787
34.102600 55.300499 -792.153809
34.135101 55.014702 -792.878174
34.149700 54.620899 -793.594971
34.170601 54.265301 -794.312988
34.164200 53.810001 -794.922729
34.174801 52.709900 -796.640015
34.131500 51.168800 -798.500305
34.124500 50.660000 -799.183228
34.141800 50.226101 -799.983521
34.106701 49.009800 -801.442871
34.085701 47.636101 -803.266174
34.112999 46.805599 -804.744019
33.822800 63.166000 -781.939880
33.814999 62.679798 -782.577576
33.731998 61.897800 -782.945984
33.609501 59.890499 -784.735779
33.635700 59.584801 -785.427429
33.653702 59.230301 -786.113586
33.697899 58.285500 -787.907227
33.676102 57.738899 -788.503113
33.669498 57.278000 -789.114685
33.670799 56.861801 -789.735474
33.727200 53.345200 -795.401794
33.739601 52.976002 -796.057983
33.709702 52.185501 -796.933777
33.684700 51.631901 -797.509277
33.639801 50.109100 -799.316528
33.749699 49.952400 -800.571716
33.590401 48.858501 -800.683472
33.137001 60.298302 -783.235107
33.182499 60.058399 -784.009827
33.292500 58.903198 -786.720581
33.291698 56.461300 -790.273315
33.256001 55.868401 -790.804077
33.238800 55.334599 -791.421875
33.235600 54.881699 -792.052673
33.249901 54.481899 -792.768311
33.305801 54.330799 -793.510986
33.285198 53.815498 -794.069580
33.267799 51.111301 -797.850281
33.253399 50.604301 -798.454102
33.208698 49.552502 -799.570129
33.135399 48.220001 -800.828796
33.103500 47.662201 -801.344116
33.233002 63.418900 -782.486206
33.166698 62.644100 -782.995483
32.897202 59.660702 -784.823181
32.932701 59.361599 -785.592285
32.988400 58.532600 -787.325623
32.975201 58.037102 -787.924988
32.962299 57.540699 -788.528320
32.955601 57.031502 -789.208984
32.959099 53.345699 -794.623474
32.976898 52.988701 -795.312012
32.987900 52.609600 -795.968079
32.974098 52.109798 -796.568115
32.958401 51.599400 -797.165771
32.905102 50.073299 -798.894226
32.837502 48.948399 -799.902222
32.764599 47.167099 -801.819214
32.731998 46.601898 -802.338318
32.857601 62.024101 -783.396729
32.677601 58.945801 -786.197327
32.678101 56.521599 -789.744629
32.672001 56.058701 -790.364075
32.609600 54.341499 -792.285217
32.603298 53.865898 -792.920227
32.624802 53.507801 -793.646973
32.650299 50.675701 -798.026428
32.542099 48.381001 -800.358826
32.354401 60.077301 -783.419006
32.385300 59.800900 -784.115479
32.441200 55.510799 -790.914673
32.416000 54.976002 -791.457520
32.452801 51.117802 -797.443115
32.389702 49.534901 -799.158020
32.306400 47.836300 -800.850525
32.718601 63.308399 -783.052429
32.396400 58.641499 -786.816101
32.367500 52.558498 -795.466309
32.367199 52.127701 -796.095215
32.308899 50.141701 -798.451782
32.173401 46.318600 -802.764526
32.362999 57.178299 -788.785400
32.348202 51.719299 -796.716125
32.160500 47.314400 -801.391724
32.292099 59.350800 -785.174072
32.353401 58.165100 -787.530029
32.340199 57.669601 -788.131714
32.179699 62.737202 -783.219788
32.148998 53.258202 -793.110779
32.170300 52.866001 -793.767822
31.951900 63.694698 -782.824097
31.655001 59.882401 -783.580627
31.696600 59.574799 -784.366089
31.767000 59.088200 -785.658630
31.795300 58.721500 -786.359802
31.862000 56.751598 -789.182312
31.867901 56.233601 -789.796509
31.867100 55.715000 -790.336487
31.875200 54.497601 -791.714905
31.874800 53.972099 -792.266785
31.917801 52.454899 -794.348511
32.038399 48.929100 -799.414001
32.069401 46.808701 -802.001282
31.431200 59.311199 -785.029480
31.508600 58.312401 -786.925415
31.543100 57.991199 -787.641418
31.551399 57.493401 -788.249878
31.572001 55.220001 -790.834290
31.548100 52.797600 -793.078003
31.669500 52.044300 -795.208679
31.718800 51.774700 -796.036377
31.745100 51.282902 -796.838318
31.745899 50.718800 -797.431396
31.744400 50.193501 -797.959229
31.732800 49.592098 -798.453125
31.751600 48.402500 -799.894714
31.805201 45.762501 -803.225830
31.293400 57.003799 -788.770813
31.298901 53.433300 -792.441406
31.303699 52.308399 -793.632874
31.329201 51.792000 -794.440613
31.500700 47.803398 -800.395325
31.505501 47.305302 -800.952087
30.886499 59.592499 -783.522400
30.949301 59.532501 -784.289124
31.021999 59.040901 -785.587219
31.057301 58.716999 -786.299988
31.126801 56.431301 -789.310181
31.142900 55.973000 -789.937683
31.144699 54.675800 -791.221619
31.132900 53.997700 -791.748474
31.332001 49.036400 -798.825195
31.382099 46.814800 -801.553406
31.409000 46.414299 -802.246521
30.873800 58.043201 -787.219116
30.905399 57.658699 -787.927185
30.941601 55.384701 -790.429077
30.922800 52.389801 -792.979980
30.998501 51.255600 -794.872986
31.081600 51.407600 -795.662720
31.112600 51.033501 -796.355286
31.131599 50.564400 -797.000610
31.125999 49.961601 -797.493103
31.166800 48.473099 -799.322205
31.326900 45.582901 -803.778381
30.425200 59.306599 -784.767883
30.592400 57.169601 -788.490479
30.615801 53.480999 -791.975098
30.612801 52.904900 -792.445496
30.617201 51.854500 -793.412170
30.651100 51.512798 -794.086975
30.815300 49.310200 -797.834290
30.888500 47.958000 -799.829224
31.010099 46.073002 -802.824890
30.016800 59.563702 -783.667419
30.137800 59.065701 -785.439880
30.167900 58.641399 -786.134583
30.201599 58.251999 -786.839417
30.223301 57.731899 -787.521423
30.281099 56.683201 -789.054077
30.278601 56.039501 -789.569519
30.294201 55.045101 -790.584717
30.290800 54.458099 -791.042725
30.331100 50.886398 -794.512024
30.355700 50.445301 -795.158875
30.450800 50.110199 -796.504822
30.469101 49.602001 -797.137817
30.513399 48.779701 -798.328430
30.528500 48.240601 -798.952515
30.582100 47.422100 -800.242371
30.603901 46.935501 -800.897522
30.626301 46.451698 -801.555786
30.709700 45.542599 -803.255371
30.744499 45.163601 -803.964722
30.758499 44.669998 -804.538574
30.074800 53.821701 -791.492981
30.063700 52.384300 -792.549683
30.047100 51.528000 -793.065918
30.166201 49.941502 -795.726013
30.447399 45.998299 -802.171082
30.010401 53.002399 -791.999329
30.035500 51.174099 -793.738281
29.739401 59.423599 -784.364319
29.922100 57.311199 -788.100525
29.971100 55.471699 -790.056824
30.276899 47.715801 -799.475525
30.002800 49.501099 -796.319824
30.075300 49.054798 -797.500488
30.422199 44.242901 -805.046692
29.463699 59.127102 -785.012329
29.504000 58.784500 -785.725830
29.550100 58.427399 -786.517090
29.576700 57.982201 -787.134583
29.660601 56.307400 -789.258911
29.750799 50.566799 -794.166870
29.778700 50.076900 -794.829712
30.182600 45.528400 -802.718018
29.682600 56.967098 -788.716675
29.243099 59.555901 -783.790283
29.581800 54.840599 -790.603271
29.908899 48.458801 -798.026001
30.025700 46.933399 -800.328918
29.495199 54.204498 -791.135620
29.504499 52.432701 -792.036377
29.519300 51.839600 -792.505127
29.527901 50.955200 -793.011780
29.725300 48.927898 -796.713928
29.833700 47.983299 -798.674316
29.948799 46.455002 -800.982971
30.075600 45.097000 -803.386414
30.114901 44.727299 -804.108521
29.470501 53.261501 -791.481323
28.947300 59.411499 -784.470093
29.126699 57.655998 -787.642578
29.150600 57.110100 -788.163025
29.222799 55.755600 -789.643005
29.476101 49.543701 -795.294128
29.721100 47.235298 -799.599182
29.836000 46.072498 -801.643494
30.047199 43.708500 -805.471680
28.610399 59.088699 -785.096191
28.650200 58.671700 -785.791626
28.692600 58.324799 -786.505798
28.811300 56.658199 -788.689697
28.879499 55.208401 -790.076477
28.912201 54.501099 -790.743225
28.998501 50.411800 -793.100220
29.046101 50.125900 -793.873901
29.084101 49.697800 -794.544800
29.153200 48.975700 -795.750671
29.208599 48.342800 -796.730530
29.252199 48.060699 -797.445923
29.295601 47.709900 -798.175476
29.339001 47.359798 -798.905579
29.527901 45.528400 -802.161804
29.659100 44.236900 -804.429688
28.556299 57.892601 -787.158203
28.667400 56.098999 -789.243896
28.757000 53.789101 -791.118896
28.761499 52.973301 -791.371399
28.786501 52.307999 -791.899475
28.794100 51.584400 -792.177612
29.230900 46.696800 -799.886780
29.271601 46.294998 -800.593018
29.398600 45.058102 -802.791992
29.437500 44.612701 -803.481812
29.579700 43.302399 -805.927795
30.492800 50.729500 -795.939575
33.485901 47.393002 -802.465820
33.824299 48.316502 -801.562500
33.946301 47.128300 -803.805115
34.495602 49.963299 -800.599792
34.039501 48.198700 -802.267517
31.283001 61.572300 -783.917297
28.227400 59.473999 -784.083618
29.098301 52.668800 -792.787109
27.904900 59.504902 -784.773010
27.964600 59.065800 -785.467529
28.168699 57.521301 -787.685608
28.233601 57.006802 -788.301697
27.802099 58.590801 -786.085999
27.857599 58.173100 -786.713806
28.072001 56.491600 -788.854675
28.173100 55.648602 -789.661682
28.270901 54.803902 -790.317200
28.591600 50.854301 -792.519104
28.815599 49.125198 -794.935974
27.153700 59.467499 -784.678772
27.163200 59.424999 -785.461914
27.379601 57.648701 -787.066406
27.416401 57.369701 -787.806824
27.477200 56.879101 -788.427185
27.574301 56.086800 -789.234070
27.677700 55.239899 -790.039673
27.793800 54.276199 -790.672485
27.884001 53.520500 -791.026123
27.975201 52.748699 -791.218628
28.062201 52.021198 -791.585571
28.112499 51.634998 -792.504517
28.288500 50.142899 -792.843811
28.357401 49.577202 -793.335388
28.397499 49.267899 -794.034729
28.483400 48.599998 -795.432129
28.539700 48.151299 -796.118896
28.581699 47.824100 -796.790771
28.633801 47.408001 -797.403320
28.677200 47.072498 -798.147888
28.708300 46.840698 -798.852173
28.840000 45.816898 -800.987488
28.889200 45.430401 -801.709106
29.052601 44.142799 -804.001770
29.100300 43.769699 -804.733276
29.217800 42.843899 -806.390320
26.731100 59.137299 -786.000183
26.799101 58.583000 -786.627625
27.671801 51.336800 -791.677002
27.756599 50.631901 -792.137085
28.002899 48.631302 -794.562317
28.302700 46.271500 -799.176086
28.345800 45.936100 -799.922913
28.479000 44.891300 -802.056519
28.519501 44.577999 -802.814270
28.682199 43.287998 -805.115479
28.719000 43.003399 -805.797913
26.273100 59.189098 -785.341919
26.502399 57.302898 -787.364319
26.527300 57.116699 -788.081726
26.591200 56.589401 -788.615723
26.652000 56.090302 -789.158875
26.719101 55.536098 -789.695313
26.797199 54.887600 -790.218628
26.871901 54.264900 -790.670715
26.961000 53.510300 -790.860779
27.045300 52.799198 -791.143127
27.135099 52.031700 -791.174072
27.379299 49.985199 -792.314575
27.450800 49.392200 -792.799988
27.526699 48.757801 -793.200012
27.558701 48.510601 -793.911804
27.620300 48.021400 -794.923523
27.672800 47.595001 -795.531189
27.718000 47.234402 -796.234070
27.764000 46.867901 -796.961487
27.811501 46.484901 -797.595215
27.857901 46.115700 -798.328125
27.945700 45.440601 -800.370483
27.990200 45.087700 -801.111084
28.119200 44.061100 -803.169617
28.162001 43.719898 -803.827271
28.205099 43.375198 -804.484070
28.312500 42.523499 -806.267517
28.363400 42.111500 -806.898926
26.861300 51.282902 -791.430786
26.944300 50.586498 -791.890076
27.548901 45.603100 -798.787476
27.580900 45.347900 -799.486389
27.676001 44.590000 -801.583618
27.719101 44.238201 -802.236511
27.882200 42.916801 -804.982605
26.106001 55.191799 -789.997925
26.191401 54.471298 -790.428589
26.787800 49.423599 -792.258179
26.853300 48.872200 -792.751404
26.937000 48.165501 -793.140686
26.976700 47.835400 -793.842224
27.010201 47.558300 -794.553589
27.055099 47.184299 -795.253113
27.099001 46.818199 -795.956116
27.136400 46.507900 -796.668884
27.182699 46.121700 -797.376587
27.225100 45.768501 -798.028320
27.331400 44.885700 -800.071411
27.367201 44.589199 -800.751282
27.466101 43.770000 -802.823425
27.507000 43.429100 -803.483521
27.547501 43.091900 -804.145813
27.627001 42.431301 -805.567993
27.669201 42.079399 -806.225830
27.707500 41.761902 -806.988220
25.524200 56.971901 -787.766724
25.566200 56.614399 -788.492798
25.625401 56.111301 -789.033020
25.910000 53.696999 -790.753723
26.170200 51.493000 -790.698975
26.258400 50.743999 -791.379211
26.346500 49.997501 -791.665527
26.301201 50.379700 -792.307617
26.904200 45.256699 -798.491577
26.955799 44.817402 -799.104370
27.045300 44.054298 -801.210571
27.069201 43.850300 -801.934875
27.205400 42.689400 -804.671875
27.375200 41.244301 -807.472290
25.192699 55.593300 -789.444824
25.254499 55.062599 -789.986084
25.338301 54.348202 -790.336426
25.922701 49.377701 -791.836975
25.832300 50.131699 -792.871399
26.095699 47.900600 -792.763306
26.147600 47.453800 -793.363403
26.206800 46.944500 -793.957214
26.246000 46.603600 -794.663086
26.280399 46.304001 -795.377075
26.321100 45.950298 -796.085571
26.363701 45.580502 -796.794495
26.400101 45.263802 -797.512512
26.518400 44.237900 -799.411926
26.545500 43.999298 -800.124207
26.625299 43.297199 -802.263184
26.657101 43.019699 -802.955383
26.688801 42.743099 -803.647705
26.755600 42.160198 -805.019287
26.797899 41.793598 -805.673279
26.837601 41.449200 -806.337585
26.913200 40.790199 -807.859802
24.508699 56.556801 -787.976929
24.551800 56.179298 -788.668701
24.833799 53.754101 -790.539429
24.875299 53.390499 -791.202820
25.146999 51.092300 -790.666687
25.223101 50.438801 -791.092285
25.317699 49.630402 -791.366577
25.412300 48.820400 -791.811584
25.494699 48.116798 -792.028870
25.696899 46.365101 -794.105591
25.743299 45.960201 -794.805176
25.771500 45.708900 -795.528992
25.810499 45.365299 -796.241821
25.847000 45.042702 -797.044006
25.895700 44.617802 -797.737122
25.937700 44.249802 -798.388916
25.980700 43.874001 -799.037781
26.020000 43.529800 -799.702820
26.048201 43.278198 -800.411682
26.052700 43.227402 -801.213196
26.162500 42.250801 -803.869385
26.192301 41.986801 -804.569214
26.310600 40.949200 -806.565002
26.349100 40.611198 -807.234985
26.389601 40.254902 -807.988220
24.034401 55.645302 -788.999573
24.101700 55.061199 -789.528870
24.164600 54.514599 -790.069580
24.326599 53.127201 -790.460571
24.803600 49.046902 -791.385620
25.003401 47.331001 -792.103210
25.048599 46.931400 -792.796326
25.092501 46.543598 -793.494019
25.219200 45.434101 -795.018921
25.254700 45.117599 -795.736511
25.289499 44.806900 -796.456726
25.326799 44.473999 -797.176086
25.367901 44.110001 -797.896179
25.415701 43.689701 -798.525208
25.466200 43.247700 -799.145325
25.500799 42.938801 -799.830017
25.519600 42.763901 -800.577515
25.541599 42.562000 -801.311096
25.518499 42.741901 -802.125916
25.549400 42.465099 -802.821594
25.657499 41.504902 -804.761475
25.697001 41.155701 -805.426880
25.738600 40.788399 -806.085388
25.817699 40.087502 -807.419495
25.855801 39.745800 -808.271118
23.523300 55.892300 -788.398499
23.758200 53.843300 -790.098389
23.936399 52.316898 -790.387329
24.053200 51.316399 -790.534729
24.150900 50.478699 -790.715271
24.242599 49.689800 -790.991211
24.391100 48.409100 -791.521912
24.669600 45.972301 -793.824280
25.110399 42.003101 -801.595825
25.117300 41.902699 -803.107300
25.139601 41.693100 -803.834717
25.292299 40.318699 -806.512817
25.418600 39.185398 -808.578491
23.174500 55.433701 -788.905029
23.242300 54.840698 -789.353577
23.447399 53.067402 -790.155029
23.928499 48.937302 -791.069580
24.068300 47.728600 -791.618713
24.325500 45.449200 -794.300476
24.380899 44.957699 -794.908508
24.424900 44.559101 -795.617798
24.450500 44.317200 -796.350281
24.493200 43.930099 -797.065918
24.541100 43.500900 -797.723328
24.575199 43.187401 -798.407715
24.633200 42.674000 -798.997070
24.680500 42.250702 -799.631409
24.699499 42.063900 -800.377075
24.755800 41.529900 -802.067993
24.637600 42.507500 -802.963928
24.791901 41.150299 -804.277771
24.813499 40.941898 -805.006287
24.856701 40.552799 -805.657715
24.937901 39.817600 -806.981873
24.982201 39.418999 -807.633118
25.060900 38.703602 -809.017090
22.995100 54.245201 -789.761230
23.255501 52.001499 -790.408630
23.662800 48.477402 -791.788025
23.979500 45.717400 -793.328430
24.428900 41.573799 -800.938171
24.462200 41.212299 -802.799194
24.479401 41.034599 -803.544617
24.582800 40.042999 -806.215881
24.699600 38.964199 -808.219482
22.994499 52.646599 -790.795593
24.288000 41.097900 -801.589478
24.474100 39.221500 -807.092285
22.791100 53.470901 -789.871826
23.404301 48.226799 -791.023315
23.763599 44.966801 -794.481628
23.810900 44.521500 -795.185425
23.857800 44.078800 -795.892883
23.887699 43.777802 -796.621521
23.920401 43.455200 -797.314880
23.961901 43.062302 -797.961975
24.016600 42.561901 -798.559326
24.067699 42.089401 -799.171997
24.106300 41.719700 -799.834473
24.202000 40.751099 -802.258484
24.208000 40.576000 -804.106079
24.213800 40.475399 -804.882874
24.429701 38.402302 -808.659180
22.465900 55.102501 -788.780518
22.902700 51.316002 -790.365479
23.341200 47.551601 -791.475891
23.195101 48.709599 -792.332092
23.589001 45.289299 -793.832520
24.104401 40.050701 -805.513977
24.240601 38.743801 -807.610474
22.303200 54.367401 -789.208984
22.491199 52.722000 -790.044678
22.836901 49.787102 -790.517517
22.962700 48.649601 -791.492615
23.754900 41.252499 -800.380676
23.847799 40.267101 -802.799500
23.850599 40.175999 -803.585510
23.898001 39.566200 -806.063293
24.073601 37.843399 -808.997925
22.040001 53.721199 -789.487122
22.251101 51.888401 -790.216309
23.045300 44.884998 -794.195618
23.090000 44.448200 -794.900208
23.132999 44.025200 -795.609985
23.173800 43.627998 -796.240784
23.205200 43.305500 -796.913513
23.244200 42.921299 -797.565430
23.287600 42.501598 -798.201477
23.337900 42.026299 -798.812927
23.394400 41.500999 -799.403320
23.470800 40.728600 -800.903198
23.504999 40.382801 -801.580017
23.542500 39.838200 -804.190918
23.549500 39.711700 -804.958679
23.626200 38.936600 -806.458130
23.666100 38.544399 -807.116821
23.711300 38.109200 -807.760010
21.805401 52.976101 -789.746887
22.022900 51.115200 -790.151794
21.876101 52.290001 -790.765686
22.398399 47.902500 -790.848694
22.468800 47.268002 -791.332275
23.122801 40.991199 -799.935181
23.223301 39.944302 -802.147217
23.245199 39.694099 -802.866882
23.267700 39.439602 -803.584290
23.282000 39.153400 -805.384094
23.438801 37.578800 -808.204529
23.449499 37.419201 -808.957275
21.455900 54.041199 -788.918579
21.902100 50.161301 -790.346802
23.044399 39.195999 -804.286621
23.092600 38.623798 -805.965576
23.138700 38.173698 -806.602295
23.171801 37.828300 -807.282471
21.469400 52.470798 -791.426819
22.445000 43.946098 -794.932617
22.463699 43.709499 -795.664185
22.506100 43.278198 -796.376282
22.539301 42.924999 -797.067078
22.583000 42.491402 -797.695313
22.625099 42.070499 -798.331116
22.670300 41.624802 -798.956909
22.777901 40.557201 -800.504272
22.810200 40.212898 -801.181519
23.098900 36.905998 -809.362183
21.178699 53.478500 -789.341370
21.323601 52.222301 -789.765320
21.266001 52.626900 -790.405273
21.729799 48.779400 -790.272827
21.802401 48.046600 -791.368530
22.530800 41.031700 -799.435486
22.710501 39.093201 -803.187195
22.738400 38.625900 -805.186829
22.700500 38.753899 -806.781616
22.865801 37.265598 -807.732727
22.870100 37.139599 -808.498779
21.096701 51.421299 -789.935913
21.183001 50.686401 -790.054688
21.605101 47.017502 -791.273926
22.329399 39.732498 -801.565979
22.363899 39.364300 -802.233704
22.443600 38.521400 -803.710693
22.458300 38.310101 -804.446777
22.461100 38.130798 -805.742004
22.506300 37.676201 -806.377808
22.547001 37.258099 -807.030212
20.646601 52.580200 -789.178528
20.937000 50.016602 -790.286377
21.142300 48.284302 -790.411621
21.219000 47.605701 -790.717590
21.688999 43.034599 -795.971680
21.712999 42.740200 -796.737000
21.753500 42.323799 -797.372498
21.795000 41.900101 -798.005981
21.832701 41.505901 -798.654785
21.931601 40.562000 -799.608093
21.965200 40.200100 -800.276428
22.089100 38.865002 -802.730713
22.173000 37.878300 -805.065491
22.259001 36.822899 -807.829224
22.264500 36.683800 -808.590088
22.287001 36.409599 -809.299072
20.489799 51.890400 -789.646973
20.831600 48.958099 -790.215576
21.763201 39.819599 -800.918823
21.974701 37.451099 -805.689819
20.379101 50.988499 -789.828979
20.832701 47.040600 -791.001282
21.587700 39.368000 -801.514587
21.677200 38.400799 -803.211121
21.713800 38.009102 -803.871277
21.783001 37.113201 -806.334900
21.798300 36.891701 -807.064819
21.865999 35.980099 -809.744080
19.962099 52.677601 -789.598022
20.317200 49.643101 -790.061584
20.532301 47.784801 -790.502991
21.412300 38.914398 -802.145630
21.511200 37.771198 -804.594116
21.607500 36.514599 -808.091187
21.621201 36.305302 -808.823975
19.870100 51.797298 -788.933716
21.352900 37.337502 -805.226074
19.718399 51.269001 -789.463379
19.802700 50.517300 -789.825317
19.789000 50.532101 -790.644470
20.038601 48.479900 -790.311401
20.565701 43.342300 -796.156372
21.049299 38.485001 -802.690979
21.183001 36.969501 -805.901306
21.212999 36.633499 -806.586426
21.221500 36.470200 -807.338684
19.425800 51.551601 -790.169617
19.913099 47.387501 -790.723511
20.832500 38.130699 -803.304077
20.887400 37.595798 -803.904724
21.006001 36.075901 -808.210327
21.016300 35.898998 -808.955627
21.030399 35.691299 -809.688782
19.396500 49.850899 -789.805786
20.674801 37.237801 -804.603577
20.693800 36.988899 -805.323608
20.842899 35.123798 -810.234375
19.018499 51.014801 -789.377380
19.235399 49.099499 -790.033813
19.337299 48.215099 -790.217529
20.482100 36.587799 -805.940308
20.505100 36.305698 -806.647278
20.534300 35.974201 -807.335388
19.164600 47.541302 -790.534790
20.127100 37.862801 -803.122070
20.169201 37.428600 -803.764282
20.309500 35.726101 -808.000916
20.318199 35.561298 -808.752197
20.312599 35.511700 -809.544983
18.688000 49.697498 -789.458618
18.938101 47.362499 -791.306213
19.983200 36.972401 -804.381470
20.010401 36.659901 -805.076416
20.138201 34.947800 -810.416687
18.531200 48.824600 -790.028992
18.611099 48.113701 -790.322388
19.802700 36.245998 -805.726624
19.820801 36.008701 -806.452087
19.842400 35.743999 -807.166626
19.404800 37.801601 -802.845276
19.439699 37.433300 -803.514282
19.626400 35.385201 -807.794495
19.644199 35.154701 -808.522217
19.645901 35.055500 -809.298401
19.036200 39.091999 -800.469116
19.082600 38.631199 -801.093384
19.119101 38.250999 -801.755127
19.242100 36.961899 -804.051086
19.276100 36.601398 -804.725830
19.396299 35.013500 -810.002686
19.431299 34.645802 -810.659607
19.092899 36.170601 -805.333679
19.122200 35.846600 -806.025085
19.143400 35.588501 -806.742981
18.704599 37.689800 -802.282715
18.733299 37.369999 -802.973022
18.923700 35.261501 -807.413879
18.938900 35.050701 -808.149780
18.939199 34.961498 -808.930786
18.521000 36.576099 -803.921997
18.552099 36.235500 -804.624573
18.656200 34.811798 -809.611389
18.683599 34.502998 -810.309875
18.327101 35.585499 -805.463379
18.340799 35.363800 -806.471191
19.098000 39.706902 -799.496582
21.270500 50.966999 -790.919373
22.419100 49.129299 -790.606873
22.532301 48.517899 -792.645630
22.329100 52.542500 -791.367126
22.572701 50.483200 -790.397827
22.480301 55.803001 -789.207886
23.498301 50.127602 -790.681885
24.428200 46.374500 -792.994873
25.793200 46.154400 -796.728516
26.093800 48.484600 -792.288879
25.910801 52.944698 -790.927673
40.115200 56.670101 -797.565918
39.253502 59.768398 -786.448181
40.826500 57.460701 -797.327393
39.797401 60.183399 -785.559570
39.909401 60.099602 -786.539673
40.211700 60.074402 -787.257813
41.224800 57.933498 -796.319580
40.151600 60.447300 -784.880127
41.514400 58.173599 -797.011780
40.451199 60.503502 -785.798523
40.665600 60.483002 -786.569885
40.787498 60.397400 -787.631775
40.748901 60.801399 -784.159424
40.839100 60.846401 -784.929993
41.000702 61.976002 -781.473022
41.513000 60.985802 -783.632385
41.605099 61.136600 -784.358215
43.199299 58.772999 -795.793091
42.694401 59.866600 -789.936218
42.784302 59.611698 -790.709229
42.146301 61.399399 -783.380676
42.241901 61.718601 -784.096313
42.766300 60.784801 -788.517517
42.789600 61.558102 -782.974426
43.528900 61.074001 -789.106873
43.602501 60.719501 -789.774414
43.647598 60.115799 -790.255920
44.063599 61.278599 -789.587524
18.464300 34.500301 -808.570374
20.389299 38.462002 -802.290222
20.814600 38.882500 -801.708130
20.068899 38.569500 -801.580017
21.093599 39.398102 -800.859619
20.350901 39.177101 -800.769897
21.220301 39.986099 -800.066895
20.480801 39.904202 -800.034180
19.736900 39.613300 -799.916199
21.347000 40.733700 -799.154419
20.608700 40.641899 -799.117371
19.798201 40.286701 -798.972412
21.147800 41.263199 -798.452881
20.408400 40.999802 -798.345703
19.916901 41.373199 -797.854004
21.079000 41.743599 -797.864807
21.059900 42.075901 -797.118591
40.890999 57.072601 -798.363220
32.503899 52.775101 -794.763184
22.742701 47.689602 -792.189819
25.295401 52.431900 -790.784424
24.598000 52.114601 -790.653687
44.347099 60.031399 -791.099609
44.110001 60.782398 -790.321716
43.278301 61.182701 -787.597778
42.555000 61.026199 -787.500793
41.812099 60.765701 -787.369995
43.262100 61.478001 -786.680298
42.516102 61.286201 -786.568726
41.771000 61.064499 -786.447815
41.228901 60.922901 -785.885986
43.515301 61.778500 -785.882324
42.771500 61.581200 -785.767212
42.040199 61.211399 -785.599121
42.478600 61.581799 -785.066895
43.028801 61.567001 -784.312683
32.157200 61.471802 -783.900879
21.708500 55.061699 -788.880920
31.152100 57.086399 -790.434082
23.281799 49.067001 -790.722900
28.391300 52.764301 -793.053101
21.625099 43.653702 -795.524719
25.806000 45.743401 -797.628174
19.617599 40.734901 -798.356079
24.954300 43.467899 -800.017822
27.081100 40.048401 -807.781921
23.635900 40.120701 -806.498718
26.754400 41.991699 -807.111877
27.793301 42.568298 -807.034729
24.130899 40.892200 -805.658386
29.152800 44.376099 -805.703979
19.566601 38.857300 -802.968872
28.186501 43.894100 -805.174011
24.552500 42.024601 -804.287476
23.766500 41.289501 -803.485413
22.569099 40.347801 -802.162292
29.508600 45.057800 -804.639221
27.727699 44.634899 -803.425720
25.148800 43.183300 -802.684692
19.657900 39.495899 -800.693970
31.239500 46.559399 -803.390625
19.846800 40.511101 -799.691772
28.081301 45.889999 -802.261902
20.591400 41.362598 -799.466919
25.833599 44.195000 -800.448730
23.958500 43.473202 -799.083984
26.487101 45.160702 -799.585571
21.507401 42.550598 -798.215698
29.954100 48.313499 -801.014893
25.414301 44.636600 -798.861023
27.386000 46.158298 -799.328186
21.904200 43.127399 -797.698181
23.064600 44.410500 -798.112488
31.181200 49.901001 -799.998779
31.684000 49.762402 -799.467712
24.745300 45.334499 -796.538025
26.959700 47.660099 -797.549072
32.009701 50.854401 -799.026123
22.096001 44.494900 -795.419495
37.085602 53.852402 -800.525513
28.642200 48.726601 -797.650574
27.760300 47.853199 -796.895691
27.059299 47.668400 -796.600708
23.390400 45.691200 -795.534729
31.094999 50.914799 -797.827881
26.501801 47.402100 -795.790222
24.057199 45.832699 -794.909119
36.224300 54.621498 -797.728516
37.116402 56.977200 -797.833374
29.501699 51.630299 -794.432373
21.848499 47.909698 -792.177185
31.095800 52.773899 -794.682129
20.499100 47.302399 -791.664429
30.916901 53.852100 -795.275696
29.181000 50.566700 -794.849976
23.404800 43.997898 -797.568726
30.010700 48.025799 -800.229370
38.814098 51.226601 -803.689575
22.208000 42.210899 -799.253784
34.150600 49.089500 -802.969299
29.173300 46.169701 -802.410706
27.319300 45.982300 -802.470520
23.633600 41.547100 -801.521179
18.508900 38.806801 -801.653625
26.908400 43.149899 -805.169983
23.870701 41.117100 -804.554321
22.953199 39.768600 -805.655701
22.765499 37.893799 -808.229797
21.617901 37.138199 -808.649597
25.002100 37.957298 -809.001404
42.725700 64.788498 -788.202026
38.873199 60.673302 -785.768127
39.406898 60.138000 -787.131226
38.076000 59.767502 -788.132324
33.673401 61.036900 -783.049011
19.656500 38.300999 -802.312378
20.781799 42.574501 -796.630676
25.183001 46.030701 -797.914917
18.234400 47.440498 -790.374573
18.032101 49.858101 -789.940430
26.415100 52.396999 -790.997986
56.358898 48.985100 -803.072815
56.119801 48.553101 -803.682617
55.881401 48.125599 -804.296387
56.803200 49.572800 -802.482483
56.809700 50.065498 -801.727417
57.002499 51.397301 -800.335999
56.793499 50.819599 -800.902222
57.209400 52.342098 -799.356201
61.190899 64.382004 -789.887512
57.504799 52.855598 -798.649109
60.812000 64.922798 -789.407471
60.647999 64.413803 -790.445984
57.449501 53.429100 -798.118713
57.644501 54.797901 -796.277222
57.522598 54.403900 -796.941406
57.381199 53.931499 -797.510376
56.800900 51.997200 -799.888184
56.169399 49.860001 -802.046387
58.246201 57.588799 -791.810120
58.127701 57.200100 -792.458374
58.000702 56.779999 -793.099487
57.897900 56.449799 -793.770386
57.799000 56.134499 -794.447388
57.678398 55.738499 -795.102783
56.828602 52.899601 -798.975220
56.171902 50.662701 -801.318604
55.798901 49.388901 -802.602112
57.297001 55.376801 -795.691528
56.737900 53.499699 -798.353088
56.200500 51.649300 -800.145813
56.067101 51.198700 -800.741089
55.442699 49.074200 -803.244629
55.299099 48.587299 -803.851196
57.878300 58.308300 -790.961487
56.949001 55.217602 -796.348328
56.830502 54.822399 -797.011230
56.668800 54.262699 -797.555603
56.201401 52.660500 -799.390381
55.531898 50.344700 -801.649109
57.442799 57.955399 -791.503479
57.332001 57.590199 -792.235779
57.230000 57.253700 -792.901794
57.143600 56.974998 -793.587097
57.037399 56.623402 -794.251709
56.912998 56.204201 -794.898621
56.075901 53.358700 -798.757324
55.743401 52.206299 -799.867920
55.387001 50.970798 -801.056030
55.098499 49.978401 -802.162415
54.959099 49.502399 -802.765015
57.774700 60.273499 -788.345520
57.653702 59.865299 -788.973389
57.522202 59.418900 -789.590515
57.376301 58.918900 -790.192383
56.495399 55.988602 -795.524597
56.267899 55.221298 -796.696411
56.124500 54.732201 -797.334778
55.980999 54.239201 -797.898621
55.281101 51.821800 -800.395691
54.551102 49.322800 -803.439514
56.966599 58.563499 -790.746399
56.804001 58.027699 -791.883728
56.111900 55.718201 -796.120789
55.566399 53.849499 -798.473022
55.380501 53.203201 -799.082520
54.704601 50.858200 -801.399170
56.485802 57.775200 -792.557129
56.390800 57.458000 -793.228516
56.297699 57.147900 -793.903625
56.163700 56.686501 -794.534973
55.021999 52.742001 -799.569397
54.679501 51.548401 -800.837280
54.352299 50.408699 -802.059998
54.196701 49.863201 -802.566101
56.858200 59.748798 -789.218689
56.723701 59.277802 -789.828186
56.489101 58.471001 -791.333618
55.894501 56.429798 -795.247314
55.565498 55.283901 -796.924683
55.406300 54.725201 -797.620789
54.723900 52.314602 -800.100403
56.307098 59.086498 -790.426819
56.083401 58.303101 -791.940979
55.477600 56.175400 -795.831604
54.962799 54.341000 -798.097290
54.816898 53.819099 -798.655273
56.294601 60.218899 -788.761414
56.151901 59.716702 -789.510925
55.900501 58.838600 -791.062988
55.693802 58.124199 -792.601624
55.605000 57.817600 -793.273987
55.471199 57.344299 -793.896118
55.392399 57.074799 -794.583374
55.076302 55.969501 -796.489624
54.870800 55.236198 -797.207581
54.378502 53.487301 -799.213013
54.220001 52.919498 -799.688477
54.030602 52.244301 -800.375183
53.879002 51.702000 -800.866394
53.730701 51.174599 -801.443420
53.641499 50.867699 -802.153870
58.197399 68.128799 -779.657776
55.769600 59.541698 -790.122070
54.990101 56.833302 -795.180176
54.432999 54.866299 -797.700012
54.253899 54.230000 -798.378174
57.898499 67.719299 -780.261719
55.991100 60.885399 -788.037415
55.391602 58.761799 -791.615784
54.742298 56.468300 -795.825073
56.980701 64.578697 -784.370483
57.056900 64.880302 -786.084778
55.575298 60.251999 -788.940918
55.320900 59.301300 -790.691284
55.111301 58.517601 -792.277527
55.016102 58.161701 -792.931396
54.910099 57.765701 -793.574402
54.836300 57.489399 -794.257019
54.370602 55.751301 -796.739075
53.541302 52.659801 -800.005005
57.582901 68.206703 -778.960205
57.362801 67.369202 -780.644775
55.397301 59.953999 -789.625916
53.779598 53.831699 -798.853271
53.660400 53.381802 -799.432373
53.178600 51.570000 -801.076111
53.021801 50.980301 -801.637329
56.470402 64.262199 -783.901123
53.308998 52.128502 -800.546082
57.439098 68.197197 -779.699585
56.870399 67.822098 -780.027100
56.693401 67.072800 -780.769287
55.652000 62.513699 -786.810730
55.481400 61.830898 -787.086121
55.352299 61.289299 -787.574890
55.247601 60.831299 -788.176270
54.053200 55.401501 -797.337219
56.869400 68.446404 -778.627686
54.915600 59.749298 -790.157288
54.798698 59.187099 -791.271912
54.387798 57.243198 -794.866028
56.695400 68.160103 -779.301025
54.111801 56.270302 -796.177673
53.771000 54.740898 -798.045715
56.185902 66.524696 -781.054688
54.900101 60.574299 -788.848022
54.144199 56.835499 -795.447327
56.221802 67.446800 -780.094910
54.694000 60.215302 -789.512878
54.443401 58.916500 -791.911926
54.368801 58.539101 -792.555115
54.285900 58.130600 -793.189697
54.234699 57.831001 -793.939087
54.981300 62.252102 -786.637512
56.064201 68.268097 -778.475281
55.991001 67.837402 -779.368713
54.741100 61.676899 -787.077515
54.647598 61.189800 -787.821716
54.360500 59.607899 -790.648193
55.733299 67.025200 -780.475586
55.541801 66.144997 -781.165771
54.957100 62.955399 -786.191284
53.661999 55.993801 -796.724121
55.469101 67.330704 -779.593872
54.322300 60.926498 -788.433472
54.194099 60.010700 -790.033081
53.326698 54.370998 -798.565979
55.334599 68.077103 -778.324402
55.136398 66.638298 -780.717590
54.040298 59.367901 -791.299316
55.077000 67.740601 -778.970276
54.937698 66.900398 -779.909485
54.796600 65.992798 -781.062988
54.440399 63.271000 -785.523071
54.316200 62.594101 -786.100403
54.215000 62.021500 -786.647522
54.029701 60.582699 -789.050171
53.670200 57.591400 -794.427795
53.623600 57.216599 -795.078125
53.331100 55.306702 -797.572327
53.063000 53.758701 -799.132813
52.959801 53.180801 -799.668579
53.945599 61.649601 -787.236328
53.677502 59.118500 -791.969116
53.618500 58.686401 -792.591797
53.574001 58.266399 -793.376587
53.392399 56.820702 -795.682983
52.718899 52.667099 -800.184021
52.601898 52.000401 -800.781616
54.519199 67.759399 -777.967407
54.500900 67.276398 -779.247925
54.392502 66.510201 -780.228882
54.008999 64.275002 -782.201904
54.021500 64.078003 -782.989014
54.002300 63.764702 -783.722107
54.015800 63.571800 -784.508301
53.727699 61.292500 -787.881714
53.597301 59.921001 -790.478821
52.955502 54.813900 -798.085876
52.526600 51.906700 -801.575989
54.108501 66.013603 -780.701416
54.026402 65.485199 -781.248779
53.801102 63.237499 -785.148376
53.647800 62.234798 -786.219177
53.525101 60.949699 -788.526123
53.481800 60.418999 -789.571716
53.065300 56.437099 -796.259583
52.977200 55.820900 -796.994812
53.990200 67.382698 -778.364685
53.934601 66.800201 -779.358215
53.523102 62.833698 -785.719971
53.225101 59.682499 -791.124878
53.085300 58.093399 -793.977478
53.041199 57.611500 -794.821594
52.577999 54.330399 -798.594299
53.520100 66.281799 -779.704529
53.445301 65.637001 -780.594421
53.211800 64.239502 -781.694397
53.251598 64.132599 -782.446899
53.234501 63.793900 -783.170776
53.264400 63.652000 -783.903687
53.108002 61.973099 -786.662598
53.087601 61.621498 -787.384521
53.031399 60.759300 -789.080994
52.993900 60.216801 -790.123230
52.940300 59.386501 -791.763123
52.892700 58.955502 -792.384827
52.864101 58.595402 -793.034119
52.734299 57.167999 -795.417786
52.510101 55.447800 -797.503723
52.275799 53.856400 -799.122681
52.185200 53.275299 -799.655273
53.243999 67.714500 -776.535217
53.222099 67.272400 -777.441223
53.256100 67.135300 -778.174988
53.234501 66.771797 -778.879517
52.962502 63.418301 -784.575623
52.922901 62.986500 -785.258423
52.864799 62.512402 -785.845398
52.767799 61.265202 -788.009277
52.384998 56.323799 -796.601379
52.206699 55.004398 -798.051025
51.875599 52.764801 -800.195618
51.816502 52.292599 -800.766724
52.850899 66.248299 -779.351013
52.783100 65.736603 -779.904724
52.597000 64.069298 -782.084412
52.612598 63.558300 -783.532471
52.480499 60.587299 -789.557617
52.471100 60.092499 -790.697388
52.373402 58.506500 -793.622314
52.349201 58.143398 -794.272095
52.309101 57.719501 -794.902710
52.208099 56.873299 -795.938477
52.675598 67.717102 -777.031372
52.594200 66.812599 -778.376587
52.443802 65.281898 -780.523621
52.299999 64.432602 -781.083374
52.300301 63.766899 -782.703186
52.268501 62.179100 -786.225586
52.260300 61.843601 -786.954773
52.238300 61.095699 -788.540588
52.171200 59.678001 -791.281677
52.155499 59.313099 -792.004700
52.139099 58.944801 -792.727722
51.842899 55.916698 -796.986572
51.666500 54.562698 -798.432007
51.548199 53.738499 -799.198181
52.299801 67.649803 -776.361877
52.312599 67.230499 -777.488220
52.242298 66.351601 -778.855103
52.142502 65.714500 -779.345886
52.051399 63.352299 -784.020020
52.047199 63.026100 -784.751587
52.019600 62.614601 -785.446106
51.982700 61.545200 -787.606384
51.952599 60.384998 -790.051514
51.766701 57.352699 -795.346924
51.683998 56.551998 -796.401611
51.538799 55.452400 -797.526123
51.301300 53.438099 -799.877319
51.801102 65.083702 -780.210022
51.686600 64.416000 -780.614380
51.702702 64.128197 -781.447876
51.712200 63.845600 -782.202087
51.718601 63.494701 -783.085022
51.699600 60.865501 -789.026184
51.709702 60.154099 -790.786804
51.621399 58.728401 -793.223083
51.599899 58.358299 -793.869690
51.580898 57.997002 -794.520874
51.237400 54.381302 -799.495728
51.647598 66.892700 -777.564575
51.383301 62.248001 -785.630005
51.392799 61.962700 -786.382019
51.416901 61.730598 -787.155823
51.418400 61.328800 -788.095398
51.426300 59.902500 -791.457275
51.395699 59.497200 -792.085876
51.199001 57.060001 -795.742004
51.098000 56.176201 -796.773315
50.978600 55.159000 -797.929077
50.913898 54.644199 -798.471375
51.358601 67.141800 -776.735229
51.355202 66.412003 -778.365417
51.313099 65.942398 -779.021729
51.133400 65.013298 -779.370789
51.100498 64.573502 -780.049622
51.091801 63.484798 -782.445313
51.154499 63.269600 -783.552185
51.181099 63.043201 -784.330383
51.160999 62.647900 -785.032776
51.207699 60.854301 -789.580383
51.223801 60.590801 -790.338623
51.134899 59.144600 -792.759827
51.033199 57.730598 -794.982727
50.801399 55.694099 -797.343384
50.612801 54.164398 -798.974487
50.931900 64.227097 -780.713318
50.960098 64.031403 -781.429382
51.061501 61.203602 -788.793579
50.972801 58.680199 -793.618408
50.932899 58.233002 -794.237976
50.784801 56.688099 -796.278320
51.028301 66.420303 -777.693970
50.919998 60.252499 -790.953125
50.855900 61.649502 -787.640381
50.738201 62.102699 -785.996216
50.752201 61.824501 -786.749023
50.749500 59.844101 -791.807617
50.565300 57.367100 -795.504272
50.302399 54.987301 -798.226196
50.470299 64.489304 -779.533630
50.510300 63.611401 -781.864624
50.561199 63.345100 -782.946777
50.562901 62.931301 -783.879028
50.357300 56.151901 -796.894775
50.496101 62.640701 -784.559204
50.488098 62.282501 -785.276794
50.324100 65.999199 -776.507813
50.475700 66.001701 -777.973816
50.317501 64.276604 -780.256409
50.552700 61.662498 -788.325073
50.554199 61.190300 -789.385071
50.532902 60.781898 -790.081482
50.477100 59.464001 -792.456421
50.459202 59.066101 -793.163513
50.367298 57.964600 -794.708923
50.101601 55.489700 -797.606812
49.964600 54.439899 -798.599976
50.122002 64.048500 -780.958679
50.083302 63.239799 -782.349304
50.337700 62.077999 -787.319885
50.237701 58.667500 -793.788879
