50.406898 30.287100 -752.434326
51.526402 30.203699 -750.833618
51.824699 32.511600 -745.795471
51.398800 33.204601 -745.095520
50.027901 30.240700 -753.478882
51.643600 33.006802 -745.457275
51.410301 33.527699 -744.794373
51.355701 33.771400 -744.398071
52.237801 33.219898 -744.098816
50.296700 30.486401 -753.135071
50.809799 30.506201 -752.286621
50.172100 30.514400 -753.854187
50.429600 30.810400 -752.861816
51.243099 30.513500 -752.167175
51.400200 30.615499 -751.717407
52.056198 33.238300 -745.486511
51.768600 33.571400 -745.280212
51.515598 33.912498 -745.003418
51.459900 34.156799 -744.606995
52.231800 33.910198 -743.878723
50.270100 30.982401 -753.394714
50.896999 30.773899 -752.820313
50.705700 31.039000 -753.495911
51.364899 30.924200 -752.683411
52.099800 33.948799 -745.513489
52.086201 34.195702 -745.044495
51.786900 34.537399 -744.838196
51.596100 34.860699 -744.497009
51.466702 35.129299 -744.167725
51.941002 35.237301 -743.204285
50.331001 31.457199 -754.375427
50.696499 31.323500 -754.063171
51.023201 31.226400 -753.739502
51.198200 31.310400 -753.294617
52.034199 35.966599 -742.676208
52.526798 32.623901 -749.740295
52.590000 32.806801 -749.273621
52.797298 32.860100 -748.837708
54.378399 32.208302 -747.633606
51.472801 36.579201 -743.491028
52.178699 36.431400 -742.666626
52.036400 36.719799 -742.314697
52.686199 33.231400 -749.459473
54.580399 32.617199 -747.683472
51.436001 37.228802 -743.419373
52.814301 33.733200 -749.510620
54.895901 33.056099 -747.564880
51.427700 37.973400 -743.181213
51.455601 38.177502 -742.726074
52.218498 37.864300 -742.143799
52.786900 34.324799 -749.547119
55.046101 33.426300 -747.771118
51.635300 38.234200 -743.504028
51.506401 38.619598 -742.932922
51.346100 38.898499 -742.625671
52.673100 34.869099 -749.624512
55.500999 33.546600 -747.805298
51.344799 39.498402 -742.411316
51.409199 39.657398 -741.989197
52.584301 35.292999 -749.833374
53.043598 35.480499 -748.728577
51.081902 40.374298 -741.981506
51.325901 40.371899 -741.599915
52.373402 35.826698 -750.020325
53.395000 35.769199 -748.522278
55.876202 34.144299 -747.871216
51.887600 39.759899 -742.876282
51.095600 40.981201 -741.670776
51.323399 41.134300 -741.003174
50.842800 41.736599 -741.390320
50.886799 41.909100 -740.974487
53.171001 36.178200 -749.649475
53.463100 36.350300 -748.844727
53.674099 36.398499 -748.416016
54.049301 36.300701 -748.022217
56.366699 34.506302 -747.980286
52.062698 40.449200 -742.817688
55.974201 34.605701 -749.031189
53.797001 36.617298 -748.778687
53.570599 36.257900 -749.798889
56.726002 34.746399 -748.028870
56.290100 34.951000 -748.909180
53.874401 37.049400 -748.835388
53.627300 36.898102 -749.707886
57.135201 34.966599 -748.123413
53.474400 36.905102 -750.231812
53.955101 37.462101 -749.128113
56.717098 35.362701 -749.005920
57.193501 35.459999 -748.067688
54.218899 37.646500 -748.800903
53.452400 37.743900 -750.019287
54.468800 37.749401 -748.417480
57.649601 35.405399 -748.123718
53.843201 37.714100 -749.796875
56.949799 35.421101 -749.517578
57.037498 35.665298 -749.129700
53.782799 38.231201 -749.796570
57.695000 36.016102 -748.102417
54.452099 38.444199 -749.197510
57.694599 35.898998 -749.649170
57.634201 36.151798 -749.237122
58.224499 36.177399 -748.261475
57.951302 36.497398 -749.120300
58.586399 36.466900 -748.185486
54.507599 39.253601 -749.443604
58.943199 36.734501 -748.436218
58.502800 36.535599 -749.934509
58.474800 36.759998 -749.528503
59.162701 37.035801 -748.197083
59.464001 37.259499 -748.451599
59.428501 37.309799 -750.106201
59.474098 37.509300 -749.634277
59.947899 37.358002 -750.096924
59.754700 37.844898 -749.422119
59.935001 37.766899 -749.849670
60.114799 38.076698 -749.507690
60.173302 37.797298 -750.324585
60.796001 38.250500 -748.435913
60.518299 38.039902 -750.194702
60.508900 38.246601 -749.792175
61.241402 38.362202 -748.404785
60.118698 38.049801 -751.200073
60.429001 38.137699 -750.845581
60.739101 38.542301 -749.541809
61.685001 38.354500 -748.431274
60.615200 38.435600 -750.494812
60.757801 38.549301 -750.041016
61.062801 38.719398 -749.217712
60.425800 38.738098 -750.948120
60.605598 38.866501 -750.406311
61.060001 38.826599 -749.772217
61.440899 38.891399 -749.042480
60.413300 39.718601 -749.708374
61.469299 38.917500 -749.665222
61.648499 39.397900 -748.911682
61.739700 38.949402 -750.065002
62.024700 39.086498 -749.712524
62.323002 39.135601 -750.075073
64.137901 39.748001 -750.318176
64.267097 39.875198 -749.859619
62.513199 41.381199 -751.508972
64.984001 39.896198 -750.629272
64.970001 41.271801 -750.695190
65.391197 41.147598 -750.928223
63.293499 41.707199 -750.451782
63.549999 41.661701 -750.104980
51.926998 41.803799 -742.086182
51.531502 42.637501 -741.372314
51.700100 36.750999 -743.856201
51.446701 37.508099 -743.046814
52.105999 34.145802 -743.497681
45.847198 19.021500 -741.723694
46.168499 18.721399 -741.465515
44.224602 17.604200 -741.641418
41.852299 14.489100 -740.757324
41.426701 12.762900 -739.279480
40.300800 10.838200 -739.612183
40.480598 10.903900 -739.182312
40.601002 11.097300 -738.724976
41.637100 10.139800 -737.763428
41.825802 10.188300 -737.335571
39.478699 8.868900 -739.293274
40.556499 9.464300 -736.530701
42.327400 7.327700 -735.400085
42.536701 7.336300 -734.980774
42.699902 7.451200 -734.535522
38.287300 4.302700 -737.657715
40.568199 2.536500 -735.106995
40.753502 2.631600 -734.659607
37.159901 1.375300 -738.605713
37.334999 1.480300 -738.175171
37.643002 1.844700 -737.243530
38.035900 1.438700 -736.899475
39.346199 0.143300 -735.695618
39.618999 -0.071100 -735.391113
39.956699 0.004700 -734.683716
39.842999 0.609900 -734.310425
38.048199 -1.183200 -735.523926
37.711899 2.884000 -738.976990
38.003899 2.829500 -738.616028
38.278900 2.877000 -738.215515
38.670399 4.326500 -736.796692
41.106800 2.859400 -734.406799
40.415199 3.028600 -735.592896
39.663399 3.119400 -735.584229
38.445702 2.391200 -738.408020
39.701302 5.449300 -735.016174
39.971001 5.494800 -734.627930
41.124100 11.437500 -739.896973
42.036400 12.637300 -738.056885
42.673901 15.147700 -740.243103
43.883598 14.565900 -738.987427
45.193100 17.441799 -740.328796
45.287800 18.121599 -744.218994
45.369499 18.602800 -743.855225
45.327999 19.095200 -743.643372
45.521900 19.316999 -743.275085
45.487499 19.788900 -743.065186
45.656898 20.062500 -742.700623
46.457298 19.840099 -741.793213
46.643501 21.196800 -744.790283
46.818298 21.418501 -744.448181
46.890800 21.774300 -744.164612
47.047199 22.070601 -743.805786
48.063400 22.790300 -745.495728
48.100498 23.222200 -745.219604
48.131001 23.666401 -744.945374
49.008900 23.518000 -743.913086
48.793301 24.219200 -746.320190
48.881100 24.811399 -745.899597
49.032600 25.110500 -745.552185
49.817600 25.026501 -744.607117
49.466702 25.865101 -746.101624
50.389801 25.706800 -745.016113
49.771198 26.249701 -746.233704
50.607700 26.131701 -745.228271
49.961102 26.661900 -746.205688
50.973701 26.419901 -745.028381
50.917999 26.541800 -745.471313
50.178299 27.019501 -746.528870
51.133099 27.163099 -745.213928
50.329102 27.455601 -746.542480
50.453899 27.761101 -747.011780
50.523102 28.104401 -746.760986
51.305000 28.340700 -745.614502
51.141602 29.627399 -745.236084
51.184898 30.022900 -744.995728
51.185699 28.608299 -746.805420
51.458500 29.274000 -747.604187
52.103500 29.931400 -746.439880
52.020000 30.525499 -746.283081
51.978298 31.136600 -746.062500
51.854599 35.250999 -744.365723
51.888000 35.765400 -744.087830
51.852100 36.209202 -743.935120
51.855301 37.025002 -743.561279
51.867001 37.463600 -743.346985
51.889301 37.874100 -743.131226
51.796200 38.903500 -742.790222
51.778198 42.111099 -741.361877
51.884998 42.474602 -741.053772
52.139900 30.524099 -748.465088
52.203701 30.875700 -748.223206
52.983501 30.877800 -747.163330
52.442299 30.253599 -748.855713
52.395599 30.912100 -748.633179
52.431099 31.341499 -748.397888
53.239101 31.372000 -747.279724
53.163200 31.963200 -747.126404
53.324699 29.789600 -746.695313
51.875099 27.987600 -748.993408
55.971199 34.107498 -749.545471
54.603298 38.980701 -751.031372
56.182499 34.551800 -749.625122
56.320900 34.854698 -749.350830
55.669800 33.641102 -749.377075
55.738499 34.209099 -749.142029
54.773499 35.643101 -749.202820
52.030602 33.697399 -749.582275
52.231701 33.332298 -749.374512
52.523602 33.220100 -748.981995
53.815701 31.427200 -747.526428
52.484901 29.174601 -746.780701
52.677601 29.642200 -746.410217
52.724098 30.134600 -746.241882
52.721298 30.880100 -746.091003
50.165901 27.565100 -748.439697
50.442600 27.505199 -748.059814
50.738800 28.218100 -747.495911
50.935799 28.427500 -747.174500
52.322800 37.146500 -743.447571
50.034100 26.964399 -747.611572
50.226101 27.213301 -747.289673
51.263000 35.892700 -744.092224
51.296001 36.404400 -743.943726
51.864201 39.285702 -742.564514
51.964199 39.650002 -742.350220
52.050598 40.075699 -742.142883
52.148399 40.649300 -741.890076
49.506001 26.118799 -747.212891
49.686699 26.378401 -746.906372
49.814602 26.724899 -746.657471
51.046101 36.290501 -743.046509
51.069901 39.842899 -742.319580
51.389702 41.443501 -741.554321
51.603298 41.662998 -741.208923
49.069599 25.159300 -746.646423
49.259399 25.439899 -746.324829
48.663502 24.238501 -745.902588
49.850201 24.370399 -744.208313
47.186401 22.142500 -745.023193
47.376801 22.453600 -744.701599
47.453701 22.846100 -744.523926
48.282902 22.604900 -743.408203
48.590900 22.520599 -742.992798
46.027802 20.198200 -744.091370
46.183701 20.726700 -743.784607
46.257099 21.151800 -743.609802
47.109600 20.844601 -742.480530
47.320702 20.513300 -742.244629
44.908298 17.841600 -744.530884
46.037701 20.292801 -742.555786
46.873901 20.910601 -741.294312
44.773201 18.288900 -743.176819
44.903099 18.699900 -742.928894
45.016102 19.201200 -742.689514
45.232101 19.396900 -742.357483
46.268002 18.671801 -741.038696
44.127998 17.232800 -742.843323
44.266800 17.602600 -742.591003
44.385201 18.085300 -742.348816
44.572498 18.454700 -742.029114
45.230900 18.153000 -741.163818
42.448299 16.113300 -742.973816
42.699001 16.133400 -742.622986
42.957298 16.108801 -742.268799
43.578201 16.937700 -741.278809
42.246601 15.305800 -742.342285
42.516102 15.218000 -741.981628
42.958199 16.223900 -741.212585
41.441002 14.839500 -741.223694
42.334400 14.639200 -740.010193
40.607700 12.391100 -741.605408
40.870800 12.362000 -741.243591
41.119400 12.424500 -740.888428
41.650200 13.598800 -739.977905
42.820202 12.791100 -738.467773
42.875801 13.369300 -738.305786
43.120998 12.852800 -738.040100
43.366600 12.933900 -737.686523
42.559101 11.960400 -737.799011
40.647099 11.495100 -739.484619
40.800598 11.831900 -739.223511
40.894100 12.212700 -739.039429
41.623501 11.196900 -737.293823
41.835499 9.291700 -736.429688
38.798599 8.697100 -739.986816
39.457600 9.564200 -738.952087
39.764900 9.595300 -738.520996
39.917900 9.952300 -738.259277
40.864201 9.959000 -736.943909
38.622299 6.950200 -739.841370
38.891602 6.893900 -739.475281
39.153500 8.006000 -738.349609
39.312401 8.677100 -738.038086
39.070499 7.160800 -738.097473
39.111801 7.576000 -737.984314
39.211102 7.957200 -737.795227
38.117298 2.210500 -739.674927
38.376801 2.159200 -739.320679
40.377102 3.645500 -735.842712
40.460800 4.133100 -735.661682
38.443298 5.389000 -737.855103
39.419201 7.005000 -736.282593
39.682899 7.021000 -735.912476
39.935799 7.318400 -735.520874
39.731899 6.252100 -735.712585
41.275200 2.801300 -734.004700
37.363701 2.788000 -739.318787
39.531601 5.896200 -735.888000
40.255402 0.768600 -735.271118
38.212601 4.691300 -737.220825
39.539101 2.095800 -735.700500
37.974899 4.167800 -737.197327
39.278198 3.772800 -735.426086
39.661701 3.414800 -734.935913
40.140301 3.095500 -734.307678
37.326801 0.598800 -738.103088
37.625801 2.310400 -737.467773
37.925900 2.847800 -736.980713
38.671200 3.954700 -735.799683
36.872200 0.646300 -738.231628
37.795101 1.822000 -736.797791
38.616798 2.523200 -735.564880
37.493500 1.170600 -736.801514
37.668900 2.176500 -736.431030
38.731998 0.659100 -735.144470
38.993198 0.411300 -734.812622
38.370098 0.990900 -735.188416
38.622501 1.139200 -734.819214
38.882401 1.240300 -734.445679
39.195801 0.335100 -734.123901
39.444801 0.172700 -733.798401
39.599499 -1.631900 -733.404724
37.732101 0.409900 -735.298218
37.984299 0.580900 -734.927612
38.311100 -1.120800 -734.685486
38.558998 -1.619000 -734.403809
36.829498 -0.899500 -736.251587
38.788601 -1.004400 -734.082520
38.814201 -0.463500 -733.980591
39.069401 -0.668100 -733.653320
38.011600 -0.262800 -735.122986
38.403099 -0.505100 -734.990173
39.567200 0.227300 -733.302612
37.502602 -0.791300 -736.427185
36.538898 4.393000 -737.434814
37.051300 1.431100 -737.429688
38.462399 1.376000 -735.497314
38.808601 0.235200 -735.160889
36.995899 0.933500 -737.884827
37.294601 0.773500 -737.494019
37.608898 1.284900 -737.323486
38.688999 3.145900 -735.613586
38.956799 2.835500 -735.283691
39.580601 1.354600 -734.607910
39.646500 1.963500 -734.443115
39.874500 2.249900 -734.095215
40.119499 2.429700 -733.736877
40.281300 2.391600 -734.453674
38.055401 4.683900 -737.710083
40.508099 1.540400 -734.731018
38.395500 5.976500 -737.354980
37.577599 2.477700 -739.053223
37.935398 6.482500 -738.072998
40.796001 4.922500 -734.566589
41.619099 3.131300 -733.656677
39.866901 7.435700 -736.227478
40.785599 3.803100 -735.626892
39.743000 8.032900 -736.805725
41.023701 8.011900 -735.366089
41.301899 7.927600 -734.994385
39.290199 5.668400 -738.343628
38.619801 5.933800 -739.519470
38.988499 7.128800 -738.867126
39.316700 6.809000 -738.761475
39.442001 9.270500 -738.612427
40.450199 10.153500 -737.118103
41.752102 7.847800 -735.611877
38.924801 8.959200 -739.654175
41.811001 9.768000 -736.131775
42.222301 9.797500 -735.562683
39.281502 9.647600 -740.050720
39.536900 9.664100 -739.697205
39.800999 9.620500 -739.339172
40.183701 11.257200 -739.321106
42.143501 9.992700 -737.089722
42.375900 10.162700 -736.749023
42.766499 8.713800 -736.752014
40.070801 12.219300 -740.490723
40.507401 11.638700 -739.961121
42.569901 11.128800 -737.592773
42.791801 11.350400 -737.259094
43.040298 11.399400 -736.910217
43.139400 12.030200 -737.057617
40.133999 13.141500 -741.621826
40.757900 12.704600 -740.816406
40.851898 13.465500 -740.592102
41.189899 13.559600 -740.114624
40.530998 12.892900 -741.728882
43.716900 12.867200 -737.340515
41.279800 13.728800 -741.039185
41.565701 13.709200 -740.647278
43.145500 14.211300 -738.405273
43.347000 14.486400 -738.092896
44.243500 13.767600 -737.297119
41.546001 14.484500 -741.602783
43.385899 15.160600 -738.977905
41.260799 14.137100 -742.554993
41.547901 14.090900 -742.164795
41.814999 13.963500 -741.812500
42.069401 13.927900 -741.466003
42.387501 15.166400 -740.871826
43.847698 13.876300 -739.164612
41.612801 13.554200 -742.338379
42.921799 15.503100 -740.291626
44.201302 14.774800 -738.741089
42.174099 14.699800 -741.773315
44.316002 14.357400 -738.864014
42.105400 14.443200 -742.168579
42.651699 15.709200 -741.258179
42.283501 15.862300 -742.048218
42.681702 15.151500 -741.588623
42.764400 15.576900 -741.954285
43.477600 17.254900 -742.079224
43.781799 17.179899 -741.669983
43.922100 17.813000 -741.968018
43.229301 16.364500 -743.738220
43.886799 17.848000 -743.167480
44.273399 18.246201 -743.032227
44.615200 18.425501 -742.539490
44.743900 18.859100 -742.308594
45.274700 18.871000 -741.576477
46.341400 18.971399 -740.639221
44.684700 18.793100 -743.520203
46.472198 19.133101 -741.016174
46.494099 19.108500 -741.843201
46.691700 19.392500 -741.535706
45.600399 20.202101 -743.456482
45.803398 20.446199 -743.146423
46.535400 20.056101 -742.186829
45.886700 19.939600 -743.680481
46.117199 20.956900 -743.235718
47.434898 19.595400 -741.592407
46.450901 21.483900 -743.820129
47.590698 20.901899 -742.324219
46.265400 20.614901 -744.423584
46.441898 20.996000 -744.132019
47.421299 20.836599 -742.802673
47.674099 21.359100 -742.388123
47.598000 22.057100 -742.714417
47.212399 22.459499 -743.886475
47.002102 21.972099 -744.583008
47.969799 22.147600 -743.227783
48.198700 21.895300 -742.944580
48.412201 22.957899 -743.003174
47.662998 23.244101 -744.413025
48.492500 23.088100 -743.589172
47.253799 21.599300 -745.493774
48.724701 22.779100 -743.317322
47.560501 22.750299 -744.970886
47.433102 22.693100 -745.390686
47.727001 23.256001 -744.914612
48.949001 23.099899 -743.509521
47.693100 23.154400 -745.430725
48.327000 24.074499 -744.833008
48.200199 23.648100 -745.389282
48.338501 24.337700 -745.328613
49.231800 23.983299 -744.140686
48.126900 23.488199 -745.918884
48.218201 24.096701 -745.716919
48.647099 24.722099 -745.228882
49.756802 24.717300 -743.925598
49.113998 25.402901 -745.906799
49.904598 25.399799 -744.818726
50.771999 39.814800 -741.861084
50.942902 39.425499 -742.067993
51.250000 41.930901 -741.339478
51.455700 42.180401 -741.026184
48.509701 27.439199 -747.240601
50.849899 36.884102 -742.867188
51.027199 38.107101 -742.473877
50.954899 39.256302 -742.749573
51.362301 40.702400 -742.013489
51.566399 40.977299 -741.699585
52.000500 41.833698 -740.998779
49.489601 25.642599 -746.844727
50.813999 25.798901 -745.004822
50.864399 35.580700 -743.739014
51.494202 39.946301 -742.339111
51.594002 40.342201 -742.153625
51.981098 41.012402 -741.539307
50.616699 28.139999 -745.613586
49.638000 26.656900 -747.305481
50.907600 32.205799 -744.879395
52.873402 41.217400 -741.299927
50.009998 26.432301 -747.328674
51.021999 33.499599 -745.066528
51.089199 33.959400 -744.917480
52.042900 38.462898 -743.050476
52.047100 36.540100 -743.681580
50.714901 28.562201 -746.711670
50.899200 28.858900 -746.420898
50.923801 30.251499 -746.216675
51.013401 31.171600 -745.980713
50.049999 27.714100 -747.875793
52.811501 38.134800 -742.895630
50.430000 27.533001 -747.552612
50.969200 29.872299 -746.520630
52.249298 36.001999 -743.908325
50.000099 26.859600 -747.090271
49.794601 27.219400 -747.212585
49.995201 27.421301 -746.871277
50.695702 28.702101 -745.744385
50.963799 28.615000 -745.380127
52.031300 34.778000 -744.550415
52.845501 36.682201 -743.594421
51.909599 31.678400 -745.824524
52.032101 32.117199 -745.603027
52.698700 35.119099 -744.327087
52.817402 35.526402 -744.114380
52.933102 35.949902 -743.904114
50.663898 28.182501 -748.867371
51.113701 28.139400 -748.243286
52.903801 32.786301 -745.200989
52.413300 32.165798 -748.541809
53.414299 30.913900 -747.302917
52.088799 30.566000 -749.198120
52.283901 34.381302 -749.505920
53.974201 31.830000 -747.459412
52.743099 36.254398 -749.778870
54.398602 36.549000 -747.855530
55.083801 33.826599 -748.648071
53.661098 36.264900 -750.516174
53.940800 36.686798 -750.356689
55.214100 34.272999 -749.191223
55.430401 34.000900 -748.924316
54.879799 38.800400 -750.754395
54.684700 38.845200 -751.669678
54.922600 38.953701 -751.328186
57.013401 34.952000 -749.643921
57.341202 35.372799 -749.746704
58.656200 37.141499 -748.244019
58.091801 36.181198 -749.619019
58.777401 37.062000 -749.393188
58.830299 36.248600 -749.847900
58.881901 36.702202 -749.719116
59.112301 37.372898 -749.316772
59.096298 37.143299 -749.741516
59.213001 36.924900 -750.103516
61.288101 38.530102 -749.533081
61.016998 39.351398 -750.055420
61.654598 38.251400 -749.645874
62.493500 39.580502 -748.895691
62.900200 39.455399 -748.680725
63.326000 39.528000 -748.654724
62.672901 39.293598 -749.859497
65.372498 40.416599 -749.018982
65.794899 40.428799 -748.852722
66.188202 40.133999 -748.833618
66.341698 40.480801 -749.041382
61.991798 38.550301 -749.357117
60.131001 37.890900 -748.360107
59.737400 37.673401 -748.494080
57.373001 35.773998 -749.387329
58.057301 35.721100 -748.204224
55.995399 38.164902 -749.808716
53.931900 37.041000 -750.620728
56.004799 33.576302 -747.809509
54.098202 36.256199 -748.500183
53.907299 36.776901 -748.246582
52.111198 35.310600 -749.956970
54.036598 32.382900 -747.319397
51.619202 34.199600 -749.719116
51.804100 34.453201 -749.381775
52.055000 32.736401 -749.248230
52.298000 32.626801 -748.874512
51.513802 29.137800 -747.157288
50.974800 30.829901 -746.283508
51.512001 35.581699 -744.301697
51.020500 34.915100 -744.078430
52.066898 41.406601 -741.372925
50.858700 25.461500 -745.272095
50.175499 24.714800 -744.505676
49.471298 23.696199 -743.845215
47.504002 22.766600 -744.090515
46.784500 21.690701 -744.926819
45.959499 21.597200 -744.157593
45.124401 18.998899 -744.035706
46.465500 18.561800 -740.427124
44.292000 18.124201 -741.843201
45.176498 15.914500 -740.012573
44.397999 15.160000 -738.509888
41.147900 12.911600 -740.734985
41.172798 13.068200 -739.655396
40.317001 12.290700 -740.117798
41.885899 11.344700 -737.741516
40.634399 11.546500 -738.880493
41.632801 9.344800 -736.870422
42.116501 9.451200 -736.082581
42.551102 9.588300 -735.369019
39.910400 10.096900 -738.757080
42.983898 7.500000 -734.213318
40.841400 7.676800 -736.892029
41.244499 7.354200 -736.293091
41.504101 7.473200 -735.861511
39.060299 8.690700 -738.391724
41.137100 6.245700 -735.404297
38.537800 8.110100 -738.273682
38.140598 3.936100 -738.553589
40.966301 -0.161000 -734.094482
38.070000 3.084100 -737.881775
37.975498 3.523800 -737.716309
39.661400 2.972200 -735.076111
40.311298 -0.118500 -734.467773
37.618500 4.146500 -737.946228
37.819500 4.303700 -737.599426
38.725101 1.571600 -735.218079
37.567299 0.728800 -736.662476
37.709400 -0.835400 -736.026672
38.915901 -1.835200 -734.214417
37.911098 -0.725500 -736.708679
38.826599 -0.032100 -737.117920
38.400501 0.174900 -737.056274
37.785702 -0.235100 -736.402893
37.499500 -0.407500 -736.113281
37.126701 -0.536800 -735.812195
36.727299 -0.593900 -735.554382
39.202900 0.616500 -737.022827
38.874500 0.933500 -737.101685
38.453201 1.132200 -737.036621
39.523201 2.391000 -737.725220
39.260300 2.128600 -737.375122
38.861801 2.270700 -737.277222
37.472099 1.546800 -735.958618
37.063801 1.719100 -735.879700
39.664700 3.413100 -737.730774
39.020401 3.486900 -737.447205
36.881699 1.703200 -734.873901
39.379501 4.532500 -737.692078
37.860600 3.096700 -735.727173
36.973801 4.217300 -736.160400
36.590698 4.143500 -735.897400
38.377998 5.276700 -737.134399
37.968700 3.229600 -735.261719
39.585999 6.220000 -737.997681
37.298801 3.550100 -734.616089
36.881199 3.758400 -734.562195
39.902500 6.728000 -738.051819
38.303101 5.937500 -736.559814
37.976002 4.083200 -734.882324
38.546299 7.548000 -736.842285
38.328602 6.864700 -736.171021
42.845100 11.742100 -740.138672
42.383999 11.896500 -740.020813
45.638000 16.096600 -743.413818
45.107201 15.982700 -743.043213
44.875500 15.637900 -742.638672
44.997398 16.399799 -742.844421
44.592899 16.578800 -742.780273
45.383598 16.632299 -742.924683
44.500999 16.479099 -742.338318
44.251598 15.523900 -741.674683
44.227299 15.033000 -741.562195
43.923801 14.151600 -741.155212
43.522701 14.312300 -741.213074
43.425499 13.763800 -740.714478
45.236900 16.841200 -742.577026
45.119099 16.522200 -742.259399
47.023899 18.485399 -744.424377
46.446701 18.331800 -744.016113
46.209499 17.257200 -743.025696
45.491901 17.582500 -742.937927
45.160702 17.450001 -742.667603
46.751701 18.223400 -743.720520
46.292000 18.320200 -743.574280
45.987301 18.699600 -743.733826
45.693501 18.493401 -743.422424
46.541199 19.098700 -744.022217
45.866299 18.313999 -743.051514
46.334499 19.085800 -743.579712
45.501900 18.932800 -743.044983
46.478199 19.509399 -743.658997
50.980801 29.376200 -749.661682
50.613800 28.663401 -748.890198
50.488098 28.185900 -748.432312
52.613800 30.062599 -748.473572
63.768799 39.022999 -749.884521
63.326900 39.268200 -749.930725
60.304699 38.389702 -748.631470
59.195801 37.713299 -748.546387
60.655399 37.379501 -749.710022
60.150501 37.062901 -749.632690
59.695000 36.897099 -749.790771
57.893299 36.598900 -748.263123
59.266998 36.545101 -749.490417
55.673000 38.358101 -749.561401
57.389801 36.370399 -748.255188
55.752602 38.216599 -750.346619
54.041901 38.312199 -749.377686
58.512600 35.687000 -749.374329
58.391899 34.862801 -749.638916
57.987701 35.123199 -749.715698
57.653900 35.065800 -749.428101
53.386600 35.829399 -750.253723
53.140400 35.675301 -749.898987
55.257900 33.641102 -749.153015
54.871601 34.098900 -749.488892
54.498001 34.336300 -749.552124
54.863400 33.661900 -749.361328
54.205700 34.035198 -749.415771
53.194698 34.910400 -749.883179
55.250198 33.171799 -749.070374
52.183899 34.969601 -749.615417
54.935600 33.360298 -749.664673
54.489399 33.439800 -749.479309
54.042599 33.521500 -749.296387
54.723400 32.839802 -749.249512
53.582100 33.202499 -748.977112
54.485600 32.479198 -749.154907
54.034401 32.758400 -749.219177
53.182701 33.166698 -749.190002
54.028198 32.284599 -749.169312
53.545200 32.471100 -749.094910
53.162300 32.731602 -749.178772
49.923199 25.499901 -746.566589
50.079300 24.602501 -746.247681
49.630001 24.805201 -746.208008
49.627701 24.316900 -746.143494
50.065102 23.858299 -746.265320
49.473598 23.909700 -745.945923
47.728401 23.730400 -744.595093
49.412498 23.510201 -745.760193
48.971298 23.668100 -745.669800
48.947498 23.171499 -745.409729
49.867199 22.409201 -745.474976
49.479099 22.671900 -745.547302
48.651600 22.767900 -745.129822
47.071800 22.918400 -744.292175
48.856800 22.349300 -745.414001
48.241299 22.149700 -744.768005
47.896999 22.436501 -744.896973
47.108299 22.373100 -744.306030
46.660500 22.254400 -744.039978
48.466301 22.120199 -745.218872
47.665501 22.107500 -744.681396
48.063400 21.760799 -744.671997
47.957699 21.343500 -744.455383
47.492599 21.575600 -744.435730
47.684399 20.989901 -744.209900
47.911900 20.922400 -744.609985
47.215801 21.268900 -744.575317
47.286301 20.738100 -744.191223
47.104801 20.192499 -743.729126
46.752300 20.519100 -743.895691
47.298599 19.938700 -744.167725
46.756001 19.922001 -743.786926
46.324200 20.010900 -743.608887
45.293900 19.792200 -742.656799
47.496300 19.253201 -744.350281
46.793598 18.957701 -743.523315
46.007401 19.223200 -743.325684
45.467400 18.240499 -742.793396
45.069698 18.343100 -742.654724
44.448101 16.222799 -741.990417
43.874901 16.280800 -741.682983
41.951099 15.021800 -738.900574
41.834202 14.536300 -738.238892
41.359402 14.418200 -737.784180
43.838699 15.169000 -741.283813
41.933399 14.180300 -738.843811
41.662498 14.063500 -738.525391
41.266602 14.156700 -738.377075
43.965599 14.647600 -741.364929
43.261501 14.693000 -740.955200
41.652901 13.532800 -738.503784
39.211899 12.902800 -736.139282
43.039501 14.290700 -740.790283
40.698502 13.203500 -737.941528
40.506199 12.946300 -737.506287
39.517700 12.638800 -736.484985
41.241100 13.233400 -738.368713
40.112099 13.053800 -737.301697
42.922501 13.754000 -740.713989
40.873699 12.640200 -737.994202
43.597401 13.392200 -741.204712
43.065201 13.597300 -741.091492
43.018700 13.231700 -740.621277
42.756901 13.105000 -740.292480
40.422401 12.103300 -737.513672
42.679901 12.564700 -740.032715
42.242199 12.838900 -740.065430
42.225101 12.079300 -739.645020
40.349602 10.960700 -737.031006
38.601601 10.885700 -735.755005
41.741199 11.737500 -739.494507
41.319302 11.988200 -739.508179
39.794998 10.568300 -736.770691
39.706501 10.117900 -736.807312
39.311501 10.204700 -736.643005
39.422501 10.083600 -737.157410
39.497398 9.434200 -736.996277
39.539799 9.118900 -736.648682
39.487400 8.699900 -736.754700
39.132198 6.366500 -736.271484
38.657001 6.454100 -736.056030
38.222401 6.470400 -735.783875
38.095901 6.189500 -735.367676
38.486500 6.025900 -735.759888
38.620399 5.660300 -735.418884
37.695900 6.296400 -735.548096
38.100101 5.372200 -735.323181
37.682301 5.391200 -735.064880
38.369099 5.212200 -735.638916
39.865398 5.823000 -737.792786
39.518200 5.547200 -737.723694
38.052399 4.721100 -735.760803
37.970699 4.345900 -735.264282
38.664101 2.832600 -734.920410
37.720299 3.371200 -734.914917
41.628502 4.604800 -739.427124
39.620899 4.111600 -737.492676
39.186600 4.035100 -737.414001
37.176899 3.251500 -735.612305
40.764999 2.029500 -737.443787
39.295700 2.731500 -737.267090
38.889702 2.949600 -737.246277
37.324100 2.201800 -735.313477
41.334400 1.799300 -737.854309
37.401699 2.170800 -735.780579
39.403702 1.701400 -737.249329
38.385201 2.116000 -737.036987
36.755501 1.709600 -735.450928
40.362701 0.098400 -736.517212
38.993999 1.445600 -737.150085
36.838799 1.948400 -736.262878
37.792400 0.913100 -736.239990
37.284401 0.756800 -735.711426
36.474300 1.076200 -735.529175
38.274700 0.642500 -737.074829
37.352100 0.432800 -736.206787
36.929798 0.684700 -736.212524
51.755798 40.456902 -741.591370
50.960800 41.310299 -741.346375
51.769299 41.692799 -740.463684
52.720001 43.045300 -740.226318
51.255699 44.337700 -737.261414
50.618401 43.528599 -738.958374
51.546299 43.916500 -738.434814
51.637600 43.772301 -738.832825
51.839901 43.657902 -739.208984
52.244701 43.632801 -739.459595
52.917099 43.699902 -739.607483
50.482800 44.719101 -736.665405
50.983200 44.772400 -736.766174
51.254501 44.425400 -737.748108
51.550400 44.332001 -738.115784
51.942699 44.056499 -738.977417
52.838100 44.144501 -739.175903
53.400398 44.264599 -739.140625
51.280701 44.805901 -737.143677
53.604401 44.563301 -738.823425
53.876099 44.461102 -739.142273
50.964100 43.513699 -738.568726
52.732700 42.709999 -740.498901
51.909199 42.296902 -739.892212
52.080200 42.155201 -740.314514
52.925201 43.455002 -739.983887
53.354301 43.870998 -739.538025
51.182598 45.190899 -736.565186
51.525002 45.124298 -736.881287
51.456799 44.836399 -737.552490
51.839401 44.546799 -738.429871
52.281300 44.541901 -738.640198
51.084999 45.548199 -736.227600
51.766399 45.005501 -737.855530
53.540001 45.077599 -738.470886
53.962700 45.063000 -738.695129
51.358200 45.609299 -736.585022
51.545799 45.363602 -737.268616
52.149899 45.381001 -737.495117
52.576599 45.408798 -737.617493
52.967400 45.373100 -737.878723
51.665699 45.913399 -736.330383
52.002899 45.641899 -737.143921
53.522301 45.594501 -737.935730
54.174900 45.523800 -738.398926
51.889099 46.476601 -735.479004
52.318901 46.476799 -735.669373
52.660801 46.412498 -735.978088
52.847500 46.289600 -736.361328
52.776299 46.082401 -736.836121
53.040298 45.926102 -737.335388
53.196400 46.417400 -736.588623
53.331402 46.260502 -737.032227
53.676300 46.197102 -737.340088
53.903599 46.016300 -737.883118
54.271702 45.967201 -738.166321
53.066299 46.981201 -735.612488
53.233200 46.846802 -736.015991
53.577099 46.582298 -736.816711
53.428001 47.452599 -735.276917
53.610298 47.306999 -735.715271
53.646900 47.129501 -736.166992
54.156101 46.849800 -737.079712
54.396400 46.719799 -737.505371
54.592899 46.601601 -737.882813
54.670601 47.104500 -737.440186
54.626499 49.624100 -734.739319
54.662300 49.449200 -735.170227
54.570000 49.159100 -735.827820
54.636398 48.563801 -736.029724
54.780899 48.410301 -736.446228
54.720200 48.095600 -736.831482
54.326302 47.572300 -737.922729
54.181900 47.336102 -738.427429
54.294300 48.164101 -735.727722
54.578098 47.934399 -736.377808
54.716301 47.696701 -736.992004
54.026699 47.821499 -735.644104
54.077801 47.574100 -736.248230
54.823002 47.014599 -737.854919
54.526001 47.292301 -736.975098
53.445900 48.007500 -734.286682
53.019600 47.817001 -734.230286
53.345402 47.706299 -734.617371
53.764000 46.958500 -736.544678
54.023998 46.533199 -737.340820
54.546600 46.119598 -738.515686
52.884499 47.456699 -734.504700
53.086300 47.323200 -734.895874
50.942699 46.296001 -735.163574
51.193100 46.147202 -735.606384
51.311100 45.988098 -736.023071
52.188801 45.052601 -738.002380
52.595299 45.003201 -738.270691
50.672901 45.655399 -735.456726
51.046799 45.577400 -735.778870
52.729401 44.609798 -738.661194
52.367100 44.091702 -739.121521
51.210400 43.988499 -738.118408
51.936199 43.344398 -739.563171
51.310699 43.263401 -739.185486
51.637600 42.994499 -739.341980
51.841499 42.844398 -739.767273
52.307301 42.673801 -740.239014
52.188801 43.088001 -739.880615
50.723499 42.265400 -740.165222
51.230000 42.495998 -739.825073
52.271301 42.036098 -740.687622
50.641399 41.598202 -740.444092
51.264400 41.646400 -740.568115
50.897800 41.282799 -740.778015
44.665100 48.206799 -729.918396
45.070400 48.000599 -729.687927
45.425900 47.849998 -729.425293
45.803600 47.675900 -729.174377
46.100800 47.630501 -728.794312
46.391399 47.592400 -728.409790
46.671299 47.566399 -728.018372
46.911900 47.583000 -727.604126
47.135399 47.617901 -727.180420
47.326302 47.687698 -726.738586
47.427502 47.814098 -726.325989
47.547199 47.920101 -725.924805
47.613701 48.082199 -725.495789
47.573399 48.318401 -725.088318
47.496899 48.591801 -724.663574
47.378899 48.895401 -724.244690
46.585999 49.812500 -723.670105
46.323898 50.247299 -723.217529
46.098202 50.559200 -722.952515
45.941399 50.835300 -722.649780
45.870499 51.094398 -722.244995
45.922501 51.260799 -721.830627
46.169701 51.243500 -721.473206
44.736198 48.396198 -730.515198
45.084301 48.252602 -730.250183
45.817902 47.886600 -729.818787
46.160500 47.751499 -729.545776
46.452301 47.712299 -729.161011
46.699699 47.721699 -728.749573
46.966400 47.710098 -728.349487
47.202900 47.731201 -727.931824
47.443802 47.747398 -727.516724
47.648800 47.802200 -727.081604
47.765701 47.911999 -726.676270
47.877899 48.026100 -726.269470
47.923100 48.211102 -725.827271
47.896702 48.432499 -725.425720
47.791698 48.736198 -724.984070
47.603901 49.049801 -724.654175
47.398201 49.381302 -724.316589
45.926102 51.214699 -722.981201
45.918900 51.422100 -722.577087
45.896702 51.628799 -722.198181
46.012501 51.764000 -721.743591
44.988098 48.531200 -730.969177
46.089100 47.965900 -730.355225
46.437000 47.860600 -730.013977
46.755199 47.793098 -729.643982
46.996899 47.809200 -729.227722
47.233501 47.830898 -728.808411
47.448101 47.876099 -728.376587
47.692200 47.889400 -727.962219
47.904499 47.936699 -727.529907
48.056702 48.048199 -727.064270
48.129101 48.205200 -726.634094
48.218498 48.343300 -726.214783
48.197102 48.559799 -725.814270
48.130299 48.823299 -725.391174
47.993900 49.120998 -725.010315
47.707901 49.537399 -724.628479
47.492401 49.840401 -724.362305
46.059200 51.479198 -723.348816
45.960400 51.785000 -722.891724
45.910999 52.020000 -722.498474
45.939701 52.208900 -722.073425
46.124100 52.271702 -721.654419
46.866501 47.914299 -730.424500
47.139301 47.897099 -730.025513
47.406898 47.885799 -729.623108
47.619301 47.934200 -729.187988
47.801300 48.015301 -728.735596
48.010399 48.066601 -728.299927
48.222000 48.115101 -727.866089
48.405998 48.192799 -727.417297
48.492298 48.335201 -726.993530
48.505901 48.554298 -726.530884
48.487000 48.768101 -726.130676
48.394001 49.020901 -725.769775
48.315800 49.257099 -725.418579
48.089699 49.610500 -725.066895
47.808998 50.020302 -724.688293
45.947300 52.381901 -722.894409
45.849400 52.666199 -722.477905
45.970901 52.793800 -722.028076
46.249100 52.758400 -721.656982
46.892799 48.012798 -731.343384
47.188599 47.971298 -730.957703
47.443199 47.974998 -730.546326
47.711300 47.964001 -730.143127
47.910702 48.027500 -729.698730
48.099300 48.102402 -729.248718
48.236500 48.192600 -728.849487
48.441898 48.248501 -728.411072
48.607700 48.346401 -727.950684
48.734901 48.445999 -727.548584
48.744598 48.709000 -727.003601
48.729801 48.918900 -726.604370
48.639198 49.169800 -726.243286
48.552399 49.415600 -725.886108
48.461601 49.664799 -725.528625
48.255699 49.996201 -725.187988
47.967899 50.450500 -724.729980
47.370300 47.941601 -731.714111
47.607201 47.960300 -731.301086
47.811699 48.019699 -730.857605
48.059200 48.031898 -730.440796
48.267700 48.086300 -730.000916
48.406601 48.175701 -729.600708
48.540401 48.270199 -729.198486
48.668499 48.370399 -728.793884
48.816799 48.487701 -728.322693
48.997501 48.804798 -727.398315
48.525902 50.114399 -725.509521
48.258598 50.471802 -725.213623
48.093601 50.864399 -724.684570
47.220100 47.090599 -734.573792
47.380199 47.190399 -734.119629
47.800598 47.902699 -732.019470
48.025200 47.924999 -731.619019
48.215199 48.000999 -731.164978
48.421101 48.059299 -730.721497
48.693600 48.205399 -729.995728
48.813900 48.315102 -729.584412
48.956402 48.400398 -729.187073
49.044998 48.582500 -728.680115
49.185699 48.707802 -728.204773
49.252800 48.871700 -727.768616
49.214500 49.185600 -727.197327
49.133598 49.465302 -726.762085
49.030602 49.728699 -726.395020
48.875900 50.007301 -726.078979
48.218899 51.003101 -725.114319
51.468102 41.425800 -740.188171
45.948200 48.549000 -734.580017
46.076801 48.666599 -734.140320
46.155800 48.825401 -733.695984
48.411098 47.851002 -732.093506
48.566502 47.925598 -731.697876
48.712399 48.010201 -731.297424
48.862598 48.089600 -730.900330
48.982899 48.201099 -730.486206
49.104301 48.310600 -730.073975
49.229000 48.416100 -729.664917
49.351501 48.602699 -729.095886
49.448299 48.776199 -728.594116
49.528999 48.965698 -728.085510
49.578602 49.148102 -727.640381
49.482399 49.522598 -727.038879
48.815300 50.611401 -725.902588
46.262100 48.032001 -735.961121
46.359200 48.174900 -735.521179
46.272499 48.480999 -735.043030
46.360298 48.673698 -734.517822
48.688499 47.764801 -732.676025
48.926998 47.856300 -732.116516
49.055698 47.960899 -731.703796
49.249802 48.034401 -731.250427
49.332500 48.187599 -730.812500
49.440701 48.312401 -730.391296
49.548100 48.437500 -729.970886
49.635201 48.583698 -729.540222
49.781601 48.705299 -729.065308
49.854000 48.944599 -728.470581
49.837299 49.472198 -727.437317
49.757999 49.827900 -726.847717
50.812099 51.159199 -722.513489
51.125401 51.061501 -722.216187
51.317501 51.125198 -721.785889
51.493099 51.205299 -721.348328
46.983700 46.983898 -737.685486
46.885201 47.287399 -737.231018
46.769402 47.546398 -736.893127
46.695900 47.799301 -736.500977
46.707600 48.123798 -735.831116
49.231098 47.780602 -732.551270
49.363998 47.881500 -732.139771
49.523102 47.953400 -731.745117
49.771500 48.252300 -730.754395
50.067001 48.696499 -729.397827
50.148499 48.887402 -728.886230
50.269798 49.035000 -728.399292
50.301498 49.237301 -727.943176
49.115101 50.942501 -726.385498
49.998798 52.102001 -722.667725
50.688202 51.765400 -722.259216
51.040298 51.664600 -721.907776
51.200001 51.907101 -721.169922
50.187901 48.498402 -730.230408
50.359798 48.594601 -729.767395
49.619099 52.630901 -722.827698
50.443699 52.261799 -722.273193
51.092300 52.335499 -721.106201
50.188900 48.362400 -730.833374
50.650200 48.710499 -729.412415
50.640499 48.919601 -729.008484
50.795101 49.025600 -728.553528
50.052200 52.586399 -722.580505
50.681999 52.421501 -721.923523
50.932301 52.423801 -721.526428
51.029099 52.681801 -720.857483
50.083000 48.116001 -731.309387
49.694599 47.530201 -733.501587
50.534500 48.375198 -730.505188
50.492001 48.178299 -731.190918
50.752102 48.503700 -730.136414
50.160999 52.898800 -722.293518
49.536701 53.204700 -722.828918
49.912701 53.005199 -722.640381
50.555901 52.901798 -721.844116
50.865700 53.026299 -721.113098
50.574902 47.967201 -731.872620
50.786098 48.307800 -730.864380
51.044899 48.633701 -729.811279
51.114399 48.798901 -729.373718
50.795101 48.119202 -731.502014
50.997200 48.467899 -730.491821
50.217499 53.285198 -722.105774
50.744202 47.813499 -732.265320
50.669102 53.237099 -721.572327
49.336498 53.634701 -722.974976
49.973701 53.416500 -722.503174
50.757702 53.460701 -721.191711
50.763100 47.717201 -732.751526
51.334400 48.563400 -730.170593
51.116199 48.293900 -731.200989
51.484798 48.743900 -729.726929
51.618198 48.841499 -729.323608
51.745098 48.985001 -728.838989
50.899799 47.550900 -733.310974
51.146801 47.941200 -732.147095
51.372002 48.429699 -730.821228
47.491699 54.415298 -724.945923
49.763100 53.699699 -722.825195
50.157600 53.700298 -722.208130
50.439499 53.669701 -721.828674
51.049702 47.398998 -733.697388
51.160801 47.691601 -732.940186
51.303001 48.151901 -731.799988
51.676201 48.521500 -730.479919
51.924500 48.738800 -729.658875
52.030800 48.904999 -729.161316
52.196800 49.016102 -728.680420
49.057598 54.153999 -723.330872
50.615002 53.876900 -721.452515
50.713299 54.022400 -721.008484
51.330601 47.832699 -732.526306
51.766899 48.673500 -730.070129
51.505001 48.302601 -731.417786
49.457298 54.053501 -723.134888
51.154202 47.243900 -734.415771
51.371700 47.587399 -733.388611
51.740898 48.458099 -731.070374
48.006401 54.308102 -725.224182
49.786598 54.134602 -722.784119
50.068699 54.102299 -722.406799
50.312801 54.109001 -722.011414
51.423100 47.337002 -734.023987
51.601601 48.093700 -732.232422
52.105900 48.609402 -730.412476
52.352901 48.828602 -729.587891
52.445400 49.009800 -729.080994
50.470100 54.301300 -721.597717
51.587601 47.800701 -732.989624
51.779099 48.250801 -731.790283
52.244499 48.765202 -730.033386
46.919998 55.423401 -725.060730
47.224800 55.351200 -724.727905
48.945900 54.582802 -723.569275
50.640202 54.452599 -721.177002
51.504002 47.095699 -734.709778
52.142101 48.511101 -730.882507
49.389400 54.459499 -723.303284
51.684502 47.577599 -733.699585
51.836399 47.993198 -732.631592
52.061298 48.406799 -731.453308
50.201401 54.493698 -722.199585
51.730900 47.327999 -734.410278
51.882702 47.747501 -733.333923
52.037701 48.199100 -732.187988
52.545799 48.713600 -730.363770
52.692402 48.799702 -729.962219
52.815800 48.909801 -729.548828
52.949100 49.009102 -729.141724
47.338799 55.341599 -725.257324
49.709202 54.618198 -722.994202
49.990501 54.586300 -722.617676
50.385601 54.693199 -721.785583
51.892399 47.066101 -735.059204
51.977299 47.519501 -734.017578
52.307098 48.361198 -731.814270
52.456402 48.527401 -731.247314
52.570900 48.648602 -730.825073
48.768799 55.158501 -723.742126
49.196999 54.937801 -723.513184
50.481701 54.970798 -721.433228
51.999699 46.970600 -735.560608
52.104000 47.307499 -734.722473
52.218201 47.727798 -733.701904
52.249100 47.985100 -733.138184
52.309700 48.167599 -732.677917
52.988701 48.827900 -730.292419
53.139400 48.909901 -729.892273
53.273102 49.009399 -729.483582
49.560699 55.038898 -723.220520
50.122398 54.974998 -722.468872
50.285500 55.062901 -722.037598
52.308701 47.090302 -735.249207
52.348801 47.510899 -734.345093
52.555500 48.367802 -732.307312
52.706402 48.534100 -731.738708
52.868000 48.687698 -731.178528
52.999001 48.791901 -730.765320
53.672798 49.046200 -729.203003
48.601101 55.657600 -723.904419
49.138302 55.397400 -723.585022
49.864201 55.164799 -722.915527
50.364498 55.380600 -721.701294
52.388199 46.944500 -735.827393
52.533798 48.004501 -733.475403
50.130199 55.405201 -722.410522
52.650799 47.330200 -735.146973
52.699902 47.906399 -733.913818
52.778000 48.237202 -733.127380
52.833801 48.424599 -732.663818
52.941700 48.555199 -732.232605
53.097000 48.716000 -731.666382
53.269199 48.857700 -731.111877
53.409000 48.952099 -730.703308
53.576900 49.016201 -730.311218
53.747002 49.077702 -729.921021
54.105900 49.140400 -729.232178
48.971500 55.884300 -723.754028
49.344700 55.755501 -723.427124
49.678101 55.631802 -723.152100
49.967602 55.589901 -722.782227
50.232800 55.717098 -722.110901
52.875000 46.799000 -736.408081
48.576698 56.296600 -724.089417
53.026798 47.383701 -735.440430
53.018398 48.190300 -733.833618
53.131100 48.483101 -733.068726
53.203800 48.651901 -732.615417
53.322899 48.770100 -732.190918
53.471100 48.938301 -731.620728
53.650299 49.072201 -731.070313
53.792198 49.164101 -730.663025
54.113300 49.307301 -729.871216
54.492699 49.348202 -729.193420
48.962898 56.310299 -723.892883
49.270802 56.211300 -723.608276
49.589600 56.101799 -723.327820
49.899700 56.037800 -722.969421
50.082401 56.103901 -722.549927
50.213501 56.222099 -722.106689
53.167702 46.830101 -736.757996
53.112701 47.741100 -735.014893
53.221600 48.416901 -733.486816
54.098801 49.316799 -730.302307
53.676399 49.027199 -732.035278
53.842899 49.175701 -731.476685
54.509499 49.479401 -729.822876
49.553398 56.529598 -723.449829
49.871799 56.456799 -723.096802
50.115398 56.532501 -722.563171
53.451698 48.398300 -734.067078
53.575600 48.680199 -733.308411
53.641399 48.857201 -732.850586
54.099899 49.348499 -731.148315
54.227699 49.455799 -730.733215
54.817600 49.597698 -729.525391
50.535900 56.520500 -722.353821
53.577900 47.871700 -735.232300
53.548901 48.114201 -734.792175
54.478802 49.587799 -730.386902
53.684898 48.660099 -733.739502
53.845299 49.148701 -732.510315
54.020000 49.289501 -731.955078
49.882301 56.908699 -723.171021
50.155701 56.953602 -722.653381
53.707199 47.656601 -735.972778
53.729900 48.392502 -734.463684
54.189899 49.467201 -731.591614
54.809200 49.741199 -730.073914
55.232201 49.725201 -729.444092
53.898998 48.986599 -733.279480
54.443901 49.631599 -731.133484
54.023300 47.274502 -736.885498
53.863499 48.215599 -735.248230
53.887402 48.734699 -734.169678
54.053299 49.218700 -732.939392
54.156300 49.436600 -732.341125
54.674400 49.819901 -730.761292
53.997299 48.477901 -734.893127
54.061401 48.992599 -733.759827
54.339901 49.679798 -731.943970
54.965401 49.946800 -730.428284
55.249001 49.929100 -730.019470
54.499100 49.861500 -731.564514
54.054401 47.999599 -736.117004
54.221298 47.672600 -736.697083
54.107101 48.812302 -734.592285
54.230000 49.302799 -733.417297
54.258301 49.601601 -732.774475
54.752499 50.011299 -731.180725
54.124599 48.474499 -735.476013
54.187199 49.075901 -734.171387
54.482399 49.829800 -732.439514
55.155201 50.047001 -730.948975
54.279800 48.782200 -735.141418
54.341999 49.380501 -733.843018
54.399799 49.647598 -733.215881
54.663898 50.018501 -732.057800
54.911301 50.158298 -731.648621
54.368698 49.172798 -734.618774
54.619099 49.900700 -732.846497
54.531700 49.459702 -734.290588
54.580601 49.737499 -733.656372
54.876598 50.075500 -732.513916
55.076900 50.146702 -732.057129
54.614101 48.995701 -735.416870
54.782902 49.932999 -733.269714
54.850101 49.723598 -734.122925
53.163898 45.392601 -739.864929
53.138802 45.676601 -739.414612
53.169800 45.897202 -738.976624
53.471199 45.902100 -738.441223
48.612701 58.531601 -724.960815
49.002800 58.355999 -724.584412
49.884300 58.052601 -723.571228
50.211800 57.874500 -723.308472
50.964500 46.332100 -738.990173
50.997799 46.548500 -738.555481
51.061798 46.728901 -738.128113
51.080799 46.960201 -737.693176
53.956501 49.124699 -728.792786
47.754902 57.813599 -724.835083
48.118801 57.522400 -724.688416
48.488499 57.271702 -724.461121
48.819599 57.078201 -724.203613
49.168701 56.859501 -723.957703
51.584801 42.841202 -740.923828
49.037899 47.000900 -738.411926
49.047600 47.243999 -737.975220
49.109901 47.424301 -737.550415
49.125099 47.659199 -737.117493
52.562199 49.060501 -728.413879
52.783600 49.057899 -728.013123
52.953899 49.110699 -727.610779
47.411098 56.704700 -724.659180
47.759499 56.386902 -724.569824
48.132999 56.022701 -724.514282
46.908298 47.843601 -737.642395
46.920502 48.082199 -737.209290
46.985401 48.255901 -736.788574
46.965099 48.490501 -736.423584
49.590900 47.560902 -733.081726
49.682701 47.702900 -732.664795
49.780201 47.838001 -732.249329
50.723099 49.209400 -728.118713
50.802502 49.362099 -727.706909
48.581799 53.896000 -724.092590
48.902100 53.647202 -723.917480
49.197399 53.495602 -723.622620
45.521000 56.081200 -722.620422
45.888199 55.794102 -722.398010
46.194099 55.456799 -722.382080
45.281898 48.741001 -732.181519
45.467899 48.753300 -731.786072
46.320499 53.570702 -721.802673
46.956699 49.255798 -724.071228
51.209400 49.185699 -727.508972
48.467800 60.937199 -724.742981
48.775200 60.558201 -724.554993
48.998798 60.134602 -724.496887
49.208199 59.755901 -724.432800
49.458401 59.385502 -724.312683
49.757500 59.130798 -724.069275
47.392502 45.948799 -738.364319
49.210800 45.616501 -737.755981
49.445202 45.782398 -737.373413
49.690601 45.901699 -736.999695
49.953800 45.948002 -736.639282
50.209900 46.021999 -736.274475
50.439098 46.200100 -735.892273
50.672298 46.360001 -735.514221
51.044300 46.685101 -734.875977
49.418301 44.716599 -739.054993
49.635601 44.948502 -738.660522
49.858898 45.149799 -738.272827
50.082901 45.344002 -737.887512
50.315601 45.497501 -737.510315
50.570599 45.552399 -737.151184
50.810902 45.668800 -736.781799
51.400398 46.552502 -735.589722
49.897900 44.589802 -739.062012
50.113800 44.821201 -738.669006
50.337200 45.014198 -738.284302
50.562500 45.195000 -737.902771
50.783901 45.390099 -737.519714
51.571800 46.369099 -736.022522
51.082901 44.860600 -738.267212
51.297001 45.086399 -737.878723
51.730999 45.897099 -736.927979
