46.106201 36.410900 -749.364380
47.515099 42.611698 -752.752319
50.487202 58.006699 -758.774780
50.473900 56.758499 -759.321411
51.538700 61.138599 -762.030884
53.803902 72.167603 -766.963318
53.852501 71.426102 -767.544678
40.796799 11.529700 -739.443176
41.802399 15.117300 -742.265686
47.500900 45.262100 -753.545471
49.640598 56.407101 -757.864685
53.196899 72.791496 -766.070618
53.326900 70.566902 -767.726929
40.774399 12.546900 -740.771118
52.920502 71.938599 -767.221924
52.859402 69.786102 -767.971619
52.450699 70.954903 -767.409180
39.820202 11.962500 -740.170288
51.996101 67.257896 -768.866089
51.164101 67.379303 -769.908325
50.415798 65.320297 -768.708923
51.141998 67.726501 -770.827209
50.487999 68.345398 -771.172119
47.330299 65.430000 -773.366882
45.871799 63.360500 -770.210022
46.085800 63.126499 -771.132996
46.205200 62.449100 -771.838379
45.567299 63.594601 -771.807678
45.696899 62.949001 -772.512695
44.991100 63.795399 -770.871582
45.035702 64.027000 -772.489075
45.203400 63.465302 -773.290710
44.230499 64.430099 -771.021973
44.075199 64.604897 -772.016174
44.330601 64.535599 -772.973328
44.494999 63.904301 -773.760376
43.033798 64.113899 -771.460327
43.409801 65.011002 -772.570679
43.673901 65.202400 -773.475830
43.861198 64.751297 -774.284912
42.536598 64.580803 -772.162598
43.179699 65.504799 -774.228821
43.374100 64.900398 -775.101685
42.402100 65.326698 -772.927917
42.250900 65.804298 -773.735229
42.557598 65.940300 -774.796570
42.738701 65.414703 -775.589783
42.465801 65.350098 -776.498230
41.387901 65.313301 -773.329285
42.086300 66.316002 -775.555481
41.480400 66.089500 -774.264099
41.827202 66.228897 -776.489075
41.157101 66.616798 -774.995300
41.255001 66.853699 -775.967773
41.547401 65.692398 -777.267578
40.491699 65.885498 -774.139282
41.166901 66.939903 -776.936584
41.384800 66.477203 -777.793884
39.999500 66.422401 -774.980225
40.247700 66.989700 -775.704712
40.192299 67.385201 -776.589294
39.136700 66.729897 -775.716919
39.706699 67.795601 -777.398315
39.139999 67.363998 -776.622070
39.083401 68.104698 -778.086792
38.303600 67.357201 -777.067322
38.142601 68.086601 -777.851685
38.421299 68.485703 -778.660889
37.897301 68.817596 -779.417725
37.132401 68.404999 -778.458130
36.910301 68.855797 -779.252625
36.707199 69.271004 -780.108521
35.715000 69.296600 -779.806824
36.039398 69.646400 -780.708008
35.959499 69.910301 -781.644470
35.068401 70.193703 -780.131287
34.760700 70.555901 -781.359985
34.933399 69.761703 -781.909729
35.133900 70.563202 -782.398682
35.066200 70.832497 -783.366272
34.351700 69.959999 -782.688599
34.880501 70.264603 -784.117920
33.931198 73.323601 -782.470276
33.804600 69.204102 -782.434082
34.767300 69.880898 -785.016724
33.729099 70.049301 -783.392212
33.607700 70.465698 -784.326416
33.937000 70.450600 -785.220520
34.236099 70.011497 -786.062378
32.490002 69.731499 -784.210022
32.725498 70.444397 -784.796814
33.055302 70.822197 -785.659790
33.363499 70.490303 -786.511414
33.065800 69.945503 -787.257629
31.719400 70.080299 -785.062317
32.027000 70.642303 -785.845886
32.384998 70.963097 -786.778992
32.879902 70.216202 -788.143005
32.266499 70.792702 -787.707581
31.070400 70.401901 -786.203430
31.388599 70.960197 -787.005615
31.958200 70.238800 -788.534729
31.407301 71.190903 -787.987976
31.561001 70.888397 -789.111511
30.252800 71.159500 -786.410217
30.165300 70.132698 -786.688721
30.489500 70.802299 -787.488403
30.544300 71.164497 -788.374023
31.134300 70.458900 -789.899292
30.607901 71.195503 -789.349182
29.587299 70.588898 -788.007202
30.697201 70.566597 -790.735291
29.698000 71.135101 -788.805725
30.051100 71.285797 -790.111084
31.125200 69.856400 -792.748108
30.476700 70.220299 -791.951782
29.893700 71.062599 -791.061829
28.783300 70.907501 -789.049622
28.909700 71.281403 -789.985779
29.441900 71.084198 -791.890076
28.739401 71.419197 -790.931030
29.441401 70.261597 -792.555481
28.007999 70.898804 -790.064514
27.559999 70.882599 -790.942871
27.883499 71.415100 -791.656921
28.293301 71.376701 -792.524170
28.647400 70.862801 -793.248291
26.856600 70.995201 -791.692017
27.228001 71.489502 -792.498230
27.639200 71.412102 -793.357788
27.992100 70.762604 -794.064392
27.212900 71.288300 -794.244873
27.531900 70.601303 -794.869019
26.022600 71.130203 -792.855713
26.004601 71.403900 -793.830811
26.615299 71.313698 -795.077576
26.982800 70.806999 -795.801880
27.223900 69.077400 -797.234009
24.998800 71.151901 -794.055115
25.389601 71.473000 -794.864624
25.811899 71.367302 -795.713318
26.178600 70.701797 -796.417419
24.192600 70.828796 -795.222229
24.526400 71.382500 -795.919678
24.954000 71.266098 -796.765381
25.371201 70.790001 -797.569702
25.031000 70.932297 -798.440918
23.233601 71.175201 -796.510803
23.670000 71.203400 -797.371399
24.100201 71.005096 -798.206970
24.652201 71.066299 -799.296875
25.078899 71.064796 -800.136902
23.638700 70.594704 -798.979187
24.186899 70.756203 -800.059998
24.628500 70.588097 -800.914124
22.076900 71.513397 -797.709717
22.501600 71.025803 -798.509521
23.149799 70.225403 -799.727478
22.038799 70.466003 -799.173828
22.767401 69.837303 -800.551819
21.041800 71.123001 -798.705811
21.755199 70.112602 -800.028320
22.482500 69.548599 -801.400696
21.526800 69.730202 -800.885376
21.341700 69.325401 -801.717529
20.371401 69.602501 -800.878113
21.282499 68.807503 -802.576294
20.376101 69.123802 -801.732788
19.701900 68.704300 -802.265686
18.947800 68.363800 -802.750183
18.221399 68.024597 -803.242615
17.134501 67.789299 -803.949524
16.995800 66.915100 -804.980225
17.731300 67.286400 -804.491699
18.649401 67.698700 -804.063477
20.046600 68.317398 -803.093872
32.509998 72.390404 -780.935974
33.035999 71.302101 -781.024719
33.579102 70.582397 -781.394287
33.914501 71.257103 -780.065674
34.742599 69.779999 -778.729919
40.442501 67.399498 -777.847717
43.249901 65.172897 -771.642517
43.784801 63.905102 -770.291626
44.479900 63.554699 -769.747925
51.386600 56.811600 -759.580811
50.319000 51.807999 -754.193787
50.754398 50.272800 -756.065918
51.848598 53.858398 -754.610474
47.013401 38.796101 -745.390015
47.061001 37.951000 -745.898071
47.004299 36.781502 -746.230896
47.043499 35.880600 -746.737915
50.745602 50.285400 -751.720886
51.010300 49.943600 -752.668518
48.497299 39.488602 -749.578003
50.012100 43.588600 -752.390381
48.733002 38.562599 -750.689697
47.213001 41.174500 -743.978271
47.460499 43.906898 -742.318176
47.769199 37.377201 -746.243286
47.997799 33.071800 -748.909607
49.663101 41.324100 -750.481384
48.458698 36.703899 -749.186218
47.406898 42.056301 -743.402710
47.608398 32.125702 -748.620178
48.712502 36.220100 -749.977722
49.929901 40.640999 -751.484070
47.891399 38.455799 -745.699402
47.764500 45.292198 -741.418274
49.027302 37.227001 -749.748230
50.619099 42.017799 -752.483887
47.782902 47.904400 -739.601624
48.098701 41.542198 -743.999878
49.657101 37.297298 -750.942627
49.934200 38.252102 -751.356201
50.423000 40.026901 -752.036987
48.165199 46.109299 -740.848999
48.062302 51.570301 -737.244873
48.313999 34.124901 -747.584900
50.336800 39.163399 -751.644104
50.048302 38.832600 -750.613708
48.836102 33.618900 -748.718323
48.840698 41.168900 -743.132690
48.762501 35.916801 -745.810120
54.543999 49.718800 -757.865784
54.615398 48.921799 -758.557312
54.475800 47.990200 -758.601379
51.197701 34.481300 -754.952698
52.038101 40.586498 -752.714111
54.382999 49.176800 -755.953430
54.683201 49.587799 -756.754822
55.169300 48.226601 -759.190430
53.228600 40.319401 -756.957520
49.897900 47.855301 -739.634583
49.487598 30.388901 -748.005371
50.331402 32.762100 -749.582703
50.639301 33.525200 -750.215698
55.325802 50.299400 -756.961670
55.616402 50.336899 -757.941711
55.744400 49.775501 -758.697021
49.727798 29.425600 -748.038391
55.354198 49.966400 -755.954773
56.063301 48.930698 -758.981873
56.128502 50.785801 -757.124390
56.431801 51.037399 -758.033875
57.874500 50.185902 -759.469971
58.599800 51.259602 -759.775085
60.077202 52.599800 -760.035095
76.012604 61.135101 -763.218079
90.953300 65.403900 -763.930115
95.565804 67.691902 -763.688782
100.374802 65.756401 -768.542725
108.337196 66.675499 -770.504211
27.569300 71.887398 -790.812927
28.865400 71.735703 -788.303223
33.505001 71.624603 -787.521301
35.050598 71.998901 -785.885620
34.927101 71.058403 -785.343201
110.261200 67.597504 -768.310486
47.058899 62.858700 -770.015503
52.489498 50.216999 -756.434021
51.795700 49.694801 -755.947571
50.936298 51.030201 -755.311218
51.965401 52.009899 -757.643311
52.559502 72.767303 -766.811279
91.667702 67.240601 -767.095825
101.331200 66.918503 -765.919800
52.495300 72.033203 -771.197998
54.272900 69.483002 -767.899719
53.823502 68.686897 -768.288025
52.952301 68.023201 -768.778503
48.979698 40.542500 -768.286499
50.021801 68.596397 -771.958313
52.822899 68.800598 -767.951294
49.418201 39.077801 -766.335815
48.949402 39.773998 -767.041077
51.985802 65.733597 -766.898193
48.003700 61.553200 -769.437683
47.352501 61.609001 -770.248291
46.821899 61.974998 -770.970825
36.245899 70.320503 -783.641174
46.751202 61.754902 -767.605774
46.266102 62.411201 -768.331482
45.725601 62.993000 -769.111328
35.506699 70.027603 -783.093384
41.226898 65.824097 -772.492798
45.690399 62.038200 -765.440613
35.210098 73.888802 -780.763428
32.301102 71.617302 -780.437988
20.817499 69.947304 -800.107788
34.057598 73.619499 -781.396606
39.247501 67.361702 -774.766724
36.342400 71.400497 -783.853394
46.542099 61.199100 -766.460205
46.835999 62.751301 -769.106812
50.332001 49.213299 -763.595703
82.438301 62.406399 -763.882874
48.479099 32.523201 -756.357300
48.114201 33.285702 -757.318115
48.561100 34.237999 -758.372803
47.963200 34.456299 -759.499512
48.316700 34.963501 -760.232422
48.316502 35.982201 -761.837402
48.618500 36.484100 -760.851807
48.016102 35.749199 -759.311279
48.070099 36.579899 -762.848206
48.490700 37.441898 -763.016113
48.336899 37.397301 -764.203125
48.130901 37.280800 -761.789490
47.000702 37.431198 -761.835205
47.767502 38.499802 -763.732727
48.041500 39.557800 -765.018311
47.055698 36.975300 -761.008484
47.594898 37.713600 -762.513123
47.330101 36.607300 -760.154419
63.559200 53.446701 -759.489685
64.092400 53.923901 -760.162292
65.322403 54.496799 -760.111023
68.894203 56.428398 -760.907288
78.377701 63.022800 -762.891174
75.799599 62.772301 -761.509277
48.497200 37.967999 -765.863281
60.464901 51.463799 -759.188904
48.293598 39.072899 -766.902222
48.473301 39.663502 -768.270020
48.387798 39.627701 -769.245972
48.739399 40.066601 -770.007996
48.259399 39.591900 -765.965881
47.974899 40.070202 -766.851013
49.651501 47.836201 -738.246216
39.405399 -0.839200 -735.137878
40.405399 -0.713900 -735.408875
41.339802 -0.677700 -735.752502
39.993801 -1.639000 -735.122192
41.804401 -0.809600 -736.582825
40.506599 0.262400 -735.354797
38.420898 -0.007500 -735.384888
39.367500 0.209700 -735.503174
41.287998 0.664200 -735.727783
41.716499 0.191400 -736.419678
42.087700 -0.690800 -737.547302
39.336800 1.152900 -735.350708
40.529202 1.562300 -735.344788
42.072701 0.290700 -737.355774
41.644199 1.405100 -736.211670
41.941399 -0.598200 -738.569580
38.729698 0.687000 -736.052979
37.902500 1.377800 -735.170227
42.096100 1.223700 -737.043091
42.706902 0.881200 -737.931885
43.528000 0.047200 -739.159973
39.744099 2.168000 -735.642578
40.782101 2.304000 -735.871826
41.739799 -0.702900 -739.565796
38.231602 0.870500 -736.828918
39.059601 1.751200 -736.151917
41.645901 2.370500 -736.410095
42.185398 2.170200 -737.172729
43.018002 0.907500 -738.883423
40.077000 2.905700 -736.120728
41.093899 3.157900 -736.207275
42.426899 1.920600 -738.065796
36.962799 3.244600 -734.827087
42.087799 3.086900 -736.843506
38.683899 3.164200 -735.743286
43.611500 1.480400 -739.374817
39.085800 2.800700 -736.535217
42.648701 2.913500 -737.675598
42.955799 1.954300 -738.850525
41.530399 3.963600 -736.421509
42.043598 1.788900 -739.022217
37.916801 3.062000 -736.293579
40.327301 3.828500 -736.294983
38.531502 2.803700 -737.319275
42.230801 4.237600 -737.030518
43.036098 2.942600 -738.759705
42.658901 3.962700 -737.851318
38.321602 5.433600 -735.049683
38.706001 4.861000 -735.825989
39.753201 4.570500 -736.521606
40.738800 4.872900 -736.532227
41.736801 5.525300 -736.155579
37.012699 4.788300 -735.758423
37.889702 4.634000 -736.240906
38.705700 4.464800 -736.718384
42.106899 5.254000 -737.035583
42.780602 4.900200 -737.669617
43.389099 4.888300 -738.432678
40.254700 5.814500 -736.890381
41.281700 6.123000 -736.903870
42.523300 6.014000 -737.461426
43.150501 4.558200 -739.315186
43.849300 4.218300 -739.941528
43.001099 5.880400 -738.335083
39.584999 6.943600 -736.447205
41.676601 6.944700 -737.176086
43.669601 5.497400 -739.500610
39.441002 6.378400 -737.492981
40.535500 6.780300 -737.421997
42.498299 7.220800 -737.610291
43.146599 6.844500 -738.260071
43.106800 6.398800 -739.222778
40.738300 7.738700 -737.477905
41.679901 7.965600 -737.550415
43.002998 7.932700 -738.049500
43.917301 6.832700 -739.611511
43.499001 7.895100 -738.939575
39.484402 8.348200 -737.732788
41.386501 9.135000 -737.502319
42.250401 9.037900 -737.912720
43.123199 8.952000 -738.313599
43.807301 7.822900 -739.831299
43.679199 9.012300 -739.080994
37.793201 8.910000 -737.665283
39.616798 9.693900 -737.404480
40.230499 9.105300 -738.284424
42.617298 9.916800 -738.186523
45.240398 7.232900 -742.138428
41.211498 9.724900 -738.320374
43.409302 10.033700 -738.723206
44.037399 9.117400 -739.978394
44.675201 8.171100 -741.270874
44.046398 10.118200 -739.484070
41.915401 10.707000 -738.398621
44.035702 9.057500 -740.984619
39.879398 10.705200 -738.000488
40.479000 10.278000 -738.687500
42.840698 10.977100 -738.689575
44.581699 10.273300 -740.324524
43.874298 11.090100 -739.320984
44.919601 9.661100 -741.297729
43.167500 11.770400 -739.087219
44.488098 11.299000 -740.066223
45.797001 11.175200 -740.645386
40.356899 11.733900 -738.541016
45.746799 10.422700 -741.831177
44.002499 12.149400 -739.525574
44.956299 11.074400 -741.069580
44.725399 12.288700 -740.201172
44.977299 12.044700 -741.146423
45.214001 11.459500 -741.898682
46.281502 11.976200 -742.187927
43.620701 13.450600 -739.814270
44.579201 13.356000 -740.244629
45.176899 13.108900 -741.048218
45.405499 12.428400 -741.909485
45.063499 14.108600 -740.880920
45.732300 13.302800 -742.033813
43.640800 14.599600 -740.403076
44.513699 15.062000 -740.718872
45.489498 14.629800 -741.543091
46.015202 13.601500 -742.912292
41.623699 15.116200 -740.306213
46.707802 13.692400 -743.650879
45.490299 15.631300 -741.548706
46.590698 15.405200 -742.179810
46.081100 14.762800 -742.764099
44.175598 15.995400 -741.133423
41.944599 15.417700 -741.361877
46.501801 14.783100 -743.616577
47.384201 14.615100 -744.106323
44.945400 16.607100 -741.382080
45.961300 16.205700 -742.184326
46.339298 15.987700 -743.048279
45.393002 17.253599 -741.897217
47.256901 15.489800 -744.577881
46.298599 17.358601 -742.717102
46.588501 16.827700 -743.437927
47.421001 16.609699 -743.964172
44.712601 17.920500 -742.028625
45.592201 18.211700 -742.266724
46.338799 18.285700 -742.884888
46.820000 17.838200 -743.568176
47.738800 17.161900 -744.661621
45.020599 18.961901 -742.409424
45.959301 19.166000 -742.800781
47.148701 18.112101 -744.421021
44.202099 19.494400 -742.197571
46.775398 19.262699 -743.277771
47.339699 19.012400 -744.059021
47.961601 17.966700 -745.493225
43.201099 19.505699 -742.425415
45.274601 19.839500 -742.904419
47.399399 18.823299 -745.006104
46.125000 20.251801 -743.112488
46.921700 20.095800 -743.694580
47.311298 18.524900 -745.903503
47.409199 19.888100 -744.549072
48.183601 18.674400 -746.397095
45.024799 21.251101 -743.009216
47.674999 19.813801 -745.537476
45.394001 21.202900 -743.879883
46.754299 21.538300 -743.894714
47.542702 21.178200 -744.565674
47.736599 20.751900 -745.468628
45.777500 22.023800 -744.161804
47.888500 20.676300 -746.406372
47.912601 21.899900 -745.299377
48.436298 21.469700 -745.970398
46.337898 22.853300 -744.539429
48.097698 21.629499 -746.934387
48.313301 23.115700 -746.066895
48.748402 22.039900 -747.479126
46.198200 23.889799 -745.019714
48.735901 22.930599 -746.903625
46.781502 24.639500 -745.222229
48.635899 24.153000 -746.339111
45.576500 24.837601 -745.036987
48.926998 23.445101 -747.668091
46.157398 25.198900 -745.757874
48.801701 24.700001 -747.116089
48.626400 23.790400 -748.514587
46.894600 25.820299 -745.934082
49.058102 24.819599 -748.013794
45.483200 25.847099 -745.925903
48.854000 25.632200 -747.297485
46.257900 26.420601 -746.462830
47.125900 26.826401 -746.217712
49.181499 25.031000 -748.937683
49.017300 26.687901 -747.479614
49.556801 26.264400 -748.136414
46.268299 27.508301 -746.246277
47.989101 27.555500 -746.663574
48.909000 26.032000 -749.192017
47.313301 28.303301 -746.338379
49.138599 27.599400 -747.684204
49.815800 26.371201 -749.344788
50.580898 26.059000 -749.929626
46.595600 27.941099 -747.017822
49.474499 27.267599 -748.615173
46.972500 28.765600 -747.309570
49.363701 27.458500 -749.539307
52.082699 27.701000 -749.992126
49.388302 28.636900 -748.720520
46.769699 29.716101 -747.244873
50.047699 28.413200 -749.706787
47.759300 29.968901 -747.751526
46.358398 29.815701 -748.093811
49.585899 29.817499 -748.958984
49.682800 29.528500 -749.853394
47.669300 31.403700 -747.592224
49.594299 30.789600 -748.849121
47.328899 32.549400 -746.721375
49.837799 30.585400 -749.763916
47.498100 33.515202 -746.200012
48.304600 33.186100 -746.811279
48.827599 32.046902 -748.327576
49.754501 30.240900 -750.757324
49.956799 31.576799 -749.764526
47.342499 34.577301 -746.026489
47.993401 34.175400 -746.683899
50.170700 31.365499 -750.658020
49.528500 30.401600 -751.656677
48.138599 35.104099 -746.170593
50.252800 32.334999 -750.509888
48.980202 30.233000 -752.726013
47.765202 36.339901 -745.218628
50.329700 31.974600 -751.541870
47.010101 33.502998 -749.128784
48.166500 37.198700 -745.214417
50.909401 32.701199 -751.355286
48.019501 33.776699 -749.538086
47.257099 37.565201 -744.992798
48.989899 34.119598 -749.585876
47.667000 39.330601 -743.814270
48.334999 38.976398 -744.408997
49.439602 38.897999 -744.780029
46.873001 33.894100 -750.178101
50.589500 33.909401 -751.089417
48.451500 39.928501 -743.957581
48.989601 35.007401 -750.045776
50.712502 33.729500 -752.022278
50.993801 33.151299 -752.792175
50.858398 34.838600 -751.331116
49.070702 40.895302 -744.051208
49.556400 35.772301 -750.384888
51.150200 34.566601 -752.242798
50.567299 33.328300 -754.038513
48.044601 43.446602 -741.497070
47.639500 35.565601 -750.966797
50.276699 36.099499 -750.970825
51.755100 35.433498 -752.145020
46.025200 36.039700 -750.328796
48.786400 41.592602 -744.688599
50.958500 36.342300 -751.602722
51.233898 35.804798 -752.891785
48.842602 43.545700 -743.504883
47.372299 37.082500 -751.021606
50.503899 37.424099 -751.371521
51.417900 36.888699 -752.247681
49.454300 46.838699 -740.180908
46.664600 37.770302 -750.565430
51.443802 36.901600 -753.209900
48.855099 49.367298 -737.625671
46.865898 37.057598 -752.184387
51.279099 37.998001 -752.112976
45.661701 38.573799 -750.263428
51.814098 37.824200 -752.946777
45.665401 38.105400 -751.470093
49.292400 38.757900 -751.957214
51.113098 38.942799 -752.171692
51.781399 37.584000 -753.996216
51.737801 38.806999 -752.876709
52.126400 38.475399 -753.755310
47.185299 39.099800 -752.217285
48.823002 39.632801 -752.359070
51.226101 39.902199 -752.603394
51.993801 39.779499 -753.250305
52.997799 38.572701 -754.969910
52.294998 39.367699 -754.073120
49.718700 40.223999 -752.673584
50.487000 40.908100 -752.754822
47.391899 40.651901 -752.794312
51.362000 41.195900 -753.054626
52.146500 40.908901 -753.590515
52.401199 40.319199 -754.374390
48.874599 40.702801 -753.522888
49.623100 41.461700 -753.172974
47.766201 41.029099 -753.646301
52.622700 41.474300 -754.221375
52.830700 40.877998 -755.002625
53.856998 38.409801 -758.274414
50.372398 41.979900 -753.416809
48.305698 41.716599 -754.033691
50.761700 42.784401 -753.745605
52.773499 42.611198 -754.420715
52.901699 41.995800 -755.208008
53.366100 41.997200 -756.131470
47.721600 43.335499 -753.550903
53.187901 42.987999 -755.226318
50.806198 43.738800 -754.100525
46.396099 44.200901 -752.898926
51.716202 44.037998 -754.299377
49.379002 44.077900 -754.018127
53.137501 43.936199 -755.034607
53.503899 43.300499 -756.100525
50.877102 44.669102 -754.565186
53.603001 44.408600 -755.704590
54.253799 44.182201 -756.378418
47.830700 46.593102 -753.060974
48.307598 46.132500 -753.731628
50.739300 45.401100 -755.155273
53.666901 45.409401 -755.772095
54.067402 45.075699 -756.674927
51.441799 46.009998 -755.400818
54.085701 46.052299 -756.364197
54.742100 46.208801 -757.054871
49.387001 46.982201 -755.231323
51.123100 46.841099 -756.064270
54.180401 47.137199 -756.335510
48.531300 47.715900 -754.781616
55.351200 47.028400 -757.058594
54.615299 48.082100 -756.308228
51.004299 47.728298 -756.400024
51.944801 47.892300 -756.390930
55.494400 48.198898 -756.744507
55.913502 47.673901 -757.483093
56.699501 48.245499 -757.577881
54.379002 44.742298 -761.453674
56.021702 49.143101 -756.598328
52.088699 48.828098 -756.508911
56.761200 49.238800 -757.291199
57.541599 48.959000 -757.796387
58.267799 49.838001 -757.545471
51.372601 49.188499 -757.266174
56.987000 50.261200 -757.053589
49.777500 48.997398 -757.390930
57.961498 50.719700 -757.317322
59.063000 50.424702 -757.901611
50.408001 49.930302 -757.107971
53.531200 49.828201 -757.847717
50.774101 49.551998 -757.897400
52.255600 50.040699 -757.578491
58.847698 51.336201 -757.468872
59.859901 51.008900 -758.071716
54.031502 50.180199 -758.576172
60.683201 51.473598 -758.238403
52.986198 50.688400 -758.111084
59.641998 52.025299 -757.708618
54.821499 50.741199 -758.693115
61.249500 52.394299 -757.849792
61.936699 52.220001 -758.483276
53.510601 50.890499 -758.919922
48.997898 52.226601 -756.821106
62.680801 52.742401 -758.726379
53.667000 50.807899 -759.872925
56.795799 52.506500 -758.340393
61.617699 53.368999 -758.162415
49.282200 52.193901 -757.785828
53.108601 51.814201 -758.966370
54.537601 50.994400 -760.251221
62.498402 53.701302 -758.354614
63.362598 53.944801 -758.695618
64.345901 53.884899 -758.951172
53.564999 52.057400 -759.751770
65.248901 54.331402 -759.051514
47.266201 42.250900 -771.312622
48.252998 42.187500 -771.570313
49.104198 41.948502 -772.022217
64.239700 54.810299 -758.734680
53.998600 52.135601 -760.654175
65.888901 55.075600 -759.129211
48.440899 54.038799 -757.765015
49.181599 53.690201 -758.333130
53.410999 52.946301 -760.021301
49.041801 41.946701 -772.962830
66.704498 55.925999 -758.691406
67.124001 55.419800 -759.398376
50.811699 53.184101 -759.805420
57.610401 54.010399 -759.991821
47.202499 42.653900 -772.315979
48.182598 42.632000 -772.518982
67.765999 55.363701 -760.121582
53.324402 52.974098 -761.019287
49.134701 42.916000 -772.850220
68.295998 56.103901 -759.780823
49.381001 42.544201 -773.796875
63.149799 55.992199 -759.420227
67.651100 56.692600 -759.345703
50.046398 53.646599 -760.453430
53.950001 53.185200 -761.725525
47.163898 43.078800 -773.177917
48.099499 42.959000 -773.494385
68.528198 57.063702 -759.460022
69.259201 56.684799 -760.064514
53.269699 54.098801 -760.958923
70.137299 57.235199 -760.014526
48.767399 43.407700 -774.074280
49.700600 43.447701 -774.188721
63.785999 56.636799 -760.120422
69.200600 57.791199 -759.626770
71.031799 57.507999 -760.305298
49.723202 54.854801 -760.273926
52.991100 53.894199 -762.053284
64.716003 56.971699 -760.247009
71.928398 57.661800 -760.646118
70.838303 58.338799 -759.905579
53.148399 54.877201 -761.518494
53.714901 54.002399 -762.713989
73.293602 58.488499 -760.461182
49.950199 54.823200 -761.428284
65.292801 57.773102 -760.353577
72.214203 58.832600 -760.209229
53.353600 54.988602 -762.433289
66.507301 58.811798 -759.873718
73.990997 59.027000 -760.880798
50.315201 55.736198 -761.206421
67.014503 58.475399 -760.617371
73.156403 59.471199 -760.415527
74.920097 59.150200 -761.120728
53.896000 54.754200 -763.265930
47.553101 56.165001 -760.693298
54.657200 54.639801 -763.825073
75.812500 59.713299 -761.052795
48.477501 56.198299 -761.130676
51.176498 56.237099 -761.542480
52.931900 56.034401 -762.097229
68.304298 58.886398 -761.129028
74.450996 60.138199 -760.601624
52.101700 56.488098 -761.719727
53.885502 56.227100 -762.351624
76.636703 60.075901 -761.371582
49.932098 56.284698 -761.978882
75.715202 60.652699 -760.832886
77.564499 60.451401 -761.398987
50.572498 58.054798 -760.276917
52.963699 56.138802 -763.096130
55.360600 55.679699 -764.079224
69.889999 59.500702 -761.711121
78.484200 60.697601 -761.651001
50.813999 56.828602 -762.299316
52.617901 57.025299 -762.354980
53.802700 55.914101 -763.957581
76.720497 61.258400 -761.073730
51.647499 57.375198 -762.186584
77.806999 61.478199 -761.407776
78.969803 61.506401 -761.568115
79.863998 61.335602 -761.934570
47.100201 57.452599 -761.808777
47.993698 57.348999 -762.090210
49.259499 57.401501 -762.236694
53.052898 57.141701 -763.203430
69.191704 60.375000 -761.825684
71.700600 60.486198 -762.106995
80.716301 61.785301 -761.979187
81.726196 61.856800 -762.058472
49.875500 57.323700 -762.943420
52.368599 57.924900 -762.600525
53.239601 56.852402 -764.106018
72.336601 61.240700 -761.754517
79.753502 62.251598 -761.719910
50.807499 57.680801 -763.117188
82.113297 61.969898 -762.934692
82.746902 62.515598 -762.348694
53.024399 58.202099 -763.238403
74.038902 62.511002 -761.292419
81.812599 62.862999 -762.149780
83.720100 62.795502 -762.555603
48.935902 57.841400 -763.413025
51.447800 58.476002 -763.026672
84.635696 63.047798 -762.766418
49.903500 58.123600 -763.633423
53.691299 58.392200 -763.920288
53.805199 56.053001 -766.911316
50.802502 58.519199 -763.712891
54.620800 56.005100 -767.537720
74.684700 62.614700 -762.444824
76.134598 62.731098 -762.535889
85.434502 63.460201 -763.142395
50.188599 60.185600 -762.382385
50.848400 59.794300 -762.989197
51.744999 59.535301 -763.466370
77.051903 63.181400 -762.983887
48.272800 58.690800 -764.393799
49.267899 58.831799 -764.377380
50.329601 58.693501 -764.727722
53.462299 59.441002 -764.288879
53.920399 58.923199 -765.023987
74.396103 63.542702 -762.896606
78.437103 64.268204 -762.631226
78.904503 63.685001 -763.451172
80.195503 64.084999 -763.151917
48.249199 62.423698 -761.155579
47.884998 59.283298 -765.111816
48.884102 59.467300 -765.039673
49.767399 59.332001 -765.356812
53.141899 60.396801 -764.546326
53.800301 59.964901 -765.206116
51.895401 61.149200 -763.737671
54.897800 60.028702 -765.661499
52.428902 61.033699 -764.549072
47.452801 59.877800 -765.825378
48.387100 60.095299 -765.698486
53.838799 60.864799 -765.599609
51.809399 61.911201 -764.284180
52.698101 61.501999 -765.367188
54.585300 61.044300 -766.259888
103.689003 65.965202 -767.856323
104.542900 66.366096 -767.478821
47.261700 63.673801 -762.133423
45.636101 60.287399 -766.227905
48.373402 63.504700 -762.931580
47.264801 60.554199 -766.551514
48.274601 60.669399 -766.564087
52.024899 62.225800 -765.159302
53.486301 61.941799 -765.757690
51.533100 63.007301 -764.461182
54.108601 61.961601 -766.566284
97.122902 69.604202 -763.527527
52.612301 62.535500 -765.845398
52.021500 63.192200 -765.315918
47.451698 61.224201 -767.192871
53.572601 62.756500 -766.252930
55.343601 62.094898 -767.386597
56.342899 62.197102 -767.666382
51.925701 63.089600 -766.274414
54.298100 62.851299 -766.947021
52.833500 63.341900 -766.447388
51.678200 63.997002 -765.696716
53.662601 63.704601 -766.917725
54.800499 63.303299 -767.601929
51.911999 63.562401 -767.092712
96.946297 69.817497 -765.846497
53.313999 64.599403 -766.425293
51.723999 64.584099 -766.497070
54.335701 64.175697 -767.401611
55.443298 63.944901 -767.859314
51.394199 63.850300 -767.835083
44.962898 62.326801 -769.063782
53.950001 65.097099 -767.007385
51.915298 64.723999 -767.415405
55.092201 64.057602 -768.726929
99.728104 69.557198 -768.021484
54.777199 64.685799 -768.093018
55.741199 63.753399 -769.429810
52.955299 65.753700 -766.764526
53.979401 65.237396 -767.981995
51.341301 65.049500 -768.261780
53.714199 66.175301 -767.139282
55.276199 65.036301 -768.827881
56.554199 64.943604 -769.498474
52.952099 66.750999 -766.972412
54.605499 65.663300 -768.606689
53.954899 66.215202 -768.062683
52.238201 67.521599 -766.381409
55.786999 65.531799 -769.448425
57.983501 65.678902 -769.560913
53.743401 67.236198 -767.276489
57.726200 65.227203 -770.433716
52.920399 67.791702 -767.132080
54.258701 66.598396 -768.866882
55.045898 66.265701 -769.407776
52.506199 68.815697 -766.145020
54.090199 67.447998 -768.141785
56.025002 66.361900 -769.820618
57.006401 65.864700 -770.602173
53.626900 68.370697 -767.366516
54.197201 67.513000 -769.094788
56.688999 66.820900 -770.333984
54.531399 67.268501 -769.980530
57.247700 67.055603 -771.058777
53.048698 70.739998 -766.420715
62.027401 67.818497 -772.198181
54.207600 70.467499 -768.112488
53.587502 70.385902 -769.841370
36.397800 67.401398 -777.302429
37.320000 67.496597 -777.725891
32.977699 68.220802 -778.758911
35.621399 68.570297 -778.570496
39.423599 68.575302 -778.969177
38.851700 68.469299 -779.712524
33.389198 68.894798 -779.294922
34.064098 68.411598 -780.017883
38.161800 68.967102 -780.430603
33.716301 69.556198 -779.884277
37.962200 68.547096 -781.675110
37.417400 69.533600 -780.965027
38.410000 69.385803 -781.941406
36.882500 69.730003 -781.994995
37.162201 69.166397 -782.789185
36.344700 70.252098 -782.613770
37.109798 70.006104 -783.405029
34.137001 71.760201 -781.454529
33.428001 72.851196 -780.540771
34.605099 74.265900 -782.025513
33.860500 73.422699 -783.668884
30.862400 72.561897 -786.607605
30.338600 72.039200 -787.516785
31.990801 71.484398 -779.349976
54.223000 68.820000 -769.890991
46.374901 63.378399 -766.610474
45.957901 65.148003 -762.279480
47.233501 62.416199 -763.328613
83.286301 65.719498 -763.712097
81.656097 65.161201 -763.742920
46.935600 61.756401 -762.680420
80.273499 64.516899 -763.985229
48.907001 60.653599 -762.569397
87.107300 64.533096 -763.159180
87.607399 63.978001 -763.955383
86.231499 64.063301 -763.123291
54.844299 58.612099 -765.159180
83.851997 63.902302 -762.582520
73.250603 62.400501 -762.581177
73.280899 61.553001 -762.121887
67.849800 59.903400 -760.758179
49.232498 55.869400 -762.588684
56.784199 56.083401 -762.127380
51.681999 55.851299 -759.162781
61.086700 55.287701 -759.489624
54.553299 51.909500 -761.408508
49.331699 50.341499 -757.279907
46.176399 45.848499 -752.955505
53.663898 41.008801 -755.588318
46.543400 42.177200 -752.592529
51.898701 39.294102 -756.441528
53.729801 38.021099 -755.260010
49.330200 49.148201 -739.705872
53.329399 37.868301 -754.228027
49.013699 46.208199 -741.818970
48.366402 48.452099 -738.148621
47.865700 36.930599 -752.059814
48.391602 47.287899 -739.127625
48.227402 46.500198 -739.653809
51.860401 33.606899 -755.974915
48.772400 45.724300 -740.103210
48.313801 44.655102 -740.958923
52.058300 35.214199 -753.093628
51.430302 33.997101 -753.070618
47.676102 41.211800 -742.847717
46.154598 34.404400 -750.767212
47.635502 40.432999 -743.446716
48.924801 36.554798 -748.366821
49.399899 39.933300 -743.922424
48.354401 38.146599 -744.880615
49.568401 35.998199 -747.211914
44.715900 29.923201 -749.384094
46.846298 30.667801 -748.319580
48.205502 32.111900 -746.594604
43.744499 28.526501 -749.577271
50.960400 28.108500 -749.914001
45.965500 28.884199 -747.691284
48.954102 28.612700 -747.731323
45.191601 24.633499 -745.987671
49.124500 21.033600 -746.443298
43.899101 20.687599 -742.724182
48.296501 19.097099 -745.363770
42.250000 17.211201 -741.432800
42.038300 15.836200 -739.846375
47.306000 12.947000 -743.401306
40.820599 13.815900 -740.098206
46.998001 12.310600 -742.767822
39.855701 13.077800 -740.141113
46.278900 12.732000 -741.128296
40.634701 12.679800 -739.307190
45.652599 8.390000 -741.016174
41.179401 10.132100 -737.456299
44.816200 8.270300 -740.012085
45.521999 9.045300 -739.758423
40.153702 7.914400 -738.291382
39.062500 7.206000 -738.156372
44.519798 6.606400 -740.320374
44.961498 7.280500 -739.604675
37.782501 7.196600 -737.428284
38.763302 6.082800 -736.810974
35.678001 4.559600 -736.897522
44.661499 3.888000 -740.349487
36.959702 3.860700 -736.181519
43.426300 2.335200 -737.974426
44.785099 3.742100 -738.012695
39.042198 -1.500500 -736.665710
40.982300 -0.676100 -733.567383
39.307201 -0.590500 -736.182983
39.216702 -1.198800 -737.554382
39.052601 -0.259400 -737.299683
41.481499 0.357400 -732.939392
39.307201 -0.811100 -738.528870
39.298801 0.689300 -737.146912
39.664902 0.940800 -736.244202
40.422298 -0.761200 -739.136719
40.120098 -0.100600 -738.500183
39.544399 0.606400 -738.163391
39.624298 0.102800 -739.954590
39.706402 0.564800 -739.111023
39.421398 1.543100 -737.947388
41.394501 1.735700 -734.963684
41.901600 1.856900 -734.083374
39.527599 2.341100 -737.387085
39.706200 1.630100 -738.977417
41.765800 2.792400 -734.366089
39.750801 1.353600 -740.044128
39.641399 2.448800 -738.461182
41.326599 3.037300 -735.262512
39.638901 3.227800 -737.890076
39.649101 2.327900 -739.789124
40.428600 2.193000 -739.241577
40.079899 3.086400 -739.137878
39.980499 3.888100 -738.655884
39.948200 4.766200 -738.180725
42.096600 4.475400 -735.777283
42.562302 4.600500 -734.959778
40.162701 4.139500 -739.630615
40.270500 5.090500 -739.227478
40.345299 4.326000 -741.088501
40.326698 5.873900 -738.691223
41.623199 6.655200 -736.106079
40.473301 5.272100 -740.219116
41.235199 4.689000 -740.644897
40.394100 6.045800 -739.622986
42.889400 6.386500 -735.844482
43.452301 6.633100 -735.117188
41.326801 5.736000 -740.105774
40.555698 6.929500 -739.247070
42.754799 6.667100 -736.810791
42.610699 7.639900 -736.162415
40.813000 6.508500 -740.351379
41.102901 5.793800 -741.823303
40.921001 7.450300 -739.974121
42.691799 8.044600 -737.140381
41.612598 6.676300 -741.038086
40.863300 8.331200 -739.437683
41.416100 6.754800 -742.452881
41.347099 7.804500 -740.925171
43.581902 8.515700 -737.015381
41.304600 8.566300 -740.357971
42.969700 9.421700 -737.423889
43.549099 9.575800 -736.696228
41.127102 9.422700 -739.972412
41.245602 8.292100 -742.805603
41.683102 8.518800 -741.927429
42.114899 8.741400 -741.062378
43.179001 10.338000 -737.342407
41.650299 9.541600 -740.891296
43.907001 10.487000 -736.712585
43.283600 8.203600 -742.503174
42.064701 9.593300 -741.878906
41.761002 10.531500 -740.833496
43.711399 11.241900 -738.322021
41.728600 10.708400 -742.074097
41.932400 11.404700 -741.168579
44.802898 11.267800 -738.900391
44.853802 11.769500 -738.091187
43.505501 12.655400 -738.823608
42.505199 11.537300 -742.150879
42.257999 12.284400 -741.327026
44.436298 12.586700 -738.314270
42.254501 11.373000 -743.138489
45.074402 12.213000 -738.990112
44.857101 13.254500 -737.693176
43.311901 11.165300 -742.997620
41.737598 11.851600 -744.283813
42.686798 12.498100 -742.217407
44.321701 13.231800 -739.223022
45.963200 13.461800 -736.970276
46.344002 13.728700 -736.130005
42.622200 11.437200 -744.501709
42.696098 13.484600 -742.048584
44.948799 13.872400 -738.866699
45.384102 14.114700 -738.003174
42.969200 12.264400 -744.137817
43.420898 12.614300 -743.097778
44.343300 14.139700 -739.770081
42.731300 13.805000 -743.336609
43.081902 14.436600 -742.641113
43.086201 13.505400 -744.553528
43.716400 13.537600 -743.788574
44.724400 15.558500 -739.646301
45.362099 15.116300 -740.298401
43.624100 14.429300 -743.499878
43.386002 15.277300 -743.011780
45.021400 16.023600 -740.414185
43.333199 14.449500 -745.507202
43.648602 14.775300 -744.671570
44.509602 14.979200 -743.893127
42.368500 16.410801 -744.640930
43.419201 15.811100 -744.356323
45.898800 16.470501 -741.128174
44.281502 15.504600 -744.752075
43.841900 16.499701 -743.760315
42.798599 16.075600 -745.808289
45.744598 17.334700 -740.651794
43.847301 15.696800 -746.061096
44.524700 16.483801 -744.721619
44.196201 17.328199 -744.368225
46.231098 17.671400 -741.619080
46.330502 18.549400 -741.249329
44.982700 16.770599 -745.965820
44.743401 17.722700 -745.497925
44.483002 18.353300 -744.844299
44.999298 18.740601 -746.037415
45.038502 19.618000 -745.526428
47.074501 20.428801 -742.780823
45.163200 19.698500 -746.456970
47.351299 21.049700 -742.062317
44.502800 20.488400 -746.440979
45.670799 19.446400 -747.232178
45.298901 20.862101 -746.017822
47.293701 21.365200 -743.119873
45.918598 20.252800 -746.759827
45.697399 21.146799 -747.010986
47.465302 22.116501 -743.660828
45.636200 21.775499 -746.227417
45.614700 22.317200 -747.140930
47.310799 22.996401 -744.312378
45.460400 23.088200 -747.958130
47.253700 23.891500 -744.861023
46.080200 23.592899 -747.425293
46.578300 22.975300 -748.360229
46.147301 24.552099 -747.536621
47.581200 25.284000 -745.437073
46.546200 24.098400 -748.934814
46.010899 24.749800 -748.507629
46.459099 25.580000 -748.284119
46.893299 25.008600 -749.447021
48.396198 26.441099 -745.742676
47.139198 25.902599 -749.149780
46.515301 26.660700 -748.643921
47.166401 26.326300 -750.096619
46.767502 26.986000 -749.505676
46.514702 27.654600 -748.753479
48.857201 27.976601 -746.639221
46.629799 27.759199 -750.044006
47.955601 28.832399 -747.070313
46.947300 28.872900 -749.658020
49.084400 29.218599 -746.975220
49.861599 29.040800 -746.463013
50.262501 29.552099 -745.278076
47.481899 28.171700 -750.673279
48.715199 30.181700 -747.094482
47.219398 29.620100 -750.251526
47.714699 29.181400 -750.980286
47.140400 30.606400 -749.952881
47.320400 31.292801 -749.240784
47.801399 32.331699 -747.673828
47.557999 30.150600 -751.755371
47.441002 30.715900 -751.008118
47.222500 31.549400 -750.366394
47.554298 32.185699 -749.681824
47.523399 31.868601 -751.405029
47.431900 32.459599 -750.597595
48.151199 31.440701 -752.046875
47.684799 30.910400 -753.838501
47.783600 31.418501 -752.970581
47.726299 33.373699 -750.550781
47.877998 36.113899 -746.232605
48.101200 32.382801 -752.175293
47.669800 33.027199 -751.607300
47.683800 31.288700 -754.723328
47.678799 31.864901 -753.850403
48.661499 31.730499 -753.115112
47.701599 36.505699 -747.251526
47.808899 33.984798 -751.458923
48.096901 34.348400 -750.631409
47.220299 31.886000 -755.638489
47.543301 32.314301 -754.680725
48.303699 32.535099 -753.624084
47.545399 33.569801 -752.767883
48.435101 33.259701 -752.903015
48.466099 32.521500 -754.783630
48.183300 34.249001 -752.474670
48.003601 34.910599 -751.655823
48.010201 38.100899 -746.909424
47.794998 39.383499 -745.200012
47.552299 32.799500 -755.750488
48.481602 34.152100 -753.523010
48.921398 38.363602 -746.927307
48.242699 35.210499 -752.561218
48.237598 41.967800 -742.632385
48.376099 33.269402 -755.780518
48.316299 35.928398 -751.932617
47.453300 33.550400 -756.699402
48.431000 35.255299 -753.900208
47.137699 33.721901 -757.851990
48.522301 33.763401 -756.574890
48.586700 36.000301 -753.247070
47.768600 34.302299 -757.434387
48.489300 36.953201 -752.940491
49.081100 36.029999 -754.175598
47.591202 34.154598 -758.687927
48.795399 34.286499 -757.451477
48.860600 37.024300 -753.977722
48.808102 37.842400 -752.835388
47.959202 36.350300 -756.319397
48.432400 36.607101 -755.539795
47.968601 35.100601 -758.624023
49.554100 37.091900 -754.684875
49.000401 38.018902 -753.818420
49.071201 38.763401 -752.910583
47.256100 35.142200 -759.957886
49.366798 38.060501 -754.712830
49.631199 47.714199 -740.631287
49.139301 38.945400 -754.033630
52.128201 38.970798 -751.483704
49.277901 39.610100 -753.329773
47.434700 35.641399 -760.871216
49.807098 38.580700 -755.447510
50.269299 37.853001 -756.423706
49.507301 39.370899 -754.887695
49.393501 40.105499 -754.225220
47.433399 36.286499 -761.583008
46.561501 35.537498 -763.764099
47.129200 36.044399 -763.126526
49.595402 39.797199 -755.820129
49.677101 41.005901 -754.046509
48.858601 40.593399 -755.899902
49.702801 40.606701 -755.194824
49.799400 40.338299 -756.578613
49.684101 41.549500 -754.956177
47.462502 37.023102 -763.483826
49.040600 39.846199 -758.422424
50.210602 40.928902 -755.945007
47.748699 36.586800 -764.328125
48.493698 39.618500 -759.437012
49.899601 41.903301 -755.938416
49.992802 42.430000 -755.121521
47.555401 37.911301 -764.728699
50.682899 41.548199 -757.295776
48.477600 38.383099 -764.341614
50.617802 42.608898 -756.869873
50.360401 43.282600 -756.138428
47.463200 38.559200 -765.711792
49.242298 39.119598 -764.392822
50.869598 43.515099 -757.111023
50.557899 44.174000 -756.441528
50.773701 45.087399 -756.180908
51.035400 44.395802 -757.419678
47.545601 39.384701 -767.446106
53.167099 47.083801 -752.590515
51.122898 45.350800 -757.298218
51.030201 45.960701 -756.525085
51.260101 44.898102 -758.193420
47.479599 39.746300 -768.543396
47.754700 40.320301 -767.833618
51.187698 46.293098 -757.432922
51.613201 45.812599 -758.245483
47.511101 40.672600 -768.873718
51.304298 47.230400 -757.453979
51.610901 46.823399 -758.249512
47.356899 40.893501 -770.078674
48.329300 41.103600 -769.071594
51.545700 48.145699 -757.498718
51.539398 47.319000 -759.260986
51.632000 47.852299 -758.453125
47.804199 40.972198 -771.410278
47.587502 41.599201 -770.698181
48.380402 41.564800 -770.165771
51.498001 48.784901 -758.443787
51.941299 48.223301 -759.550781
49.058601 42.069801 -770.948486
51.652000 49.737202 -758.354980
48.116402 41.614300 -772.927490
51.230598 48.369900 -761.212524
51.499199 48.800900 -760.414124
51.742599 49.247002 -759.612976
51.620300 50.222801 -759.360413
51.246399 49.544300 -761.205688
51.826900 49.877602 -760.322083
53.637402 51.095798 -757.316711
51.743000 49.025700 -762.195374
51.553299 51.160599 -759.349426
52.091000 51.470100 -758.530701
54.592899 51.852402 -756.198914
54.855701 52.306301 -755.375977
51.713902 50.814201 -760.277588
51.424900 51.721802 -760.301270
51.927101 50.998199 -761.503601
53.291698 52.782200 -758.034912
51.287899 51.799198 -761.408630
54.020500 52.451900 -758.551086
54.182098 53.051399 -757.596985
51.340401 52.619701 -760.814880
50.230000 51.561901 -763.540527
50.498699 51.992001 -762.748474
53.910801 53.557499 -758.498779
49.930302 44.011799 -775.075928
50.700802 53.196201 -761.692810
51.294201 53.569000 -760.753174
51.307701 51.882900 -763.582886
51.082298 52.778099 -762.488770
53.694901 53.868599 -759.587830
50.251900 53.649200 -762.723206
51.059101 54.082401 -761.547302
51.287800 53.844101 -762.706299
50.686199 54.580399 -762.639771
54.145302 55.006401 -759.635315
50.815899 55.344002 -762.072815
53.463902 55.605499 -760.375122
50.435799 55.117298 -763.589111
53.835602 56.194401 -759.722229
50.502701 55.827099 -762.927307
49.473499 55.286201 -765.620117
49.876801 55.947899 -764.415222
49.951099 56.520401 -763.560974
53.000401 56.634300 -761.310486
53.667900 56.926800 -760.442383
53.587502 57.827702 -759.949280
50.128700 55.907600 -765.341003
49.650200 56.798000 -764.762085
49.212200 57.627300 -764.643616
49.030201 57.198002 -765.827881
53.268902 57.708900 -762.243286
48.822399 58.085300 -765.491028
51.733501 57.874001 -763.826477
54.309601 58.426102 -761.314819
53.416000 58.658901 -762.099426
48.430199 58.202801 -766.683777
53.678299 59.498100 -761.344177
48.222900 59.017899 -766.255371
52.000500 58.282799 -764.764709
48.059299 58.627499 -767.453186
47.679001 59.400101 -767.070129
52.049900 59.186600 -764.464783
47.351101 59.189201 -767.958679
53.636299 59.533001 -763.309387
49.340199 60.190300 -765.639587
54.042801 60.137402 -762.602417
63.979401 55.700699 -762.268921
47.126999 60.084301 -767.705994
50.296600 60.169899 -765.490601
51.775398 60.091000 -764.624084
46.651100 59.945099 -768.585571
51.438202 59.985699 -765.911072
45.929298 60.534000 -769.239014
46.265202 60.954700 -768.421997
49.216599 60.934601 -766.498596
51.434799 60.966801 -764.986328
63.029301 58.019199 -761.486816
45.687199 61.465900 -769.086182
48.375000 61.502399 -767.263000
51.528599 60.917301 -766.013000
45.248299 61.269199 -770.106873
50.952702 62.203701 -765.031128
47.840199 62.304001 -767.383728
50.515499 61.366798 -766.955017
54.294701 62.418400 -762.980530
51.481499 61.862900 -765.943115
53.534100 63.443501 -762.351379
44.744400 61.620098 -770.928528
47.296101 62.270401 -768.330078
44.650600 62.367901 -770.223572
50.798302 60.977600 -768.166687
48.410000 63.259899 -766.489685
51.605000 61.161301 -767.681274
50.644501 62.862499 -765.891418
51.296600 61.933800 -766.991028
44.177898 62.133400 -771.550598
54.120201 63.131699 -763.623230
55.082401 63.062099 -763.227112
44.104198 62.995998 -771.133911
47.635899 63.415199 -768.218506
48.038502 63.841000 -767.345520
53.689098 63.252300 -764.481873
43.516602 62.644402 -772.390991
51.086498 62.855598 -767.138672
46.840099 63.739300 -768.948914
49.407001 63.449600 -767.689880
50.732399 63.616699 -766.587585
53.923801 64.674301 -762.997986
57.928600 61.811401 -764.775330
43.242802 63.546600 -772.228027
42.487099 63.434399 -773.327026
46.541698 63.978901 -769.925781
52.589802 64.912300 -764.679016
45.900101 64.107201 -771.045105
41.909698 63.930698 -774.192200
42.317501 64.406898 -773.247498
51.113499 63.005600 -769.583923
44.979099 64.585098 -771.586670
45.544102 65.337700 -770.145325
51.473400 63.565701 -768.865723
50.719601 64.215302 -768.420715
55.304001 64.843201 -764.950623
40.975300 64.663597 -774.966614
41.580299 64.894699 -774.245911
44.460400 65.448303 -772.190002
50.732300 64.331596 -769.769775
53.838799 66.519798 -764.628174
44.064800 65.955597 -773.034729
43.953899 66.918503 -773.008423
43.241001 66.638603 -774.484619
73.906197 61.001202 -763.591980
44.420601 67.812897 -773.386292
41.792301 68.362198 -775.321228
41.467499 69.134804 -774.403503
43.924702 68.907600 -773.825989
50.974998 67.112297 -773.269287
42.577900 69.798698 -774.937622
51.672798 68.295403 -771.368774
77.637398 62.141602 -763.904114
29.091400 69.980400 -789.964172
28.024799 69.091202 -792.287170
83.374603 64.245201 -765.232178
28.317900 69.984200 -791.074219
27.425200 69.779404 -792.545898
27.853001 70.283096 -791.839783
26.693600 70.259598 -792.936707
30.634100 72.140404 -789.432373
29.536200 71.991302 -790.893005
28.832701 72.175400 -791.845093
30.426600 72.419197 -790.510010
31.370600 72.247002 -790.197388
28.263599 72.097397 -793.163879
31.764400 73.474701 -788.963928
29.933901 73.367599 -790.952881
90.830200 65.752098 -767.391418
95.421600 66.623703 -764.177124
92.262703 66.148499 -767.483887
91.885902 67.380203 -765.840576
96.297501 67.418098 -763.164429
93.537697 67.347397 -765.469971
96.844704 67.948700 -762.598999
92.436897 66.715103 -768.355774
94.270302 67.090797 -766.994080
95.377602 66.993103 -766.745789
96.072197 67.659401 -765.552612
96.545898 68.466103 -764.805725
92.156601 67.365700 -769.538574
96.752197 67.717499 -766.291016
98.194504 67.582901 -766.385376
102.463097 66.159103 -766.065918
93.263000 68.367798 -768.459106
97.632103 67.082001 -767.875122
98.627197 67.081902 -768.016113
99.886200 67.967400 -766.187012
96.253502 70.048500 -766.518127
102.031601 67.322403 -768.929504
104.223396 68.137001 -767.937012
103.145103 69.458000 -769.375671
108.619102 67.507698 -770.019287
107.899399 67.792900 -769.418274
106.552101 67.216400 -770.143616
103.265297 68.956398 -768.551880
104.255402 67.936600 -768.933716
91.755798 69.640602 -766.285583
31.004000 73.418198 -790.480286
26.729500 71.867302 -793.358521
88.162102 65.639999 -765.923584
25.862700 70.340797 -794.360474
26.697599 70.321297 -793.880127
53.618301 69.129303 -770.828796
46.454498 66.369499 -770.165283
45.506699 64.878403 -772.350403
71.738998 59.240501 -763.246887
55.773399 65.330597 -764.189697
46.727001 64.565002 -771.107300
47.474899 64.759804 -768.326111
48.267502 62.289902 -768.224182
53.271702 61.043098 -763.252197
49.300598 61.149899 -765.339111
51.878201 58.891201 -765.618774
54.405300 57.502499 -760.297180
58.083099 51.968700 -760.481873
51.466202 40.409901 -751.681580
49.049500 50.489899 -736.929993
48.073399 35.990398 -760.221130
50.417999 35.141399 -749.092529
49.452301 35.213100 -748.993408
47.089298 30.128201 -749.118225
46.451500 28.641600 -751.422485
45.414398 27.101000 -751.953125
48.550999 25.415400 -745.653015
46.654900 21.833900 -748.153381
48.319099 22.825701 -744.362000
