123.022598 45.805500 -792.935120
119.860397 41.711102 -804.774597
126.893303 50.821899 -784.694885
120.245796 42.660900 -801.437073
118.575699 40.423698 -809.382813
125.746696 49.797501 -786.601624
119.073196 41.508301 -806.126221
123.721001 47.763802 -789.669495
122.718697 46.568802 -791.627014
121.266296 44.743500 -796.487122
120.765503 44.128399 -797.854126
117.430000 39.770802 -812.607910
124.442398 49.125000 -787.008179
121.716904 45.813202 -793.751221
120.026199 43.701599 -799.187988
119.080498 42.513699 -802.380493
118.158600 41.271801 -807.332275
117.454201 40.353298 -810.446777
126.406097 52.014702 -783.141296
125.391701 50.810902 -785.060120
123.538200 48.631199 -788.121582
121.032997 45.559101 -795.071716
119.101196 43.192902 -800.370178
118.415604 42.286598 -803.737122
117.371696 40.919102 -808.580811
122.235703 47.716801 -789.989502
121.366203 46.655201 -792.395203
117.668198 42.035000 -805.068420
116.358299 40.313999 -811.508728
116.159599 40.013199 -813.405029
125.080704 51.758400 -783.806580
123.707603 50.183800 -785.336426
119.737099 45.378101 -795.851807
119.319298 44.860901 -797.238098
117.991600 43.226299 -801.422302
116.929901 41.849998 -806.437500
116.193398 40.910801 -809.541321
125.657303 53.182899 -781.794617
122.666000 49.707001 -786.416382
122.131203 49.066601 -787.709473
120.960800 47.655399 -790.787598
120.264999 46.782600 -793.456482
118.376801 44.505699 -798.423218
117.863403 43.889599 -799.699707
117.143204 42.978600 -802.651428
116.035400 41.557499 -807.677124
114.959702 40.101101 -814.452820
124.512497 52.615200 -782.601624
123.594002 51.558102 -783.801880
121.102898 48.625198 -788.713074
119.328796 46.440300 -794.619324
116.363297 42.807999 -803.997070
114.985298 41.034100 -810.512817
114.818001 40.790699 -812.006409
124.883400 53.826900 -780.229919
122.406998 50.939400 -784.487671
119.819702 47.809502 -791.803589
118.369202 46.060699 -795.752319
117.829201 45.414398 -797.103088
116.737801 44.072399 -800.737122
115.523003 42.558102 -805.304016
114.818001 41.653500 -808.607788
114.037903 40.609600 -813.348572
123.977402 53.445599 -781.458191
121.354599 50.411499 -785.530029
120.835297 49.792099 -786.824829
119.938499 48.698399 -789.687927
118.991898 47.530499 -793.060913
116.904602 45.040901 -798.259827
115.855698 43.745899 -802.021973
114.802200 42.413200 -806.639099
113.362198 40.524101 -814.708374
122.690903 52.654202 -782.281677
121.864403 51.713001 -783.226074
119.879700 49.360199 -788.027527
116.176102 44.874500 -799.581726
115.111298 43.568501 -803.351929
113.688797 41.777802 -809.637207
113.541496 41.561600 -811.129822
123.866501 54.708401 -779.443298
120.923302 51.310101 -784.380127
118.857101 48.822399 -790.772583
117.776398 47.525002 -794.009216
117.171600 46.819698 -795.225830
114.335899 43.379601 -804.744385
113.695503 42.572899 -807.744629
112.693497 41.311100 -812.434387
122.779701 54.154999 -780.372192
119.916298 50.841499 -785.717224
118.008499 48.543800 -791.995972
116.298203 46.522499 -796.463318
115.057602 45.025101 -800.642273
114.494400 44.355999 -802.216187
113.580200 43.227798 -806.046326
121.586700 53.543201 -781.090576
120.773399 52.623199 -782.030579
118.948898 50.472301 -786.865479
118.599998 50.040798 -788.426575
115.602997 46.460899 -797.837219
115.172798 45.945900 -799.222473
113.698502 44.193298 -803.584717
112.404099 42.617901 -808.569885
112.036598 42.169300 -810.024109
122.506500 55.308399 -778.326172
119.861504 52.264301 -783.299500
117.827904 49.843399 -789.771606
116.744003 48.563099 -792.889282
116.213402 47.942402 -794.218018
112.951698 44.050400 -804.888184
112.357903 43.337200 -806.985474
111.257500 42.001099 -811.343323
121.439102 54.719799 -779.294678
118.999901 51.905300 -784.491821
117.016998 49.551899 -791.007019
115.414703 47.670200 -795.576172
113.764999 45.708500 -801.124695
120.352402 54.155499 -780.190186
118.108002 51.550201 -785.700317
117.638901 50.987499 -787.506775
114.656303 47.468399 -796.870605
114.290199 47.027000 -798.364014
113.863701 46.522400 -799.748413
112.901100 45.396599 -802.414917
111.193802 43.376202 -807.993225
110.850098 42.960300 -809.446228
121.054703 55.637699 -777.829895
119.290398 53.619499 -781.190430
118.771103 53.015400 -782.555786
116.846100 50.741901 -788.847229
115.822601 49.539200 -791.968811
115.415100 49.051899 -793.525330
112.156303 45.215599 -803.723816
111.608101 44.573700 -805.313416
120.051399 55.109200 -778.862610
116.039200 50.432499 -790.116272
114.675400 48.819302 -794.832520
110.897598 44.382900 -806.674683
117.664703 52.958500 -783.636719
116.847801 51.994499 -786.483582
112.656898 47.062801 -800.537415
119.583702 55.779800 -777.572876
118.691399 54.758598 -779.539917
116.892303 52.665199 -784.921814
116.052498 51.679798 -787.770020
113.671501 48.882301 -795.999573
113.246498 48.385399 -797.367126
112.819603 47.886299 -798.741028
111.954803 46.866100 -801.905212
110.882896 45.634602 -804.462219
117.892998 54.420399 -780.783081
117.450996 53.906700 -782.178223
115.325401 51.431301 -789.072876
114.835197 50.853100 -790.980774
114.439796 50.388802 -792.432922
114.010803 49.890202 -793.781616
111.093399 46.495300 -803.134521
110.141403 45.395599 -805.832825
118.122597 55.845299 -777.915283
116.341301 53.797401 -783.279480
115.608597 52.949402 -785.759583
113.051399 49.979000 -794.971008
111.702499 48.415901 -799.647522
111.340202 47.993099 -801.044678
117.254898 55.246700 -779.059570
115.058800 52.709301 -787.165405
112.429398 49.680099 -796.381226
112.029297 49.217899 -797.852600
109.995102 46.889999 -804.111084
114.134201 51.995602 -789.833923
113.561203 51.342602 -791.615173
110.546501 47.884899 -802.344482
116.542900 55.141300 -780.391113
116.144699 54.686798 -781.803101
115.390503 53.826099 -784.459412
113.008003 51.104000 -793.083618
117.422897 56.514801 -776.338318
114.164497 52.805801 -788.396973
108.983299 46.939201 -805.241577
110.926598 49.483501 -798.926392
116.635696 56.191700 -777.600281
112.079201 51.072601 -794.307312
110.449203 49.240601 -800.362000
109.392899 48.061798 -803.379822
115.065300 54.681900 -782.874512
114.431000 53.968899 -785.675415
111.494102 50.691101 -795.705505
111.049004 50.195599 -797.057678
115.818604 55.780399 -778.881226
112.983498 52.616901 -790.570984
109.684998 48.952499 -801.627930
113.762703 53.800400 -787.044617
112.364502 52.253201 -791.957092
115.099197 55.594299 -780.205627
108.332397 48.140400 -804.446411
107.901100 47.665001 -806.078979
114.118698 54.889301 -784.033875
112.949600 53.608200 -788.793030
111.579002 52.108101 -793.337280
115.358902 56.720699 -776.516785
114.420502 55.698399 -781.629028
110.853302 51.813900 -794.780823
109.878601 50.752701 -797.845215
109.553299 50.398399 -799.330994
108.624603 49.387100 -802.649719
114.720001 56.504700 -777.938599
113.312202 54.980400 -785.320679
110.131599 51.531502 -796.122192
109.013901 50.320202 -800.733826
112.521599 54.597198 -787.424072
111.866699 53.889702 -789.834595
111.440102 53.428600 -791.257507
107.554298 49.227699 -803.761780
114.114899 56.744499 -779.299927
113.416603 55.996300 -782.739197
106.781799 48.856098 -805.054993
113.619598 56.642200 -780.750183
112.866203 55.837502 -784.168579
110.591499 53.400600 -792.559082
110.130203 52.905300 -793.983093
107.744202 50.344799 -801.690186
113.942703 57.423500 -776.616089
112.143402 55.515202 -786.181030
111.499603 54.827599 -788.586304
109.396103 52.575298 -795.253174
108.796997 51.931999 -796.755127
108.447899 51.560001 -798.230530
108.119102 51.210098 -799.715515
106.718002 50.165699 -802.839783
113.345802 57.671101 -778.015686
110.660500 54.827801 -789.893127
110.240097 54.380100 -791.316284
112.913101 57.667099 -779.511292
112.510101 57.243500 -781.595276
112.196098 56.912201 -783.033020
111.719498 56.407902 -784.996704
111.133400 55.787201 -787.317017
106.965103 51.353500 -800.757996
109.352600 54.344299 -792.545593
108.861099 53.820900 -793.863770
108.114899 53.026501 -795.902588
113.178398 58.785000 -776.221985
110.313599 55.773998 -788.578308
107.434303 52.720402 -797.285400
107.041100 52.305500 -798.752319
110.673302 56.723900 -786.114685
109.391800 55.374802 -790.545715
112.617401 59.015900 -777.647888
111.802200 58.158798 -780.433899
111.085999 57.415501 -783.953613
111.297203 57.900600 -782.223572
107.553596 53.971500 -794.620483
111.992599 58.914902 -779.074890
109.874199 56.710400 -787.414673
109.103897 56.267300 -789.331726
108.254700 55.374802 -791.595886
107.770302 54.867100 -793.011230
106.670998 53.711700 -795.931519
110.105003 57.678902 -785.106995
106.059097 53.447300 -797.314880
112.038696 60.022400 -776.468323
105.655998 53.391701 -798.858398
111.032997 59.341400 -780.956421
110.370499 58.651600 -783.221619
111.562103 60.289799 -777.931213
109.119202 57.745098 -786.308289
108.543297 57.141602 -787.957214
107.868698 56.438900 -790.263916
106.460503 54.957500 -793.746582
111.088501 60.250999 -779.360291
106.892601 55.851299 -792.154785
105.632500 54.519901 -794.930115
110.205803 59.808601 -782.132629
109.402702 58.963902 -784.348877
107.419197 57.358799 -788.971924
110.320503 60.838299 -780.552673
108.550400 58.976501 -785.596924
107.962601 58.357201 -787.138977
106.582100 56.904400 -790.969971
110.629799 61.586498 -778.261292
109.170403 60.056499 -783.293518
105.554703 56.243999 -792.786682
109.444901 61.108299 -781.835327
110.014801 62.111599 -779.569580
108.234100 60.237499 -784.483887
106.767303 58.690498 -788.046997
106.122704 58.009800 -789.492798
107.360802 59.772701 -786.137390
105.232002 57.525501 -791.181824
108.378502 61.301800 -782.974915
109.194000 62.567200 -780.818604
106.216698 59.835602 -787.178101
108.308296 62.533100 -782.032593
107.352303 61.519402 -784.081970
105.400299 59.450199 -788.439392
104.959198 58.984299 -789.848572
104.151199 58.129200 -792.032471
106.578400 61.206402 -785.435303
107.212700 62.780300 -783.121094
105.001198 54.185398 -796.345520
110.674004 43.455700 -811.018311
111.956200 41.462601 -813.746582
104.892998 60.736500 -787.660889
106.060600 62.500900 -784.817871
114.608803 44.683800 -795.665283
149.128693 35.825901 -723.408875
148.730606 35.177700 -724.781982
148.479599 34.646900 -726.542297
148.362701 34.305302 -728.051880
147.661301 34.112499 -729.391785
147.126297 34.061901 -730.837585
147.079407 33.797401 -732.379883
148.018295 36.841400 -722.759827
147.607101 36.181702 -724.131470
147.473999 35.823601 -725.639221
147.167694 35.276798 -727.068176
146.647598 33.758400 -733.835999
146.707306 35.047001 -728.507629
146.326004 33.686001 -735.336975
146.176407 35.055099 -729.936584
145.925201 33.844002 -736.819824
145.961899 34.982101 -731.496826
145.792007 34.841599 -733.016602
145.716400 34.044800 -738.341187
146.715393 37.334202 -723.380615
146.367096 36.747700 -724.793213
146.161697 36.315399 -726.275879
145.720993 35.922001 -727.687622
145.455307 34.722198 -734.492188
144.950302 34.621399 -735.924500
145.185806 35.999699 -729.167419
144.942093 34.367401 -739.626770
144.878799 35.737499 -730.715881
146.272903 35.620399 -743.944580
144.708099 35.605598 -732.292175
144.583298 34.797798 -737.476501
145.337601 37.706200 -723.878479
145.225601 37.355301 -725.624573
146.065506 35.773102 -745.480530
144.738998 36.993301 -727.064697
144.344894 35.693901 -733.746582
144.328598 34.758900 -740.942017
144.480103 35.181900 -742.489197
144.164200 37.071098 -728.516296
143.805695 35.819401 -735.217224
143.662903 35.228199 -738.621887
144.561096 35.571499 -743.988708
145.358597 36.125500 -746.778076
143.659393 36.834801 -729.950195
143.495804 36.459000 -731.469177
143.403107 35.699402 -736.694824
144.095993 38.557598 -724.363892
143.916794 38.166698 -725.875610
143.274307 36.552200 -733.010986
143.129395 35.507999 -740.093079
143.818802 35.631001 -745.388000
143.532196 38.118301 -727.394592
142.806000 35.540901 -741.630127
142.972794 35.543499 -743.138977
144.086899 36.243698 -747.683777
143.093002 38.133202 -728.885498
142.560394 36.858101 -734.379211
142.412796 36.285400 -737.692688
143.709305 36.344002 -749.171387
143.028000 39.248001 -725.197388
142.484802 38.017200 -730.271729
142.164505 37.477798 -731.733215
142.117798 36.925900 -735.832825
141.931900 36.314201 -739.132874
142.123398 35.886600 -744.417786
142.669693 36.294998 -746.125977
142.567795 39.256302 -726.707275
141.732605 37.519901 -733.257019
141.354706 36.201801 -740.606384
141.445602 36.122601 -742.102417
142.495193 36.638401 -747.594971
143.068893 36.942799 -750.411621
142.130402 39.251202 -728.185181
141.310699 37.253399 -737.062927
141.611298 39.172699 -729.674805
141.376999 38.728500 -731.169983
140.978394 37.876499 -734.509583
140.807007 37.193901 -738.562683
140.593002 36.377499 -743.326416
140.887497 36.496101 -745.083679
142.063400 37.354900 -748.918579
142.476700 37.485001 -751.687317
141.526505 40.294102 -725.513611
140.850296 38.669601 -732.666199
140.270798 37.124599 -740.058777
140.115494 36.765301 -741.587585
140.927200 37.080101 -746.524292
141.119705 40.322399 -727.027222
140.177094 38.207100 -735.769287
141.382095 37.814499 -750.196289
140.593704 40.196400 -728.445374
140.425003 39.771702 -730.393372
140.027298 38.896000 -733.947083
139.740997 38.178398 -737.226074
139.285294 36.984402 -742.874023
139.494995 37.034401 -744.405212
140.460007 37.694099 -747.899292
141.063004 37.866001 -752.070801
139.923203 39.623798 -731.874817
139.282593 38.081402 -738.728210
139.557098 37.533298 -745.841919
138.935806 38.110001 -740.267395
139.907303 38.116299 -749.314575
139.890503 41.354900 -726.839478
139.703598 40.826599 -729.526123
139.007004 39.399300 -734.980103
138.489594 38.013401 -741.772827
139.198395 38.160099 -747.211121
139.797302 38.393398 -750.886230
139.973999 38.329102 -753.091309
139.319397 40.676399 -730.988220
138.979797 40.062599 -732.976318
138.603302 39.234299 -736.438721
138.038803 37.805199 -743.220703
138.271805 37.884499 -744.760498
138.339005 39.196800 -737.929321
139.130600 41.715099 -728.109314
138.026093 39.168800 -739.448486
138.089294 38.459499 -746.187683
138.604996 38.766300 -748.513916
138.241104 40.503201 -734.276428
137.621704 39.047501 -740.928589
138.464401 38.940601 -750.048706
138.640106 38.941700 -751.746704
139.115601 39.211800 -754.017029
138.725403 42.011902 -729.596375
138.424805 41.401001 -732.020874
137.881302 40.372898 -735.733582
137.274506 38.939301 -742.392090
137.592300 40.345699 -737.243896
136.931198 38.857399 -743.883484
137.563293 39.162998 -747.414307
138.884399 39.724499 -755.478394
137.191696 40.218498 -738.738220
136.872696 39.116402 -745.374329
137.987396 39.495899 -753.045288
137.828903 42.272999 -730.836426
137.552795 41.692799 -733.273926
136.805206 40.085499 -740.198486
137.273300 39.642399 -748.820618
137.419693 39.569000 -750.934875
137.695801 42.820999 -728.800171
137.159195 41.559700 -734.747620
136.478394 40.025902 -741.697083
137.860001 40.140598 -754.447083
136.794693 41.489799 -736.285095
136.001205 39.835800 -743.201172
136.372101 39.861599 -746.669800
137.018906 42.695000 -732.126221
136.428101 41.403000 -737.836304
135.833298 39.977299 -744.708313
136.684204 40.096401 -752.135498
137.620697 40.724400 -755.845886
136.978104 43.327202 -730.069214
135.913696 41.116402 -739.318115
136.219498 40.476799 -748.123474
136.345200 40.439098 -749.718628
136.411102 42.694801 -733.591003
135.827499 41.237099 -740.891785
136.611298 40.707199 -753.518677
136.106598 42.576401 -735.084229
135.391907 40.981899 -742.343323
135.651001 42.293800 -736.864197
135.136795 40.732399 -745.874329
135.810593 40.908298 -751.067505
136.538406 41.287498 -754.957825
136.121399 43.843399 -731.244629
134.849106 41.055000 -743.814209
136.561798 41.560699 -756.516174
135.085403 42.348999 -738.343079
135.193893 42.291698 -739.966187
134.964493 41.228901 -747.360229
135.132401 41.249802 -748.869385
135.468307 41.214298 -752.596130
135.527893 43.866798 -732.700928
135.016098 42.339699 -741.512573
139.273895 44.972801 -760.600586
139.861496 45.482300 -761.894470
135.564194 44.590000 -729.927979
135.110397 43.622299 -734.220703
134.903000 43.228500 -735.736816
135.341599 41.723301 -754.091003
134.487701 42.351398 -742.964905
134.130707 41.741001 -744.963928
134.750595 41.854401 -750.269104
134.511505 43.387901 -737.197327
135.270004 42.258900 -755.497314
135.698105 42.534500 -757.335205
139.085800 45.618401 -763.485779
135.096405 45.064999 -731.362183
134.396606 43.454498 -739.165771
133.993805 42.231300 -746.416992
134.082199 42.134800 -748.225281
134.404999 42.112701 -751.754822
134.165604 43.389400 -740.661804
136.573196 44.027100 -759.594788
134.512497 44.829399 -733.309814
134.153595 42.320000 -753.275696
135.255203 42.956001 -758.750793
137.966904 45.340000 -764.496521
134.110001 44.451099 -734.989380
133.616302 42.951500 -744.037109
136.690994 44.512600 -761.383972
133.695007 43.490299 -742.148926
133.699295 42.707401 -749.609070
134.058899 42.879101 -754.672913
134.453796 43.130600 -756.412598
136.767593 44.968201 -763.157410
134.257294 45.904099 -732.287415
133.574997 44.717800 -736.384399
133.460007 44.426498 -737.935791
133.001999 43.130001 -745.399475
132.997406 42.912899 -747.398071
133.204407 44.465900 -739.474426
133.143204 43.171398 -751.018005
134.202103 43.606400 -757.888916
134.594604 43.834000 -759.811584
136.305801 45.201698 -764.663086
134.001694 46.725498 -730.898315
133.478394 45.856098 -733.669312
132.863907 44.404598 -740.981079
132.724701 44.009701 -743.260620
132.994293 43.319500 -752.560486
134.741592 44.317001 -761.269226
135.282303 44.761600 -762.681824
132.906998 45.598801 -735.096130
132.412003 43.611198 -748.664917
132.805801 43.466900 -754.088013
133.208206 43.744999 -755.629395
134.365005 48.188202 -730.742676
132.451996 45.398800 -737.201294
132.104095 44.216702 -744.703613
132.006607 43.944302 -746.254578
134.907806 45.224998 -764.117310
133.573898 47.564999 -732.113220
132.069305 45.222198 -738.649719
132.039597 43.976398 -750.120972
132.879700 44.163700 -757.068115
133.203003 44.337399 -758.780396
133.332596 44.292400 -760.550476
134.987701 45.575699 -765.593323
131.712997 44.850399 -741.880493
132.050903 44.196999 -751.633484
133.625504 44.819099 -762.164429
132.809097 47.325401 -733.489319
132.301102 46.489201 -736.157410
131.758606 45.482498 -740.094421
131.421005 44.319099 -747.683105
131.909897 44.285599 -753.137024
131.381699 45.181400 -743.372986
131.730804 44.391899 -754.650513
133.469498 45.368301 -763.601379
134.070206 49.853199 -730.670288
132.379395 47.558899 -734.943604
131.792206 46.621399 -737.791870
131.157394 45.131699 -745.487976
130.945602 44.527000 -749.100891
133.212296 49.176899 -731.866821
130.905701 44.711899 -750.808472
131.589905 44.925400 -756.055481
131.804092 44.987000 -757.750000
132.050705 45.084202 -759.442505
132.198700 45.065498 -761.212524
133.380402 45.967400 -765.060913
131.364899 46.754398 -739.321777
131.068405 46.237301 -741.224670
133.615204 46.471001 -766.547729
132.551300 48.997799 -733.312195
131.870895 47.952599 -736.317627
130.703400 45.622799 -746.855774
130.846695 45.245899 -752.212280
132.050507 45.514900 -762.746521
130.632507 46.366001 -742.712891
130.573196 46.147800 -744.269775
130.631699 45.276501 -753.775513
133.179398 50.888599 -731.309326
131.927704 49.188099 -734.689819
131.327896 48.234798 -737.723877
130.301193 46.077801 -748.281311
130.162506 45.776402 -749.808289
130.288101 45.382301 -755.238220
131.113602 45.776199 -760.442383
131.695602 46.044201 -764.208679
132.463196 50.725399 -732.678406
130.779800 48.249699 -739.168518
130.474304 47.771999 -740.637085
130.060104 46.839600 -745.529175
129.627594 45.806099 -751.250122
130.294006 46.001801 -756.677429
130.622299 46.213200 -758.180420
130.774597 46.015301 -761.893921
131.782700 46.753201 -765.598999
132.394104 47.294899 -766.885986
131.334000 49.759998 -736.001221
129.884094 47.581600 -742.090271
129.694199 47.226601 -743.601013
129.744995 46.943501 -747.060120
129.315506 45.915901 -752.771484
131.688095 50.600498 -734.020630
129.453598 46.195099 -754.289795
130.459396 46.509998 -763.326477
130.168793 46.702099 -759.535828
130.816299 49.877300 -737.410095
129.457596 47.308998 -748.589783
129.303406 46.994202 -750.099976
129.011398 46.531101 -755.752502
129.831100 46.924000 -761.015686
130.318207 47.100300 -764.739014
130.176407 49.758400 -738.791687
129.857803 49.272701 -740.241028
129.065506 47.977699 -744.768127
128.811401 47.060501 -751.530579
129.269608 47.028599 -757.176575
130.625595 47.659000 -766.213623
130.846893 51.110100 -735.208923
128.990997 48.044102 -746.306519
130.990601 48.251499 -767.558289
129.266602 49.056900 -741.648376
128.944397 48.569801 -743.104980
128.384995 47.026600 -753.196106
129.269608 47.139702 -762.466187
129.030396 47.537399 -758.613281
130.283401 51.130501 -736.661499
128.632599 48.321400 -747.817200
128.001205 47.014500 -754.672729
128.580505 48.300098 -749.397278
128.942307 47.756199 -760.102112
129.062607 47.547901 -763.974304
128.395096 48.454899 -750.954285
127.973999 47.556198 -756.187683
129.100006 48.018501 -765.403198
129.554398 51.184898 -737.980774
129.148407 50.616402 -739.493591
128.207199 49.195599 -744.257813
128.051407 48.353298 -752.443176
128.305298 47.883202 -761.554993
129.487793 48.750801 -766.748108
128.610901 50.206501 -740.941528
127.923897 49.066200 -745.788574
127.924400 48.114201 -757.660583
128.329498 49.917301 -742.470825
127.455002 48.194698 -753.883179
129.787399 52.352200 -735.755310
127.820503 48.414200 -759.214600
127.819099 48.121300 -763.049072
127.551903 49.328602 -747.236816
127.692299 49.365601 -748.807678
127.979599 48.509602 -764.531982
126.915001 48.424500 -755.319580
128.863907 52.329300 -736.957275
128.594604 51.894402 -738.924377
127.362000 49.735500 -750.294983
127.318703 49.580399 -751.808594
126.607498 48.443699 -756.836609
127.186996 48.812500 -760.578796
127.886398 49.201099 -765.889526
128.509903 49.785999 -767.272705
128.000504 51.613998 -740.366516
127.678902 51.162300 -741.799500
127.301498 50.643200 -743.322327
127.133698 50.355999 -744.809509
126.991699 49.608002 -753.329285
126.670303 48.908600 -758.327087
126.839401 48.832199 -762.087402
126.707802 50.240299 -746.291321
126.767197 49.128101 -763.611877
126.600304 50.418098 -747.835876
126.431000 50.570599 -749.401917
126.207497 49.989399 -754.625488
125.944603 49.607101 -756.091797
126.060898 49.505100 -759.649414
126.516502 49.656700 -765.037720
127.280899 50.391399 -766.619324
127.482498 52.885201 -739.350830
126.209000 50.764900 -750.926819
126.201401 50.661201 -752.444824
125.350899 49.410801 -757.539429
125.843903 49.723099 -761.155823
127.111298 52.739300 -740.891907
126.722298 52.228901 -742.300293
126.487602 51.883999 -743.760620
126.186501 51.467602 -745.204102
125.515900 49.679901 -762.671997
125.629799 51.330200 -746.691711
125.384102 50.188099 -764.118530
126.015404 50.795502 -765.881714
125.520500 51.384998 -748.286377
125.487099 51.087799 -753.718323
124.720901 50.000401 -758.790222
125.190300 50.973801 -755.230286
124.980003 50.674400 -756.691772
125.202904 51.658401 -749.814880
125.232101 51.603401 -751.731323
124.565201 50.477402 -760.304199
126.303497 53.759201 -741.685486
125.937698 53.293499 -743.081787
125.646896 52.909199 -744.505920
124.309799 50.660000 -761.820679
125.033401 52.701000 -745.936523
124.183899 51.250198 -757.862122
124.108597 50.931400 -763.323120
124.444298 51.239300 -764.754211
124.608398 52.744999 -747.452820
124.260498 52.141300 -752.780029
124.251503 52.065300 -754.376282
124.118202 51.853600 -755.944519
123.522903 51.062599 -759.225281
124.223000 52.930099 -748.979797
123.938797 52.559898 -750.410828
123.078201 51.197300 -760.723999
124.766502 54.415001 -744.456909
124.605003 54.175499 -746.010986
123.265099 52.259102 -757.152893
122.832100 51.580299 -762.246216
123.212799 51.925400 -764.081482
124.149803 54.314499 -747.486206
123.263397 53.176899 -751.646118
123.177498 53.012501 -753.420410
122.973396 52.727299 -754.969177
122.674103 52.255600 -758.590271
123.639999 54.319698 -748.935303
122.205498 52.320400 -760.044495
123.100304 54.272598 -750.380981
122.403900 53.292900 -756.273926
121.718201 52.349201 -761.501221
121.816002 52.401501 -762.999084
122.463303 54.107700 -752.559998
121.912102 53.321098 -757.790100
122.548500 55.064201 -745.284424
122.312302 54.754799 -746.814026
121.991699 54.166100 -753.984680
121.623596 53.588699 -759.241882
122.031601 55.076000 -748.288574
122.355003 55.338902 -751.143005
121.558601 54.328400 -755.498108
121.073898 53.631302 -760.726807
120.834396 53.320099 -762.264282
122.468903 56.302799 -744.325928
122.739700 56.455200 -749.046509
123.447197 57.193501 -750.209900
123.327599 57.016201 -751.737915
122.591400 56.177799 -752.830078
122.153297 55.657001 -754.198181
121.144798 54.470901 -756.932922
122.484596 56.818600 -745.805176
122.604401 56.906399 -747.317200
120.810898 54.627399 -758.480225
123.244698 58.306000 -744.580505
122.955299 57.880798 -748.500793
123.071701 57.882999 -752.990417
122.470901 57.192799 -754.207397
121.464996 56.056702 -755.546387
120.570999 54.957001 -759.964417
119.864899 54.096100 -763.181091
123.147499 58.789101 -746.025696
123.187599 58.729599 -749.818420
123.224701 58.727798 -751.370911
121.102699 56.257599 -756.993774
120.029800 54.966400 -761.382629
121.955704 57.803799 -755.517578
120.544800 56.186600 -758.433411
122.725304 59.404099 -747.392517
122.785896 59.335098 -752.701111
122.423401 58.902500 -754.150330
121.417297 57.731701 -757.012390
123.406601 60.666100 -748.118774
120.935204 57.718300 -758.478516
120.376404 57.076000 -759.824707
119.833099 56.452599 -761.088318
119.368599 55.912300 -762.471191
122.684700 60.360500 -749.490784
122.739601 60.384998 -751.034973
121.845299 59.307701 -755.506287
122.227303 60.829498 -752.373779
121.944504 60.492298 -753.829590
121.105003 59.518299 -756.794128
120.595802 59.259800 -758.193298
120.039597 58.630001 -759.527588
119.435600 57.950001 -760.770020
118.895302 57.338699 -762.033875
122.268700 61.830299 -749.672180
121.325897 60.721802 -755.209595
121.969101 61.799702 -751.198975
121.439003 61.857700 -753.146973
120.445602 60.964500 -756.489319
118.404900 58.708199 -761.642700
119.797401 60.516800 -757.853027
119.276497 59.942902 -759.181274
120.690598 62.095600 -754.517700
118.380600 60.012199 -760.454102
119.748100 62.394901 -755.805603
119.397697 62.016602 -757.238525
118.824097 61.395802 -758.641174
140.537796 38.822399 -754.446716
141.811005 38.093700 -753.401672
137.920593 44.623402 -759.925781
138.150803 45.094200 -761.991028
128.556000 53.374100 -738.357117
129.214294 52.581001 -740.447876
127.165001 54.175098 -742.854675
128.153397 51.776199 -745.495972
123.106102 60.354099 -746.236206
62.406898 41.303902 -873.363098
61.155102 41.960701 -874.104309
62.149502 42.417702 -871.872681
61.074600 43.074001 -872.872925
59.758801 42.861099 -873.885315
61.580002 43.424702 -870.883118
60.616100 44.206799 -871.741821
59.415100 44.157700 -872.744812
60.991100 44.666698 -869.704590
58.039600 44.355400 -873.385315
60.157101 45.395302 -870.741272
58.977100 45.221100 -871.663879
60.648499 46.040699 -868.731079
57.637299 45.531502 -872.299011
56.578800 45.119900 -873.338928
59.507301 46.644901 -869.700623
58.335602 46.397900 -870.807617
60.269600 47.029900 -867.367004
56.271099 46.195202 -872.283813
55.182201 45.759899 -873.320923
59.358299 47.614899 -868.536194
58.193100 47.450401 -869.718079
56.840599 46.934799 -871.061279
59.971699 48.517700 -866.508423
54.837601 46.793098 -872.110596
53.871899 46.507702 -873.252625
58.783901 48.894798 -867.527405
57.800900 48.576500 -868.622925
56.681599 48.152000 -869.730530
55.558899 47.730400 -870.850830
53.523201 47.530499 -871.944824
52.582401 47.370499 -873.312195
59.232201 49.752102 -865.382019
58.288101 49.998001 -866.586487
57.281399 49.662800 -867.675720
56.050201 49.100800 -868.666321
54.945599 48.696701 -869.779785
53.632198 48.529701 -870.586182
52.517700 48.668900 -871.615601
51.476700 48.333698 -872.760925
58.671398 50.948799 -864.302185
57.739700 51.219700 -865.448120
56.569500 50.803799 -866.637817
55.488899 50.368301 -867.621521
54.281502 49.835098 -868.617126
53.104000 49.899799 -869.602417
50.103901 49.053398 -873.128723
51.865398 49.977798 -870.616089
50.893501 49.702801 -871.753113
58.189499 52.396702 -863.235596
56.417900 52.020100 -865.577515
55.181702 51.409801 -866.442688
54.077999 50.962200 -867.430420
57.044601 52.569000 -864.251099
52.831299 50.983200 -868.288818
48.768398 49.799500 -872.947388
51.614601 51.083900 -869.224670
50.624599 50.844601 -870.466125
49.601501 50.533600 -871.607910
55.221001 52.876499 -865.221680
53.912800 52.212700 -866.089478
56.964001 53.829300 -862.591125
56.049801 53.625599 -863.767822
52.500900 52.092300 -866.699707
51.594799 51.915798 -867.921814
48.178200 50.962200 -871.895325
47.130299 50.592602 -872.944275
50.387199 52.130402 -868.850586
49.523899 51.998901 -870.091492
54.487499 53.962200 -864.004517
53.328602 53.523300 -865.088623
47.172199 52.129002 -872.900085
56.287998 54.873100 -861.155212
55.426399 54.815701 -862.545898
52.001999 53.544899 -865.793823
50.849400 53.124001 -866.902100
48.104599 52.513302 -870.396729
49.599201 53.317001 -867.846680
48.734200 53.239399 -869.195984
46.749500 52.589600 -871.262085
45.598099 52.146400 -872.316528
53.955399 55.296600 -862.936279
52.722198 54.699501 -863.795593
55.488899 56.010601 -860.235413
54.693699 55.959499 -861.516785
51.384201 54.735500 -864.645325
50.155701 54.204102 -865.638428
47.216000 53.646801 -869.573120
49.102299 54.596401 -866.745422
48.155701 54.402000 -867.980530
45.854401 53.706299 -870.496277
44.746700 53.298500 -871.547913
60.671398 60.550301 -857.904907
53.219700 56.423401 -861.950500
52.040600 55.919899 -862.917114
59.018902 59.984600 -858.076111
54.777302 57.195599 -859.414978
53.873001 57.055401 -860.692322
50.607399 55.766499 -863.596802
49.617901 55.477100 -864.697693
46.653702 54.794800 -868.398499
56.604198 59.055302 -858.687012
48.399300 55.716599 -865.763611
47.532299 55.585098 -866.994873
45.350700 54.931198 -869.387573
44.314999 54.578899 -870.431885
59.391201 61.259899 -856.862976
52.511299 57.650398 -861.020508
51.506599 57.337101 -862.095886
42.919800 54.579102 -871.109619
54.419601 58.891800 -858.660706
53.228500 58.417099 -859.706787
50.010799 57.215302 -862.708313
48.794498 56.692799 -863.693726
46.008400 56.048199 -867.159424
41.675201 54.838600 -872.096313
57.886700 61.387199 -856.570984
56.213001 60.354698 -857.237671
47.553600 56.847900 -864.692017
44.807301 56.202000 -868.073730
43.786701 55.912800 -869.223022
54.796700 60.065399 -857.805603
51.733200 58.666801 -860.090515
50.735199 58.411999 -861.271973
46.158100 56.776100 -865.672974
42.396900 55.664001 -869.794800
53.006500 59.686600 -858.836426
48.723499 58.036098 -862.684387
41.111000 55.717098 -870.857910
56.161598 61.605598 -856.271423
47.180500 57.787498 -863.544922
44.870300 57.284100 -866.453186
43.438999 56.877300 -868.049072
54.712502 61.183800 -856.653320
49.252499 59.006802 -861.372620
45.951698 57.845001 -864.559082
53.303501 60.921398 -857.322815
51.620098 60.303200 -858.887329
50.466801 59.822399 -859.835815
41.787998 56.969700 -868.623474
47.802898 59.251900 -861.918823
44.690399 58.313599 -865.242188
43.495499 57.990799 -866.598816
40.496899 56.995399 -869.604004
55.458401 62.829800 -855.216187
46.462101 59.126900 -862.666992
42.189800 57.972801 -867.502014
54.036201 62.564301 -855.879822
51.883202 61.508301 -857.294128
49.001400 60.441700 -859.929688
45.172298 59.122398 -863.641479
50.503601 61.322102 -858.211304
47.628101 60.173599 -860.658813
43.334702 58.976101 -865.419983
40.573799 57.956001 -867.946411
39.424900 58.020302 -869.082520
55.062901 63.883400 -853.823120
52.380699 62.780998 -856.042786
49.125500 61.499802 -858.858276
46.179501 60.305500 -861.331787
45.042000 59.860100 -862.320618
43.863602 59.751598 -864.102112
41.976101 59.196301 -866.137512
53.702702 63.813999 -854.750488
50.963799 62.376202 -856.345581
47.740200 61.339100 -859.631226
49.757401 62.444698 -857.375122
42.420300 59.956799 -864.576721
40.522202 59.453800 -866.742310
39.334202 58.943199 -867.676270
46.241901 61.370499 -860.107605
43.741699 60.609299 -862.749207
54.478100 64.851601 -852.645874
52.166000 64.048203 -854.874573
47.947201 62.334900 -858.408325
44.921200 61.080299 -860.887573
53.257198 64.763802 -853.609314
41.105301 60.495701 -865.206787
50.665901 64.077904 -855.453186
49.414001 63.361401 -856.049927
46.453999 62.343899 -858.914673
42.336800 61.122799 -863.316772
39.117001 60.051399 -866.509277
48.164501 63.380100 -856.977722
45.025600 62.235901 -859.868591
43.432499 61.583199 -861.181274
51.738998 65.201599 -853.556274
46.771999 63.192299 -857.694214
41.016998 61.550999 -863.964478
39.675800 60.966400 -864.991577
52.562500 65.845398 -852.291626
50.310799 64.999901 -854.302612
42.161499 62.084301 -861.891113
48.961800 64.840797 -854.943909
45.285900 63.455700 -858.209412
43.677399 62.942299 -859.837585
38.380299 61.474098 -865.677185
47.550098 64.638901 -855.624817
46.398499 64.168503 -856.567017
42.308601 62.752800 -860.459778
40.856998 62.594200 -862.579895
39.644001 62.109600 -863.595520
51.111698 66.358200 -852.110291
49.968800 65.877899 -853.012878
43.993301 64.246696 -858.403870
40.982300 63.155499 -861.143188
38.231400 62.412998 -864.189697
48.654701 66.278603 -853.628784
47.482498 65.736198 -854.440918
44.941898 64.768204 -856.644714
42.245499 63.965599 -859.463074
39.388000 63.017601 -862.242188
49.740299 66.901001 -851.780823
46.106602 65.694702 -855.299377
43.592800 65.219704 -857.156982
40.728901 64.094101 -859.544617
39.670898 63.839199 -860.768677
38.007999 63.434502 -862.683777
36.919498 63.063900 -863.713013
48.237000 67.117302 -852.249878
47.053101 66.672096 -853.273987
44.615700 65.796402 -855.469116
42.222599 65.140800 -858.056274
45.771301 66.649300 -854.127319
38.269501 64.211304 -861.401001
42.949299 65.824600 -855.863770
40.696301 65.300499 -858.479187
39.302601 64.729500 -859.576904
36.619900 64.023399 -862.518127
47.235298 67.730797 -851.075073
46.235699 67.547302 -852.330505
44.244499 66.885300 -854.210022
41.625900 66.059998 -856.776428
37.930500 65.074997 -860.210022
36.777599 64.864601 -861.275024
39.229000 65.532303 -858.235718
48.179001 68.288002 -849.232117
44.873001 67.639801 -853.062073
42.890598 66.952904 -854.856995
49.883701 68.897003 -848.026978
51.547298 69.224503 -847.522217
52.995098 69.472504 -846.813782
53.666401 70.203903 -845.672302
49.734299 67.836502 -849.129517
48.948700 67.521896 -850.543518
51.234200 68.174400 -848.578125
52.629700 70.776497 -844.033081
51.989601 70.888000 -845.390930
50.901001 70.417397 -846.431030
46.645500 67.911003 -849.216492
45.741299 67.961098 -850.927917
49.292400 70.491302 -846.600098
48.128300 69.762901 -847.295593
47.029800 69.229301 -848.249329
44.338402 68.342003 -851.399414
43.459702 68.174797 -852.664917
41.439602 67.406601 -854.831421
40.261799 66.831802 -855.848999
50.636398 71.702202 -843.335388
49.915901 71.719597 -844.687988
45.459099 69.462402 -848.443115
44.451000 69.083900 -849.549988
41.993301 68.498199 -852.905823
48.383598 71.916397 -844.781311
47.297600 71.428802 -845.832092
46.200901 70.815399 -846.656311
43.031898 69.560898 -850.052124
42.051102 69.273003 -851.299683
40.524601 68.854897 -853.300171
39.437901 68.411400 -854.438721
48.895100 72.455200 -842.230225
44.713402 70.897202 -846.955505
43.601700 70.331100 -847.913208
40.637402 69.542900 -851.883972
47.585201 72.782501 -842.997620
46.711498 72.566803 -844.211609
45.667198 72.111702 -845.274170
42.219398 70.508202 -848.585327
41.396999 70.372398 -849.859924
39.269901 69.730202 -852.585083
44.221298 71.964798 -845.919189
43.160599 71.436096 -846.878906
40.019001 70.358002 -850.678528
47.284401 72.947701 -841.423828
52.954601 68.446800 -847.974976
55.473499 68.780998 -846.148193
54.498798 68.517799 -847.361572
35.698898 63.176300 -864.678223
34.683399 62.976299 -865.801208
33.727200 62.551102 -866.905823
32.504501 62.282200 -868.195190
37.032398 62.161499 -865.403992
35.912498 61.974300 -866.541321
34.758900 61.592701 -867.546082
33.673698 61.340099 -868.585327
37.327702 60.982700 -866.744812
36.155300 60.700802 -867.838928
35.047199 60.540600 -868.964417
56.515999 63.639301 -853.301514
57.976601 62.882000 -854.258789
59.092701 62.134899 -855.188171
58.163399 58.888302 -858.802917
41.300800 53.952801 -873.348572
40.164398 55.054501 -872.562378
39.671101 56.307598 -871.088928
38.237900 56.807999 -871.551880
38.453602 57.677101 -870.280579
37.153500 57.903500 -871.059998
38.235802 58.925400 -868.725220
54.114201 67.452103 -848.357971
35.486099 64.148399 -863.518982
34.348499 63.922501 -864.557007
35.472401 64.985397 -862.133728
32.922699 64.400497 -864.442627
34.067699 65.216797 -862.643494
37.844601 66.133797 -858.360779
36.740898 66.028603 -859.403015
35.625401 65.867500 -860.440979
32.573101 65.229401 -863.226990
38.914501 66.755203 -856.625916
34.228901 66.190102 -861.020386
36.509102 66.797699 -858.090027
35.433300 66.826103 -859.142578
32.719002 66.149902 -861.593811
31.272699 66.008698 -862.959778
38.569401 67.697304 -855.485229
37.414200 67.265404 -856.489380
34.037399 66.983597 -859.691711
32.654800 67.050301 -860.303284
31.353300 66.782402 -861.494385
35.958302 67.825897 -856.606873
34.808701 67.885399 -857.738525
29.988199 67.013298 -862.182495
38.040600 68.980400 -854.255798
36.880501 68.480103 -855.247925
33.395500 67.979301 -858.495300
31.346001 67.654999 -859.844727
34.685001 68.660896 -856.360779
30.059299 67.820198 -860.630127
31.872499 68.328499 -858.582825
37.827702 69.889099 -852.976929
36.605499 69.454498 -854.050171
35.450199 68.958199 -855.042725
33.281898 68.814796 -857.108887
28.708300 67.806999 -861.285278
30.441200 68.553398 -859.007080
38.576698 70.693298 -851.255676
40.836800 71.202003 -848.608582
36.401199 70.417702 -852.719788
35.186401 69.986298 -853.791687
34.016899 69.373703 -854.774292
31.861799 69.239197 -856.833313
28.981400 68.765800 -859.512024
45.234200 72.900002 -844.000122
41.670300 71.598503 -847.139893
39.473099 71.542198 -849.261719
37.133999 71.105698 -851.426575
32.672901 69.781303 -855.432678
30.479500 69.416603 -857.473877
46.110600 73.182899 -842.463501
43.829700 72.963898 -844.628601
42.733398 72.586098 -845.601318
38.091801 71.755203 -849.911316
29.082100 69.517799 -858.121826
40.254799 72.076897 -847.294800
35.637501 71.480202 -851.645386
34.568802 70.902901 -852.543274
33.432301 70.435204 -853.534424
31.155001 69.990303 -855.642883
27.691799 69.370796 -858.863281
41.263599 72.771599 -845.923828
36.634998 71.971497 -850.238525
45.975498 73.751999 -840.966675
44.680599 73.637199 -842.202576
42.415001 73.452904 -844.369507
38.794998 72.246300 -847.606812
31.953899 70.447899 -853.843323
29.668200 70.372902 -856.056702
43.298500 73.702797 -842.843811
39.769199 73.050499 -846.133484
37.445999 72.529602 -848.276672
35.180901 72.430702 -850.466614
34.020599 72.220200 -851.549011
32.917500 71.426598 -852.432312
28.285200 70.431999 -856.716125
40.926300 73.824303 -844.460205
36.034199 72.666801 -848.960388
30.513800 71.001602 -853.950684
44.631500 73.976799 -840.212585
43.535702 74.173203 -841.331482
41.851700 74.110397 -842.961975
38.331299 73.488800 -846.250671
31.389999 71.322701 -852.505371
29.184799 71.190903 -854.628296
39.405201 73.992599 -844.809998
37.005699 73.423798 -847.016174
34.643101 73.160202 -849.260193
33.491501 72.977997 -850.341125
32.363800 72.481201 -851.322083
27.843000 71.117104 -855.407715
26.670099 70.908203 -856.502686
42.054100 74.556900 -841.390381
40.380600 74.562698 -843.023987
35.515202 73.490898 -847.512512
29.927200 71.802002 -852.557678
43.189400 74.595802 -839.757385
37.885601 74.315201 -844.858826
30.853701 72.433998 -851.262085
28.597000 71.987000 -853.354370
38.903301 74.671799 -843.465088
36.527699 74.239098 -845.675720
33.296700 73.525299 -848.652710
32.131599 73.268898 -849.726318
27.232901 71.984802 -854.191711
26.115200 71.635902 -855.197327
40.513901 74.880302 -841.530823
41.713001 75.024002 -839.970581
35.078602 74.354797 -846.270508
33.982800 73.989502 -847.251282
37.441399 75.088097 -843.622375
30.593000 73.231903 -849.853271
29.335899 72.486702 -850.902283
28.238800 72.660896 -852.010925
38.983501 75.223396 -841.596130
36.091499 75.054298 -844.371582
31.886900 73.710999 -848.150574
26.874001 72.643898 -852.781128
25.776699 72.387703 -853.789429
24.654200 72.016998 -854.795471
43.494202 77.112602 -837.110413
42.389000 76.407997 -838.022888
40.301498 75.531998 -839.852417
41.070400 76.121300 -838.682800
37.513199 75.630402 -842.037476
34.580101 75.151901 -844.786377
33.430500 74.929703 -845.856018
32.334900 74.560402 -846.838501
38.817902 75.903999 -840.184814
36.174500 75.745201 -842.728516
30.420700 74.113098 -847.966675
29.305401 73.681602 -848.955322
28.245001 73.130699 -849.862427
27.134199 73.218300 -850.967285
43.384102 77.843803 -835.453613
42.179298 77.628799 -836.581787
25.767099 73.211899 -851.602478
24.598301 72.989700 -852.693726
23.434799 72.804703 -853.788513
40.817902 77.161400 -837.034912
39.734299 76.679703 -837.983398
37.296501 76.194801 -840.256775
34.651798 76.005203 -842.801514
33.520000 75.867203 -843.877319
32.376999 75.665298 -844.949219
31.286699 75.308502 -845.933411
38.306099 76.624001 -838.653320
35.867401 76.155197 -840.933777
29.840099 75.201302 -846.617920
28.710400 74.650398 -847.596375
27.695801 73.873001 -848.409424
26.544500 73.715599 -849.500916
41.868999 78.487701 -834.944092
25.167101 73.842102 -850.244873
24.001900 73.620903 -851.336182
22.872200 73.590797 -852.437378
40.518501 78.031403 -835.560791
39.427502 77.436996 -836.493774
36.824600 76.823303 -838.906982
34.396999 76.431900 -841.199829
33.295700 76.486900 -842.294189
32.155602 76.279404 -843.365479
31.018101 76.102699 -844.441528
38.095600 77.235603 -837.241577
29.687000 76.005798 -845.218384
35.368000 76.870300 -839.401489
28.356300 75.595596 -846.003174
27.211800 74.952003 -846.979919
26.110901 74.139099 -847.874512
24.821800 74.153702 -848.743286
23.725700 74.292397 -849.854004
22.606800 74.303497 -850.957703
21.461000 74.176102 -852.056030
36.617100 77.345901 -837.469604
39.429401 77.795502 -834.480408
38.210499 77.489304 -835.609314
33.875301 76.982002 -839.757080
32.767300 76.986603 -840.847778
31.622000 76.732903 -841.916321
30.510099 76.717598 -843.006470
35.140999 77.331100 -837.951111
29.095400 76.646400 -843.734070
26.878300 75.732101 -845.705383
25.724701 75.053802 -846.685303
27.813700 76.335098 -844.479004
23.569300 74.878304 -848.318481
22.367701 74.886101 -849.500122
21.129299 74.701698 -850.674377
19.950199 74.420601 -851.768921
36.647999 77.510696 -835.655518
33.613800 77.433899 -838.248474
32.504299 77.438004 -839.338928
31.302500 77.346603 -840.498779
30.162100 77.139503 -841.572571
24.236601 74.557503 -846.816772
37.402500 77.614304 -834.265991
35.256302 77.567200 -836.363403
28.802200 77.026299 -842.269287
25.406500 75.724403 -845.316223
20.913099 75.413002 -849.354980
27.445999 76.647102 -843.009277
26.281200 76.339798 -844.084778
22.215200 75.473602 -847.883972
19.705000 75.335999 -850.315430
33.717098 77.665100 -836.599304
35.852798 77.633301 -834.275574
31.034700 77.823097 -839.020081
29.824301 77.676201 -840.170898
23.870300 75.334801 -845.489685
22.773800 75.036797 -846.497314
32.276901 77.781197 -837.589172
34.533401 77.691803 -835.026611
28.480700 77.671799 -840.887329
27.167700 77.498703 -841.739014
25.987600 77.101196 -842.797729
24.801600 76.210999 -843.760620
20.834299 76.031898 -847.558777
19.726900 76.124100 -848.648193
32.317299 77.913498 -836.012817
30.744801 78.045097 -837.559021
29.568300 78.154701 -838.718018
22.432600 75.053802 -844.977417
33.056301 77.913902 -834.702515
28.162300 78.154099 -839.479675
23.229200 76.245399 -843.855225
26.744400 78.043900 -840.206482
25.591200 77.783302 -841.268677
24.473400 77.271599 -842.245117
30.983200 78.359497 -835.443176
29.419100 78.501900 -836.989014
21.707899 76.505501 -844.055115
31.966000 78.465897 -833.581909
27.970900 78.728996 -837.518127
26.850000 78.626503 -838.586121
22.964899 77.610497 -842.151184
30.515900 78.769302 -833.989929
29.416800 78.809601 -835.068481
25.384600 78.750198 -838.982117
24.244600 78.530197 -840.046387
21.475700 77.600601 -842.548828
27.927500 78.937599 -835.514404
26.762899 79.054001 -836.675171
22.742901 78.550499 -840.491882
25.335699 79.146400 -837.171997
23.988400 79.077904 -838.474915
21.283400 78.438599 -840.985291
26.481701 79.158897 -835.173218
22.537901 79.061302 -839.014893
23.819599 79.401001 -836.983887
24.905800 79.416702 -835.739624
24.191999 71.457100 -856.149414
24.410200 70.640297 -857.419128
24.107800 69.891602 -858.697815
26.127501 70.297203 -857.845276
25.572100 69.454002 -859.005676
25.834801 68.636497 -860.280029
27.583099 68.605202 -860.249817
52.475201 67.293701 -848.899719
57.073299 62.407101 -855.362671
40.232601 53.632301 -874.433228
39.061100 53.644901 -875.401978
39.220001 54.496601 -873.716370
37.874199 54.862999 -874.386414
38.737099 55.672100 -872.402405
37.377701 55.830200 -873.052673
36.814899 56.877201 -872.126709
36.998699 58.697102 -869.620728
35.660900 58.007599 -871.478394
37.770302 59.822102 -867.603394
35.582001 58.966400 -870.226685
32.904099 63.427898 -865.595703
32.046799 63.072399 -866.842285
31.048800 62.718498 -868.331787
30.037701 63.003201 -869.429199
28.973801 63.128899 -870.623779
31.586700 64.180702 -865.198975
30.742901 63.896099 -866.466980
29.911100 63.679199 -867.757813
28.821501 63.688499 -868.796997
27.815100 63.985298 -869.916077
30.737400 65.307404 -864.193970
29.893400 65.009201 -865.448914
29.052999 64.731796 -866.710876
27.994900 64.481102 -867.777588
29.357000 65.944099 -864.263489
28.443001 65.507599 -865.534485
27.272600 65.381203 -866.464111
28.760000 66.687698 -863.064392
27.841600 66.244102 -864.328918
26.497499 66.093399 -865.075073
27.487900 67.389503 -862.199829
26.609100 66.910698 -863.376404
25.201300 66.704399 -864.023071
25.977200 67.833603 -861.545410
24.529800 67.665001 -862.075073
23.645300 67.147202 -863.245300
24.085800 68.985100 -859.970520
23.196199 68.377403 -861.107727
22.588100 69.167099 -859.815979
22.716600 70.251198 -858.251404
23.004999 71.058800 -856.995178
21.394100 69.883698 -859.026978
20.363701 70.316704 -860.058594
19.309000 70.345596 -861.231628
23.140200 72.086601 -855.168091
21.554800 71.263199 -857.385681
20.435301 70.944000 -858.399109
18.020399 70.593102 -862.114380
21.948601 71.912300 -856.068909
19.063400 71.166801 -859.124878
18.161900 71.127403 -860.398682
21.988400 72.842903 -854.240784
20.472099 72.130898 -856.256714
19.550501 71.753899 -857.493103
16.886900 71.389198 -861.210388
20.515699 72.960098 -854.590271
18.100300 72.022400 -857.862122
17.193899 71.815498 -859.117798
19.245501 72.720398 -855.624329
20.574100 73.597397 -853.173523
17.841801 72.628899 -856.252014
19.207899 73.453003 -853.832703
16.722799 72.471703 -857.244019
15.818500 72.125603 -858.487183
18.031300 73.107300 -854.807373
18.635300 74.117401 -852.585083
16.653200 73.257103 -855.406311
17.431400 73.968597 -853.491272
18.466400 74.992599 -851.124023
17.191700 74.754501 -852.033630
18.440701 75.702301 -849.380371
22.042601 79.242699 -837.557922
28.671900 79.246803 -833.809387
16.104601 74.089104 -854.255981
49.982101 62.769001 -859.103516
15.930800 71.886497 -860.151672
25.692499 66.743896 -866.267212
60.607899 47.873699 -869.377380
21.445900 74.067902 -846.429871
21.073900 78.896896 -839.528015
30.095699 77.664703 -844.598022
54.984901 60.262600 -859.516724
37.102501 78.670799 -836.856689
36.794800 78.446198 -838.898071
30.218800 79.630699 -832.762207
14.814500 80.106300 -835.733276
13.703200 79.558800 -836.717773
12.695100 78.746002 -837.548828
15.522900 80.897003 -833.860229
11.120800 78.116600 -837.641418
13.340500 80.136299 -835.241882
12.343100 79.362503 -836.069824
15.966000 81.416397 -832.275391
14.075000 81.029999 -833.336182
10.806500 78.920303 -836.127502
9.822800 77.873299 -836.886719
16.326000 82.315300 -830.634583
12.691500 80.553902 -833.849976
11.647400 79.957397 -834.755981
