127.500801 41.515701 -786.420898
126.377403 40.030701 -787.934021
125.791000 39.239300 -788.653503
123.397301 36.176701 -792.323792
122.806198 35.363998 -792.982971
122.258797 34.656898 -793.792725
121.691902 33.916302 -794.594971
121.126999 33.157501 -795.302917
120.588898 32.449100 -796.040283
120.067497 31.796499 -796.903015
119.507401 31.052099 -797.640076
118.941002 30.322201 -798.486023
118.356499 29.538200 -799.223694
117.812798 28.829300 -799.998718
115.482498 25.903601 -803.817078
131.982300 48.127201 -778.739929
131.351303 47.275101 -779.509888
130.776093 46.500198 -780.219177
129.259903 44.422699 -781.937927
128.686707 43.668800 -782.724976
128.227707 43.154301 -783.746582
124.913300 39.057201 -789.446777
124.389397 38.408501 -790.343811
123.873901 37.752998 -791.150513
116.865097 28.502001 -800.635376
115.911598 27.331699 -802.312073
114.690002 25.883900 -804.685974
129.816605 46.086601 -780.772705
126.865402 42.353001 -785.458618
126.338203 41.728199 -786.479126
125.761299 40.976700 -787.300781
125.208298 40.271400 -788.153625
122.973801 37.499401 -791.941284
122.429100 36.794601 -792.737671
121.844803 35.995701 -793.405579
121.289001 35.250900 -794.106079
120.601700 34.294201 -794.816895
120.026497 33.518799 -795.521729
119.458801 32.782799 -796.345886
118.911598 32.061798 -797.089478
118.376099 31.387800 -797.954407
117.812202 30.640699 -798.702881
117.242798 29.885900 -799.456726
115.960197 28.246300 -801.419373
115.102699 27.250299 -803.168701
114.069000 26.138399 -805.664612
131.017502 48.637199 -779.149902
130.265305 47.560299 -779.797729
128.885300 45.670200 -781.356628
128.172501 44.703499 -782.203186
127.613098 43.977299 -783.009277
124.391602 40.103901 -788.990112
123.865700 39.451801 -789.880981
123.344597 38.810200 -790.783325
116.457001 29.777300 -800.305603
114.281601 27.087000 -804.020508
129.321304 47.111401 -780.434509
126.491898 43.491699 -784.728577
125.804100 42.636902 -785.880615
125.250999 41.954102 -786.826904
124.786301 41.411701 -787.757813
122.521896 38.608898 -791.601013
121.989799 37.926899 -792.403320
121.430397 37.197102 -793.190979
120.922897 36.563400 -794.028687
120.307404 35.687901 -794.582275
119.741203 34.927898 -795.287720
119.150497 34.125999 -795.983704
118.463203 33.200401 -796.826721
117.894699 32.442902 -797.559570
117.333099 31.724100 -798.410278
116.806000 31.069099 -799.293274
115.627701 29.591200 -801.209473
115.123100 28.957800 -802.028015
114.609001 28.333200 -802.951477
113.617104 27.201099 -805.048584
113.182297 26.745100 -806.141724
127.706802 45.688702 -781.660828
126.519699 44.159500 -783.416870
123.980797 41.214199 -788.572327
116.009499 30.910500 -800.211914
113.873596 28.289700 -803.933716
128.176697 47.135201 -780.770081
126.827301 45.298401 -782.331116
125.381104 43.591801 -785.122070
124.879204 43.078899 -786.429321
124.360703 42.462601 -787.410278
123.139000 40.918598 -789.331726
122.609299 40.238201 -790.117371
122.093803 39.609699 -791.026794
120.977699 38.227100 -792.900574
119.847000 36.753201 -794.486816
119.277397 35.987499 -795.186829
118.737801 35.302299 -796.021484
118.133499 34.453899 -796.610718
117.521698 33.642899 -797.411499
116.994102 32.961498 -798.177979
116.443604 32.264900 -799.040100
115.198502 30.693199 -801.006470
114.668503 30.039700 -801.909302
114.164597 29.410200 -802.732727
113.143402 28.253099 -804.908386
125.589104 44.608398 -783.997986
123.505798 42.207100 -788.220581
121.245102 39.381500 -791.875305
120.108101 37.944401 -793.645386
115.638199 32.127602 -799.900574
113.447502 29.445499 -803.677673
126.884598 47.155800 -781.098572
126.270699 46.281399 -781.628906
125.677299 45.499199 -782.405029
124.689499 44.465698 -784.817017
124.271599 44.041000 -785.889587
123.808899 43.533699 -786.922729
122.643700 42.129601 -788.995789
122.069298 41.395802 -789.844482
121.546898 40.734699 -790.642578
120.402496 39.360001 -792.696777
119.157501 37.736801 -794.399170
118.577499 36.981300 -795.195374
118.021004 36.270599 -796.018372
117.427101 35.469898 -796.720276
116.873802 34.769299 -797.563477
116.298401 34.006500 -798.297180
115.760597 33.337601 -799.168213
114.752800 32.053299 -800.669373
114.274498 31.496201 -801.601074
113.729202 30.796801 -802.395325
112.642097 29.533701 -804.524780
124.841599 45.494202 -783.255676
122.890800 43.397301 -787.715576
120.613800 40.569401 -791.354187
119.409897 39.098801 -793.380127
114.859398 33.288300 -799.995728
113.024200 31.091400 -803.267517
125.100601 46.356300 -781.854980
124.118698 45.328300 -784.172729
123.723900 44.955700 -785.270325
123.268501 44.470798 -786.312012
122.042000 42.996601 -788.437927
121.527100 42.380100 -789.340210
120.968597 41.685101 -790.212097
119.823502 40.300800 -792.164978
118.529800 38.680199 -794.141479
118.000504 38.023899 -794.977295
117.465897 37.359798 -795.816772
116.896500 36.609402 -796.536682
116.347000 35.922501 -797.382202
115.774200 35.170300 -798.117371
115.252197 34.537102 -798.998474
114.050201 33.044601 -800.888428
113.553001 32.461601 -801.809814
114.428299 34.468899 -799.858826
124.062401 46.491402 -782.400574
122.166000 44.543598 -786.730286
121.637604 43.915699 -787.616028
119.883102 41.839802 -790.589417
119.374802 41.257198 -791.521606
118.823997 40.652699 -792.633118
118.326599 40.093300 -793.586487
117.639198 39.242298 -794.609192
117.142700 38.661301 -795.475586
116.631302 38.055199 -796.337891
116.083099 37.356701 -797.078979
115.522301 36.664799 -797.922424
114.941597 35.911800 -798.658508
113.694099 34.448799 -800.821716
123.283897 46.476398 -783.322876
122.886703 46.124199 -784.424011
122.409401 45.621101 -785.450317
120.777496 43.745098 -788.378174
120.262001 43.148399 -789.288208
114.357201 36.278900 -799.579407
113.889999 35.784401 -800.575989
121.568802 45.555401 -786.344116
121.082397 45.009201 -787.263794
119.404800 43.029099 -790.078613
118.881203 42.392799 -790.888916
118.420601 41.902599 -791.860718
117.979202 41.449100 -792.851929
117.488800 40.906502 -793.809387
116.971802 40.316601 -794.752686
116.118500 39.307201 -796.175720
115.577499 38.706100 -797.222595
114.863602 37.793301 -798.159424
122.253098 46.870899 -783.666077
121.960098 46.714699 -784.865784
120.260498 44.814999 -788.128479
119.770103 44.262402 -789.053284
121.223000 46.576000 -785.769104
117.212097 42.086498 -793.436523
120.456802 46.466702 -786.624573
119.969101 45.916401 -787.539307
118.824501 44.616100 -789.654419
118.252502 43.886002 -790.413818
117.800102 43.408100 -791.383118
117.405502 43.038200 -792.402527
120.810799 47.446602 -784.932007
119.206497 45.782700 -788.481201
116.895302 43.348202 -793.456421
120.184402 47.413200 -785.981323
117.642097 44.642200 -791.111877
116.643097 43.924301 -794.496399
119.505203 47.196800 -786.924316
118.315598 45.892200 -789.293884
117.875198 45.433201 -790.259521
116.994797 44.491199 -792.099976
118.825897 46.946301 -787.855286
116.664200 44.864399 -793.223572
117.191200 45.793201 -791.129822
116.208199 45.051399 -794.307922
117.844597 46.844601 -788.495178
117.357201 46.383598 -789.727783
116.616699 45.844299 -792.185974
134.007401 33.716000 -793.691528
135.122498 28.899200 -796.020081
162.750305 17.582600 -769.378479
162.272598 16.751301 -770.079773
161.867996 16.124599 -771.063782
161.446503 15.462100 -772.040894
163.416901 18.403799 -768.256409
164.125107 17.436701 -768.656311
163.728500 16.845100 -769.710571
163.274094 16.088499 -770.544373
112.661301 27.781300 -805.847595
112.608299 32.390800 -802.694519
113.048897 33.714600 -801.606628
114.219200 37.432598 -799.064880
116.299103 35.970699 -798.888977
131.207703 19.278900 -803.390320
116.137299 45.981701 -793.316223
119.701103 46.836700 -788.731323
135.701706 30.027100 -795.372375
128.445007 48.138401 -779.903687
129.413895 49.014099 -779.418213
131.673203 49.772301 -778.317017
132.648499 50.270302 -777.607422
141.764404 37.846802 -779.339417
150.230301 47.430801 -770.891724
150.694901 47.896099 -769.733215
151.635895 48.527000 -769.975586
152.980103 48.921398 -769.490723
157.919998 48.687801 -769.656982
141.488495 51.535599 -772.288574
121.482300 47.721001 -784.004517
116.007301 33.803200 -800.371826
117.289101 20.203199 -805.238586
135.826706 51.729301 -775.720703
134.794296 51.341400 -776.092224
118.581299 47.895901 -787.182373
143.601593 39.028999 -776.488220
12.584600 59.152500 -846.367310
11.093700 59.276199 -846.574524
11.791700 58.473400 -847.057922
9.697900 59.487999 -846.958130
10.429400 58.597500 -847.442322
11.169600 57.755600 -847.944580
9.221000 58.747700 -847.710022
9.870600 57.817902 -848.101501
10.689700 56.953800 -848.661072
14.486400 56.551498 -852.025024
15.305100 57.197498 -852.906921
10.723700 56.027100 -849.468628
14.431700 55.635502 -852.733215
8.168900 58.446301 -848.201782
8.730200 57.454399 -848.492981
9.476100 56.733501 -849.008972
10.628000 55.183701 -850.262512
13.188500 54.853298 -852.487488
14.518800 54.980598 -853.708191
9.292900 55.862499 -849.742798
7.342400 57.457901 -848.839905
8.073900 56.603199 -849.305298
13.290500 54.196400 -853.428772
14.775300 54.491501 -854.816223
9.261700 54.948101 -850.554077
10.097300 54.240002 -851.142029
11.916900 53.802101 -852.663574
7.931200 55.723099 -850.124695
10.693800 53.841801 -852.162720
13.338000 53.626999 -854.460876
6.293200 56.840401 -849.444214
11.926500 53.102001 -853.611328
13.926600 53.415199 -855.451721
5.234000 59.443699 -849.619202
6.679300 55.945499 -850.121216
7.875300 54.831100 -850.930786
8.625500 54.102600 -851.432129
9.465000 53.441601 -852.027100
10.430300 52.823601 -852.742920
5.283500 58.347301 -850.117981
10.926200 52.367699 -853.757507
11.843300 52.502102 -854.594604
12.722500 52.525799 -855.373901
3.658400 59.666801 -849.814026
4.473900 57.400700 -850.026917
5.008500 56.243301 -850.239380
5.745000 55.479900 -850.716797
6.488600 54.748798 -851.207581
7.233600 53.981098 -851.691528
7.986400 53.259102 -852.192383
8.829000 52.611599 -852.788818
9.686300 52.146801 -853.438599
16.706699 52.375801 -859.656799
3.720400 58.565300 -850.382202
4.483000 59.079399 -851.165100
10.095600 51.478600 -854.395020
10.969400 51.453300 -855.155518
11.883500 51.278999 -855.918213
12.676900 51.617199 -856.689087
17.077499 51.727600 -860.572083
3.824800 56.614498 -850.676697
4.363900 55.491600 -850.898010
5.101900 54.727100 -851.373474
5.919600 53.894600 -851.903687
6.745400 53.098701 -852.448975
7.581200 52.373501 -853.018982
8.430200 51.783001 -853.630371
15.594500 51.068901 -859.743286
17.602900 51.297401 -861.552673
2.453700 59.812599 -850.712585
3.267800 57.617100 -850.932495
8.943800 51.024399 -854.419189
10.870100 50.670101 -856.024475
11.770600 50.447800 -856.762329
16.213301 50.617401 -860.685974
2.741500 58.796700 -851.262024
9.508800 50.591599 -855.335327
14.975500 49.906200 -859.962280
16.820801 50.126400 -861.625671
17.729000 50.731400 -862.556091
2.796100 55.918400 -851.370178
3.258800 54.845100 -851.532776
3.996400 54.077202 -852.004272
4.738600 53.311501 -852.480408
5.478100 52.452301 -852.933105
6.323800 51.863602 -853.539429
7.169400 51.231899 -854.135986
9.970500 50.001400 -856.306396
11.557400 49.719501 -857.629517
15.418500 49.290199 -860.906677
18.146000 50.048801 -863.460571
1.531100 59.690399 -851.967712
2.210600 58.598202 -852.314209
7.305600 50.388599 -854.907288
8.175000 49.757900 -855.523193
10.253800 49.301601 -857.232971
13.737500 48.647598 -860.123413
15.573000 48.428501 -861.674377
17.190201 48.879002 -863.185974
18.448900 49.463501 -864.415222
1.826900 59.404499 -853.108215
2.102400 57.382999 -852.893127
2.327000 54.022598 -852.332520
3.068900 53.105099 -852.771606
3.894600 52.340302 -853.317871
4.630900 51.413101 -853.750122
5.486100 50.911201 -854.381287
8.339300 49.012199 -856.436707
10.468300 48.730301 -858.225891
11.344500 48.413200 -858.916992
13.779900 47.758400 -860.888794
15.626300 47.570999 -862.453186
16.571400 47.593498 -863.280701
18.728201 48.857399 -865.441895
5.534300 50.003601 -855.186707
6.388200 49.400299 -855.792175
8.573600 48.409401 -857.465881
11.440300 47.629902 -859.778381
12.331900 47.371498 -860.494080
13.765900 46.873001 -861.626526
14.667000 46.675800 -862.364075
15.581000 46.543400 -863.127625
17.625299 47.958099 -865.219482
18.906500 48.052299 -866.352478
1.013800 59.503899 -854.279907
1.145400 52.797600 -852.887024
1.975900 52.103802 -853.450195
2.720100 51.311600 -853.916687
3.472800 50.563099 -854.400208
4.332900 50.088699 -855.038330
6.592700 48.589500 -856.658203
7.420500 48.024700 -857.248108
8.880600 47.840801 -858.471008
9.772000 47.554100 -859.178406
12.480900 46.545601 -861.297180
15.732900 45.709202 -863.925171
19.017900 47.047298 -867.070313
1.384100 59.080002 -855.338623
4.536800 49.225101 -855.846924
5.390400 48.590698 -856.441772
7.709300 47.356400 -858.167786
10.030400 46.780201 -860.043823
10.897600 46.410599 -860.710022
12.742100 45.771400 -862.159790
13.619800 45.459900 -862.848206
14.516400 45.231300 -863.571472
17.850500 47.017601 -866.853699
-1.192500 52.602600 -852.454895
0.191600 51.729599 -853.451782
1.025700 51.041500 -854.016174
1.852400 50.226299 -854.545471
2.706400 49.675301 -855.157898
5.685300 47.909000 -857.328796
6.552700 47.403301 -857.963013
8.093500 46.738400 -859.141785
11.150500 45.640499 -861.530579
14.759300 44.406601 -864.364624
15.628800 44.072399 -865.039185
3.138200 48.908901 -856.048828
3.999500 48.387501 -856.672729
6.887100 46.557701 -858.745605
8.567000 46.193901 -860.109680
9.430100 45.794399 -860.762695
11.569500 44.905499 -862.404114
12.463500 44.638000 -863.113403
13.389400 44.162102 -863.803101
16.669100 45.714199 -866.977112
-2.235900 52.045200 -852.770508
-0.147700 50.815201 -854.287781
0.593300 49.981701 -854.736328
1.435500 49.303902 -855.307007
4.420300 47.619801 -857.492615
5.286500 47.101299 -858.120117
7.401200 45.907398 -859.668274
9.835800 45.082802 -861.575378
13.686600 44.747299 -864.811096
13.786900 43.414700 -864.595703
14.653000 43.047501 -865.257324
15.986900 41.057899 -865.953796
16.799500 40.357498 -866.494080
-1.867400 51.336899 -853.652283
1.812700 48.568199 -856.183411
2.681000 48.134499 -856.830383
5.589200 46.322102 -858.915771
7.797600 45.291302 -860.577820
8.677000 44.937599 -861.252502
10.215600 44.411598 -862.453918
11.091200 44.060200 -863.125916
11.963900 43.703201 -863.794189
14.756200 41.943298 -865.791870
17.191700 39.703098 -867.374329
-3.271500 51.590698 -853.276978
-0.832200 49.728001 -854.940613
0.012500 49.084599 -855.517212
2.988500 47.277000 -857.652527
3.849800 46.680099 -858.253601
5.827000 45.467499 -859.669678
6.689800 44.967300 -860.294189
9.072500 44.237301 -862.166809
12.333000 42.890598 -864.650208
13.154000 42.325699 -865.224182
15.177000 42.052200 -866.892822
15.685400 40.013802 -866.864624
-2.912200 50.785900 -854.147583
-2.087400 50.012100 -854.674927
0.295200 48.191399 -856.292297
1.170200 47.813499 -856.952271
4.153500 45.847500 -859.048889
7.095400 44.357800 -861.218384
7.970000 43.971901 -861.876404
9.469500 43.597401 -863.069702
10.326900 43.163601 -863.702209
11.199000 42.786999 -864.359985
12.686500 43.454800 -865.780273
13.494400 41.443401 -866.011475
14.295000 40.776600 -866.542480
16.897900 39.222401 -868.408386
-4.255800 51.331600 -853.868713
-1.629000 48.866901 -855.539673
1.506400 46.958698 -857.769592
2.377500 46.481602 -858.401123
4.501600 44.973701 -859.862915
5.374400 44.390202 -860.471619
11.620800 42.053101 -865.247192
15.416200 39.646400 -867.924377
17.390100 38.759102 -869.399719
-3.474600 50.068501 -854.895813
-2.729400 49.305000 -855.353821
-1.290800 47.958401 -856.266418
-0.431300 47.397099 -856.867126
2.738200 45.658901 -859.158020
5.832600 43.682899 -861.331116
6.755100 43.445900 -862.059082
7.632100 43.058399 -862.714294
8.569200 42.891701 -863.470703
9.953900 42.424000 -864.538025
12.058500 41.345001 -866.076416
13.121800 40.674198 -866.824829
14.059600 40.205299 -867.513123
-4.508300 50.580799 -854.706482
0.073400 46.778900 -857.716309
1.261800 46.131199 -858.574097
3.151500 44.828899 -859.876221
4.177500 44.066898 -860.570496
10.423500 41.651402 -865.305115
15.414300 39.086601 -868.943176
17.493000 38.286301 -870.519714
-2.817300 48.424400 -856.129272
4.723900 43.310600 -861.330505
8.359600 41.889301 -864.076904
10.929200 40.852001 -866.010620
11.954300 40.368801 -866.766113
14.203700 39.513699 -868.470825
16.062500 38.502102 -869.809814
-5.766800 50.837502 -854.669983
-4.583300 49.642700 -855.394409
-2.325800 47.488602 -856.804871
-1.477100 46.822399 -857.368225
1.291800 45.260201 -859.346008
5.328900 42.632000 -862.149170
6.274400 42.466702 -862.909119
7.183200 42.185001 -863.611206
8.988600 41.273701 -864.925415
12.581500 39.755901 -867.608704
17.763800 37.662498 -871.500916
-4.238200 48.721298 -856.046814
-1.013400 46.141602 -858.171326
-0.138900 45.706699 -858.808228
1.754300 44.501202 -860.126526
2.620200 43.864201 -860.709717
3.489300 43.222000 -861.294373
9.449100 40.559601 -865.704102
10.880600 39.921600 -866.763672
14.277700 38.712299 -869.348022
16.140699 37.714600 -870.688477
-5.705400 50.168800 -855.681030
-3.813900 47.878700 -856.747375
3.939100 42.443802 -862.026306
5.228100 41.783600 -862.960022
7.202400 41.443600 -864.544128
11.421800 39.250599 -867.592773
12.584800 38.966801 -868.506714
14.812700 38.030201 -870.167419
17.917999 37.190201 -872.588989
-5.290200 49.195400 -856.247925
-3.299300 46.956402 -857.405579
-2.543900 46.212502 -857.869080
-0.102200 44.762402 -859.587585
5.895500 41.476700 -863.872925
7.848300 40.763401 -865.350281
9.397000 39.562199 -866.375427
16.370800 37.173100 -871.687927
-2.025200 45.472698 -858.647705
0.413800 43.908100 -860.330078
1.289000 43.416801 -860.950073
2.162300 42.871101 -861.555908
3.899500 41.491299 -862.692871
9.964800 38.957600 -867.190979
12.788300 38.240601 -869.392029
13.670100 37.897400 -870.051575
15.014300 37.295898 -871.039307
-7.050100 49.986301 -856.168274
-5.497200 48.458099 -857.111084
-4.785900 47.419201 -857.464294
-1.567300 44.730202 -859.529114
2.448700 41.862801 -862.218384
4.203000 40.625099 -863.396484
5.891900 40.894001 -864.869385
7.788200 39.977100 -866.240479
10.460300 38.295700 -868.082397
11.384200 38.095901 -868.807678
16.512800 36.860500 -872.804504
17.456200 36.838902 -873.587280
-6.558600 49.321098 -857.073730
-4.568800 46.445801 -858.065613
-3.729700 45.724602 -858.597778
-1.241000 43.893299 -860.247925
0.030800 43.186199 -861.144104
0.896600 42.555401 -861.719482
2.777600 40.867298 -862.896179
4.773800 40.151798 -864.394287
6.363100 40.337898 -865.762512
8.157000 39.052299 -866.959900
8.929400 38.266701 -867.421570
13.531300 37.228500 -871.017212
15.020800 36.884201 -872.179077
18.042400 36.501099 -874.609375
-3.266700 44.908501 -859.318176
1.278700 41.574402 -862.325378
3.175700 39.998100 -863.537476
9.505700 37.549801 -868.236023
10.442400 37.387501 -868.977722
11.397200 37.312500 -869.754883
12.348400 37.240898 -870.529785
-6.618400 48.415100 -857.810913
-2.682000 44.134499 -860.081177
1.613700 40.592602 -862.822327
3.798200 39.515900 -864.385376
5.092400 39.776501 -865.521118
6.475800 39.576199 -866.623413
13.802000 36.784801 -872.056702
15.320500 36.591400 -873.272827
16.231300 36.416500 -873.988525
-5.601300 45.924301 -858.507324
-4.746200 45.372601 -859.087219
-1.707900 43.263302 -861.112427
-0.847200 42.631599 -861.678101
0.008200 41.886101 -862.212830
7.076800 38.923599 -867.379822
7.850200 38.156300 -867.841370
16.980400 36.105202 -874.931213
17.886400 35.938301 -875.643311
0.411400 40.768501 -862.629395
1.752000 39.656898 -863.479370
2.541800 38.941002 -863.965820
9.241300 36.727901 -868.998901
10.161300 36.504299 -869.708984
11.121400 36.453899 -870.492920
12.167100 36.414799 -871.350525
14.223700 36.259102 -873.018616
-4.298700 44.588402 -859.907104
3.793800 38.714600 -865.229187
5.297500 39.228298 -866.596924
8.271400 37.370899 -868.623596
-3.669200 43.882401 -860.636719
0.552200 39.725700 -863.147705
12.707400 35.972599 -872.324219
14.745600 35.780800 -873.966614
15.772400 35.753201 -874.810181
18.098000 35.448601 -876.663879
-6.331300 45.558899 -859.338806
-5.497200 44.864498 -859.863586
-3.096500 43.211800 -861.456421
-2.244400 42.565102 -862.007385
-1.488200 41.717800 -862.431519
-0.813900 40.815899 -862.775024
1.038400 38.806400 -863.829529
1.817700 37.943401 -864.268921
2.746200 38.123299 -865.079529
5.577100 38.558701 -867.523621
6.533100 38.142300 -868.215271
9.143100 35.925201 -869.846985
10.177600 35.812599 -870.675720
11.101100 35.626301 -871.395081
13.343300 35.494701 -873.217896
16.440599 35.472000 -875.773621
-4.947100 44.051201 -860.699524
-0.776100 39.633202 -863.094177
3.338500 37.619202 -866.013794
7.009900 37.374802 -868.987976
7.794900 36.657700 -869.465881
11.658100 35.181400 -872.305725
-4.438500 43.349400 -861.526123
-0.525700 38.644199 -863.634583
0.253400 37.853699 -864.089294
1.038900 37.085499 -864.554504
1.963000 37.150200 -865.332520
4.453900 37.815800 -867.546021
9.071200 35.090199 -870.706970
9.989700 34.870098 -871.412476
12.202500 34.571201 -873.167175
13.159600 34.561699 -873.954529
14.101800 34.509102 -874.719421
14.886000 34.928799 -875.466370
16.491899 34.832901 -876.768494
17.448200 34.934200 -877.581726
-7.402600 45.034199 -860.096497
-6.566400 44.389301 -860.631775
-3.933100 42.674500 -862.392273
-3.178900 41.895901 -862.828125
-2.528100 40.824299 -863.108887
-2.053300 39.555401 -863.197815
2.500500 36.697300 -866.268127
3.422200 36.821800 -867.056885
5.012800 37.247700 -868.468384
5.901200 36.903099 -869.118225
7.661900 35.838001 -870.314697
10.559400 34.365002 -872.350586
15.445100 34.443001 -876.393494
-6.231300 43.624802 -861.474670
-2.064300 38.436199 -863.666016
-0.969500 37.438301 -864.328674
-0.284100 36.476101 -864.663208
0.607200 35.987701 -865.279724
1.533400 36.042801 -866.054077
3.939500 36.602200 -868.164978
6.434400 36.856499 -870.276184
7.953700 34.905102 -871.060974
8.858500 34.283100 -871.656921
11.018100 34.089500 -873.385925
11.953700 33.972301 -874.127075
12.889600 33.873402 -874.872925
13.820500 33.769402 -875.613281
15.943500 34.035198 -877.421570
17.349701 34.660000 -878.726013
-8.227700 44.439301 -860.843872
-7.377700 43.915501 -861.416504
-5.898700 43.065300 -862.427490
-5.046700 42.505501 -862.993225
-4.302600 41.654999 -863.401672
-3.250200 38.594799 -863.538818
-0.389700 35.395500 -865.125183
1.977900 35.630100 -867.122009
2.896600 35.635601 -867.876526
4.255700 35.876099 -869.047913
5.169800 35.921398 -869.808105
6.060700 35.578999 -870.457275
9.162600 33.492500 -872.505676
14.251800 33.542999 -876.690125
16.329901 34.036301 -878.510925
-7.054300 43.145401 -862.331299
-3.267400 37.532902 -864.102905
-2.493100 36.723301 -864.544922
-1.801800 35.867199 -864.908081
-0.021300 34.798801 -866.112427
0.913900 34.931301 -866.908875
6.386500 34.848099 -871.366821
7.290400 34.223999 -871.958923
9.533700 32.924000 -873.486877
10.348800 33.358898 -874.256714
11.317000 33.367500 -875.050903
12.201700 33.414299 -875.785828
14.636000 33.464500 -877.789429
16.684299 34.267300 -879.655090
-8.739400 43.846401 -861.814026
-6.572700 42.505901 -863.268677
-5.751400 41.648499 -863.737671
-4.444100 37.922699 -863.927185
-1.840400 34.746300 -865.305786
1.429600 34.454102 -867.909729
2.349900 34.426201 -868.655273
3.190600 34.832802 -869.438293
4.119500 34.910999 -870.216003
5.093300 34.848499 -870.997192
7.695000 33.554699 -872.818481
12.719800 33.261002 -876.856323
15.118700 33.597099 -878.896423
-5.465900 40.538399 -864.140503
-3.739600 36.589401 -864.615173
-2.904900 35.465599 -865.030579
-1.331500 33.887299 -865.941284
-0.046000 34.122200 -867.046021
13.435500 33.187901 -877.828613
-8.462000 43.112301 -862.747620
5.449200 34.204700 -871.950806
6.397100 33.738899 -872.611511
8.084400 33.037399 -873.817688
10.906500 33.111198 -876.131592
-8.062500 42.334202 -863.547974
-6.769100 40.450401 -864.149780
-5.674400 37.494202 -864.335510
-5.064400 36.404499 -864.571411
-4.292100 35.562599 -864.997986
-3.445500 34.522301 -865.437622
-2.841500 33.555000 -865.697876
-1.781000 32.909698 -866.404907
-0.913300 33.150501 -867.166077
0.028400 33.300499 -867.965820
0.960100 33.352798 -868.734070
1.891200 33.464199 -869.516113
2.771700 33.763699 -870.301575
3.725600 33.919701 -871.112488
8.623000 32.816700 -874.823914
-9.786000 43.184101 -863.102783
-8.011700 41.276199 -864.086670
4.215600 33.748199 -872.200317
5.151900 33.555599 -872.912598
6.112100 33.131401 -873.589417
7.043800 32.942001 -874.298828
-9.550200 42.117500 -863.629578
-8.104600 40.147099 -864.331421
-7.459700 39.121899 -864.609924
-7.174200 37.808300 -864.529175
-6.695100 36.679699 -864.648987
-6.017300 35.785400 -864.985107
-5.245200 34.931702 -865.406982
-4.650700 33.930698 -865.650513
-4.050200 32.929298 -865.898621
-3.141400 32.514702 -866.535217
-2.239900 31.981701 -867.137878
-1.294500 32.079399 -867.925720
-0.348900 32.247898 -868.730408
0.590900 32.398998 -869.526428
1.517600 32.377800 -870.270813
2.386000 32.686001 -871.046204
3.158500 33.156601 -871.782715
-9.079100 40.840500 -864.149170
7.262500 32.717499 -875.434021
3.543000 32.824799 -872.890930
4.439500 32.814301 -873.613770
5.561700 32.664200 -874.486328
7.976000 32.449600 -876.389221
-10.676300 41.528301 -863.976807
-9.543600 39.792999 -864.481079
-8.744500 37.897400 -864.677185
-8.104700 36.754299 -864.923401
-7.535000 35.681301 -865.129517
-6.770900 34.797501 -865.537781
-6.087100 33.901402 -865.878296
-4.550000 31.880600 -866.641907
-3.638400 31.499500 -867.289124
-2.729300 31.070299 -867.922913
-1.792800 31.048000 -868.675293
-0.848400 31.211100 -869.478271
0.086600 31.285200 -870.252686
0.971300 31.371300 -870.989075
1.748900 31.843300 -871.730530
2.587300 32.231300 -872.501099
-10.609200 40.369499 -864.388306
5.704000 32.324699 -875.642700
6.614700 32.422100 -876.400818
-10.418200 39.186699 -864.921814
-9.485000 39.302299 -865.699585
-9.411400 36.876900 -865.182922
-8.844000 35.830700 -865.390930
-8.357000 34.766602 -865.529785
-7.340700 33.820099 -866.122314
-6.471400 33.061100 -866.641174
-4.755400 31.064301 -867.546997
-3.849700 30.574100 -868.158875
-2.942500 30.075100 -868.770020
-1.998700 30.134100 -869.542786
-0.941800 30.760700 -870.541504
-0.031200 30.375500 -871.182312
0.857800 30.468399 -871.919312
1.789300 30.843800 -872.757507
2.457600 31.598900 -873.474121
3.278500 31.952299 -874.218079
4.221800 32.120800 -875.016724
7.158300 32.359901 -877.434814
-10.481300 38.019501 -865.194275
-6.598800 34.411201 -867.447876
-11.688600 39.648399 -865.067017
-9.594200 34.973900 -865.628479
-8.518400 33.805000 -866.209778
-1.767300 29.581600 -870.596497
1.090300 29.894600 -872.952515
4.483800 31.704399 -876.091797
5.413500 31.859100 -876.870789
-10.676900 36.886398 -865.494385
-7.838200 33.046398 -866.839478
-5.069400 30.346500 -868.400513
-4.077500 29.837200 -869.068604
-3.168300 29.341801 -869.674500
-0.938200 29.564400 -871.502991
0.041100 29.539499 -872.276672
1.895500 30.582500 -874.001526
3.180300 31.304001 -875.196228
6.104700 31.913601 -877.838623
-11.751700 38.514702 -865.452515
-10.668000 35.835999 -865.985779
-9.845900 33.960800 -866.189026
1.389900 29.532600 -874.043396
6.722700 31.812901 -878.820679
-11.828500 37.278000 -865.764526
-9.223300 33.103500 -866.829895
-5.175000 29.493601 -869.174316
-3.092500 28.684799 -870.631287
-2.154000 28.711100 -871.381470
-0.909500 28.823700 -872.394775
0.060300 28.675699 -873.128113
3.381600 30.837999 -876.278381
4.349500 31.130501 -877.115723
-10.970900 34.721901 -866.266418
-4.498400 28.936399 -870.010071
1.901300 29.614500 -875.241699
5.060500 31.075600 -878.093628
-12.188800 36.284901 -866.276428
-10.394400 33.324402 -866.989075
-2.052100 28.037100 -872.324280
-0.906900 27.937000 -873.205872
0.068200 27.808100 -873.946228
2.572500 29.944799 -876.436218
5.620000 31.073900 -879.115112
-12.215500 35.154999 -866.749878
-11.659900 34.059898 -866.927917
-5.689800 28.467899 -870.307312
-4.764200 28.249399 -870.985413
-3.850200 27.857300 -871.612976
0.593800 28.271700 -875.216370
1.552700 28.776600 -876.092712
2.950800 30.267099 -877.549377
3.873200 30.061199 -878.228027
6.087200 30.792500 -880.147888
-13.109700 35.982498 -867.011230
-11.388400 33.231499 -867.713501
-3.456900 27.204901 -872.524414
-2.530000 27.012100 -873.207886
-1.610100 26.691200 -873.855408
-0.611000 26.498400 -874.595581
0.173700 26.992001 -875.329773
2.002100 28.658001 -877.162476
4.393200 29.924999 -879.343506
-12.778000 34.587101 -867.609619
-5.749700 27.833401 -871.526672
-4.855700 27.145000 -872.065186
0.686200 27.222799 -876.431702
2.556200 28.761700 -878.262878
3.399800 29.244499 -879.038879
4.979600 29.877300 -880.428101
-12.482000 33.646900 -868.214722
-4.333000 26.445200 -872.887329
-3.405600 26.219700 -873.559570
-2.480400 25.960699 -874.222107
-1.514900 25.705099 -874.917114
-0.679100 26.039200 -875.650024
1.086200 27.759600 -877.437683
-0.037500 26.033600 -876.699280
1.730600 27.816299 -878.500488
3.473400 28.644600 -880.056274
5.098500 29.466400 -881.518677
-6.278000 27.248899 -872.669373
-5.753300 26.168800 -872.822388
-4.418400 25.571301 -873.719910
-2.557200 25.176701 -875.075012
-1.409800 25.203501 -875.974182
2.358500 27.938999 -879.553528
4.154500 28.679199 -881.126099
-3.840000 25.171400 -874.642212
-0.730000 25.003099 -877.013977
-5.744300 25.407000 -873.743408
-2.539700 24.429899 -875.991699
1.289800 26.867201 -879.530823
2.373700 27.219900 -880.452820
3.254100 27.511801 -881.203003
4.034500 29.140800 -882.192017
4.781500 28.290701 -882.568909
-5.070000 24.817900 -874.596375
-3.719800 24.390699 -875.538208
-1.862400 24.464600 -876.990723
-0.442900 24.589100 -878.116882
1.494300 26.398300 -880.604675
3.510700 27.263399 -882.363770
-6.091600 24.267599 -874.968384
-5.157100 24.034100 -875.632629
-3.969800 23.711500 -876.470276
-3.022000 23.780001 -877.215698
-2.032800 23.906700 -878.006897
-1.052000 23.778500 -878.731506
2.061000 26.176901 -881.692993
3.991200 27.092800 -883.394592
-0.406800 23.901699 -879.908875
0.423100 25.802299 -880.993713
2.675300 25.933500 -882.755188
-6.015100 23.356501 -876.024902
-5.059300 23.449499 -876.780518
-4.042000 23.136999 -877.488098
-3.086800 23.267200 -878.252014
-2.093100 23.165100 -878.990784
0.879000 24.953199 -881.692810
1.703300 25.334499 -882.415283
3.302600 25.977501 -883.794189
-1.471500 22.749001 -879.976624
3.858700 25.398399 -884.682678
-5.927400 22.746901 -877.182983
-4.118700 22.641100 -878.543823
-3.124600 22.658501 -879.309387
-0.900100 22.320700 -880.934509
0.504500 24.108601 -882.428223
1.337000 24.510799 -883.159912
2.257400 24.586599 -883.882629
-5.346900 22.442301 -878.129089
-2.555200 22.244101 -880.221313
-0.287900 22.753700 -882.076416
2.858900 24.724001 -884.945129
-4.819000 21.945400 -879.137512
-2.095600 21.563801 -881.134216
-1.131600 21.695700 -881.902588
0.170200 23.432199 -883.300415
1.054900 23.683001 -884.035522
1.982100 23.775600 -884.766724
-4.440900 21.533600 -880.211182
-3.497100 21.410400 -880.904297
-0.473400 21.621901 -883.263306
0.429900 21.908600 -884.019226
1.088600 22.669800 -884.696716
2.350800 23.348499 -885.816589
-3.101900 20.750401 -881.816284
-2.077200 20.742100 -882.596497
1.529100 22.514601 -885.750977
-4.832100 21.030701 -881.199280
-1.553400 20.702801 -883.624573
-0.536000 21.035601 -884.475281
0.334200 21.531700 -885.250488
-4.384600 20.348301 -882.107605
-3.448300 19.995199 -882.739990
0.805100 21.499599 -886.309875
-2.966500 19.670300 -883.743286
-2.008700 19.888599 -884.517517
-1.073200 20.238100 -885.303772
-0.208200 20.692900 -886.060303
-4.512300 19.504499 -882.910522
0.922100 20.925501 -887.337097
-3.766100 18.947701 -884.351379
-2.806200 18.998100 -885.078979
-1.953800 19.351200 -885.793518
-1.037300 19.621401 -886.537476
-0.155900 20.126499 -887.307312
0.117300 19.790300 -888.453674
-2.996200 18.474600 -886.129700
-1.994900 18.672701 -886.911682
-1.135000 19.061001 -887.630981
-1.081500 19.080400 -888.854370
-2.237900 18.612200 -888.129395
-5.701500 21.146799 -879.910217
0.424800 25.770100 -879.804504
0.200500 26.528601 -877.830872
-12.943400 37.148300 -866.188782
14.024100 33.105000 -878.839783
1.352900 34.201900 -870.420410
-6.222600 38.512501 -864.426819
-2.989000 36.249699 -865.878723
-5.084100 39.364201 -863.856201
-3.838400 40.488602 -863.592712
17.449699 46.265598 -867.701904
1.785300 58.163200 -854.563599
14.883600 51.326099 -861.483521
1.258200 54.330002 -851.834229
2.516200 57.251202 -851.825684
5.738300 57.924000 -848.942017
8.181500 59.566200 -847.515503
17.081200 45.845100 -864.551086
16.012400 42.994701 -865.452515
0.173900 24.592699 -880.784729
-0.385800 23.353600 -880.931274
15.663700 51.785900 -858.623718
0.184200 25.569500 -878.603577
14.732800 50.975101 -858.655518
2.477200 32.029800 -875.858887
13.982000 49.995201 -858.973877
13.299700 49.073200 -859.075684
14.111300 51.675999 -857.401001
13.655400 50.764099 -857.954529
12.422200 48.299400 -859.452820
14.315600 52.801102 -856.370972
12.896100 49.826401 -858.038574
15.877300 56.618198 -853.908020
15.439000 55.594101 -854.380615
1.932800 36.501301 -869.732727
14.330200 57.065102 -850.936218
13.625500 55.771500 -851.846924
13.323500 56.355598 -850.362671
12.805400 55.453800 -851.050476
12.283400 54.584000 -851.757324
11.252200 54.557999 -851.066406
-1.106100 34.036701 -867.926514
-0.436600 35.727798 -866.718628
0.415200 39.764301 -864.305420
0.342000 53.159698 -852.139893
-3.836700 30.937700 -869.477295
11.864000 55.440899 -850.193787
3.961900 40.194698 -865.312378
-0.329400 29.844601 -873.401489
15.324000 56.614201 -856.490723
0.571800 27.487600 -880.197876
16.798901 48.342201 -864.163818
16.750401 47.867401 -866.173828
40.537899 66.248802 -839.602722
41.404400 65.816498 -840.397583
42.272499 65.392502 -841.195496
43.150600 65.037903 -842.015381
43.941700 64.612602 -842.735779
39.359200 66.645302 -839.253296
36.674500 69.523201 -837.730286
40.064301 65.576103 -840.454102
40.844200 65.067101 -841.148987
41.614300 64.482201 -841.821228
42.435299 64.238197 -842.602722
37.686600 67.058403 -838.902771
42.851299 63.618401 -843.494019
35.478401 70.148399 -837.851685
37.990501 66.222198 -839.695801
38.753700 65.617897 -840.357727
39.711800 64.744400 -841.169006
40.480099 64.136703 -841.835510
41.356400 63.715698 -842.642700
35.703098 68.874397 -838.606628
36.106201 67.636299 -838.797180
41.639000 63.051300 -843.560913
33.583401 70.086700 -837.402283
34.425499 69.561096 -838.156494
36.255001 66.668198 -839.490723
36.896702 65.824997 -839.988586
37.658600 65.200798 -840.645081
38.400101 64.436996 -841.256897
39.165600 63.801201 -841.914978
39.951199 63.280399 -842.613281
34.378399 68.467003 -838.580383
40.341702 62.741798 -843.569275
31.907101 69.961998 -837.020813
33.114101 69.233299 -838.105591
34.415798 67.357803 -839.084717
35.720600 65.826103 -840.127075
36.523602 64.983002 -840.786011
37.961102 63.639702 -841.994873
38.818501 63.067699 -842.755981
33.171299 68.132500 -838.640076
34.668598 66.404198 -839.841125
36.720299 64.098503 -841.497986
39.226002 62.467800 -843.730530
30.572399 69.652496 -837.047913
31.443600 69.247803 -837.852722
33.263599 67.205498 -839.322693
35.022701 65.123001 -840.724182
37.348900 62.944500 -842.679199
39.401100 61.451000 -844.479919
31.481899 68.265297 -838.506287
33.398499 66.257698 -840.077271
35.080700 64.133102 -841.391602
35.847198 63.505901 -842.051086
37.612900 62.173801 -843.590088
29.011299 69.350197 -837.021606
29.868999 68.951401 -837.812622
31.523899 67.282204 -839.178101
32.269901 66.613197 -839.808716
33.440300 65.216797 -840.735901
36.013901 62.644501 -842.863770
30.019501 68.057701 -838.544373
33.499001 64.166603 -841.342102
34.225101 63.315300 -841.918823
36.279701 61.795799 -843.710693
37.096600 61.435001 -844.466797
27.886400 68.893898 -837.184692
28.679199 68.472900 -837.905579
30.238300 67.111603 -839.226929
31.078800 66.518204 -839.964478
31.813000 65.779800 -840.569214
34.592300 62.645100 -842.796326
31.975100 64.601799 -841.106628
34.995098 61.839199 -843.640686
26.564501 68.602501 -836.955383
28.515600 67.583900 -838.732178
32.130600 63.593700 -841.638611
32.889599 62.931099 -842.281006
37.880600 56.122299 -846.055176
39.017300 55.629799 -847.108887
40.811699 54.955399 -848.791199
27.128300 68.188698 -837.901428
28.900000 66.706398 -839.410583
29.666401 66.146301 -840.078430
30.394800 65.386497 -840.671204
33.296902 62.082500 -842.981201
36.404900 57.073601 -845.183289
39.591000 55.208599 -848.045471
41.417400 54.503300 -849.753479
30.612801 64.350403 -841.167419
35.285702 57.583401 -844.613220
41.981400 53.929298 -850.675476
25.385500 68.506401 -837.211975
27.129400 67.300697 -838.744019
30.714800 63.231300 -841.596497
31.362301 62.409801 -842.095520
36.427101 56.219200 -846.042175
37.190601 55.396801 -846.658020
39.440899 54.265701 -848.714417
40.254299 53.752102 -849.437988
42.426899 53.281898 -851.539795
25.965599 67.877701 -838.072876
27.675200 66.510498 -839.538330
28.393000 65.727501 -840.114319
29.123199 64.988197 -840.710876
33.504299 58.715000 -843.944885
37.679501 54.499100 -847.358826
38.493500 53.993698 -848.083923
40.873901 53.225601 -850.338318
29.675800 63.647499 -841.286926
34.105701 57.924000 -844.663879
35.138901 56.848400 -845.500916
42.853802 52.569302 -852.463501
31.691299 60.327099 -843.033020
32.370499 59.537300 -843.566284
38.862400 53.244099 -848.905029
41.340801 52.673901 -851.293884
23.835501 68.064796 -837.058594
24.812099 67.893997 -838.010315
25.828899 67.062599 -838.875305
29.628000 62.572899 -841.840576
30.250500 61.631699 -842.286926
35.111198 55.799000 -846.064026
35.799500 55.040199 -846.611816
37.431400 53.548801 -847.969727
39.442799 52.660999 -849.826599
43.098000 51.780701 -853.341980
26.237499 66.245003 -839.623901
26.963499 65.525703 -840.216187
27.689100 64.789703 -840.804871
28.304701 63.885601 -841.250122
32.367100 58.616001 -844.323425
33.631302 57.062401 -845.296387
36.240799 54.204201 -847.372375
30.340500 60.792702 -843.146973
31.239300 59.568501 -843.813110
37.352402 52.561600 -848.601318
41.585701 52.088501 -852.770386
43.185799 50.835800 -854.137024
23.628201 67.793999 -838.200928
24.363701 67.155403 -838.815979
28.246799 62.836498 -841.878479
29.084900 61.807400 -842.520630
32.416801 57.656200 -845.060974
33.674000 56.037998 -846.009521
34.553398 54.995399 -846.690430
36.213501 53.202999 -848.010315
24.812901 66.380898 -839.625916
25.562300 65.423500 -840.192017
26.268200 64.613098 -840.743225
27.005199 63.936100 -841.352173
34.932201 54.092300 -847.397095
36.716801 51.510201 -848.686279
38.784901 49.364300 -850.346130
39.712002 49.429699 -851.292419
22.448900 67.838799 -838.067383
29.060900 60.933498 -843.354126
29.704100 60.105099 -843.837402
30.598200 58.869400 -844.492920
31.254601 58.056599 -844.992615
32.295200 56.646301 -845.760803
38.383801 44.803699 -849.547485
40.039200 48.492901 -851.939575
22.875700 67.094803 -838.846008
26.964001 63.100800 -842.158813
27.670799 62.251598 -842.700317
32.990601 55.365299 -846.676575
33.645699 54.437199 -847.150330
34.728100 53.111900 -847.974609
35.422600 52.369400 -848.524719
36.391201 49.603100 -848.949219
38.507900 43.644001 -849.893799
39.046101 42.601898 -850.227600
23.405100 66.381599 -839.645081
24.108900 65.597801 -840.195129
24.952600 64.705399 -840.864014
25.820601 63.906399 -841.575684
35.438900 51.130699 -848.682312
36.002201 48.524300 -848.728882
39.282398 41.532299 -850.628418
27.790899 61.266899 -843.413330
29.321301 59.234402 -844.540588
30.872200 57.174599 -845.683228
36.238098 47.375500 -849.101685
36.757198 46.355000 -849.418030
28.157600 60.332298 -844.077271
29.691299 58.264801 -845.196289
31.248800 56.183800 -846.336304
33.232800 53.581200 -847.798218
34.216400 52.118999 -848.488403
35.097900 49.377201 -848.819824
36.913898 45.187599 -849.794983
39.411201 40.523998 -851.356628
21.818001 66.346298 -839.531616
22.514299 65.534302 -840.062500
23.250601 64.880302 -840.665283
24.427500 64.027100 -841.667480
25.213200 63.207600 -842.286316
25.938499 62.464901 -842.860229
26.652300 61.649700 -843.408081
31.574499 55.303501 -847.040222
32.238300 54.454800 -847.531372
34.285198 51.015900 -848.880676
26.905100 60.692799 -844.122681
27.782200 59.436600 -844.742188
28.504900 58.591900 -845.291077
29.418200 57.446701 -845.969177
30.074600 56.623402 -846.456421
32.867001 52.592899 -848.422913
33.978802 49.896500 -848.985413
34.668201 48.363201 -849.362305
35.248699 47.259399 -849.717285
35.764999 46.241699 -850.026001
36.651199 44.230202 -850.502319
37.184101 43.220501 -850.828918
39.168499 39.639999 -852.081909
21.114000 65.329903 -840.072327
21.956400 64.772102 -840.796021
22.787399 64.162201 -841.497925
23.886101 63.298100 -842.414307
24.682100 62.511501 -843.045898
25.400101 61.721100 -843.599182
30.186701 55.605000 -847.116882
31.053699 54.544998 -847.763794
31.702299 53.590500 -848.215027
32.744099 51.504101 -848.828125
35.752800 45.194599 -850.541809
37.270500 42.208698 -851.445801
39.345402 38.559601 -852.769287
25.482401 60.717800 -844.301575
26.176001 59.767200 -844.796387
26.911200 58.998001 -845.369019
27.630100 58.126801 -845.904785
28.353201 57.253502 -846.444519
28.999201 56.375999 -846.906982
31.640600 52.435902 -848.726685
32.697399 50.386002 -849.359192
33.342300 49.263599 -849.771118
34.026699 47.804699 -850.154114
34.603100 46.670300 -850.495789
36.088600 43.636200 -851.354126
37.351501 41.135799 -852.099609
39.439701 37.462799 -853.425720
40.110500 36.645802 -853.924805
21.032499 64.153397 -841.363281
21.862101 63.519199 -842.054321
22.588499 62.784000 -842.622925
23.428301 62.177601 -843.329529
24.150101 61.397099 -843.884399
29.131001 55.431702 -847.596680
29.779400 54.516201 -848.051819
30.417801 53.513802 -848.479492
31.612600 51.399700 -849.232117
34.938599 45.692402 -851.362610
35.279099 44.565498 -851.471008
36.188099 42.660801 -851.983704
37.537899 40.105099 -852.799988
24.282101 60.446400 -844.553223
25.011000 59.661499 -845.112183
25.746500 58.891701 -845.681030
26.472700 58.057301 -846.227417
27.206800 57.242298 -846.785583
27.841700 56.312801 -847.222778
30.488001 52.438000 -849.045288
32.154701 49.616501 -850.116089
32.797699 48.466702 -850.516785
33.586300 47.136501 -851.024414
36.314201 41.632500 -852.597717
37.590698 39.077301 -853.338013
38.129902 37.934299 -853.637878
38.839401 36.741901 -854.095581
39.408699 35.752998 -854.456177
40.086899 34.941399 -854.960022
20.580799 64.022400 -842.429016
21.404499 63.016701 -843.034729
22.016800 62.133598 -843.457275
22.727600 61.303200 -843.987488
27.943100 55.283699 -847.892578
28.591200 54.370899 -848.344482
29.239901 53.433498 -848.792114
30.535900 51.457401 -849.665222
31.123199 50.547600 -850.057983
33.735699 46.120602 -851.728271
34.233799 44.973400 -851.985474
34.825100 43.850300 -852.339111
36.477699 40.540298 -853.292725
40.402100 34.181099 -855.860718
22.977900 60.509800 -844.892395
23.606701 59.644402 -845.333679
24.322800 58.782799 -845.861511
25.066999 58.034599 -846.439575
25.793100 57.180698 -846.978577
26.444000 56.339298 -847.446472
29.314800 52.385502 -849.460815
31.120399 49.439800 -850.635071
31.705099 48.453499 -851.008789
32.281399 47.378502 -851.356384
34.777699 42.798599 -852.877075
35.312698 41.798901 -853.199524
36.439899 39.461300 -853.831604
36.902302 38.422401 -854.074890
37.448002 37.326698 -854.388184
38.235401 36.058399 -854.903381
38.697800 34.866199 -855.115723
19.747200 64.238297 -843.240173
20.432501 63.349499 -843.731628
21.104601 62.384998 -844.194397
21.805000 61.519299 -844.705078
26.574100 55.389900 -848.134583
27.210699 54.428600 -848.563477
27.873600 53.580200 -849.040894
29.451200 51.363899 -850.137329
30.034000 50.436298 -850.520203
32.439602 46.345200 -852.048218
32.951099 45.320202 -852.341675
33.551998 44.297401 -852.723083
35.413101 40.775299 -853.833130
38.832401 33.902302 -855.791016
39.601398 33.072300 -856.375977
22.605900 60.030499 -845.876221
23.308201 59.119400 -846.378174
23.929001 58.188301 -846.796387
24.551100 57.239101 -847.212280
25.273500 56.351200 -847.738525
28.082800 52.550900 -849.714783
30.556200 48.695702 -851.351807
31.141701 47.701900 -851.722778
33.716900 43.215000 -853.331421
35.796799 38.633099 -854.436707
36.352299 37.645802 -854.779724
36.995602 36.638599 -855.204529
37.287102 35.501701 -855.259277
39.921398 32.147701 -857.154907
18.781099 65.125397 -843.895630
19.478201 63.975399 -844.341980
20.120701 62.907398 -844.751770
20.771299 61.845100 -845.170410
21.443199 60.846100 -845.622925
26.131001 54.617298 -848.929321
26.765301 53.628300 -849.347229
28.277599 51.527802 -850.395325
28.927299 50.523201 -850.825012
29.510700 49.581902 -851.202820
31.274799 46.653099 -852.328491
33.788799 42.169899 -853.870117
34.307598 41.049000 -854.148376
34.826099 39.881001 -854.416992
37.397499 34.510700 -855.834595
38.449100 33.159500 -856.585693
40.275600 31.349100 -857.999023
22.153000 59.577202 -846.863098
22.852200 58.641300 -847.352173
23.474400 57.706501 -847.766785
24.087500 56.704700 -848.158997
24.814301 55.824299 -848.686218
26.936701 52.729000 -850.119385
29.844700 48.041199 -851.992371
31.295401 45.640999 -852.914429
31.902300 44.685200 -853.309875
32.511799 43.712200 -853.704407
35.095100 37.930599 -855.040222
35.631901 36.782600 -855.328613
36.181099 35.684399 -855.638977
38.629601 32.263100 -857.322876
17.869600 65.549103 -844.796021
18.461201 64.486801 -845.153687
19.018299 63.424301 -845.478027
19.590599 62.397400 -845.824097
20.196699 61.486099 -846.226624
20.775600 60.438000 -846.574829
24.951799 54.906502 -849.498718
25.612700 54.065601 -849.968506
27.090700 51.819199 -850.944702
27.646601 50.772999 -851.271179
28.229601 49.844898 -851.647827
28.805099 48.845299 -852.002625
29.939100 47.147301 -852.756775
32.429001 42.636101 -854.254211
32.952900 41.587399 -854.549072
33.389900 40.485500 -854.749023
33.895802 39.225201 -854.983826
36.315399 34.717800 -856.413818
36.879902 33.660702 -856.746277
37.548500 32.706600 -857.200378
38.792500 31.410000 -858.142578
39.583698 30.680099 -858.760986
21.048201 59.673302 -847.501221
21.756701 58.786499 -848.006775
22.393600 57.928501 -848.448975
23.015800 56.983002 -848.859192
23.536699 55.925999 -849.148987
25.720200 53.180099 -850.704590
28.833099 47.859501 -852.637573
29.959400 46.067501 -853.364075
30.566401 45.139301 -853.763123
31.163099 44.112598 -854.132324
34.046101 38.223400 -855.728088
34.593899 37.189800 -856.048706
35.144501 36.135399 -856.367615
17.377300 65.471199 -845.841919
17.961800 64.159401 -846.140076
18.483200 62.954399 -846.399170
19.061701 61.948399 -846.753479
19.656601 60.985699 -847.132385
23.715599 55.012299 -849.838318
24.477200 54.264400 -850.421387
25.914801 52.274300 -851.405212
26.563101 51.301201 -851.833618
27.194000 50.202499 -852.219727
27.763800 49.192001 -852.564697
31.284000 43.011600 -854.709106
31.787701 41.857601 -854.961304
32.303200 40.741100 -855.232483
32.914501 39.653702 -855.601990
35.307201 35.073601 -856.982788
35.862499 33.973099 -857.295715
36.523800 32.984501 -857.733276
37.204498 32.117001 -858.214417
38.275799 30.800501 -858.981079
39.063999 30.019400 -859.583191
19.887699 60.119400 -847.865173
20.629400 59.029301 -848.357422
28.621700 47.248501 -853.652893
30.072500 44.305302 -854.451172
39.449902 29.238600 -860.412598
17.131701 64.822098 -846.851624
17.615801 63.496700 -847.047180
20.987301 58.211399 -849.207886
21.617201 57.313301 -849.629578
22.240900 56.365700 -850.035522
24.142000 53.512501 -851.279602
24.814899 52.703499 -851.760620
27.453899 48.489601 -853.436279
28.810900 46.127899 -854.258484
30.212200 43.317699 -855.032410
32.621498 38.911800 -856.449097
33.169998 37.926399 -856.775330
33.710800 36.846901 -857.075012
34.256401 35.758400 -857.377319
37.027802 31.460400 -859.162903
17.752800 62.456299 -847.561279
18.344101 61.499298 -847.932983
22.507999 55.370998 -850.673889
23.051901 54.395100 -850.996521
25.100800 51.711300 -852.412170
25.748400 50.728100 -852.832520
26.407499 49.775398 -853.269714
29.139700 45.206799 -854.957520
30.542400 42.332199 -855.716797
31.046400 41.178799 -855.965271
31.651899 40.086899 -856.323120
34.522900 34.696301 -857.977173
35.164700 33.597401 -858.368530
35.825500 32.602001 -858.798828
37.425900 30.608601 -859.925598
