33.338600 32.047298 -732.590393
33.070301 32.119499 -732.661377
32.804798 32.196201 -732.735107
32.544601 32.281399 -732.813782
32.286201 32.369499 -732.894226
32.036301 32.471001 -732.982422
31.791100 32.579399 -733.074707
31.518600 32.646702 -733.143005
31.194099 32.636101 -733.165771
30.756701 32.577099 -733.167603
30.484301 32.527901 -733.160828
30.167601 32.532700 -733.192688
29.843599 32.527802 -733.219177
29.558500 32.581100 -733.279602
29.272400 32.515900 -733.263611
28.976400 32.437199 -733.239929
28.714899 32.409801 -733.246094
28.381100 32.456600 -733.306702
35.795700 32.169800 -732.145386
35.549000 32.271301 -732.233521
35.180500 32.176701 -732.206116
34.942501 32.292999 -732.302917
34.654099 31.956200 -732.111877
34.343899 31.959499 -732.142273
34.024502 31.949301 -732.164917
33.708900 31.946100 -732.191711
33.438400 32.014702 -732.260681
33.176201 32.096401 -732.337402
32.903599 32.162498 -732.405029
32.650101 32.258301 -732.489929
32.417000 32.385399 -732.593323
32.167801 32.487900 -732.682312
31.917400 32.588501 -732.770081
31.674400 32.700298 -732.864380
31.393600 32.755199 -732.925476
31.144100 32.738499 -732.937622
30.870300 32.686199 -732.928772
30.606600 32.650002 -732.929504
30.277700 32.636398 -732.950806
30.018900 32.609402 -732.956970
29.761801 32.585499 -732.965027
29.495701 32.549198 -732.965881
29.193600 32.578800 -733.012573
28.883499 32.480598 -732.977478
28.604300 32.428101 -732.969177
28.336500 32.439400 -733.000977
35.814800 32.024399 -731.726074
35.586700 32.156898 -731.832581
35.266800 32.141201 -731.851685
35.000599 32.212799 -731.922302
34.706001 32.115398 -731.886230
34.493401 31.901199 -731.767212
34.174500 31.892000 -731.790283
33.885502 31.930901 -731.841919
33.583099 31.949600 -731.881592
33.307499 32.010899 -731.946411
33.053799 32.106602 -732.031372
32.798801 32.200298 -732.115173
32.563801 32.325100 -732.217285
32.334202 32.457699 -732.323975
32.101799 32.585800 -732.428101
31.850300 32.684898 -732.515076
31.607700 32.797401 -732.609985
31.332800 32.861599 -732.676575
31.064100 32.816601 -732.671997
30.742100 32.811798 -732.698303
30.473101 32.768299 -732.694824
30.211599 32.736900 -732.698303
29.874201 32.712700 -732.713379
29.590099 32.649899 -732.698914
29.297701 32.576302 -732.677917
29.042400 32.557499 -732.689087
28.771601 32.517101 -732.687683
28.485001 32.454800 -732.673584
28.216299 32.435501 -732.685608
35.529400 32.063202 -731.459412
34.513302 31.778500 -731.368103
34.205101 31.787001 -731.401917
33.915699 31.826099 -731.453674
33.639900 31.887100 -731.518372
33.382401 31.976999 -731.600281
33.125301 32.067799 -731.682617
32.860199 32.146198 -731.757690
32.628502 32.276299 -731.863220
32.421200 32.443501 -731.990417
32.190800 32.574799 -732.096619
31.961500 32.707600 -732.203613
31.729900 32.836800 -732.308472
31.466000 32.917198 -732.384705
31.164499 32.941898 -732.428284
30.900000 32.903999 -732.427979
30.638700 32.871601 -732.431030
30.373800 32.834801 -732.431519
30.116899 32.810699 -732.439392
29.787100 32.798199 -732.461487
29.529499 32.774700 -732.469910
29.216999 32.672501 -732.432312
28.932501 32.612000 -732.419312
28.626200 32.521198 -732.388489
28.360100 32.489300 -732.392212
35.408699 31.586000 -730.938782
35.345600 31.861000 -731.122803
34.576500 31.755899 -731.125122
33.940800 31.744301 -731.175720
33.675800 31.822800 -731.250916
33.420101 31.916100 -731.334717
33.162800 32.007099 -731.417175
32.921299 32.122398 -731.513977
32.669300 32.221600 -731.601379
28.105499 32.553799 -732.234192
34.124500 31.668100 -730.983887
32.437099 32.358601 -731.585571
32.249802 32.555901 -731.730713
32.045502 32.726601 -731.859985
31.811300 32.852100 -731.962708
31.590000 32.996601 -732.076599
31.326799 33.078400 -732.153687
31.081699 33.187302 -732.246704
30.795000 32.999802 -732.151428
30.537800 32.974499 -732.158386
30.207800 32.960999 -732.179871
29.933201 32.912102 -732.173279
29.675501 32.888802 -732.181824
29.399700 32.840000 -732.175415
29.104401 32.764099 -732.153076
28.807699 32.687401 -732.130615
28.513201 32.615101 -732.110718
35.260502 31.505301 -730.705200
35.210098 31.799700 -730.900513
34.762798 31.835100 -730.964417
33.750099 31.727100 -730.987122
33.450500 31.821199 -730.994629
33.204201 31.929800 -731.087524
32.979000 32.070499 -731.199280
32.710999 32.145901 -731.272583
28.288700 32.624802 -731.987915
35.043999 31.318501 -730.402222
35.028000 31.668301 -730.630371
34.191002 31.587400 -730.654724
33.888500 31.608000 -730.695679
32.445400 32.313099 -731.285217
32.264500 32.520100 -731.435913
32.072399 32.709400 -731.576172
31.851299 32.854599 -731.690613
31.634100 33.005199 -731.808105
31.391899 33.118401 -731.903625
31.139299 33.216202 -731.990173
30.887400 33.198002 -732.001526
30.651899 33.087502 -731.951416
30.394199 33.062302 -731.958801
30.041100 33.016399 -731.961426
29.500601 32.934502 -731.957825
29.248400 32.921001 -731.972229
28.929100 32.812000 -731.930786
28.656300 32.770901 -731.929077
33.634300 31.663799 -730.655029
33.387501 31.772301 -730.747986
29.731400 32.998699 -731.878174
28.083401 32.676498 -731.820313
34.068100 31.496099 -730.405579
33.094200 31.892900 -730.754089
33.027699 32.155800 -730.931091
32.698399 32.139099 -730.950928
28.444099 32.763100 -731.752808
33.792198 31.542101 -730.330383
33.531399 31.630800 -730.412292
33.289902 31.749300 -730.511719
32.451199 32.293499 -730.943176
32.268200 32.498699 -731.093628
32.083302 32.700100 -731.241577
31.880100 32.873501 -731.373108
31.680700 33.051800 -731.507629
31.452600 33.187302 -731.616699
31.181101 33.258900 -731.688477
30.922199 33.232201 -731.695129
30.580601 33.202900 -731.707886
30.317400 33.171799 -731.712097
30.057699 33.146500 -731.719788
29.492599 33.032902 -731.698425
29.200100 32.963501 -731.680481
28.919399 32.911900 -731.672974
34.181301 31.409201 -730.135925
29.787901 33.121300 -731.653320
28.653099 32.898602 -731.613220
28.232401 32.768398 -731.567383
33.044701 31.843201 -730.499084
32.894699 32.100800 -730.680298
34.876499 31.266500 -730.121277
33.903400 31.432501 -730.043884
33.637001 31.513201 -730.121521
33.335098 31.662001 -730.246826
32.606899 32.133202 -730.622314
33.390099 31.564199 -729.996887
33.102798 31.735500 -730.135681
32.876400 31.877399 -730.249573
32.678200 32.061501 -730.388428
32.377701 32.331501 -730.592773
32.191399 32.531601 -730.740784
32.028198 32.765099 -730.908386
31.852800 32.979401 -731.064697
31.664801 33.174099 -731.209412
31.454500 33.335400 -731.334412
31.188400 33.415100 -731.411377
30.926701 33.384701 -731.416382
30.597500 33.374100 -731.440613
30.314400 33.314800 -731.428589
30.045200 33.276501 -731.429016
29.783300 33.249500 -731.436218
29.489901 33.178501 -731.417603
29.206499 33.122799 -731.408020
28.895800 33.029499 -731.376587
28.634100 33.006302 -731.386230
28.346300 32.947498 -731.375000
28.044001 32.917801 -731.384216
33.997700 31.284700 -729.599915
33.762100 31.413601 -729.706116
32.446400 32.208500 -730.348694
33.496899 31.487301 -729.642273
33.249901 31.598499 -729.738098
33.012600 31.724400 -729.842590
32.792400 31.876101 -729.962280
32.587898 32.050800 -730.095520
32.398102 32.605598 -730.475281
32.136501 32.692699 -730.556824
31.955000 32.898300 -730.707886
31.785601 33.120800 -730.869080
31.588800 33.301998 -731.005920
31.367500 33.446899 -731.121277
31.094500 33.516399 -731.192322
30.773100 33.516701 -731.222778
30.520500 33.500900 -731.236328
30.151100 33.434299 -731.227722
29.846399 33.346001 -731.198914
29.420700 33.318100 -731.220825
29.156700 33.290001 -731.227417
28.843300 33.193501 -731.193970
28.552601 33.130001 -731.179993
28.267900 33.075901 -731.171570
33.559700 31.391701 -729.364685
32.369900 32.257198 -730.041687
32.309399 32.525600 -730.222473
29.623400 33.426899 -731.063721
27.987700 33.133202 -731.026123
33.672100 31.233400 -728.963074
33.420300 31.338499 -729.055298
33.223701 31.527599 -729.197205
33.000198 31.675200 -729.314575
32.785702 31.836000 -729.439697
32.592701 32.028400 -729.583374
32.389000 32.204102 -729.717285
32.204800 32.408100 -729.867798
32.049999 32.654701 -730.043396
31.931900 32.835800 -730.172791
31.838499 33.052601 -730.323120
31.748301 33.272999 -730.475586
31.568300 33.478401 -730.626587
31.356501 33.636799 -730.749878
31.109100 33.743301 -730.842712
30.787701 33.743500 -730.872925
30.524700 33.712898 -730.877380
30.254900 33.673599 -730.877014
29.941799 33.573399 -730.840881
29.685301 33.554798 -730.852722
29.414301 33.516399 -730.852905
29.136999 33.470100 -730.848572
28.861200 33.426800 -730.846130
28.592899 33.394699 -730.850281
28.288900 33.313999 -730.825989
33.262600 31.339701 -728.780579
33.084499 31.557100 -728.939392
32.888100 31.745800 -729.081116
32.686401 31.925900 -729.217712
32.485001 32.105598 -729.354004
32.275101 32.271999 -729.482422
32.103001 32.493900 -729.643494
31.945101 32.735500 -729.816223
31.845699 32.943901 -729.961792
31.764200 33.294899 -730.198975
31.651899 33.482201 -730.331970
31.465700 33.677898 -730.477295
31.251499 33.832298 -730.598328
30.983900 33.909599 -730.673706
30.668400 33.918800 -730.709106
30.385900 33.860901 -730.697510
30.087601 33.781601 -730.673523
29.809401 33.731800 -730.666687
29.546700 33.704899 -730.673584
29.247801 33.627899 -730.651123
28.975700 33.589699 -730.651428
28.696100 33.541801 -730.646118
28.437500 33.523998 -730.658630
28.087200 33.493698 -730.671326
27.851900 33.352798 -730.601074
33.080101 31.509001 -728.689819
32.680901 31.876801 -728.967712
31.757999 33.246300 -729.949890
28.229900 33.656101 -730.545593
27.684500 33.556999 -730.531311
33.208500 31.305599 -728.382080
32.903702 31.696100 -728.666077
32.507702 32.067101 -728.945679
32.320801 32.267899 -729.094727
32.128601 32.459999 -729.238220
32.015499 32.649300 -729.372681
31.838600 32.862202 -729.528625
31.775000 33.122200 -729.704712
31.709299 33.494701 -729.954773
31.609800 33.699600 -730.098206
31.414900 33.881901 -730.235718
31.195999 34.028900 -730.352173
30.931000 34.109699 -730.429688
30.596001 34.091301 -730.448730
30.345100 34.078800 -730.463684
30.064301 34.024700 -730.454407
29.787399 33.977001 -730.448792
29.491400 33.903702 -730.428223
29.212400 33.855099 -730.422180
28.934601 33.809200 -730.417786
28.654200 33.760502 -730.411987
27.976500 33.643799 -730.398315
33.005699 31.489500 -728.368530
32.686600 31.856800 -728.638672
31.701799 33.370098 -729.721191
28.389299 33.889599 -730.367798
32.809399 31.711100 -728.402100
32.491699 32.078701 -728.672119
32.303001 32.276901 -728.819275
32.124001 32.488499 -728.974426
32.004700 32.668499 -729.103271
31.840599 32.899899 -729.270020
31.751101 33.121799 -729.423584
31.625799 33.756401 -729.850891
31.521000 33.952599 -729.989075
31.315599 34.118801 -730.116821
31.058201 34.210201 -730.200378
30.761499 34.245899 -730.250977
30.427200 34.229198 -730.270813
30.143700 34.171200 -730.258911
29.879400 34.141201 -730.263489
29.617701 34.115601 -730.270813
29.351101 34.084000 -730.274597
29.092501 34.064301 -730.285522
28.812599 34.015999 -730.279480
28.088900 33.913601 -730.278992
27.753500 33.881599 -730.288879
31.683300 33.609402 -729.641785
28.550100 34.100399 -730.250305
32.625099 31.934099 -728.334595
31.687599 33.395802 -729.377686
30.575600 34.340099 -730.097717
28.262600 34.135399 -730.174622
32.719601 31.730700 -728.024719
32.431099 32.141300 -728.320129
32.261799 32.367901 -728.484070
32.157101 32.569801 -728.625916
31.974501 32.774700 -728.776794
31.815500 33.013199 -728.947571
31.733101 33.244801 -729.106873
31.639700 33.691898 -729.408386
31.643000 33.928299 -729.562988
31.555700 34.148899 -729.715576
31.350401 34.314499 -729.842773
31.109800 34.429298 -729.939880
30.816200 34.469002 -729.992615
30.277800 34.391701 -729.990906
30.018700 34.368599 -729.999329
29.767401 34.356998 -730.014587
29.506201 34.332500 -730.022217
29.191099 34.346802 -730.060181
28.929199 34.322800 -730.068298
28.657200 34.328899 -730.096985
27.991400 34.216301 -730.083679
32.595100 31.974701 -727.994995
31.650000 33.541801 -729.109314
30.574499 34.535099 -729.858887
28.444901 34.471500 -730.010986
27.774099 34.317501 -729.971008
32.783001 31.987499 -727.767578
32.451900 32.188000 -727.929626
32.268600 32.393799 -728.081726
32.156898 32.585602 -728.218018
32.047001 32.779202 -728.355225
31.886801 33.016201 -728.525574
31.788000 33.224201 -728.671387
31.709299 33.460602 -728.833923
31.667400 33.865200 -729.103577
31.627501 34.154800 -729.297607
31.556801 34.398800 -729.464417
31.345400 34.554699 -729.586182
31.098801 34.660099 -729.677979
30.812300 34.708801 -729.736328
30.361900 34.640701 -729.732727
30.041800 34.644199 -729.764282
29.781900 34.619900 -729.772217
29.467899 34.633801 -729.810120
29.138201 34.626999 -729.835815
28.840599 34.665298 -729.888184
28.240000 34.617802 -729.911926
27.952700 34.536499 -729.884827
28.578600 34.781502 -729.831787
32.671200 32.062302 -727.546509
32.437199 32.193401 -727.654419
32.261101 32.410000 -727.813293
32.159401 32.616798 -727.958801
32.065899 32.834702 -728.110901
31.849300 33.224602 -728.387512
31.776300 33.469601 -728.555603
31.687700 33.691002 -728.709473
31.652300 34.104401 -728.984924
31.674900 34.368198 -729.156616
31.525400 34.613300 -729.331726
31.308599 34.760700 -729.448730
30.982901 34.866501 -729.548523
30.672300 34.880600 -729.586426
30.409901 34.850101 -729.590576
30.090900 34.854198 -729.622681
29.828501 34.825500 -729.628113
29.515100 34.839298 -729.666016
29.218399 34.876900 -729.718201
28.891399 34.873600 -729.746216
28.303200 34.881401 -729.805725
28.066999 34.774799 -729.757324
32.364601 32.067101 -727.392212
32.004101 33.102501 -728.108276
31.667200 34.014801 -728.741211
28.681700 35.036098 -729.692810
32.289700 32.380402 -727.290283
32.215801 32.629101 -727.461487
32.207298 32.854401 -727.611084
32.088299 33.034500 -727.741089
31.933901 33.279701 -727.917419
31.837700 33.491501 -728.066223
31.770300 33.744301 -728.239502
31.717199 34.016701 -728.424377
31.716299 34.247601 -728.577026
31.743700 34.518799 -728.753479
31.658199 34.741001 -728.908325
31.552500 34.933300 -729.044983
31.319599 35.056900 -729.148376
31.085600 35.178600 -729.250488
30.795200 35.220402 -729.305115
30.474199 35.219501 -729.334473
30.156300 35.224098 -729.367126
29.855000 35.252899 -729.414124
29.541800 35.265800 -729.451782
29.228600 35.279499 -729.490112
28.922600 35.304199 -729.534790
28.616501 35.329399 -729.580017
28.294600 35.293999 -729.586487
28.035900 35.183998 -729.538025
32.335300 32.644199 -727.053711
32.241901 32.863602 -727.207520
32.177101 33.124100 -727.385803
32.090900 33.351898 -727.544495
31.977800 33.539299 -727.678894
31.890600 33.763802 -727.835510
31.870701 34.085201 -728.049988
31.846100 34.398300 -728.259521
31.798201 34.675999 -728.447693
31.743099 34.942101 -728.628784
31.556999 35.133301 -728.772522
31.348400 35.291599 -728.896484
31.131500 35.437599 -729.013000
30.866501 35.515202 -729.088684
30.554300 35.526600 -729.125000
30.268000 35.575199 -729.183594
29.957399 35.590401 -729.222229
29.660200 35.625099 -729.272522
29.336500 35.623901 -729.301514
29.031500 35.649399 -729.346497
28.742300 35.697300 -729.404785
28.477400 35.680901 -729.418274
28.125999 35.553299 -729.366211
32.451599 32.928299 -726.859802
32.292702 33.138901 -727.013916
32.235699 33.410198 -727.198975
32.150002 33.638199 -727.357971
32.040199 33.829899 -727.495117
31.962000 34.066898 -727.659424
31.980301 34.326698 -727.830017
31.962900 34.533901 -727.968872
31.873400 34.751598 -728.121399
31.817600 35.016998 -728.302429
31.718300 35.218498 -728.445129
31.536699 35.415600 -728.592407
31.330200 35.576500 -728.718018
31.092100 35.692101 -728.816284
30.836201 35.782200 -728.899475
30.563400 35.849098 -728.968689
30.275200 35.894600 -729.025330
29.967600 35.913799 -729.066101
29.688801 35.973701 -729.131287
29.388800 36.004700 -729.179321
29.089800 36.037899 -729.228577
28.771000 36.044800 -729.262329
28.491600 35.995701 -729.255188
32.491798 33.182098 -726.835327
28.924200 36.246700 -729.193115
30.117100 36.090801 -728.964600
29.839300 36.151501 -729.030090
29.554600 36.203400 -729.090271
29.254801 36.234798 -729.138306
32.320999 33.403801 -726.961182
28.598499 36.285099 -729.215576
32.298801 33.696800 -727.096619
32.197201 33.903599 -727.243713
32.096600 34.111000 -727.391113
32.018101 34.349899 -727.557312
32.028900 34.601200 -727.723816
31.933701 34.813599 -727.874023
31.875999 35.079700 -728.056519
31.780300 35.289501 -728.205017
31.601999 35.494400 -728.357788
31.415199 35.686199 -728.502625
31.195900 35.830601 -728.618774
30.952101 35.939899 -728.713928
30.702400 36.040798 -728.803772
30.417999 36.092701 -728.864319
32.503502 33.563599 -726.720581
32.361401 33.911900 -726.966187
32.205299 34.157600 -727.144409
32.121201 34.389400 -727.306885
32.104801 34.601700 -727.450317
32.089298 34.814602 -727.593872
31.944599 35.072300 -727.779175
31.896500 35.352501 -727.970581
31.786100 35.540901 -728.106628
31.532101 35.752701 -728.271118
31.354000 35.957401 -728.424011
31.102699 36.056702 -728.513123
30.840500 36.140499 -728.592773
30.579399 36.226200 -728.673828
30.313999 36.306099 -728.751099
30.053400 36.392899 -728.832703
29.763399 36.438801 -728.889709
29.485201 36.501801 -728.956970
29.191500 36.543900 -729.011719
28.940901 36.534100 -729.027771
28.628700 36.503300 -729.035583
32.465801 33.814400 -726.734985
32.401699 34.152302 -726.897827
32.306099 34.368198 -727.051086
32.063801 35.074699 -727.546387
31.667900 35.781399 -728.055908
29.909800 36.598701 -728.763794
29.634501 36.665699 -728.833801
29.351200 36.722000 -728.897278
29.043400 36.745201 -728.940918
32.206402 34.646599 -727.217896
31.955400 35.337101 -727.703430
31.469500 36.026600 -728.209595
31.238899 36.156200 -728.317383
30.993601 36.264702 -728.412476
30.736601 36.356701 -728.497620
30.475700 36.443298 -728.579285
30.211100 36.525101 -728.658325
28.797899 36.702999 -728.906128
32.603001 33.710400 -726.462280
31.886499 35.614201 -727.803772
32.489498 34.025398 -726.561279
32.437500 34.425400 -726.834412
32.334400 34.629601 -726.980713
32.228901 34.947300 -727.203430
32.081299 35.318699 -727.465881
31.618500 36.043201 -727.993896
29.473499 36.888000 -728.754822
29.183300 36.935902 -728.813171
31.825899 35.892200 -727.767273
31.443300 36.265301 -728.052429
31.222601 36.409199 -728.168884
30.977100 36.517502 -728.263672
30.722200 36.612598 -728.350586
30.457899 36.694698 -728.429688
30.196699 36.781502 -728.511475
29.918301 36.844601 -728.578979
28.936899 36.922298 -728.719971
32.551300 34.380001 -726.593384
32.332699 34.887901 -726.954224
32.178200 35.249901 -727.211121
31.999001 35.573700 -727.444580
29.684500 36.983299 -728.599426
32.649799 34.241402 -726.401611
32.533600 34.664501 -726.695984
31.964001 35.827202 -727.527588
31.695101 36.133999 -727.757813
29.413401 37.128700 -728.629883
29.081699 37.173901 -728.690125
32.323799 35.139000 -726.959717
31.547501 36.340000 -727.835571
31.341000 36.503899 -727.964172
31.103201 36.623299 -728.065674
30.851101 36.722500 -728.154785
30.605900 36.831402 -728.250000
30.350000 36.925400 -728.335876
30.087700 37.010601 -728.416687
32.618000 34.574402 -726.439270
32.469501 34.947800 -726.703491
32.125198 35.501999 -727.106628
32.058701 35.754902 -727.282471
31.902100 36.108101 -727.533813
29.826401 37.162498 -728.428284
32.654202 34.481098 -726.161987
32.614101 34.896702 -726.445129
32.435398 35.224602 -726.681580
32.319500 35.407700 -726.815186
32.103699 36.026699 -727.250916
31.776100 36.363998 -727.507019
31.577900 36.540001 -727.643188
31.358500 36.685398 -727.760620
31.136700 36.827099 -727.875793
30.890301 36.933800 -727.969727
30.636900 37.030800 -728.057678
30.380899 37.124298 -728.143616
30.131701 37.227402 -728.235229
29.664900 37.365799 -728.370117
29.379400 37.419601 -728.431885
32.657001 35.127701 -726.354614
32.540600 35.428398 -726.567383
32.369598 35.647999 -726.730591
32.270401 35.854000 -726.878174
32.088100 36.286701 -727.185730
30.774799 37.163399 -727.893616
30.520800 37.259300 -727.980896
30.269600 37.359299 -728.070679
30.009001 37.446400 -728.152710
29.526699 37.563400 -728.274719
32.717499 34.995701 -726.022705
32.669899 35.440498 -726.326599
32.523300 35.695999 -726.511780
32.322899 36.104900 -726.805115
32.226601 36.313702 -726.954285
32.064701 36.542801 -727.123108
31.848400 36.693001 -727.243530
31.639601 36.853401 -727.370178
31.417900 36.995098 -727.485474
31.177900 37.110699 -727.584778
30.949900 37.243198 -727.694275
29.872000 37.653599 -728.066895
32.784599 35.330002 -725.987671
32.647499 35.717899 -726.261414
32.517200 35.996300 -726.460571
32.370701 36.365601 -726.722473
32.192699 36.571800 -726.877319
30.811300 37.464199 -727.601379
30.566799 37.573299 -727.696716
30.315701 37.673199 -727.786316
30.058100 37.764099 -727.870422
29.666901 37.783401 -727.918030
32.693600 35.582401 -725.984985
32.520500 36.266399 -726.461609
32.091202 36.804199 -726.862183
31.885099 36.968700 -726.991272
31.663200 37.110001 -727.106201
31.440701 37.250198 -727.220398
31.199499 37.363899 -727.318420
29.855600 37.964199 -727.841919
32.703098 35.929699 -726.053528
32.628300 36.170601 -726.222290
32.475399 36.529099 -726.477112
32.301201 36.739899 -726.634277
31.043900 37.576801 -727.308411
30.813299 37.704498 -727.414673
30.575899 37.822800 -727.515320
30.322701 37.919201 -727.602478
30.048901 37.987598 -727.672607
32.036301 37.030701 -726.740112
31.822500 37.183399 -726.861877
31.621901 37.354301 -726.994812
31.382900 37.470901 -727.094421
32.596298 36.453201 -726.225525
32.770901 36.074600 -725.827698
32.685600 36.300800 -725.987915
32.509602 36.742401 -726.301514
32.325699 36.939499 -726.450684
31.239300 37.679501 -727.046326
31.003901 37.801102 -727.149170
30.758801 37.909302 -727.244019
30.524000 38.031601 -727.347290
30.262199 38.116798 -727.427917
29.989100 38.117199 -727.452393
32.171200 37.154900 -726.478027
31.952700 37.301701 -726.596497
31.738199 37.453701 -726.718079
31.522800 37.604198 -726.838928
32.629799 36.614399 -726.014587
32.430901 36.988800 -726.228516
31.138000 37.895901 -726.956116
30.894300 38.006500 -727.052490
30.128599 38.317402 -727.330383
32.725601 36.361801 -725.669006
32.602901 36.881802 -726.031677
31.414400 37.825298 -726.775085
30.690201 38.167301 -727.070618
30.422199 38.244598 -727.146606
29.771400 37.993099 -727.598511
32.640800 36.703602 -725.748596
32.344501 37.200199 -726.107483
32.163898 37.400799 -726.257813
31.924801 37.518501 -726.357178
31.737101 37.707901 -726.500427
31.237301 38.024200 -726.755493
30.999100 38.142300 -726.855103
30.148100 38.310001 -727.040100
32.540600 36.984600 -725.724609
32.454498 37.206200 -725.880920
31.615200 37.955399 -726.455688
30.827801 38.321499 -726.768494
30.538099 38.369400 -726.825317
32.535999 36.850899 -725.444275
32.342300 37.492599 -725.892273
32.154400 37.682701 -726.036072
31.918100 37.804401 -726.137878
31.459000 38.178101 -726.428223
31.212500 38.284901 -726.520813
32.510799 37.234299 -725.458984
32.438599 37.475201 -725.627319
31.803499 38.057999 -726.073486
31.596701 38.220200 -726.200195
31.068100 38.496498 -726.431030
30.811899 38.479099 -726.440918
32.347198 37.712799 -725.567505
32.162300 37.907001 -725.714111
31.948799 38.060600 -725.835571
31.409599 38.435200 -726.133789
32.395802 37.450600 -725.311829
31.770800 38.274502 -725.919983
31.157400 38.545601 -726.154602
30.853600 38.574100 -726.199524
31.606400 38.465599 -725.899414
32.295601 37.749599 -725.175720
32.235100 38.005100 -725.353271
32.077999 38.237000 -725.523315
31.858999 38.381901 -725.639771
31.370800 38.601200 -725.829285
31.086100 38.612000 -725.860901
31.696400 38.591900 -725.565125
32.193100 38.221699 -725.000977
32.005199 38.386799 -725.128784
31.804199 38.556999 -725.261108
31.567900 38.677799 -725.362976
31.376101 38.804298 -725.464905
31.814301 38.439899 -724.869324
31.635099 38.640800 -725.020813
32.578300 37.601398 -725.204773
29.460199 37.652699 -727.983704
29.202200 37.213501 -728.333923
27.873100 33.029099 -730.799011
34.012299 31.190399 -729.294495
27.901199 32.911499 -731.108215
34.081600 31.321600 -729.850220
27.962999 32.685501 -731.444092
27.905100 32.503700 -731.630188
28.166201 32.331699 -732.458130
28.141399 32.292198 -732.886719
28.174900 32.261101 -733.137512
28.205200 32.336601 -733.474182
28.418800 32.407902 -733.860596
28.323700 32.458599 -734.296875
36.561401 32.201698 -733.692688
34.984402 32.053398 -733.755615
34.407902 31.903500 -733.718384
31.889299 32.229000 -734.172302
28.458300 32.556198 -734.717712
29.270599 32.559502 -736.679016
29.549900 32.396301 -737.345215
29.965700 32.064701 -738.757019
30.040001 31.806601 -738.882874
37.569599 30.613001 -737.991394
37.245602 30.706499 -738.084229
36.991699 30.668600 -738.089111
36.633499 30.588200 -738.079712
36.356602 30.516100 -738.066406
36.058800 30.412600 -738.036316
35.738701 30.396299 -738.061829
35.490200 30.371901 -738.074280
35.239601 30.345200 -738.085815
34.973000 30.294399 -738.084290
34.665001 30.300800 -738.122314
34.357101 30.308399 -738.160889
34.104000 30.281099 -738.172180
33.810398 30.193399 -738.151306
33.522400 30.233801 -738.207825
33.293400 30.363100 -738.311829
30.178600 31.526800 -739.466492
30.234200 31.348400 -739.757690
30.432600 30.944099 -740.423584
37.868000 29.433599 -739.061523
37.641499 29.560499 -739.164917
37.307098 29.635300 -739.249329
30.725500 30.317900 -741.295410
35.211899 28.964100 -740.552673
34.896599 28.956301 -740.585022
34.618099 28.885900 -740.575378
38.245800 28.552099 -740.117615
38.046398 28.699699 -740.229614
37.825001 28.836700 -740.337891
37.562500 28.906099 -740.410522
37.286301 28.953699 -740.471619
37.032799 28.914700 -740.478027
36.719398 28.903900 -740.508423
36.407299 28.896000 -740.540527
36.148300 28.851200 -740.544128
35.846001 28.861200 -740.585571
35.541000 28.867800 -740.625427
30.879299 29.924999 -741.809021
35.266300 28.837500 -740.768616
34.947498 28.824600 -740.798401
37.969002 28.660500 -740.477905
37.726799 28.764099 -740.568726
37.459702 28.827200 -740.638184
36.911800 28.808300 -740.691711
36.591702 28.787800 -740.717224
36.031898 28.755400 -740.763977
35.724201 28.757999 -740.802124
30.800699 29.822300 -742.023499
37.248699 28.759899 -740.793884
36.362000 28.693100 -740.859314
35.499802 28.674500 -740.950684
35.201199 28.693300 -740.997375
34.943699 28.655399 -741.005188
38.008999 28.464399 -740.791321
37.791901 28.610201 -740.904602
37.522701 28.670200 -740.972717
37.157101 28.698299 -741.033081
36.897099 28.649900 -741.035217
36.631599 28.593599 -741.033081
36.234402 28.574600 -741.069214
35.917198 28.561701 -741.099182
35.375000 28.562300 -741.164307
37.973999 28.303499 -741.041077
37.771900 28.474400 -741.167480
37.519699 28.562500 -741.250427
37.208500 28.554600 -741.282898
36.942101 28.495701 -741.279480
36.674500 28.436001 -741.275818
36.367599 28.438200 -741.314026
36.047901 28.420900 -741.341797
35.731400 28.410000 -741.373230
35.431702 28.426901 -741.419128
35.176300 28.391701 -741.428589
34.908401 28.337601 -741.428406
37.917702 28.237301 -741.401184
37.684399 28.356701 -741.500488
37.422401 28.428900 -741.575073
37.106998 28.414600 -741.604370
36.843201 28.360399 -741.603699
36.579300 28.307100 -741.603577
36.266499 28.300200 -741.637024
36.015999 28.270399 -741.649292
35.766399 28.242800 -741.662781
35.453499 28.238701 -741.697876
34.706402 28.043400 -741.671021
37.700901 28.286400 -741.812317
37.692402 28.093500 -742.039917
37.325802 28.301800 -741.803284
37.329700 28.162100 -742.021118
37.344200 28.056000 -742.249084
37.051800 28.320801 -741.833313
37.058601 28.189501 -742.053772
37.059898 28.040701 -742.269287
37.081200 27.955099 -742.503906
36.675400 29.649000 -739.293823
36.803001 28.264999 -741.905884
36.822102 28.171700 -742.138123
36.833698 28.003500 -742.434814
36.840199 27.870300 -742.655518
36.824100 27.665701 -742.855286
36.590801 28.185600 -742.041077
36.609001 28.088800 -742.272583
36.615299 27.594400 -742.994080
36.553600 27.231701 -743.171997
36.422100 28.252701 -741.855225
36.471401 27.996401 -742.473328
36.476700 27.858801 -742.692871
36.202801 29.671000 -739.316284
36.333698 28.134100 -742.146118
36.356499 27.691099 -742.882996
36.339699 27.483900 -743.082825
36.307301 27.263901 -743.218018
34.657299 31.186701 -729.583984
34.742298 31.284401 -729.895813
35.200699 32.030602 -731.273621
35.266399 32.073898 -731.559509
36.166401 26.982599 -743.379883
36.065899 26.635500 -743.332703
34.641399 31.544001 -730.061279
34.734600 31.716299 -730.310913
34.777100 31.688900 -730.571228
34.931702 31.840000 -731.171570
35.034199 31.990400 -731.499817
35.915501 29.659599 -739.340027
36.019001 28.181999 -741.926575
36.028099 28.055599 -742.149414
36.044601 27.952101 -742.379211
36.056900 27.835300 -742.604980
36.067600 27.713699 -742.829590
36.063599 27.546000 -743.040771
36.038601 27.312300 -743.232971
34.418400 31.517500 -730.408081
34.518600 31.708900 -730.664917
34.730202 31.922501 -731.469727
35.648499 29.668301 -739.341919
35.750801 28.178400 -741.924500
35.761700 28.056601 -742.148682
35.761902 27.901699 -742.362976
35.772999 27.780300 -742.587585
35.779701 27.645399 -742.808289
35.779900 27.490000 -743.023193
35.754501 27.254700 -743.215027
35.724899 27.006399 -743.403503
35.661400 26.694300 -743.503113
33.922001 31.455500 -728.906677
34.363400 31.667601 -730.899780
35.564800 27.356001 -743.054382
35.463902 26.573299 -743.609802
35.503201 28.142000 -741.925476
35.505001 27.992001 -742.141174
35.520802 27.833000 -742.441406
35.480701 27.084101 -743.263794
35.438599 26.796900 -743.441223
33.750500 31.236300 -729.221680
35.225101 26.402201 -743.587524
34.821899 32.018600 -731.683716
34.317902 31.728901 -731.150696
35.269798 29.650299 -739.412476
35.363201 27.435900 -742.893982
35.334702 27.190901 -743.082581
35.156502 28.127800 -741.924316
35.165001 27.997200 -742.144897
35.165199 27.631599 -742.642578
35.134499 27.328100 -742.900330
35.116402 27.062401 -743.169678
35.073101 26.788500 -743.323181
35.041000 26.563101 -743.467224
34.994400 26.253201 -743.653198
34.987202 28.535700 -741.274475
34.881302 28.075199 -741.999512
34.878502 27.909401 -742.210022
34.867802 27.561899 -742.627197
34.811001 27.072300 -743.004822
34.776699 26.800400 -743.200989
34.738602 26.560400 -743.334595
34.706699 26.335100 -743.479370
34.686100 26.136900 -743.644226
33.138000 31.551300 -729.512329
34.676201 28.635500 -741.144470
34.661499 28.329100 -741.484924
34.663502 27.756599 -742.267273
34.647099 27.443100 -742.608521
34.603401 26.939199 -743.069275
33.833000 31.907101 -733.736877
34.363201 29.632000 -739.439087
34.419300 27.805401 -742.175720
34.401600 27.116400 -743.014771
34.403198 26.962000 -743.230530
34.375301 26.738199 -743.392578
34.367599 26.521200 -743.645996
34.346298 26.320999 -743.809204
34.198299 27.165899 -743.168701
34.171501 26.782000 -743.550781
34.146900 26.524200 -743.774719
34.126598 26.326300 -743.939575
32.314701 33.279598 -726.560181
32.268902 32.373199 -727.547607
33.912498 29.565901 -739.433411
33.870701 26.901400 -743.707703
32.345402 32.128799 -734.013611
32.945202 29.969700 -739.763489
32.648300 30.047400 -739.835022
32.195999 30.184601 -739.951721
31.859301 30.356800 -740.069214
31.572701 30.493700 -740.175476
30.513901 38.415298 -726.491516
31.322201 30.669300 -740.268127
31.046801 30.835199 -740.413513
29.942400 35.030499 -729.515991
29.626699 35.029900 -729.548889
28.974001 33.394600 -731.070190
28.025000 33.274399 -730.812073
28.242901 35.872898 -729.192017
28.389099 36.164902 -729.002319
28.212700 34.371101 -730.089417
28.444500 35.124001 -729.714783
30.560499 30.205099 -741.524170
31.159100 29.207199 -742.397888
31.182501 29.037500 -742.668701
31.221399 38.600601 -725.329773
31.282499 38.600700 -725.590820
31.409201 38.703400 -725.163025
32.791199 27.171900 -743.764771
31.167101 34.952599 -729.355774
31.729000 33.421398 -728.280273
32.019699 32.594398 -730.346375
33.515499 29.756599 -739.578918
32.101799 32.411499 -730.140625
33.980900 27.209900 -743.351990
34.137798 27.896000 -742.289124
34.339298 27.444500 -742.657104
34.501400 26.120001 -743.891174
32.128899 32.602901 -727.704773
34.455601 28.796801 -740.836487
34.839401 27.371700 -742.805420
32.936401 31.675301 -729.601074
34.855598 29.539101 -739.698914
35.661800 28.593901 -741.148315
35.166100 31.940399 -734.320129
34.234200 31.158800 -729.424072
34.324600 31.255699 -729.724182
34.421799 31.375000 -730.032776
36.977402 29.634100 -739.284119
35.296299 25.528799 -743.252930
27.824600 32.765499 -730.679016
27.857100 32.171600 -731.669373
27.996500 32.312099 -731.429688
27.962700 32.559799 -731.123474
27.882299 32.731098 -730.935425
27.875700 33.066399 -730.504517
28.024900 33.177799 -730.298401
28.025600 33.403500 -730.184326
27.938101 32.178398 -731.909729
27.954100 33.639301 -730.086487
27.889000 32.102402 -732.170227
28.095600 32.394600 -731.810974
28.083799 32.296501 -732.093079
28.028601 33.940399 -729.985474
28.043800 34.092400 -729.782288
27.966600 32.163700 -732.436523
31.482800 33.282299 -729.629822
31.467100 33.513401 -729.337097
31.493099 33.823002 -728.926025
31.630699 34.268398 -728.293518
31.990000 34.876301 -727.359802
28.105000 34.433201 -729.634521
28.669201 34.277699 -729.766174
28.963400 34.337898 -729.568176
31.454100 33.786999 -729.264282
28.331100 34.667801 -729.654724
28.795200 34.491901 -729.693420
29.050900 34.624699 -729.417419
31.485399 33.032600 -730.486877
31.420799 33.571701 -729.815430
31.396200 33.754501 -729.588989
31.489500 34.289101 -728.859070
31.571800 34.502201 -728.549927
31.656700 34.712700 -728.242920
31.932100 35.378799 -727.268677
32.125000 35.617699 -726.880981
28.025700 32.143600 -733.351624
28.441099 34.986698 -729.502991
28.818701 34.874699 -729.494812
29.243000 34.838100 -729.369873
29.506701 34.755901 -729.369385
29.896500 34.710201 -729.270325
31.413000 34.037399 -729.526001
31.990601 35.789902 -727.023071
32.751400 36.731899 -725.495117
29.022100 35.176399 -729.305298
29.413700 35.056198 -729.302612
29.665400 35.037300 -729.225220
30.028500 35.084900 -729.017029
31.522900 34.848999 -728.718384
32.034801 36.046902 -726.961792
32.414700 36.789398 -725.847778
28.255800 32.204201 -733.685974
28.993401 35.624001 -729.099121
29.469801 35.498100 -729.070618
29.798700 35.424702 -729.033630
30.115000 35.361000 -728.989014
30.353500 35.353199 -728.903503
31.046801 35.076900 -728.982178
31.270100 35.297901 -728.607605
31.878901 36.159901 -727.251526
32.220901 36.719799 -726.392212
31.075199 35.267502 -728.788330
29.235701 35.808998 -729.057007
29.490499 35.788601 -728.981628
29.744499 35.769199 -728.905273
30.142700 35.701599 -728.833374
30.384399 35.638100 -728.818787
30.613199 35.691700 -728.658325
30.903299 35.648499 -728.598083
31.181299 35.722198 -728.392212
31.744301 36.452801 -727.224670
31.841700 36.597900 -726.998474
32.025700 36.947399 -726.474182
32.097000 37.109200 -726.236877
32.128899 37.297401 -725.981323
32.146999 37.755001 -725.383728
31.858400 38.089500 -725.067383
28.219400 32.362701 -734.053406
29.887100 35.974701 -728.786621
30.196699 35.971802 -728.667603
30.504101 35.917198 -728.616028
30.823601 36.015999 -728.361877
30.991501 36.113300 -728.169617
31.194201 36.186699 -727.994629
31.363501 36.389900 -727.665222
31.465401 36.585701 -727.372009
31.596300 36.708199 -727.161987
32.070000 37.649502 -725.759399
28.604099 32.481998 -734.259216
28.635500 32.512699 -734.539307
33.698502 29.172400 -738.405212
33.823101 29.321899 -738.162903
33.752998 29.556200 -737.886414
33.727200 29.099701 -738.735107
33.980202 29.725401 -737.824585
33.498798 29.284500 -738.847595
33.558800 29.422501 -738.645081
33.896198 29.290400 -738.685913
34.040501 29.426001 -738.453674
33.966999 29.663500 -738.173584
33.730598 29.859900 -738.056274
34.656700 26.095400 -742.693115
33.737400 28.821800 -739.505615
33.790298 28.966801 -739.296570
33.637798 29.633900 -738.488770
35.064400 25.815399 -743.124695
34.866501 26.098900 -742.832520
34.860600 26.361099 -742.494080
34.762001 26.565800 -742.266113
34.506302 26.891701 -741.941101
34.600899 27.073400 -741.668823
34.197300 27.826200 -740.845886
34.420200 27.907000 -740.655273
34.245899 28.102800 -740.468018
33.722301 28.751101 -739.827087
33.965698 28.937799 -739.490906
33.719898 29.308599 -739.103821
33.899899 29.785601 -738.414917
34.626999 25.905199 -743.429016
34.706001 26.037901 -743.226379
34.630100 26.291100 -742.926697
34.662601 26.459101 -742.695984
34.596401 26.639099 -742.487671
34.427101 27.344801 -741.636292
34.227901 27.625000 -741.348816
34.234200 27.809500 -741.106628
34.109402 28.094101 -740.784973
34.050701 28.264400 -740.586304
33.851501 28.479099 -740.383789
33.869999 28.652100 -740.152100
33.660500 29.059700 -739.702881
33.671902 29.236601 -739.468994
34.461601 26.313000 -743.168274
34.435001 26.527500 -742.900024
34.527901 26.905300 -742.374084
34.439701 27.229300 -741.987183
34.218102 27.591101 -741.602112
34.020599 28.059200 -741.070007
33.872700 28.923201 -740.004883
34.499199 26.732901 -742.762512
34.371399 27.153200 -742.265686
34.304298 27.460400 -741.892578
34.131500 27.910999 -741.373596
33.986099 28.526199 -740.630615
34.126400 28.324301 -740.972229
34.462799 26.486900 -743.375488
34.482498 26.665800 -743.135681
34.391701 27.123100 -742.576477
34.283901 27.462900 -742.176270
34.286400 27.716101 -741.846680
34.204201 27.906500 -741.630615
34.121300 28.223400 -741.250671
30.706499 31.295300 -738.867615
33.062401 26.970200 -743.837891
33.610199 26.863300 -743.770325
32.811901 28.334700 -742.158630
32.299999 29.161400 -741.277100
32.186798 29.436701 -740.961914
31.914600 29.771000 -740.629883
31.996401 28.007700 -743.377808
30.481199 31.971800 -738.975708
30.798901 31.025000 -740.551270
30.804501 31.303101 -740.234375
31.928900 28.744699 -743.240906
31.677700 29.194500 -742.749084
31.238001 30.048000 -741.946411
31.216600 30.252300 -741.688782
33.986500 28.692101 -740.437012
34.879501 26.824301 -742.330322
33.698601 29.516199 -738.897095
29.989401 31.712299 -736.469971
30.206400 31.757799 -736.327576
28.759701 32.589401 -735.499084
31.429800 34.271999 -729.179871
31.726700 35.216400 -727.824402
29.413000 34.210201 -729.696899
31.534100 33.248600 -730.101685
31.447201 34.030300 -729.112671
28.406601 34.103699 -729.834473
33.796101 6.816700 -773.137878
33.533001 6.961000 -773.236084
33.293701 7.088300 -773.323181
33.027599 7.171900 -773.388123
32.737900 7.218000 -773.433899
32.488400 7.201400 -773.442078
32.190800 7.236200 -773.482178
31.930401 7.330700 -773.552673
31.637600 7.374300 -773.597229
31.328100 7.392400 -773.628784
31.077999 7.378500 -773.638611
33.922699 7.016100 -772.996826
33.703999 7.176800 -773.101013
33.450401 7.280400 -773.176025
33.173401 7.346200 -773.231628
32.885601 7.394900 -773.278625
32.568901 7.398100 -773.302429
32.117001 7.441700 -773.357910
31.775499 7.534700 -773.433105
31.468901 7.557100 -773.466797
31.161200 7.578700 -773.500122
30.888800 7.655900 -773.561829
34.051300 7.291600 -772.881409
33.798500 7.396000 -772.956787
33.532600 7.479200 -773.021301
33.252300 7.539300 -773.073975
32.956200 7.574400 -773.114014
32.655201 7.602600 -773.150330
32.338699 7.606800 -773.174622
32.070900 7.689300 -773.238770
31.784300 7.742400 -773.288086
31.396601 7.763400 -773.326477
31.078800 7.769400 -773.351685
30.823200 7.872800 -773.426819
34.360401 7.386200 -772.669617
34.029701 7.527400 -772.770813
33.778400 7.633800 -772.847107
33.420601 7.696200 -772.906311
33.130100 7.739900 -772.950500
32.826401 7.763100 -772.984192
32.502499 7.754900 -773.001892
32.213501 7.803400 -773.048584
31.959600 7.907800 -773.124023
31.673300 7.961400 -773.173523
31.271299 7.960400 -773.200378
30.954000 7.967500 -773.226074
30.659201 8.010300 -773.270081
34.197201 7.609500 -772.596924
33.632702 7.849500 -772.768494
32.653801 7.936100 -772.882874
31.485201 8.111100 -773.059082
31.110201 8.152800 -773.107727
30.801500 8.173500 -773.140076
33.995399 7.803800 -772.646606
33.346802 7.907300 -772.747925
33.064400 7.963600 -772.798279
32.362099 7.986600 -772.858582
32.100601 8.078200 -772.927124
31.822201 8.143400 -772.982178
34.443501 7.781500 -772.507813
30.637400 8.373700 -773.095093
34.204300 7.964000 -772.512207
33.945301 8.055600 -772.580811
33.655300 8.097000 -772.623474
32.900398 8.156000 -772.707825
32.570400 8.136700 -772.719482
31.676800 8.361900 -772.905579
31.422501 8.339600 -772.910522
31.121201 8.369700 -772.947815
34.588200 7.836000 -772.258728
33.411201 8.228800 -772.557678
33.113300 8.258500 -772.594482
32.345402 8.299800 -772.669800
32.086899 8.394400 -772.740112
30.878401 8.505400 -772.884277
30.619301 8.574900 -772.940674
34.705299 8.076700 -772.197876
34.460899 8.190700 -772.278015
34.202999 8.282700 -772.346680
33.905399 8.310600 -772.382507
33.606300 8.336900 -772.417419
32.862000 8.411500 -772.509583
32.609501 8.388600 -772.513916
31.940300 8.587900 -772.670288
31.647900 8.629500 -772.713379
31.337299 8.643700 -772.742371
31.037100 8.674700 -772.780090
33.366299 8.498800 -772.338379
33.076900 8.541900 -772.382080
32.390099 8.584800 -772.452576
32.144199 8.698400 -772.532593
30.794800 8.836700 -772.701172
35.086201 8.300600 -771.850098
34.855701 8.436500 -771.941589
34.595901 8.524100 -772.008179
34.332600 8.606300 -772.072021
34.048599 8.655300 -772.118591
33.744801 8.673000 -772.148987
33.454601 8.713300 -772.191284
33.164799 8.755000 -772.234314
32.853600 8.763500 -772.260071
32.534801 8.761000 -772.280273
32.277599 8.856300 -772.351013
31.998800 8.917900 -772.404297
31.704300 8.955600 -772.445313
31.391300 8.965400 -772.471985
31.097099 9.005200 -772.514221
30.714600 9.033300 -772.555786
35.359699 8.490000 -771.591187
35.125301 8.668800 -771.707214
34.864601 8.754100 -771.772583
34.589699 8.816400 -771.825989
34.309399 8.870500 -771.875183
34.008099 8.891200 -771.907227
33.727299 8.945800 -771.956726
33.429298 8.973400 -771.992310
33.141701 9.018300 -772.036926
32.812500 8.998100 -772.047913
32.501801 9.008200 -772.074585
32.237400 9.091900 -772.139282
31.978001 9.183600 -772.208130
31.688000 9.228000 -772.252625
31.372101 9.233100 -772.276794
31.087099 9.286600 -772.325989
30.782400 9.310600 -772.360107
30.509399 9.383700 -772.419373
35.630600 8.827100 -771.459473
35.372002 8.863200 -771.497070
35.107498 8.941400 -771.558899
34.841599 9.017700 -771.619629
34.568401 9.082400 -771.674316
34.286301 9.133100 -771.721802
33.965302 9.121700 -771.737122
33.675999 9.162400 -771.779480
33.394798 9.216500 -771.828918
33.084099 9.224600 -771.854309
32.767300 9.223900 -771.875427
32.471600 9.257500 -771.914185
32.208801 9.343200 -771.979980
31.931101 9.406000 -772.033875
31.647499 9.460200 -772.083496
31.352900 9.497900 -772.124512
31.054501 9.530500 -772.163025
30.730600 9.525000 -772.181824
30.432100 9.559100 -772.221130
35.785900 8.976700 -771.200012
35.548801 9.084300 -771.276184
35.287800 9.167800 -771.340515
35.024601 9.247800 -771.403015
34.758701 9.323800 -771.463379
34.465801 9.356300 -771.501282
34.165199 9.377100 -771.533020
33.877899 9.420200 -771.576416
33.580898 9.448500 -771.612122
33.291801 9.490000 -771.654785
32.966702 9.475400 -771.668274
32.651001 9.476800 -771.690186
32.397800 9.577000 -771.763428
32.134998 9.662400 -771.828918
31.854200 9.720200 -771.880127
31.546801 9.737400 -771.910278
31.268499 9.800200 -771.964111
30.969601 9.831900 -772.001892
30.665199 9.856100 -772.035828
30.255600 9.881000 -772.077087
35.944599 9.148500 -771.099976
35.453999 9.319700 -771.229004
30.391800 10.132900 -772.024414
35.727699 9.279200 -771.076904
35.216599 9.462500 -771.214417
34.942402 9.523900 -771.267273
34.659100 9.570900 -771.312805
34.369598 9.608500 -771.353516
34.080101 9.646900 -771.394470
33.802101 9.704300 -771.445496
33.515499 9.748600 -771.489685
33.210201 9.763800 -771.518677
32.935299 9.703400 -771.503174
32.651600 9.754400 -771.551025
32.402302 9.860100 -771.627197
32.129501 9.929000 -771.684326
31.825800 9.950700 -771.716919
31.510099 9.954500 -771.740295
31.225000 10.006400 -771.788574
30.938101 10.056100 -771.835815
30.633499 10.079500 -771.869507
30.157801 9.975300 -771.842896
35.985401 9.424300 -771.008728
35.577702 9.519800 -771.089783
32.317299 10.095300 -771.557190
30.766100 10.276200 -771.763916
30.434799 10.258700 -771.776428
31.633699 10.143900 -771.627380
33.665001 9.903300 -771.358704
33.364498 9.924900 -771.391296
31.985500 10.114300 -771.591980
35.813702 9.638500 -770.919800
35.388302 9.702500 -770.985229
35.106098 9.748300 -771.030518
34.829201 9.803500 -771.080627
34.560101 9.872100 -771.137878
34.266800 9.901400 -771.174622
33.992699 9.962800 -771.228088
33.074402 9.996100 -771.310120
32.821899 9.969200 -771.312317
32.575500 10.077900 -771.390625
31.367100 10.289300 -771.593079
31.080900 10.337600 -771.640076
36.236198 9.745000 -770.705811
35.962002 9.801900 -770.756897
35.715302 9.905600 -770.832581
35.429699 9.944300 -770.874084
34.974701 9.959800 -770.914185
34.704201 10.025300 -770.969971
34.421501 10.071300 -771.015503
34.145100 10.128100 -771.066711
33.858799 10.169500 -771.109802
33.592201 10.243200 -771.169922
33.257702 10.208600 -771.173279
32.912800 10.158700 -771.168884
32.538399 10.313000 -771.281982
32.269798 10.386100 -771.341919
31.982901 10.430900 -771.387024
31.689199 10.465700 -771.426880
31.403500 10.513600 -771.473694
30.950600 10.549100 -771.525024
30.656900 10.586500 -771.566406
30.363001 10.624400 -771.607971
35.214802 10.092200 -770.786011
32.734901 10.370300 -771.113708
32.125401 10.650100 -771.313904
31.206200 10.695800 -771.402893
36.370399 9.988900 -770.431030
36.134899 10.110400 -770.516113
35.892200 10.219900 -770.594727
35.606602 10.257700 -770.635681
35.082802 10.286200 -770.687683
34.794300 10.321500 -770.727478
34.514702 10.372000 -770.775330
34.236801 10.426100 -770.824890
33.955002 10.474100 -770.871399
33.672298 10.521500 -770.917603
33.371799 10.540900 -770.949219
33.111000 10.499600 -770.943726
32.634899 10.616000 -771.042175
32.382099 10.713300 -771.114624
31.970699 10.809200 -771.197205
31.657600 10.813500 -771.221130
31.375299 10.866500 -771.270386
31.069099 10.883200 -771.300781
30.772800 10.915800 -771.339600
30.464399 10.931000 -771.369324
36.481602 10.086500 -770.227173
36.253502 10.284200 -770.354980
36.012402 10.395700 -770.434814
35.741001 10.456600 -770.487976
35.491600 10.426300 -770.487915
35.206600 10.466100 -770.530029
34.925999 10.513500 -770.576111
34.637798 10.549200 -770.616089
34.133499 10.613600 -770.687317
33.864399 10.682000 -770.744507
33.577202 10.721900 -770.786804
33.243900 10.688800 -770.790894
32.938099 10.701000 -770.818726
32.561501 10.850000 -770.929077
32.295502 10.926200 -770.990601
31.869600 10.999100 -771.061218
31.570499 11.025100 -771.096375
31.286501 11.075100 -771.144226
31.003500 11.127200 -771.193176
30.696100 11.142600 -771.223022
30.376200 11.140100 -771.243530
36.405602 10.354200 -770.155518
36.209499 10.540600 -770.274780
35.870800 10.616700 -770.341187
35.338600 10.628500 -770.384216
35.070900 10.696600 -770.441223
34.771702 10.713400 -770.471191
34.474400 10.734400 -770.503418
33.705200 10.874000 -770.635193
33.393600 10.875000 -770.656982
32.804901 10.934500 -770.731079
32.129799 11.108100 -770.875793
31.707800 11.187100 -770.949524
31.134701 11.278600 -771.040588
30.847000 11.323400 -771.085815
30.520700 11.310300 -771.100586
30.261299 11.399500 -771.169006
36.401699 10.620100 -770.106873
35.645599 10.768900 -770.242920
34.275600 10.931600 -770.428528
33.995201 10.981000 -770.475586
33.148800 11.000100 -770.543884
32.706001 11.166700 -770.668823
32.416000 11.204300 -770.709778
31.923700 11.295500 -770.794983
31.503500 11.377600 -770.870300
36.721100 10.585700 -769.902771
36.224899 10.843600 -770.082825
35.966599 10.924900 -770.146484
35.409801 10.895200 -770.167114
35.135899 10.952600 -770.218079
34.859299 11.005900 -770.267029
34.573601 11.045000 -770.308472
33.785702 11.152600 -770.422729
33.483601 11.168300 -770.452026
32.977402 11.233300 -770.523010
32.219501 11.398000 -770.667725
31.712400 11.466700 -770.740906
31.288200 11.543100 -770.812927
31.011801 11.604400 -770.866394
30.725100 11.650700 -770.911987
30.393400 11.629700 -770.922424
36.529499 10.811800 -769.899170
