35.941101 22.618700 -758.556580
35.987999 22.400101 -759.304321
36.103500 22.341000 -759.690125
33.235100 26.222300 -743.760010
33.695301 26.473101 -743.818298
32.866100 24.306999 -748.923706
33.158199 24.329100 -749.377319
33.501900 24.468500 -749.566101
34.137299 24.835501 -749.583801
34.454700 24.993500 -749.669373
34.949299 25.229900 -749.832703
35.312401 25.502300 -749.652405
35.701900 25.705999 -749.727600
36.030201 25.828600 -749.940430
36.566200 25.856800 -750.810425
34.694302 22.766001 -756.866821
35.017502 22.836000 -757.230225
35.375301 23.028900 -757.281677
35.565498 22.975500 -757.783508
35.841301 23.030800 -758.107117
36.162300 23.062300 -758.583801
36.252201 22.981199 -758.990417
36.023800 22.511400 -760.010925
36.220299 22.525499 -760.318481
32.469601 24.281401 -749.182617
33.661201 24.805099 -749.711914
34.559700 25.259199 -749.931213
36.126999 26.241699 -749.735229
36.462898 26.428301 -749.766113
35.840500 23.209499 -758.434326
36.326900 23.227600 -759.244629
36.313301 23.084200 -759.655518
31.810600 23.993299 -749.767090
32.147301 24.152201 -749.883972
32.516800 24.323200 -750.022278
32.758999 24.534599 -749.810974
33.096001 24.767401 -749.703796
33.789902 25.107100 -749.907104
34.100498 25.307800 -749.850281
34.671700 25.540800 -750.159485
35.068199 25.909500 -749.745117
35.354099 26.132299 -749.576904
35.703800 26.284100 -749.738281
35.646801 23.287201 -758.748596
35.923698 23.343100 -759.071899
36.426899 23.376101 -759.868103
36.644001 23.377100 -760.251709
36.218800 22.922400 -760.876770
36.567902 23.076000 -761.031677
31.686300 24.250799 -750.068420
32.002899 24.404100 -750.166382
32.394199 24.603300 -750.257874
32.858501 24.949600 -750.031372
33.193298 25.180000 -749.926819
33.554100 25.342600 -750.075623
33.931301 25.578800 -750.028870
34.258499 25.750099 -750.090881
34.299099 25.595200 -750.635681
34.926300 26.302500 -749.599487
35.264301 26.508499 -749.575073
35.599300 26.589100 -749.927612
35.962002 26.758801 -750.057922
36.322102 26.978300 -750.031677
35.393799 23.646099 -758.531616
35.471001 23.554501 -758.948608
35.790199 23.681400 -759.131714
36.072399 23.514299 -760.144775
36.246399 23.508801 -760.472229
36.515701 23.557301 -760.805176
36.656700 23.521299 -761.166992
31.150900 24.433800 -750.235413
31.493601 24.627001 -750.257385
31.805401 24.773701 -750.365906
32.115299 24.867399 -750.633179
32.965099 25.594601 -749.929016
33.251400 25.675400 -750.193176
33.639999 25.874399 -750.279480
33.957001 26.083500 -750.206909
34.319901 26.301901 -750.187683
34.909698 26.863501 -749.525024
35.267502 27.035101 -749.639771
35.501701 27.034201 -750.060791
35.701401 27.038601 -750.404175
36.025101 27.208500 -750.463074
34.693600 23.790701 -758.530212
34.791199 23.717899 -758.927185
34.940701 23.691200 -759.275818
35.070801 23.646700 -759.644104
31.207399 24.885599 -750.395630
31.548901 25.019800 -750.596008
31.777800 25.060101 -750.882629
32.103600 25.186701 -751.078308
33.026798 25.998600 -750.242920
33.376598 26.160801 -750.372314
33.700401 26.327000 -750.442810
34.054298 26.584801 -750.286621
34.817902 27.227900 -749.682678
35.167599 27.431999 -749.683777
35.465801 27.516899 -749.957825
35.658501 27.513201 -750.314514
35.938999 27.539400 -750.736816
34.172798 23.735201 -759.240417
34.325901 23.711599 -759.587097
34.435001 23.648100 -759.977417
31.759100 25.289301 -751.161926
35.253601 27.804001 -749.717773
35.591999 27.891800 -750.057129
30.664900 25.075500 -750.720703
30.982300 25.259199 -750.727478
31.296900 25.409800 -750.830688
31.816700 25.504101 -751.478394
32.965801 26.490700 -750.510681
33.339699 26.679501 -750.603516
33.648701 26.878401 -750.547913
33.962101 27.006901 -750.717590
34.450699 27.612000 -749.733826
34.801201 27.826599 -749.704773
35.716099 28.214701 -750.159607
36.072899 28.459499 -750.049011
31.310200 25.610300 -751.149475
34.893700 28.181999 -749.684570
35.208000 28.340799 -749.762085
30.308300 25.403999 -750.843689
30.675800 25.590599 -750.931885
30.986500 25.736200 -751.044312
31.295799 25.779499 -751.470703
32.804501 26.889799 -750.768188
33.170101 27.084499 -750.827820
33.544399 27.317499 -750.784912
34.169399 27.980301 -749.866028
34.481300 28.185400 -749.796082
35.367100 28.688601 -749.843872
31.319300 25.889999 -751.893616
34.647400 28.534599 -749.735107
34.951199 28.730301 -749.679688
35.572300 29.040001 -749.846680
30.448500 25.834900 -751.104614
30.814699 26.000799 -751.254395
31.041401 26.039000 -751.546997
32.761600 27.226200 -750.987305
33.128399 27.414700 -751.068115
33.861801 28.176001 -750.038818
35.154701 28.997801 -749.836304
35.819099 29.371799 -749.882385
31.230801 26.264999 -751.790100
34.132702 28.527201 -750.039673
34.618698 28.909401 -749.736206
30.041599 25.970100 -751.253174
30.403000 26.148800 -751.353516
30.750601 26.290300 -751.543884
33.448601 28.373199 -749.973816
34.114601 28.815201 -749.809509
34.837700 29.255199 -749.754883
35.162300 29.428101 -749.806885
35.500702 29.619400 -749.826172
30.794399 26.435900 -751.927124
30.846201 26.350000 -752.286926
33.594601 28.631701 -750.186829
34.231998 29.158400 -749.707275
35.619801 29.966101 -749.713684
29.743700 26.195601 -751.542297
30.068600 26.406900 -751.474304
30.412800 26.543301 -751.673279
34.408001 29.477200 -749.795898
34.756802 29.680700 -749.795288
35.091702 29.866699 -749.823730
30.475100 26.698700 -752.012085
30.692499 26.722799 -752.329224
33.980701 29.497299 -749.658386
35.267502 30.219500 -749.739319
35.592701 30.453600 -749.600098
29.486401 26.426901 -751.710510
29.816700 26.594000 -751.787170
30.157700 26.775200 -751.839417
34.206402 29.817200 -749.701416
34.699299 30.056801 -749.845825
30.479099 26.866600 -752.629272
34.896801 30.357100 -749.769226
35.234200 30.597200 -749.632874
30.124901 26.940901 -752.164612
34.327202 30.143600 -749.814514
35.465401 30.877800 -749.591125
29.407700 26.794901 -751.842896
29.727900 26.950500 -751.937622
30.292500 26.960300 -752.924927
33.896900 30.097500 -749.693420
30.059500 27.173401 -752.437805
34.094601 30.409700 -749.669800
34.432201 30.548201 -749.848511
34.752998 30.766100 -749.750916
35.127800 31.055300 -749.528870
35.303902 31.016300 -749.967285
28.989901 26.877800 -751.988098
29.359900 27.062401 -752.083008
29.681200 27.218500 -752.178223
30.133699 27.288700 -752.778198
35.327702 31.294201 -749.713379
30.362200 27.546200 -752.981323
33.911701 30.719400 -749.525696
34.363998 30.907700 -749.758118
34.675800 31.114000 -749.679993
35.541000 31.521500 -749.977295
28.717800 27.016001 -752.254578
29.063101 27.205500 -752.288574
29.404800 27.386600 -752.342285
29.708099 27.468599 -752.635010
29.906700 27.467400 -752.997620
30.190800 27.420099 -753.657776
30.228800 27.313000 -754.060120
34.855900 31.444000 -749.561829
35.132099 31.452700 -750.033691
29.826900 27.440800 -753.510315
33.962002 31.108400 -749.559875
34.329899 31.286600 -749.669495
35.047501 31.771900 -749.454712
28.679399 27.279100 -752.577881
29.001900 27.485300 -752.518494
29.327101 27.645500 -752.607971
29.550800 27.676800 -752.916016
29.828800 27.519899 -753.910583
34.500801 31.641399 -749.510498
35.237598 32.002300 -749.719910
29.545401 27.674500 -753.380981
30.108601 27.779301 -754.076721
33.944599 31.475500 -749.482971
34.641399 31.982401 -749.163025
34.989300 32.129902 -749.473022
29.621401 27.791201 -753.731201
34.566002 32.209900 -748.891907
28.454100 27.624901 -752.684692
28.823700 27.822201 -752.736816
29.139299 27.918699 -753.006409
34.686199 32.297600 -749.370728
29.201401 27.990000 -753.361572
29.729401 28.099899 -753.973389
30.039200 28.291599 -753.935181
29.264400 28.098801 -753.751404
28.164000 28.033400 -752.756409
28.534300 28.207899 -752.879517
28.740801 28.216000 -753.226379
28.957001 28.235800 -753.554626
29.452801 28.406500 -753.915588
29.793600 28.585300 -753.971680
29.041500 28.444099 -753.857178
27.935499 28.324100 -752.897583
28.281500 28.508699 -752.945923
28.518400 28.556601 -753.226013
28.568701 28.468901 -753.593018
29.199699 28.659700 -754.139709
28.686701 28.608900 -753.903015
28.062401 28.771200 -752.768799
28.372900 28.912100 -752.889771
28.280199 28.625700 -753.994080
28.797100 28.875299 -754.149414
28.653500 29.240700 -752.973877
28.798599 29.618200 -753.045105
25.978300 28.291201 -753.791016
28.189699 29.258600 -754.773682
34.146999 31.804001 -749.577209
33.887402 27.342699 -750.523376
34.930599 23.694300 -761.382629
34.396599 23.648701 -760.339294
34.161900 26.921801 -750.161072
35.022800 23.694599 -760.058228
35.280602 23.843000 -758.820190
35.432598 23.775101 -759.265076
35.708000 23.724899 -758.727478
36.077900 23.545799 -759.353882
35.941502 23.611500 -758.339783
36.113701 23.597200 -758.665405
35.078602 23.044100 -757.757874
35.477699 23.133801 -758.165283
33.004101 26.559500 -743.669373
33.378799 26.792299 -743.631775
33.813999 27.005501 -743.750122
32.779999 24.425200 -749.330872
33.869900 26.403000 -745.003784
34.004700 26.653799 -744.001770
34.167198 26.614901 -744.380310
32.032600 23.521700 -749.574402
32.361599 23.686399 -749.654114
36.250000 25.740200 -750.292725
36.556400 25.938000 -750.241272
36.885399 26.111500 -750.296326
37.435501 23.870199 -757.528076
37.629101 23.842800 -757.925720
32.825199 23.761200 -748.975891
34.100300 25.679600 -745.180908
34.474701 22.176399 -755.067017
34.812302 22.348101 -755.141113
36.135399 22.061899 -757.530579
36.011200 22.021200 -756.999573
34.790600 23.336100 -750.942688
36.193802 21.865801 -756.647888
33.132401 22.626200 -749.172607
36.181099 21.800400 -756.284180
35.880299 21.522499 -756.954773
34.773102 23.236401 -749.698914
36.273102 23.191299 -750.556580
35.608501 20.454300 -751.976929
33.770401 20.500900 -745.700012
34.103100 20.421700 -746.057373
34.534500 20.727900 -745.922119
33.487499 19.864599 -746.352600
34.486000 20.006399 -747.595520
34.408600 19.235901 -749.585815
34.384300 20.137501 -746.140686
34.930599 18.885799 -750.472473
33.947601 19.848101 -745.760681
33.500099 19.119499 -746.371521
35.579700 18.955000 -749.916382
35.567402 18.635900 -749.404602
35.107601 18.065599 -749.322693
35.395901 17.507799 -747.258118
35.496201 16.781700 -746.746216
36.091702 13.738900 -746.077087
34.234299 12.954700 -744.492493
35.575100 10.935700 -742.997375
36.717899 10.609500 -743.466309
36.834000 10.520000 -743.885986
35.957600 10.241200 -742.564270
35.158401 8.743900 -742.434998
35.061600 8.379700 -742.353271
37.462101 9.158300 -744.247925
37.171799 8.259900 -743.074829
37.486401 8.332400 -743.398376
37.196701 8.144600 -742.239929
35.797600 4.353700 -739.940491
38.618401 3.207300 -740.115417
38.528500 3.004200 -740.461975
35.905800 1.516300 -738.483704
38.088402 0.104400 -738.356873
38.413700 0.336900 -738.310120
37.642700 -1.662400 -738.715088
37.967499 -1.623700 -738.456116
37.131100 -1.448100 -738.895691
38.313702 -1.540100 -738.330017
38.917000 -1.172300 -737.366211
38.073002 -1.124100 -738.122986
37.476299 -1.310400 -739.124573
37.796398 -1.259000 -738.847473
38.188702 -1.200400 -738.514893
36.872700 -1.091300 -739.413086
38.419102 -0.972900 -738.286926
37.575298 -0.962600 -739.159973
37.872200 -0.900100 -738.878418
37.022499 -0.827900 -739.884827
37.116901 -0.668700 -739.565918
37.443699 -0.621900 -739.291626
37.734699 -0.557200 -739.009277
38.456799 -0.575300 -738.602783
37.305199 -0.747200 -740.349670
37.535099 -0.489600 -739.785828
38.858299 -0.002600 -738.183105
37.415001 -0.540900 -740.707886
37.466301 -0.115500 -739.973389
37.449902 0.096300 -739.632874
37.556198 0.248900 -739.316528
38.040100 0.343600 -738.868286
39.158100 0.603600 -737.764709
37.495201 -0.362500 -741.060913
37.457901 0.308500 -739.969788
37.943699 0.766800 -738.917114
38.390099 0.717700 -738.729919
39.286400 0.601400 -738.383606
37.684601 0.157900 -740.753418
37.384602 0.627200 -740.152283
37.332802 0.854300 -739.805298
37.868401 1.084400 -739.100281
38.216400 1.041000 -738.963196
38.509602 1.064500 -738.747925
38.395000 1.271700 -738.471680
37.474400 0.555400 -740.869324
37.278400 1.054000 -740.154297
37.683300 1.506000 -739.156677
38.119099 1.461400 -738.969788
38.889900 1.179400 -738.978088
37.308498 1.077400 -740.748779
37.229099 1.397600 -740.260681
37.702400 1.896100 -739.143311
38.037701 1.898900 -738.938110
38.280998 1.985400 -738.647827
37.012699 1.345500 -741.265015
37.175999 1.773000 -740.451111
37.137501 1.991800 -740.107178
36.764702 1.740600 -741.725525
36.993401 1.846600 -741.412109
37.200298 1.948900 -741.117676
37.264400 2.119200 -740.793579
37.086498 2.363800 -740.487915
36.998299 2.565300 -740.201416
37.351601 2.797600 -739.601807
37.746399 2.732300 -739.477905
38.047699 2.831100 -739.133728
37.025299 2.792300 -740.843628
36.855900 3.031700 -740.539978
37.201900 3.346100 -739.806824
37.813099 3.498200 -739.190979
37.376202 3.898400 -738.773804
36.930801 3.295500 -740.979126
36.743698 3.542600 -740.671814
37.382500 3.839400 -739.798584
37.593800 3.939600 -739.506409
35.949799 3.468100 -742.087585
36.507801 3.459100 -741.778687
37.030102 3.411600 -741.555725
36.878799 3.682100 -741.186829
36.647900 3.909800 -740.936401
36.713200 4.077300 -740.615601
36.878101 4.198100 -740.315796
37.125301 4.280900 -740.032471
37.814499 4.436900 -739.368896
38.083401 4.511200 -739.087280
36.647900 3.803800 -741.670227
36.613098 4.274900 -740.960083
36.340099 3.559400 -742.107727
38.039902 4.423100 -739.668030
37.969299 3.974800 -739.441528
36.862400 3.527400 -740.302917
38.215900 3.694800 -739.236084
37.681301 3.731500 -738.935120
37.607300 3.248200 -739.619324
36.524601 3.404400 -741.141174
36.718899 3.597700 -742.194702
37.053600 3.872600 -741.534485
36.796799 4.111100 -741.276428
36.598598 4.519700 -740.695313
37.041199 4.672300 -740.181091
37.732800 4.713000 -739.714111
36.396900 4.330000 -741.619202
37.278999 4.952600 -740.051575
36.485199 4.229100 -742.090820
36.588200 4.577900 -741.437622
36.469002 4.830400 -741.075806
36.948898 5.123100 -740.302185
36.391201 4.084500 -742.551514
36.719601 4.389200 -741.845886
36.506100 5.136100 -740.812988
37.272598 5.280500 -740.220886
36.804298 4.312600 -742.274719
37.112900 5.552600 -739.989624
35.735401 4.541600 -742.557373
36.262699 4.929200 -741.598328
37.344101 5.681000 -739.712891
36.428001 5.120800 -741.333130
37.061798 5.630000 -740.369507
37.625000 5.690600 -739.945374
35.690300 5.216600 -742.130493
36.486401 5.205800 -741.696777
36.380798 5.488500 -741.274170
36.048801 5.330700 -742.083801
36.396702 5.798100 -741.089111
37.332699 5.963900 -740.276428
36.128899 4.896900 -743.274170
36.200401 5.060800 -742.953613
36.354099 5.735300 -741.714111
36.964802 6.201500 -740.572083
36.650902 5.619300 -742.259277
36.287300 6.095900 -741.648926
36.294399 6.287200 -741.317688
37.446400 6.414100 -740.450989
36.185299 6.141900 -742.140076
36.785599 6.728400 -740.799683
37.168800 6.713700 -740.609680
35.965900 6.567700 -742.247681
36.153198 6.677400 -741.954529
36.166199 6.865300 -741.625122
36.781300 7.094700 -740.887207
37.117001 7.139800 -740.621826
35.773800 6.584000 -743.145325
36.045300 6.870200 -742.501587
36.525200 7.506200 -741.140015
36.945999 7.474900 -740.958801
37.468800 7.322400 -740.929077
36.303501 6.773800 -743.324585
36.293499 7.173600 -742.640930
36.057701 7.394500 -742.391418
36.524700 7.841900 -741.359985
36.993999 7.751100 -741.255310
38.377499 8.112600 -739.861877
38.518002 8.349500 -739.375427
36.682301 8.211600 -741.381226
36.983200 8.271800 -741.110229
36.014198 7.936800 -742.824280
35.887798 8.145900 -742.532104
36.437901 8.477100 -741.653198
36.915199 8.662800 -741.558289
36.652199 8.853100 -741.373413
35.493500 8.359200 -743.254822
35.674999 8.469300 -742.962891
35.779800 8.651300 -742.588318
35.836498 8.816200 -742.270081
36.230400 8.909700 -741.889526
36.586498 8.959900 -741.798096
36.593498 9.194800 -741.484802
35.883801 8.349200 -743.476685
35.809399 8.634500 -743.255371
35.751801 8.848300 -742.912292
35.751099 9.036800 -742.581970
36.210899 9.312200 -742.011414
36.555500 9.318500 -741.879089
36.863602 9.422700 -741.363281
35.416100 8.937100 -743.592407
35.708199 9.221100 -742.930481
36.784801 9.582300 -741.706726
35.635502 9.387700 -743.444275
35.578800 9.597100 -743.102417
36.366501 9.892500 -742.151611
36.934399 9.839300 -741.939575
36.650002 10.032400 -741.749817
35.272099 9.484200 -744.148926
35.557899 9.541800 -743.892578
35.566200 9.723300 -743.564819
35.513599 9.930200 -743.224304
36.597099 10.174600 -742.206177
35.279202 9.938700 -743.822327
35.591301 10.284300 -743.037720
36.160500 10.527000 -742.299377
35.655602 9.596800 -744.557617
35.779301 9.733700 -744.246277
35.511002 10.178500 -743.593384
36.761200 10.571200 -742.221008
35.980202 8.952100 -744.005493
36.070301 9.134200 -743.630127
35.648602 9.750000 -742.750671
36.206200 7.599600 -742.857910
35.884800 8.099400 -742.132629
37.235500 8.406500 -740.848816
36.011600 7.536500 -742.047180
36.775200 7.901300 -740.977112
38.113499 7.875600 -740.298523
35.492100 6.208800 -744.266418
35.553299 6.384200 -743.916626
35.715302 6.534500 -743.557495
37.782501 7.812000 -740.130676
37.911800 7.951100 -739.809387
35.840099 6.371200 -744.142395
36.416901 7.093400 -742.994629
36.661201 8.218400 -740.808716
36.302399 8.838600 -741.276184
36.420200 6.552900 -744.911987
36.016899 7.076400 -742.185730
35.930901 7.357800 -741.704773
37.481701 7.547800 -740.523315
37.431801 7.068400 -740.447388
37.888199 6.992200 -740.346497
38.171799 7.028600 -740.127014
38.240799 7.203100 -739.763123
38.368900 7.339100 -739.439819
36.241699 5.937300 -742.474792
37.604500 6.729700 -740.259827
37.972000 6.405700 -740.417786
37.629799 6.576400 -740.981079
37.840900 6.703400 -740.629578
36.023399 6.590500 -743.801392
37.828800 7.448800 -741.211670
36.852299 6.627400 -745.060181
37.362701 8.331600 -741.473328
36.033199 7.468600 -743.310608
35.898899 7.749200 -742.511475
37.297100 7.973200 -741.355286
37.040001 8.999500 -741.526917
36.895000 9.178800 -741.920227
35.713402 9.871600 -743.907471
36.372898 10.241300 -741.871704
35.370300 10.211800 -744.079895
35.452400 10.518000 -743.386475
35.986099 10.731000 -742.668884
36.637402 10.598100 -742.630798
35.254799 10.416000 -744.609070
35.212601 10.601700 -744.232178
35.385502 10.725000 -743.883179
36.024300 11.053800 -742.864075
36.334900 11.069300 -742.677917
35.618500 10.758200 -744.709229
35.493801 10.954400 -744.348328
35.297798 11.144500 -744.035889
35.617100 11.429500 -743.265930
35.940102 11.470600 -743.018799
36.225201 11.514700 -742.783813
35.222000 11.203300 -744.897217
35.276001 11.353200 -744.548218
35.195900 11.532900 -744.200073
35.262402 11.692000 -743.825012
35.680801 11.821300 -743.342102
36.053299 11.815600 -743.172485
36.200001 11.930400 -742.853699
35.361401 11.536500 -744.859619
35.165699 11.907500 -744.155273
35.561699 12.105400 -743.537476
35.875000 12.150400 -743.288879
35.076599 11.774400 -745.031372
35.132702 11.967500 -744.588623
34.756901 12.040000 -745.044678
35.084801 12.290900 -744.347778
35.316700 12.453800 -743.886108
35.646801 12.493300 -743.643188
35.973499 12.590200 -743.435974
35.121201 12.101500 -745.419800
35.146198 12.270200 -745.044373
36.395000 12.757000 -743.413818
35.052502 12.496800 -744.765930
35.380501 12.810100 -743.939697
35.759998 12.835900 -743.708923
36.099701 12.992800 -743.466614
35.014599 12.383700 -745.644470
34.828300 12.739600 -745.649902
35.011002 12.853600 -745.321472
34.961700 13.169200 -744.661621
35.544998 13.312200 -744.090515
35.926102 13.311100 -743.921570
34.756001 13.139900 -745.608826
34.908199 13.260900 -745.279602
34.870300 13.423000 -744.946472
35.035702 13.549800 -744.598877
35.273499 13.623800 -744.332886
35.762100 13.589000 -744.190308
34.801601 13.304000 -746.144897
34.987801 13.429500 -745.790527
34.832802 13.808500 -745.038696
35.492699 13.958200 -744.421570
35.837002 13.939700 -744.308777
34.651901 13.733400 -746.112305
34.889099 13.807700 -745.846985
34.748199 14.002400 -745.487488
35.396400 14.306100 -744.544312
34.740700 14.366000 -745.361572
35.619999 14.615800 -744.438782
34.720299 14.195600 -746.447571
34.744900 14.368600 -746.063782
34.653000 14.547900 -745.716919
35.205799 14.825100 -744.880676
34.633801 14.571200 -746.341003
34.965302 15.037900 -745.191223
35.550098 15.036500 -744.943115
34.713600 14.498900 -746.689880
34.615898 14.831200 -746.015991
34.644798 15.017500 -745.673279
35.892300 15.191500 -744.769104
35.161598 15.320500 -745.076172
35.475498 15.393000 -744.908386
34.714600 14.918100 -746.603210
34.532200 15.125500 -746.231628
34.350399 15.059300 -746.815979
34.922401 15.593300 -745.417603
35.371700 15.605200 -745.201782
34.589600 15.339300 -746.691589
34.497799 15.518200 -746.342712
34.581200 15.702600 -745.908630
34.555901 15.599000 -747.096497
34.488300 15.786800 -746.716980
34.393101 15.966200 -746.367310
34.648701 16.157000 -745.846619
35.022598 16.192301 -745.614014
34.440899 16.061399 -747.225708
34.395302 16.225300 -746.887573
34.562801 16.562401 -746.083923
34.919300 16.602800 -745.847473
35.229599 16.628099 -745.663513
34.396400 16.426901 -747.484619
34.242401 16.624201 -747.118286
34.301601 16.815300 -746.677795
34.652000 17.006901 -746.116394
35.027000 17.012699 -745.949585
35.268398 17.096300 -745.668274
34.288399 16.847900 -747.550781
34.182701 17.030199 -747.197327
34.562099 17.393000 -746.253906
34.915401 17.405800 -746.082520
34.174099 17.063299 -748.004578
34.136200 17.224800 -747.668091
34.072601 17.393801 -747.325500
34.401402 17.741301 -746.435425
34.783199 17.745300 -746.272217
34.080399 17.401800 -748.310303
34.033699 17.565599 -747.970886
33.974602 17.732800 -747.629089
33.965801 17.884300 -747.301270
34.268200 18.149000 -746.600220
34.606098 18.195601 -746.362000
34.612801 18.368700 -745.980591
33.939301 17.935699 -748.225586
33.896099 18.097799 -747.887878
33.808998 18.273001 -747.539124
33.868698 18.432899 -747.165222
33.942699 18.588200 -746.795410
34.360802 18.906200 -745.931519
34.028900 17.818800 -749.150879
34.132999 17.966400 -748.786377
33.768200 18.436001 -747.903503
33.721001 18.628500 -747.500916
33.874699 18.789400 -747.087524
34.718601 19.039600 -746.203979
34.043701 18.275999 -748.582825
34.032299 18.081100 -749.418091
34.012699 18.266800 -749.018982
33.911301 18.596300 -748.336975
33.743198 18.796400 -747.965088
33.766399 18.996901 -747.516479
33.985802 19.137699 -747.121216
33.942001 19.298800 -746.785583
33.962799 19.469700 -746.402893
34.338402 19.780899 -745.836487
34.614399 19.495199 -745.971313
34.348999 17.999001 -749.187988
34.361000 18.306499 -749.686584
34.130798 18.497900 -749.358276
34.112701 18.653601 -749.025574
33.866901 18.878700 -748.629700
33.690300 19.052200 -748.319580
33.660801 19.210199 -747.986511
33.734402 19.366400 -747.617371
33.952400 19.478901 -747.287781
34.113201 19.608801 -746.942505
33.930698 19.782101 -746.634888
34.657902 19.980499 -745.921387
34.314400 18.490700 -750.165100
34.116199 18.792601 -749.581970
34.238201 19.025299 -749.026917
33.767899 19.228701 -748.763489
33.696098 19.399700 -748.417725
33.557098 19.590799 -748.054016
33.722500 19.718800 -747.710693
34.140099 19.800800 -747.370789
34.341000 19.918800 -747.035889
33.879902 20.174999 -746.653687
34.266499 20.556299 -745.672180
33.967201 18.962799 -750.244873
34.173599 19.065500 -749.940979
33.704498 19.597799 -748.955872
33.572800 19.786699 -748.593079
33.496700 19.958200 -748.246887
33.643501 20.091600 -747.898804
33.938499 20.150900 -747.656128
34.376099 20.227400 -747.321228
34.342899 20.385401 -746.988098
34.026501 20.568100 -746.709412
33.840401 20.741301 -746.401917
34.398800 21.012100 -745.595276
34.393200 19.032400 -750.940186
34.232101 19.202499 -750.628784
34.184101 19.367599 -750.285583
34.478699 19.577700 -749.713928
33.470600 19.933300 -749.318298
33.517300 20.078899 -748.981628
33.415100 20.258301 -748.627686
33.462601 20.421700 -748.252014
33.720402 20.521601 -747.935181
34.167999 20.594900 -747.604675
34.226601 20.873199 -746.973328
33.822899 21.169399 -746.478088
34.413601 21.495399 -745.540100
34.417900 19.344200 -751.385071
34.336601 19.507799 -751.056885
33.501301 20.402599 -749.409424
33.341301 20.587299 -749.064575
33.276001 20.754999 -748.721497
33.385399 20.899200 -748.364014
33.670898 20.990801 -748.055603
34.417198 21.005100 -747.742920
33.956902 21.499599 -746.831909
34.379700 22.162800 -745.218079
34.457500 19.593000 -752.017029
34.370701 19.770399 -751.659729
34.574600 20.248501 -750.532288
33.142700 20.905600 -749.623718
33.247601 21.036100 -749.297485
33.135201 21.217400 -748.940979
33.256401 21.357700 -748.587280
33.502201 21.431400 -748.333313
33.876999 21.467100 -748.114380
34.286701 21.458700 -747.979797
34.031399 19.917601 -752.385315
34.227001 20.027901 -752.070313
34.743401 20.411600 -751.035522
32.928699 21.323999 -749.701782
33.004700 21.470301 -749.351990
33.181801 21.740999 -748.691284
33.534401 21.783199 -748.468018
33.880299 21.798500 -748.305908
34.247398 21.837700 -748.083801
34.307098 19.969801 -752.682312
34.422798 20.187201 -752.382629
34.919899 20.548201 -751.407593
32.585400 21.658300 -749.827087
32.837799 21.798300 -749.427002
33.367401 22.052299 -748.674927
34.056999 22.113899 -748.286377
34.372700 20.356400 -752.037781
34.668999 19.986700 -752.745483
33.709900 22.134701 -748.500793
35.246201 20.650400 -751.545471
34.444500 20.386600 -752.690430
34.552101 20.865601 -751.600891
34.252602 22.440399 -748.255493
34.339001 20.336201 -753.140808
34.132702 20.497000 -752.862976
34.997299 20.959600 -751.539978
33.386700 22.425400 -748.911194
34.733799 20.969500 -751.932190
34.092899 22.622400 -748.552673
34.688400 20.545900 -753.265320
35.009800 21.212400 -752.232605
34.260300 22.956900 -748.685425
34.848499 23.053600 -748.265991
34.536598 20.836599 -753.884521
34.529999 23.218399 -748.688904
34.657200 20.893200 -754.345276
35.342602 21.356600 -753.095093
34.355701 23.533400 -748.686401
34.442799 23.685699 -748.323608
34.749100 23.834700 -747.891785
34.583698 21.209900 -754.123108
34.827301 21.622801 -753.137878
34.726799 21.118601 -754.703186
34.510799 23.827101 -748.867615
33.334499 23.738100 -749.765686
34.843800 23.954700 -748.773926
34.952801 24.160500 -748.287415
34.775398 24.328600 -747.981384
34.827000 21.958700 -752.998779
35.013199 21.798401 -753.430725
35.210800 23.993799 -748.583923
34.557701 21.310900 -755.196777
34.739101 21.500500 -754.721924
35.304798 21.788000 -753.902283
35.129902 24.068100 -748.997986
35.112900 24.458401 -748.153870
34.973202 21.373199 -755.436279
35.095699 21.917101 -754.206604
34.810902 24.312500 -749.072693
34.809700 21.703600 -755.400024
35.384399 22.079201 -754.380920
35.186600 21.466999 -756.466370
34.574299 21.877899 -755.776123
35.079102 22.236300 -754.819580
33.373299 24.570700 -750.293518
35.055901 24.767500 -749.288574
34.658798 21.674299 -756.845520
34.955002 21.798800 -756.472778
34.903801 21.968300 -756.119202
34.662300 25.110500 -749.326172
35.164902 25.116301 -749.143005
35.420300 25.222099 -748.824829
35.252899 22.493299 -755.367371
33.289200 24.945700 -750.663879
35.499401 25.253201 -749.243530
35.783699 25.351500 -748.932312
35.016998 22.077900 -756.800171
35.288200 22.517799 -755.744324
33.459400 25.221300 -750.437073
34.417198 25.448299 -749.615601
36.226299 25.561800 -748.755005
35.993000 25.782801 -748.349609
35.536800 22.757500 -755.519226
33.385700 25.176701 -750.942627
35.743301 25.562401 -749.303284
36.113098 25.577900 -749.144592
36.444500 25.681299 -749.020874
34.737400 25.691900 -749.575684
34.168499 25.710899 -749.742920
35.416599 22.705099 -756.034180
35.084599 22.867201 -755.791016
34.916901 22.123699 -757.695374
33.567101 25.484301 -750.814392
34.967602 22.410299 -757.235901
33.351398 25.705000 -750.581421
34.261700 26.040899 -749.546875
36.081402 25.764700 -749.547302
36.485199 25.772100 -749.397583
34.978500 22.889500 -756.424683
35.558701 22.805799 -756.415100
33.391201 25.537500 -751.164429
34.933899 22.511299 -757.675476
35.871899 22.989300 -756.317871
34.459099 26.149200 -749.869629
35.478001 25.980900 -749.900085
35.658501 26.197901 -749.365112
35.249401 22.153999 -758.809082
35.036598 22.531601 -758.051514
35.470402 22.987200 -756.908386
33.532101 25.857800 -751.255493
33.415401 26.039200 -750.896423
35.919201 26.427299 -749.214783
36.314201 26.377399 -749.193176
33.214298 26.050100 -751.398987
35.159801 26.352301 -750.087708
35.606400 26.612101 -749.367676
35.045399 22.865601 -758.328918
35.694199 23.254499 -757.256409
33.529202 26.246799 -751.380676
33.352299 26.444901 -751.002930
35.127602 22.894100 -758.699219
35.793400 23.279600 -757.630798
35.294102 26.666201 -750.339111
35.531200 27.073500 -749.364014
35.232101 22.787701 -759.324524
35.215199 23.198000 -758.426880
33.283401 26.526501 -751.735229
33.552502 26.597000 -751.491882
35.359699 22.593399 -760.238403
35.078999 23.166300 -759.067505
35.202301 27.042999 -750.481506
35.061298 27.230200 -750.115112
35.457500 27.474899 -749.446289
35.281898 22.963400 -759.965271
35.190300 23.148399 -759.587219
35.454102 23.752300 -758.169800
33.424099 26.832399 -752.037598
33.625500 26.952101 -751.708130
33.329102 27.184000 -751.293213
35.604401 27.769300 -749.262817
33.683800 27.633499 -750.652527
34.416599 27.634800 -750.413513
34.621201 27.754900 -750.082825
35.217701 23.216499 -760.333984
33.646099 27.124201 -752.223816
33.614300 27.281300 -751.887573
33.333698 27.714600 -751.022583
33.981499 27.827101 -750.566406
35.221500 28.162201 -749.429077
35.475899 23.622900 -759.692688
36.182800 23.797800 -759.081177
33.095600 27.724600 -751.414490
35.240002 28.426399 -749.181885
35.294300 23.276199 -760.867676
34.637798 27.072500 -752.698120
33.467499 28.040600 -750.935425
33.918598 28.208700 -750.420227
35.212700 23.597000 -760.606384
35.655899 23.805700 -760.003479
35.832199 23.973801 -759.575684
33.082298 28.108999 -751.314087
33.645302 28.303699 -750.703918
35.177799 23.615101 -761.083374
35.631699 23.821301 -760.483582
33.195599 28.420401 -751.092102
35.231300 28.910299 -749.362793
34.923500 27.546200 -753.031372
33.309799 28.737499 -750.906311
35.452202 29.197399 -749.210388
35.819401 27.826700 -752.586670
36.181900 28.174900 -751.698914
36.103699 28.359301 -751.314270
34.865601 27.776400 -753.379089
35.067200 27.893400 -753.054993
36.139702 28.002501 -752.472229
35.577499 29.408800 -749.525085
36.327099 28.507099 -751.702393
34.720402 29.358200 -750.318909
35.497799 29.731701 -749.244385
35.810799 28.005199 -753.445679
35.903301 28.159700 -753.073425
36.213799 28.224100 -752.833130
36.584099 28.462299 -752.187683
36.915298 28.633499 -752.125488
35.442902 30.184999 -749.402100
35.953701 28.254601 -753.720703
36.074799 28.408899 -753.342712
36.343498 28.486500 -753.088928
34.500801 30.059200 -750.180298
34.109600 30.324699 -750.148071
35.488499 30.518000 -749.254883
36.520199 28.801500 -752.962830
36.118500 28.547100 -753.857422
36.305401 28.678499 -753.509888
34.204399 30.462400 -750.476013
35.734200 30.849100 -749.153870
36.147701 28.555599 -754.217224
36.568401 28.898800 -753.331421
36.234100 28.803801 -754.520386
36.362301 28.952499 -754.153198
36.570400 29.079300 -753.810120
36.771198 29.208300 -753.464478
34.088799 31.070000 -750.162781
35.221500 31.329300 -749.247314
36.536800 29.269501 -754.143372
36.797100 29.382601 -753.815430
37.035400 29.471300 -753.547729
37.081902 29.641800 -753.156982
34.221001 31.247801 -750.467712
34.178001 31.436701 -750.062988
34.014400 31.951099 -748.975525
36.474098 29.271200 -754.789673
36.859001 29.503700 -754.159485
37.442299 29.683500 -753.586426
34.138699 32.293499 -748.801514
36.675301 29.571400 -754.632202
37.151402 29.718399 -754.163879
37.143600 29.874001 -753.821716
37.139702 29.805500 -754.611328
37.512600 29.889400 -754.314209
34.413300 32.603500 -749.227173
37.664902 30.238100 -754.176697
37.432701 30.094101 -753.930115
34.126900 32.082600 -749.296387
24.487101 29.308201 -756.080811
24.810900 29.387400 -755.801392
25.004200 29.506399 -755.474670
25.388500 29.509300 -755.346375
25.697300 29.564899 -755.124512
26.068600 29.602400 -754.922974
27.123800 29.706200 -754.356812
25.092501 28.712400 -755.984985
25.518200 28.761999 -755.738708
25.745501 28.872101 -755.421204
25.885900 29.038099 -755.007080
26.160601 29.104601 -754.771179
26.449301 29.167400 -754.539185
26.807699 29.210100 -754.329773
27.235201 29.233000 -754.142029
27.643499 29.202801 -754.078796
28.034599 29.118299 -754.141724
26.138599 28.385401 -755.231323
26.458900 28.468500 -754.943420
26.688200 28.579201 -754.623413
26.758600 28.737301 -754.249512
27.110901 28.752300 -754.102478
27.411900 28.812901 -753.870972
27.874399 28.826599 -753.691284
28.279499 28.947701 -753.291626
30.049900 28.847200 -752.944519
29.832001 29.040400 -752.585083
35.286999 23.810900 -761.421570
35.859100 24.031601 -760.745972
36.239700 24.114201 -760.439209
27.174700 28.100599 -754.531982
27.177000 28.279699 -754.133484
27.501301 28.333401 -753.908997
27.770300 28.433901 -753.598816
28.062300 28.498100 -753.361511
34.447300 29.073500 -750.012573
35.942101 24.024300 -759.929504
27.291300 27.853399 -754.259216
27.717899 27.877100 -754.067688
27.962601 28.105700 -753.481628
28.400400 28.458099 -752.558411
34.450600 28.700500 -750.053589
27.985100 27.787399 -753.788574
28.174500 28.032700 -753.182983
29.057301 28.096500 -752.636230
35.352699 23.725500 -760.226379
28.648600 28.113300 -752.539673
35.584801 28.562099 -749.286499
28.289200 27.403500 -753.852478
28.234900 27.570700 -753.499390
28.395100 27.704901 -753.149414
29.625000 27.832500 -752.465515
30.107800 27.785000 -752.413330
30.162300 27.943100 -752.044922
34.277699 28.179199 -750.179077
28.489401 27.290199 -753.476990
28.817600 27.497200 -752.911316
35.280300 23.393600 -759.279785
28.762800 27.075199 -753.271912
34.898300 27.271999 -750.828979
32.081501 31.339800 -742.756226
29.395800 26.816401 -753.034180
29.228300 26.987000 -752.712402
29.960501 27.232000 -751.931030
30.374001 27.174601 -751.922119
32.199799 31.198000 -742.438782
29.497601 26.392401 -753.307922
29.496599 26.667801 -752.700378
29.469999 26.827900 -752.355774
33.293301 26.814600 -751.122986
32.346699 30.628201 -743.019714
32.286098 30.799700 -742.661072
32.412998 30.991100 -742.196899
29.326700 26.084700 -753.479187
29.209101 26.257000 -753.137878
29.562401 26.336901 -752.844116
29.729601 26.593599 -752.221985
30.676399 26.768101 -751.522095
32.494099 30.647800 -742.354370
29.746700 26.257799 -752.519226
32.566002 29.955400 -743.417175
32.485100 30.173500 -742.962830
32.544399 30.325600 -742.607422
32.509800 30.627300 -741.952881
35.193501 22.574699 -758.516724
29.993999 26.210899 -752.230286
30.801901 26.528500 -751.257813
34.228699 26.613100 -749.920776
32.678101 30.334600 -742.221375
33.009300 30.396299 -741.973816
33.416801 30.387800 -741.855774
30.032000 25.907499 -752.625427
30.165899 26.095800 -751.931274
32.544300 29.709299 -743.116699
32.608398 29.859200 -742.762817
32.683601 30.003300 -742.417786
30.190201 25.855301 -752.290588
31.148899 26.250401 -751.086609
31.865999 26.199100 -750.955627
32.605701 29.430901 -743.530823
33.019901 29.966101 -742.201721
33.108799 30.204800 -741.641602
33.551601 29.851299 -742.077820
30.351200 25.786100 -751.920227
31.493099 26.068701 -750.903198
32.644100 29.115400 -743.751221
32.817799 29.610600 -742.593079
30.478300 25.771099 -751.549500
32.687901 29.163000 -743.282715
32.717098 29.329599 -742.903870
33.126999 29.462299 -742.470093
30.509199 25.392500 -751.896484
31.318501 25.771299 -750.783813
32.722801 28.833401 -743.536011
32.945599 29.198900 -742.652222
33.315701 29.386299 -742.111877
30.781300 25.258301 -751.583313
31.680099 25.552500 -750.629883
35.811798 25.732300 -748.833984
32.831402 28.771200 -743.139893
33.211899 28.955099 -742.605286
30.874599 24.933901 -751.860718
30.896700 25.234699 -751.191223
33.116699 27.989300 -744.379883
33.037701 28.159500 -744.032104
32.874001 28.321301 -743.731079
33.117500 28.654600 -742.915405
32.864101 28.416300 -743.287781
30.945999 24.901501 -751.482422
31.577200 25.322599 -750.343018
33.431400 28.488800 -742.748230
31.243999 24.699600 -751.565796
31.104000 24.924299 -751.117371
33.494900 25.197901 -749.705383
32.706200 27.749100 -744.343689
33.176498 28.250099 -743.079224
33.441799 24.864300 -750.044189
33.497398 27.255899 -744.747314
33.106201 27.538700 -744.255920
32.990200 27.718399 -743.898682
33.024700 27.888201 -743.512329
34.757702 22.045700 -755.505371
31.207300 24.540899 -751.202026
31.248199 24.712900 -750.808228
33.269100 25.025999 -749.427185
33.279598 27.834700 -743.216919
33.753101 27.860701 -742.997925
33.362099 28.139999 -742.514099
32.998901 24.580799 -750.308716
33.698502 26.854500 -745.041321
33.262798 27.180201 -744.469910
35.420502 22.353600 -754.121521
31.449699 24.396900 -750.963806
31.997000 24.752399 -749.993225
33.038898 27.346800 -743.914429
33.167198 27.492001 -743.550293
31.197701 24.153799 -751.113281
31.516701 24.338100 -750.600525
33.422100 24.285299 -750.071899
33.122601 27.021500 -744.160217
33.456699 27.353201 -743.318176
33.148201 27.703800 -742.652100
31.541901 23.903900 -751.000488
33.598598 24.396601 -749.226074
33.166100 26.412800 -744.954407
33.293301 26.559999 -744.589111
33.650799 27.274700 -742.902222
32.063202 23.514500 -751.049072
31.895300 23.678600 -750.747192
32.499500 24.060699 -749.706421
35.264099 24.546301 -747.706970
33.188400 26.464300 -744.214783
33.982601 26.615400 -743.615112
31.731100 23.373600 -750.851013
32.030300 23.529100 -750.410278
31.985399 23.697201 -750.058777
33.656399 23.930099 -748.983826
33.378101 25.880899 -744.821899
33.248100 26.037300 -744.524780
33.730099 26.482901 -743.388977
32.075298 23.133801 -750.832886
33.165600 23.586800 -749.480286
34.127998 23.686501 -748.939087
33.549999 25.393700 -745.424072
33.484299 25.564301 -745.075500
34.067299 26.108000 -743.697083
32.152401 23.344000 -750.096985
33.469799 23.399200 -749.533325
32.167702 23.051399 -750.480591
33.372700 25.519400 -744.724426
35.181999 21.464399 -752.765015
32.288700 23.305300 -749.750793
33.772099 25.954300 -743.507324
33.642601 24.990101 -745.576782
33.479000 25.181499 -745.137878
33.317600 25.804501 -743.841919
33.957500 25.669800 -743.855774
32.319302 22.996799 -750.137207
34.293098 25.464600 -744.101929
34.497700 20.838200 -753.504517
34.787399 21.234900 -752.545471
32.469601 22.579100 -750.417603
32.460999 22.908100 -749.706787
33.357101 24.786699 -745.327576
33.395802 25.020800 -744.806580
32.536900 22.625900 -750.044922
32.865200 22.967199 -749.192383
33.769600 25.272600 -743.882690
34.013699 24.117800 -746.052979
33.597198 24.479700 -745.409180
33.457600 24.702000 -744.973816
32.729500 22.159901 -750.413513
32.599998 22.512300 -749.692688
32.679798 22.676201 -749.309387
34.507999 22.764601 -748.491211
33.804199 24.152500 -745.718872
35.113701 20.922800 -751.940186
32.663898 22.193701 -750.023376
33.567902 24.355101 -745.027771
34.236801 24.570101 -744.332581
33.836300 23.686300 -746.070313
33.509701 23.870600 -745.782898
33.559799 24.041401 -745.395386
32.720001 21.835400 -750.201477
32.781399 22.057600 -749.698914
32.745098 22.225201 -749.348206
33.021999 22.394600 -748.886292
34.190601 24.221201 -744.527893
33.779800 23.361401 -746.320496
34.491299 24.028999 -744.630920
33.664299 23.476299 -745.806030
33.591599 23.651300 -745.451904
33.013000 21.827299 -749.080078
33.984600 23.878000 -744.315308
34.580502 19.676201 -752.490173
33.743401 22.772301 -746.087830
33.647099 22.955099 -745.725830
34.225800 23.258900 -744.871216
33.765499 22.380400 -746.218323
34.242901 22.832500 -745.075317
34.218399 21.398199 -747.584290
33.857899 21.847900 -746.735596
33.786400 22.024799 -746.377625
33.728699 22.290600 -745.822083
33.760601 21.914101 -746.028015
34.054699 19.955400 -749.500122
33.786900 21.486000 -746.279419
34.216000 20.961599 -745.927673
34.075100 20.182400 -746.337585
35.001400 20.118700 -745.812683
34.290699 17.590700 -748.923279
34.326099 17.585600 -748.564270
34.380699 18.522600 -746.507019
34.731899 18.545200 -746.331116
34.091202 17.976101 -746.974915
35.095501 17.927799 -746.286072
34.128799 17.561701 -747.007874
34.955002 17.926100 -745.922913
34.217899 17.229700 -746.897583
34.418499 16.311701 -746.509583
35.362099 16.271400 -745.437317
35.672199 15.816700 -745.221191
35.037498 12.823600 -744.931824
35.359001 11.073600 -743.679382
36.710098 10.878300 -742.403687
36.755299 5.041500 -741.882813
34.877899 23.448400 -760.578125
35.721401 23.624800 -761.167786
34.966999 22.419001 -758.773499
36.319401 23.641399 -761.234497
36.073601 23.600901 -760.922485
25.236500 29.687000 -756.567688
24.886700 29.801201 -756.354675
24.579201 29.996901 -756.294189
24.276199 30.038200 -756.033081
25.974501 29.731001 -756.841309
25.677099 29.613501 -756.376221
25.342300 29.701500 -756.145386
24.912901 29.941000 -756.017700
24.632799 29.943701 -755.730286
25.944700 29.455700 -755.922974
25.639900 29.642200 -755.854919
25.323601 29.848200 -755.800720
25.004999 29.911301 -755.554016
25.237900 29.838900 -755.247681
26.509600 29.367399 -755.414429
26.040400 29.661699 -755.321777
29.212900 26.388399 -753.667419
26.963400 29.273600 -755.188477
25.803301 29.688400 -754.546021
27.288799 29.203899 -754.917114
26.898500 29.444300 -754.835815
26.514900 29.749599 -754.847717
26.328501 29.601000 -754.458374
30.231001 26.088499 -753.161377
29.880800 26.339199 -753.137817
28.965300 28.804001 -753.601318
27.947100 29.245199 -753.190674
29.566401 28.831499 -753.753113
29.168800 28.773100 -753.292114
28.833000 28.985201 -753.245117
28.506800 29.329500 -753.380615
28.184799 29.523800 -753.323730
29.792801 28.772800 -753.446411
28.853300 29.482401 -753.471619
29.631901 28.870100 -753.022217
35.568600 25.072500 -750.297485
35.215401 25.270800 -750.241028
36.817402 9.320200 -744.033508
36.430401 9.582800 -744.025024
36.129299 9.625100 -743.809692
37.126598 6.492300 -742.407776
37.008701 6.323800 -742.085510
35.212002 8.624400 -743.427917
35.094002 8.459600 -743.110229
35.250500 6.841600 -741.172485
34.944000 6.837100 -740.891785
37.547699 4.619500 -741.997681
37.384102 4.472000 -741.661682
37.051300 4.608800 -741.538025
36.132900 4.971700 -741.177979
35.481098 5.022000 -740.656921
35.224701 4.385900 -739.611389
40.100700 0.431300 -740.606018
39.915001 0.272700 -740.236511
37.683498 2.250200 -740.758484
37.382000 2.521500 -740.834229
39.140900 -0.691500 -740.014404
36.926498 0.947900 -740.112610
36.328999 11.339300 -744.729370
36.143002 11.679700 -744.740417
38.595100 -1.061900 -737.004089
38.126202 1.570100 -738.433899
38.282799 0.926900 -738.258118
39.126701 -0.885400 -737.452271
39.087299 -0.254000 -737.771118
38.737701 -0.968700 -737.668030
38.615200 -0.370400 -738.020813
38.299500 3.798400 -740.241516
35.002300 14.944700 -746.847229
34.738499 15.098200 -747.147522
38.986000 -0.755000 -738.320374
36.809502 6.029100 -742.291626
34.972599 15.571100 -747.488098
38.490101 2.282800 -740.177612
37.725201 3.627700 -741.068726
37.307800 3.710200 -741.240784
36.799702 6.561300 -742.776917
35.464100 6.270700 -743.060181
37.245602 3.098800 -741.105896
37.209499 4.846700 -741.959412
35.472099 3.857300 -742.033325
35.171902 3.634200 -742.020996
36.860500 6.919200 -743.109985
38.636398 1.433200 -739.580627
35.582901 3.752300 -741.672607
38.839001 -0.471500 -738.486572
35.318802 15.658600 -747.401917
38.369999 2.092900 -739.474915
37.779800 4.763200 -740.955078
38.780399 -0.408500 -737.622314
38.529202 -0.611000 -737.438599
37.474998 4.196400 -741.288513
36.125801 4.139500 -741.871582
36.969601 5.713100 -742.531799
37.174900 2.813900 -741.316772
36.688099 2.580600 -741.550781
36.365002 2.773800 -741.740173
36.024601 2.937700 -741.921326
36.013199 4.003600 -742.419312
35.288101 6.226500 -743.674316
37.832001 1.089500 -740.677673
37.274799 1.387400 -740.987305
39.658501 -0.090800 -739.641724
35.836300 2.952500 -742.235596
35.769199 4.830700 -743.125183
36.098801 3.211400 -742.310730
37.096802 0.657400 -740.934570
37.584999 -0.876900 -740.148071
36.462200 3.546400 -742.528076
38.364399 -0.821200 -740.121277
37.023300 0.777400 -741.266113
37.380501 0.676000 -741.230774
37.878201 0.458200 -741.087585
31.742701 31.223400 -742.528381
28.792200 28.479300 -752.568909
27.585800 28.723200 -753.344421
27.393000 27.516600 -754.369080
27.076401 27.322599 -754.387024
34.293301 25.893801 -750.881470
34.008499 26.044600 -751.120911
32.103500 24.535101 -750.987427
31.803699 24.696699 -751.241577
31.561300 24.878599 -751.482483
31.175200 25.169100 -751.866577
30.592699 25.066200 -752.072876
36.046600 11.258900 -742.561523
35.795799 14.195700 -744.642883
35.758701 14.557900 -744.902283
35.621899 15.081200 -745.315491
35.798302 15.545400 -745.545593
35.900398 25.084700 -751.886780
35.514599 25.062401 -752.048523
32.926300 23.452299 -752.155212
36.401299 9.673400 -741.823975
36.257401 12.001200 -743.439880
36.238098 12.297900 -743.646179
36.237999 12.622300 -743.862427
36.271999 12.997000 -744.096619
36.111900 13.290300 -744.364685
36.087200 13.679000 -744.634888
35.991402 13.958800 -744.864929
36.931099 7.450000 -740.454224
36.553101 10.867200 -742.892395
36.543800 11.187200 -743.108887
36.438900 11.468200 -743.342773
37.901100 6.500300 -739.612793
37.071098 6.937800 -740.277527
36.768799 9.731300 -742.260986
36.726799 10.235600 -742.613281
36.469601 11.742100 -743.725586
36.433800 12.057300 -743.977722
36.714901 8.548200 -741.116272
36.240398 14.224700 -745.058411
35.621700 12.314900 -743.030518
35.546200 12.768500 -743.361206
35.517300 13.065100 -743.568481
33.564800 22.854601 -750.848816
36.115101 25.778999 -750.645874
36.267700 26.203100 -750.857422
36.227901 26.536100 -751.091919
34.295700 24.703300 -750.724426
34.028099 24.871799 -750.949097
33.797001 25.122601 -751.212219
32.394699 23.600201 -750.819885
32.105000 23.871901 -751.121582
32.117599 24.181200 -751.318115
31.826599 24.351400 -751.554077
35.886398 26.189501 -750.073181
31.477800 25.369900 -751.387024
30.468300 26.449499 -752.512817
27.374201 28.272301 -754.995789
27.045900 28.389400 -755.209473
26.885300 28.648701 -755.445618
26.554600 28.759300 -755.656189
26.302900 28.922001 -755.867493
25.966200 29.011200 -756.066589
27.795099 28.785000 -754.784119
27.441099 28.812300 -754.949585
31.534599 24.976101 -750.129028
29.490801 28.052401 -752.942871
31.320400 25.585699 -750.423584
30.993900 25.709101 -750.634216
30.753901 26.014099 -750.833679
29.970301 28.019899 -752.699585
34.037498 25.604799 -750.986023
31.107500 25.644699 -752.142578
30.755501 25.727800 -752.330811
30.577400 25.969999 -752.551575
34.254501 24.384899 -750.444824
33.964802 24.564100 -750.668213
33.277100 25.141500 -751.293823
30.777201 25.298800 -752.352783
36.599300 24.239500 -749.764526
36.293900 25.079901 -750.404907
36.090500 25.387600 -750.674194
37.146198 24.397100 -750.015320
36.872700 24.549000 -750.212891
36.383999 25.160900 -750.777283
36.764702 7.891900 -740.467285
32.757099 22.528400 -750.998718
37.604599 6.381200 -739.789612
35.594898 15.860100 -746.356018
33.393101 22.685900 -751.365112
33.031601 22.651699 -751.478577
39.034000 5.903100 -739.381226
38.628899 5.827500 -739.484924
37.008301 8.271100 -741.578979
38.055901 5.079500 -739.532776
37.736698 5.183700 -739.713684
37.488300 8.465100 -741.804993
35.348400 13.071000 -745.399414
35.187000 14.555800 -746.363586
34.916302 16.300400 -747.526489
34.742001 16.604099 -747.775818
35.179901 17.720600 -748.294983
35.250702 14.157700 -746.312500
35.223499 16.411900 -747.691772
37.983299 5.159300 -740.183594
37.670601 6.019400 -740.816101
35.481499 12.894500 -745.760010
35.383202 13.488600 -746.154480
38.560799 2.841700 -738.885925
38.022701 4.057400 -739.807922
35.622898 11.104700 -744.897522
35.206100 19.608299 -750.157227
38.312000 3.685500 -739.682007
37.955101 4.949200 -740.564819
35.024399 18.380501 -749.643127
38.516602 0.594700 -738.001526
39.504299 2.129500 -738.805420
38.398201 3.464900 -739.981873
35.108299 20.283701 -751.121582
39.795502 1.656100 -738.492615
38.390800 2.659600 -739.573120
39.015598 0.906900 -738.369995
39.147800 2.373800 -739.194702
38.636700 2.406300 -739.389771
38.570900 1.417500 -738.917175
34.142300 20.839500 -751.927673
38.995098 1.524100 -739.000122
35.039902 19.086700 -750.981384
36.548901 2.272200 -741.027283
