37.847198 4.796400 -738.385925
37.686100 4.758200 -738.549500
35.002602 17.593399 -742.163391
34.839401 17.185600 -742.304871
34.615299 17.294800 -742.543274
34.517300 17.191700 -742.637573
34.417999 17.101400 -742.734070
34.321098 16.982401 -742.826172
34.222599 16.880100 -742.921082
34.156502 17.026300 -742.998901
33.954700 17.516701 -743.239380
33.676399 17.005501 -743.492920
33.117699 17.999701 -744.134827
32.945801 18.166201 -744.322998
32.760502 18.517300 -744.537415
32.648201 18.606701 -744.659119
32.001301 18.792601 -745.338684
38.450802 2.723100 -737.788696
38.283001 2.701200 -737.960388
37.921398 3.125800 -738.361328
37.882801 3.284400 -738.411499
37.791599 3.605400 -738.526672
35.073299 17.772200 -742.260071
34.959400 17.518000 -742.361023
34.919601 17.365900 -742.392090
33.666500 16.997400 -743.660706
32.005901 18.846500 -745.495300
38.340401 1.550000 -737.947021
38.272900 1.809800 -738.033630
38.248100 2.082700 -738.077087
38.205200 2.214200 -738.129883
38.088299 2.693600 -738.281921
38.059299 2.927800 -738.327209
38.083698 5.132900 -738.446228
37.870098 4.635100 -738.634216
35.105301 17.577700 -742.333618
34.939400 17.096100 -742.473206
34.846298 16.936199 -742.558777
34.182499 17.175301 -743.259277
34.029202 17.089899 -743.411926
33.567799 17.511299 -743.915588
33.082699 18.282900 -744.466492
38.387901 1.403200 -738.007385
38.156898 2.823800 -738.338379
38.088100 3.207400 -738.434387
38.004799 3.477000 -738.538025
37.955399 3.998800 -738.622986
34.749599 15.575400 -742.686218
34.618999 15.834300 -742.837830
34.549198 16.018801 -742.921875
34.485100 16.137300 -742.995728
34.410999 16.375401 -743.087830
34.336300 16.623400 -743.181030
33.959202 16.639299 -743.571106
33.492401 17.799101 -744.128418
33.368000 18.032700 -744.272095
38.540600 0.875700 -737.932190
38.407902 1.720700 -738.124023
38.276199 2.553000 -738.314087
38.213699 2.987800 -738.406921
38.065300 3.666400 -738.604126
38.035198 3.886400 -738.649414
34.619301 15.601500 -742.935730
34.416901 16.077700 -743.175476
32.154202 19.070900 -745.704773
38.805000 1.735800 -737.839783
38.426998 2.102600 -738.253601
38.381699 2.676100 -738.337402
38.265202 3.151800 -738.488525
38.231998 3.352200 -738.535583
38.189499 3.479900 -738.587830
34.840801 15.238400 -742.804626
34.088100 16.488100 -743.662109
38.448601 2.862800 -738.404785
38.407799 3.007100 -738.456177
38.384899 3.286700 -738.497925
38.033401 5.947800 -739.031677
37.912899 5.709600 -739.140686
37.820900 5.463800 -739.219727
37.747299 5.615900 -739.305481
37.201000 7.032400 -739.960083
36.966599 8.264100 -740.281311
36.858200 8.201200 -740.388977
36.531799 8.631500 -740.753479
34.813801 13.457200 -742.836182
33.869400 17.035101 -744.040771
33.790901 17.351500 -744.142212
39.169800 1.646700 -737.676392
38.552200 1.881900 -738.328125
38.529999 2.173600 -738.369629
38.510399 2.483200 -738.409729
38.424099 2.737400 -738.514893
37.644798 6.784600 -739.578003
36.460499 8.694900 -740.921326
36.302898 8.751300 -741.087402
34.897099 13.704500 -742.854187
34.775398 13.847700 -742.988770
34.700199 14.091900 -743.081970
33.853199 17.196199 -744.154419
33.779499 17.454100 -744.246887
33.704800 17.727699 -744.341370
33.576900 18.006399 -744.491089
38.596699 2.019600 -738.337524
38.557899 2.641900 -738.417419
38.438499 3.096300 -738.569519
37.582500 6.846800 -739.691772
37.538502 6.706200 -739.728088
37.440300 6.526600 -739.817688
37.305901 6.718200 -739.968628
34.657600 14.278300 -743.181580
37.242802 6.819000 -740.051208
35.270802 13.825500 -742.533081
33.549801 18.164101 -744.585327
37.128201 7.427100 -740.202576
36.726200 8.040100 -740.656616
33.633598 17.846800 -744.475586
38.122002 4.017800 -738.951782
34.522499 16.147100 -743.443970
34.177700 16.427000 -743.817810
34.593601 14.167300 -743.239319
33.716999 17.579599 -744.362976
38.748001 1.513900 -738.154114
35.634300 11.997200 -742.043274
35.567402 12.128200 -742.120789
34.658901 16.089300 -743.313721
39.232101 -0.304100 -737.628784
39.095798 0.057800 -737.792908
38.981701 0.112600 -737.914429
38.881599 0.277100 -738.028381
38.903198 0.918100 -738.047119
38.873901 1.158600 -738.092896
38.312199 4.116800 -738.863098
39.433399 -0.675000 -737.570679
38.849800 1.398500 -738.306213
35.751099 11.931100 -742.181396
35.607300 11.973100 -742.332825
33.874901 17.016500 -744.445496
32.088200 19.184799 -746.431213
39.274601 -0.134200 -738.031311
39.180000 1.029400 -738.202393
39.056900 1.476500 -738.357971
38.865200 2.767200 -738.637573
38.672501 3.090100 -738.857483
38.202099 4.255600 -739.417786
37.884800 3.893400 -739.723572
37.085701 5.111200 -740.627502
36.312901 9.663800 -741.713989
34.768200 14.819800 -743.637695
39.561501 -0.464100 -738.043701
39.519001 0.169400 -738.126892
39.476101 0.310200 -738.179871
39.431301 0.434400 -738.234070
39.309399 0.901700 -738.389221
39.269600 1.062100 -738.440430
39.247299 1.360300 -738.481873
39.205700 1.504600 -738.533875
39.168499 1.682400 -738.583374
39.062599 1.790000 -738.699829
38.946800 1.819700 -738.821594
38.685600 3.942000 -739.223328
38.545101 3.978500 -739.371094
38.434502 3.906900 -739.481201
39.564098 -0.461400 -738.331177
39.639599 0.635600 -738.319702
39.523300 0.668900 -738.442200
39.434601 0.920800 -738.549500
39.394199 1.077600 -738.600830
39.289001 1.195100 -738.716980
39.168499 1.191400 -738.841675
39.044498 1.161200 -738.968323
39.035599 1.558200 -739.001770
38.950901 1.701600 -739.098328
40.145599 -1.483600 -737.856018
40.030201 -1.429900 -737.978882
39.764801 -0.118800 -738.333374
39.741699 0.184800 -738.375610
39.700100 0.336300 -738.427917
39.657101 0.475800 -738.481018
39.596500 0.956200 -738.572815
39.508900 0.735200 -738.650330
39.397701 0.807400 -738.770081
39.279999 0.828000 -738.893311
39.159901 0.829100 -739.018005
39.058498 0.976100 -739.132080
39.015800 1.111500 -739.184570
38.919899 1.144600 -739.286011
38.793201 1.214700 -739.421814
38.764500 0.901900 -739.432617
38.732601 0.632200 -739.449524
39.798801 -0.632500 -738.367126
39.218102 0.525400 -739.039429
38.972198 0.940400 -739.319580
38.709301 0.870000 -739.588379
39.645599 0.209200 -738.656677
39.113701 0.766900 -739.242371
39.687199 -0.398500 -738.708130
39.658401 0.345200 -738.782227
39.489700 0.441400 -738.963074
39.323601 0.556200 -739.142395
39.014500 0.878500 -739.482483
38.889000 0.934300 -739.616089
39.657501 -1.142500 -738.846985
39.436600 -0.963600 -739.086975
39.444099 -0.417900 -739.111389
39.343700 -0.252800 -739.225281
39.247898 -0.054200 -739.336609
39.850700 -1.179800 -738.808228
39.255199 -0.118300 -739.488770
40.160702 -1.078700 -738.916016
40.006901 -1.134600 -738.829529
40.406700 -1.188700 -738.155518
40.266201 -1.120400 -738.307129
39.384899 -0.423000 -739.271179
39.289101 -0.216800 -739.382324
39.021999 2.958400 -739.815613
40.299900 -0.992000 -738.041382
40.033798 -0.766500 -738.333618
39.918301 -0.727600 -738.457520
38.831902 0.729700 -739.676208
39.999001 -0.826000 -738.156128
39.967602 -0.566300 -738.201782
39.652599 0.356000 -738.579773
38.917900 1.325900 -739.403992
38.785999 1.323800 -739.543518
40.057301 -1.289400 -737.850586
39.681099 0.488000 -738.336121
38.837200 1.904300 -739.298706
40.007801 -0.892600 -737.684814
39.833698 -0.520200 -737.887695
39.709099 -0.566300 -738.017273
39.368301 1.177400 -738.465027
38.996601 2.053900 -738.902100
38.970100 2.331400 -738.943970
38.772301 2.647100 -739.169189
38.674702 2.813600 -739.280823
38.381199 3.891700 -739.645081
38.114101 4.089800 -739.937927
38.341202 2.118700 -739.599487
38.232399 2.036800 -739.710815
39.687000 -1.105400 -737.772888
39.454601 -0.172800 -738.065918
39.421398 0.064000 -738.113098
39.283501 0.426500 -738.277405
39.184898 1.646800 -738.443176
38.996899 2.062000 -738.663330
38.959999 2.251200 -738.711914
38.919998 2.917000 -738.787720
38.724899 3.247800 -739.010986
38.617199 3.325200 -739.129028
38.516800 3.462500 -739.242310
38.013599 4.018700 -739.803284
37.876999 4.084100 -739.951416
36.165298 10.120200 -742.068420
35.004501 14.949000 -743.541016
34.653099 15.276500 -743.929688
39.540798 -0.748600 -737.757813
39.448601 -0.359400 -737.875305
38.581402 3.277700 -738.979309
38.342701 4.403200 -739.289612
37.684200 6.294000 -740.083618
37.610199 6.118200 -740.153076
34.568901 16.455999 -743.901978
39.262199 0.093600 -738.018677
39.176498 0.390300 -738.124695
38.758900 2.923800 -738.696411
38.607300 3.621900 -738.892578
38.406300 3.890000 -739.119324
38.044201 4.304800 -739.524170
37.198002 5.287300 -740.471130
35.209801 14.406800 -743.043091
35.106800 14.359700 -743.149780
34.929901 14.523700 -743.345703
39.170700 0.880200 -738.141479
38.503399 3.746100 -738.994995
38.290501 3.912300 -739.229126
39.306801 -0.334600 -737.934082
38.881599 2.197700 -738.513672
38.655102 3.274100 -738.808594
33.831299 16.970501 -744.618225
38.852299 2.553000 -738.562988
37.835300 4.141000 -739.721008
37.515800 4.953900 -740.100830
38.716301 3.108700 -738.695679
38.518700 3.908400 -738.945679
36.012501 9.832300 -741.902283
39.335098 0.414700 -737.799377
39.039799 0.954000 -738.139771
38.723099 2.814000 -738.570496
38.561199 3.922000 -738.798706
38.536499 4.203900 -738.839417
37.906799 5.614300 -739.578430
37.635502 5.992700 -739.884888
37.315201 6.308000 -740.240173
35.281601 14.200400 -742.798096
39.144402 0.179400 -737.849609
39.037701 0.288000 -737.968079
38.993301 0.420600 -738.021973
38.725399 2.208600 -738.397705
38.636600 2.955100 -738.530273
38.505402 3.329900 -738.688416
35.927601 11.652200 -741.845520
35.818001 11.563400 -741.956909
35.571701 12.383200 -742.259705
35.390202 12.564100 -742.461121
35.322201 12.702200 -742.540222
34.923901 14.019000 -743.029480
34.381500 16.365801 -743.724670
39.082500 1.663300 -737.801086
34.444500 16.271999 -743.470825
33.347301 17.442200 -743.819214
33.879700 17.505699 -742.661072
32.354801 18.308500 -744.330688
40.175098 -1.379100 -738.194824
40.417801 -0.615300 -738.420715
40.536499 -0.581700 -738.544983
39.513500 -1.362400 -737.649780
39.685799 -1.443500 -737.835571
39.752102 -1.571500 -737.910889
40.290100 -0.839300 -738.450684
40.401299 -0.756100 -738.565125
39.475700 -1.207700 -737.769470
39.593498 -1.225700 -737.895020
39.702999 -1.106600 -738.005981
39.992699 -1.072500 -738.311218
40.110802 -1.093100 -738.437012
40.226200 -1.071200 -738.558228
40.339699 -1.019900 -738.676208
39.156101 0.113200 -737.559326
39.320702 -0.710600 -737.767273
39.504200 -0.858400 -737.967712
39.618198 -0.817400 -738.086670
39.982300 -1.045200 -738.481628
40.109501 -1.206700 -738.622925
40.228500 -1.237900 -738.750122
40.341000 -1.169600 -738.866272
40.455002 -1.125500 -738.985229
38.944099 0.013900 -737.542603
39.200500 -0.405200 -737.831421
39.430199 -0.362600 -738.072876
39.548100 -0.390300 -738.198914
39.661701 -0.348400 -738.317383
38.845100 -0.432700 -737.675415
38.925098 -0.813400 -737.776123
39.039001 -0.769300 -737.894714
39.150398 -0.683700 -738.008972
39.259602 -0.562400 -738.119385
39.306499 0.583600 -738.120911
39.551899 0.353900 -738.390198
38.506599 0.317800 -737.506287
38.622002 0.320900 -737.628174
38.737202 0.328800 -737.749695
38.851101 0.359300 -737.868896
39.094101 0.164200 -738.134094
39.184200 0.593500 -738.210999
39.821301 -0.327800 -738.924194
39.887001 -0.444200 -738.998718
40.000999 -0.405300 -739.117615
40.117100 -0.397900 -739.239990
40.196201 -0.287400 -739.318787
38.804401 1.040100 -737.964783
39.087601 1.119100 -738.260986
39.780701 -0.711400 -739.073792
40.064899 -0.594100 -739.369385
38.522499 -0.212200 -737.846802
38.691002 0.894300 -737.976624
38.894100 1.358300 -738.171204
38.943699 1.490300 -738.218018
39.252102 1.143600 -738.559814
39.322899 0.930700 -738.643982
39.401199 0.598800 -738.741577
39.578602 -0.578400 -739.052490
39.720299 -0.571400 -739.202393
39.838402 -0.594000 -739.328491
38.205700 0.189700 -737.597290
38.377499 0.328600 -737.773193
38.428398 0.452400 -737.821472
38.476398 0.626900 -737.864624
38.680000 1.095500 -738.059509
38.729500 1.233900 -738.105713
39.353500 0.443800 -738.802612
39.484501 0.200800 -738.952271
39.565300 -0.161200 -739.054199
39.229900 1.380000 -738.643677
39.092098 1.383300 -738.506409
39.742699 -0.693700 -739.289795
39.549400 -0.300100 -739.094788
39.615898 -0.432500 -739.171326
38.082298 0.278100 -737.561707
38.549099 0.778800 -738.033386
38.961800 1.588500 -738.433777
39.078300 1.557800 -738.558716
38.400600 0.330800 -737.954102
38.504398 0.540500 -738.054382
39.233601 1.833500 -738.766907
39.303001 1.637900 -738.849304
39.385399 2.154300 -738.913025
39.492401 2.271100 -739.020874
39.606899 2.269600 -739.142090
39.724201 2.255600 -739.266785
38.938900 1.793600 -738.517273
39.101002 1.956300 -738.681274
39.205700 2.117700 -738.784485
39.308800 2.299500 -738.885315
38.257099 0.284200 -737.930481
38.614700 2.118700 -738.224426
38.911701 1.929300 -738.547302
38.360802 0.233400 -738.121521
38.581902 2.254600 -738.262085
39.214199 2.194500 -738.933411
39.325100 2.251800 -739.047974
39.421001 2.172100 -739.153015
38.684299 2.619200 -738.484680
39.347198 2.008300 -739.213379
37.799900 0.458700 -737.848816
37.950100 0.554300 -738.002930
38.061199 0.636900 -738.116516
38.108799 0.824500 -738.158020
38.113701 1.801200 -738.117371
38.224201 1.874200 -738.230774
38.335999 1.923200 -738.346680
39.084400 0.136900 -739.220886
39.300301 0.221900 -739.445129
39.408699 0.346400 -739.553589
37.739601 1.649500 -738.001099
37.797600 2.643600 -738.015381
37.903500 2.793000 -738.120178
38.015701 2.821700 -738.237488
38.510399 3.121900 -738.746277
38.700100 2.797800 -738.962219
38.890598 2.472100 -739.179016
39.001202 2.533100 -739.293030
39.125500 2.601700 -739.421082
37.754200 2.906400 -738.303589
37.952801 3.131600 -738.502930
38.135201 3.307300 -738.687195
39.000401 2.732800 -739.629578
39.109100 2.666900 -739.747681
37.878601 4.064200 -738.763489
37.980900 4.253200 -738.862427
38.423302 3.441200 -739.369873
38.534302 3.483100 -739.485107
38.627998 3.673400 -739.574890
36.539600 5.323400 -738.357117
36.648300 5.383500 -738.468872
36.756802 5.446900 -738.580383
36.864201 5.530500 -738.689575
36.968102 5.681000 -738.791687
37.081299 5.648100 -738.913086
37.186401 5.771200 -739.017883
37.223598 6.119600 -739.039124
37.332901 6.154400 -739.153015
37.447899 6.086700 -739.278076
37.560101 6.069500 -739.397705
37.921200 4.631600 -739.854187
38.028801 4.673300 -739.965820
36.458099 5.206800 -738.385193
36.567799 5.247800 -738.499084
36.677799 5.282300 -738.613770
36.785301 5.366800 -738.723083
36.890202 5.500200 -738.827087
37.107601 5.611000 -739.051392
37.466499 6.185000 -739.401184
37.577801 6.185000 -739.518921
37.768700 5.765300 -739.742920
37.875000 5.857500 -739.850525
37.943298 5.642400 -739.934082
33.619999 15.368400 -742.449707
33.715099 15.513400 -742.541687
33.811199 15.638600 -742.636108
33.855000 15.769000 -742.674377
33.342400 15.511300 -742.406372
33.487701 15.536500 -742.559387
33.156799 15.644500 -742.484009
33.260799 15.643700 -742.594727
33.360401 15.714200 -742.696289
33.456402 15.843100 -742.790222
33.047600 15.566700 -742.698425
33.130699 15.915500 -742.763977
33.231201 15.969700 -742.867371
33.328400 16.075899 -742.964111
33.772701 17.249001 -743.712402
33.886501 17.088400 -743.844116
34.047298 17.002300 -744.020630
34.209000 16.908501 -744.198730
34.381401 16.665400 -744.398010
34.500599 16.447300 -744.539185
33.370399 17.413200 -743.586304
33.729900 17.428699 -743.967285
34.118099 17.034700 -744.406189
34.288101 16.826099 -744.600830
34.391701 16.827499 -744.710815
32.926201 17.424400 -743.374329
33.043800 17.474001 -743.496094
33.874802 17.364799 -744.387573
33.975601 17.398199 -744.492676
34.048599 17.091499 -744.590881
34.125599 16.732401 -744.696899
34.230701 16.712400 -744.810120
34.326599 16.822100 -744.904785
33.809200 17.857401 -744.509827
33.912800 17.846100 -744.620789
34.094898 16.727501 -744.890015
34.197102 16.748199 -744.997375
34.298302 16.783701 -745.102783
34.400002 16.812201 -745.209106
34.501900 16.837999 -745.315796
33.949402 16.812901 -744.911926
34.053799 16.802999 -745.023621
34.158401 16.790199 -745.135925
34.259499 16.827499 -745.240906
34.371899 16.710199 -745.368530
34.283001 16.836201 -745.392273
33.619999 18.331301 -744.665283
33.719799 18.370800 -744.768677
33.842602 18.377300 -744.898926
33.975700 16.928301 -745.138672
34.079498 16.927299 -745.249084
34.179798 16.974899 -745.352478
34.270199 17.156000 -745.436279
34.374500 17.148600 -745.547729
33.319500 18.149401 -744.336792
33.770100 16.826099 -744.905273
33.673199 16.739799 -744.717224
34.503201 16.824400 -745.463318
32.752102 17.415100 -743.411926
33.181400 17.483601 -743.527527
33.956402 17.486200 -744.342896
33.494900 17.392900 -743.732483
34.387901 17.038099 -744.695129
34.195801 16.895300 -744.437988
33.787601 17.514099 -744.101807
33.905899 17.297800 -744.240723
34.012901 17.246201 -744.357117
33.727100 17.688400 -744.182922
32.554001 17.878099 -743.914429
32.676399 17.969900 -744.037476
33.308300 18.490499 -744.669800
33.713902 18.538401 -745.095886
33.971600 17.048500 -745.473816
34.073200 17.075399 -745.579529
34.173401 17.121300 -745.682373
34.307201 17.159100 -745.821411
32.539200 17.937700 -744.166992
32.628300 18.158001 -744.245483
33.629200 18.497200 -745.281128
33.708698 18.611500 -745.356995
33.878399 17.122801 -745.643616
33.978401 17.172001 -745.745911
34.076099 17.252899 -745.843628
34.175098 17.314301 -745.943970
34.277401 17.329700 -746.051208
34.380001 17.340099 -746.159180
32.439301 18.637300 -744.830017
33.387100 18.946899 -745.815979
33.494598 19.034700 -745.923828
32.263802 18.569599 -744.794312
32.454300 18.779900 -744.981201
33.299000 19.098700 -745.856201
32.270199 18.888599 -745.126221
33.161201 19.273600 -746.044312
33.256500 19.095501 -746.159180
31.982401 18.995399 -745.029480
32.081902 19.031700 -745.132507
33.078201 19.356501 -746.166504
33.202202 19.216600 -746.309082
31.874201 18.944201 -745.204285
31.974899 18.962200 -745.309875
32.918400 19.331400 -746.283386
33.018398 19.358200 -746.387512
33.142101 19.370100 -746.518005
32.738098 19.333401 -746.431274
32.848202 19.213200 -746.557678
32.999199 19.140100 -746.723877
32.545700 19.275700 -746.601318
32.295898 19.180599 -746.725220
32.326500 19.330299 -746.565674
32.417999 19.432600 -746.652283
32.499500 19.327900 -746.751221
32.645500 19.260599 -746.707825
32.042198 19.237400 -745.878906
32.679199 19.278299 -746.557495
32.036301 19.241899 -745.730774
32.165501 19.211599 -745.637878
32.111801 18.940100 -745.242371
33.055000 19.488899 -746.209778
31.977699 18.538000 -744.937805
32.060600 18.786200 -744.999573
33.096100 19.447399 -746.035400
34.147202 18.601000 -745.344116
32.950600 17.880400 -743.797729
33.953701 17.405899 -744.164185
33.022598 15.748200 -742.854797
33.201401 15.810600 -743.039795
33.999401 16.079599 -743.866394
34.117699 16.139601 -743.986877
34.214901 16.170799 -744.087830
34.310799 16.221399 -744.185181
34.409401 16.231701 -744.289673
34.465801 16.101700 -744.297974
33.097500 15.594600 -742.843201
34.097301 16.215799 -743.851196
33.428001 16.165100 -742.877380
34.102299 16.172199 -743.598999
34.238499 16.220301 -743.740112
34.332500 16.291800 -743.833618
34.451599 15.994000 -743.991272
34.521099 15.703900 -744.094910
34.610500 15.847800 -744.176086
33.579601 15.760700 -742.822693
34.142502 16.070700 -743.394226
33.619400 15.507300 -742.682678
33.744202 15.621000 -742.804871
34.231602 16.100300 -743.278320
34.764400 16.565001 -743.801819
33.676399 15.327100 -742.596313
33.765099 15.503200 -742.673523
34.349400 15.959300 -743.252625
34.659000 16.235701 -743.555908
35.135601 12.783400 -741.746887
35.234299 12.823100 -741.848389
35.299000 12.588800 -741.940491
35.484200 12.870200 -742.110718
35.257999 12.196800 -741.578430
35.395901 12.149900 -741.730286
35.436699 12.313800 -741.757874
35.532902 12.399600 -741.852173
35.622601 12.587700 -741.929688
35.664700 12.723000 -741.961487
35.772499 12.621200 -742.086487
35.489700 11.791900 -741.614624
35.585400 11.892300 -741.706970
35.683998 11.942500 -741.807617
35.783798 11.975100 -741.911011
35.567600 10.078500 -740.329773
35.741699 10.273900 -740.496582
35.840000 10.349500 -740.594299
35.939098 10.411900 -740.693970
36.049301 10.278400 -740.824524
36.261398 10.165700 -741.061584
36.426998 10.333500 -741.222229
35.580101 9.179100 -740.287415
35.664001 9.541800 -740.341797
35.702999 9.773800 -740.361023
35.743900 9.967700 -740.385803
35.788101 10.098900 -740.420288
35.882599 10.245100 -740.507080
35.982101 10.301500 -740.607727
36.095600 10.111500 -740.747192
36.163101 9.831000 -740.846375
36.396000 10.246900 -741.054688
35.613098 9.041200 -740.082886
35.705101 9.253800 -740.160583
35.749199 9.393500 -740.194214
35.792702 9.543100 -740.226196
35.878700 9.854300 -740.287781
35.976299 9.948500 -740.382874
36.078400 9.962600 -740.490479
36.181702 9.954000 -740.601685
36.300900 9.673200 -740.755981
36.407101 9.621800 -740.874390
36.502899 9.745700 -740.964722
35.646999 8.871500 -739.755920
35.748299 8.912100 -739.860229
35.848801 8.967600 -739.962219
35.942799 9.139600 -740.046082
35.985699 9.299500 -740.076477
36.077499 9.504800 -740.154724
36.119900 9.667600 -740.184326
36.220299 9.712500 -740.287415
36.330299 9.591900 -740.416382
36.398602 9.302800 -740.517273
36.460300 9.132900 -740.599487
36.557999 9.231500 -740.694397
36.599998 9.393800 -740.723694
36.693298 9.561600 -740.807129
36.793400 9.613400 -740.909119
35.875198 8.063400 -739.598083
35.969501 8.244900 -739.681519
36.071400 8.282400 -739.786926
36.114201 8.448500 -739.816711
36.209999 8.593400 -739.905212
36.291302 8.990200 -739.953979
36.327801 9.257800 -739.967529
36.430401 9.270600 -740.075928
36.530300 9.329500 -740.176880
36.674500 8.639100 -740.397278
36.773300 8.724100 -740.494812
36.873600 8.782200 -740.596375
35.565498 6.797800 -738.838196
35.667400 6.857000 -738.941528
35.771400 6.872300 -739.051270
35.870399 6.983400 -739.146729
35.965302 7.169900 -739.230530
36.006302 7.384200 -739.253906
36.112400 7.354400 -739.370178
36.214001 7.409000 -739.473694
36.311600 7.534100 -739.566223
36.355301 7.686700 -739.598511
36.396500 7.882100 -739.624023
36.435501 8.114400 -739.643616
36.475498 8.325400 -739.666321
36.583500 8.254800 -739.788574
36.686798 8.268800 -739.897705
36.790699 8.270400 -740.008789
36.864799 7.902500 -740.122925
36.933201 7.632200 -740.221924
37.189400 7.721000 -740.487488
36.523499 6.574000 -739.323914
36.609402 6.915100 -739.383484
36.707901 7.028200 -739.478271
36.791199 7.399900 -739.532288
36.832001 7.597200 -739.557312
36.927601 7.747500 -739.645386
37.048698 7.472000 -739.800781
37.109001 7.341100 -739.877686
37.333099 7.110500 -740.139221
37.535599 7.135900 -740.353394
36.782101 6.299000 -739.085327
37.009899 6.905700 -739.272278
37.122898 6.774200 -739.405518
37.227600 6.782100 -739.516785
37.334999 6.748400 -739.634827
37.651501 5.910600 -740.051697
37.765301 5.790200 -740.184814
37.900600 5.342700 -740.371399
38.007198 5.343300 -740.485291
38.112900 5.356100 -740.597290
37.365398 6.279700 -739.219421
37.492500 5.932600 -739.387695
37.599499 5.914500 -739.504028
37.891800 5.491200 -739.856323
37.131001 4.584000 -738.668518
37.253601 4.627500 -738.795776
37.350601 4.790600 -738.884705
37.451698 4.880300 -738.984924
37.465302 5.530900 -738.939209
37.569099 5.569500 -739.046814
37.676899 5.541200 -739.165100
37.915501 5.132700 -739.458618
38.023102 5.117000 -739.575378
38.141499 4.937500 -739.718872
38.291500 4.288800 -739.939575
38.276299 4.588300 -739.895630
37.215302 3.596200 -738.407715
37.335499 3.657500 -738.531006
37.439800 3.709800 -738.638123
37.537102 3.877700 -738.726990
37.567501 4.261200 -738.724304
37.761002 4.591500 -738.901611
37.865799 4.623600 -739.010986
37.970100 4.664200 -739.119202
38.088799 4.480400 -739.263489
38.333302 4.020600 -739.568176
38.433201 4.133600 -739.664978
38.473202 4.336900 -739.689209
38.506901 4.631500 -739.698303
38.744701 5.031400 -739.916626
38.041500 3.255000 -738.572571
38.390900 3.687500 -738.908386
38.585999 3.178400 -739.164612
38.771999 2.823200 -739.396973
38.165298 2.455300 -738.478027
38.267601 2.553700 -738.578796
39.181198 2.682100 -739.548096
39.280998 2.807700 -739.643799
39.389000 2.815800 -739.758972
38.052502 0.738800 -738.270813
38.053699 1.631300 -738.190430
38.155399 1.750200 -738.288818
38.808800 2.589200 -738.913513
38.985199 2.385700 -739.121399
39.021500 2.654000 -739.135803
38.035900 1.817900 -737.954590
38.890800 2.519800 -738.807983
38.228100 0.301300 -738.101013
38.254601 1.940800 -737.979309
38.399799 1.978800 -738.131592
39.040600 2.164900 -738.802429
39.082901 2.346200 -738.831177
39.535099 2.102100 -739.338928
39.596901 1.997400 -739.414917
39.705200 2.011100 -739.529785
39.820000 1.933300 -739.660217
39.923401 2.014400 -739.763672
39.149399 1.512800 -738.745117
39.314899 1.490900 -738.924683
38.543201 0.160200 -737.668091
38.930801 0.130800 -738.086487
39.086700 0.280600 -738.240112
39.110901 0.758700 -738.222473
39.218601 0.792100 -738.335022
39.590099 0.989400 -738.715515
39.739799 0.987200 -738.876282
40.130299 -0.419000 -739.423218
38.784000 -0.733900 -737.693176
39.441299 0.240600 -738.309326
39.608898 0.211400 -738.491699
38.842602 -0.577300 -737.409607
38.953300 -0.574800 -737.528015
39.056599 -0.454500 -737.627930
39.451302 -0.557600 -738.060181
40.389702 -1.058600 -738.398010
40.334801 -1.189100 -738.463806
39.751701 -1.499300 -738.041016
39.866100 -1.413900 -738.149597
40.037399 -1.283800 -738.312012
40.157299 -1.266500 -738.431030
40.899300 -0.368600 -739.303406
38.851799 -0.692200 -737.506226
39.030201 -0.658400 -737.682312
39.149899 -0.645600 -737.801086
38.939400 0.539200 -737.803589
40.041599 -1.149600 -739.027527
40.123402 0.026300 -739.024414
38.842999 0.485700 -738.069214
38.955601 0.579100 -738.174988
39.105301 0.956300 -738.297302
40.028000 -0.732100 -739.342285
38.540001 1.225200 -738.091980
38.616001 1.015100 -738.183289
38.664001 1.165600 -738.220276
39.318501 1.203900 -738.871582
39.445400 1.118400 -739.004517
39.568600 1.622600 -739.090881
38.023201 0.295500 -738.028687
38.355400 0.346200 -738.356873
39.216099 2.159700 -739.083679
39.965900 1.901900 -739.851990
38.293999 2.838800 -738.518372
38.779301 2.693200 -739.013916
39.075699 2.693700 -739.309875
39.183899 2.816600 -739.408875
39.538799 2.827500 -739.762573
36.918800 2.724100 -737.924500
37.055901 2.735300 -738.060425
37.173199 2.746300 -738.176819
37.397301 3.689100 -738.330200
37.511501 3.732900 -738.440918
37.620998 3.836000 -738.542480
37.737598 3.846800 -738.658203
38.597198 4.116900 -739.496216
39.023201 3.953200 -739.933716
39.189499 3.970300 -740.098389
36.095001 7.432400 -739.028015
36.171799 7.166800 -739.124023
36.292999 7.081200 -739.250610
36.411499 7.034500 -739.371521
36.521999 7.094900 -739.476379
36.569599 7.224900 -739.513916
36.611698 7.425000 -739.540527
36.654301 7.616200 -739.568420
36.758598 7.748600 -739.661926
36.869099 7.801600 -739.767273
36.993301 7.681100 -739.899475
37.135700 7.337800 -740.066284
37.304199 7.387200 -740.229675
37.420601 7.372000 -740.346191
33.494801 15.357400 -742.563477
33.328701 15.468700 -742.752991
33.438702 15.455500 -742.862976
33.482101 15.604500 -742.893494
34.266201 15.686600 -743.986023
34.375599 15.685100 -744.094482
34.069698 17.117901 -744.104614
34.287201 17.034599 -744.327271
34.141499 17.103100 -744.249512
33.808399 17.236099 -743.876770
33.962002 17.188499 -744.033875
34.427700 16.746201 -744.977783
34.428101 17.117399 -745.684204
33.774200 18.440500 -745.224670
34.289101 17.299299 -745.840881
32.558300 18.764200 -744.846680
33.274101 19.138800 -745.528076
33.384701 19.086100 -745.643494
32.074299 18.973101 -745.577271
31.984301 19.213699 -745.563477
32.198898 19.281601 -745.760010
33.032700 19.274200 -746.555115
33.675999 17.871901 -744.344177
34.072201 17.811001 -744.729370
33.160500 16.107500 -742.777405
34.256802 15.789300 -743.859070
34.369999 15.792000 -743.966919
35.990501 6.906100 -739.172424
36.111500 6.880100 -739.290894
36.231300 6.873100 -739.406372
36.350498 6.877600 -739.520203
36.469101 6.889800 -739.632813
36.542099 7.567400 -739.637573
36.584499 7.816500 -739.654175
36.696499 7.913000 -739.752319
36.813900 7.933200 -739.862793
36.957600 7.584000 -740.034119
37.280998 7.237400 -740.377380
36.447201 5.731600 -738.964111
36.549599 5.697500 -739.065491
36.665699 5.760500 -739.170776
36.756802 6.194800 -739.216980
36.791698 6.565300 -739.215515
36.902802 6.689400 -739.310303
37.064400 6.946100 -739.440796
37.174198 7.082600 -739.533081
37.819401 5.633600 -740.288208
37.951199 5.487200 -740.428284
38.031601 4.383000 -738.953979
38.366199 3.363700 -738.760986
38.487400 3.379800 -738.875183
38.642300 2.894000 -739.067871
38.736401 2.410000 -739.202271
38.857300 2.441600 -739.314819
38.967201 2.633700 -739.401978
39.515598 2.710700 -739.918396
39.645500 2.691200 -740.044189
37.851002 1.542800 -738.084900
38.083698 1.556700 -738.306030
38.203098 1.622900 -738.413879
38.326500 2.587500 -738.443420
38.927399 2.780900 -738.999573
39.107201 2.360500 -739.209778
39.421101 0.479500 -738.413391
39.715698 0.717900 -738.673584
39.797100 0.451200 -738.775330
39.966499 -0.166200 -738.992615
40.087601 -0.109700 -739.103394
40.198101 0.091000 -739.190918
39.321400 -0.772400 -737.911072
39.441299 -0.691400 -738.018677
39.631100 -0.715800 -738.202576
37.675701 3.912700 -738.376892
37.727299 3.979600 -738.555786
38.095402 4.451600 -739.694580
38.067902 4.314700 -739.158325
38.048100 4.296400 -739.320923
37.836102 3.832600 -738.483704
38.044201 4.089200 -738.830627
38.105801 4.168800 -739.050110
38.179401 4.275300 -739.690186
38.124199 3.864700 -738.450623
38.144699 3.899000 -738.783508
38.201900 3.975800 -739.083130
38.165501 3.940200 -739.329407
37.976700 3.390800 -738.022522
37.975899 3.394300 -738.166809
37.981998 3.406200 -738.323120
38.226398 3.705500 -738.652588
38.276199 3.773700 -738.954529
38.256500 3.755300 -739.117493
38.241600 3.742600 -739.279297
38.147598 3.365800 -738.399780
38.247898 3.496400 -738.786377
38.290600 3.551400 -738.932678
38.297199 3.564000 -739.088684
38.273102 3.540500 -739.253174
38.233700 3.503800 -739.580200
38.289600 3.574300 -739.722717
38.362801 3.446100 -738.119812
38.365299 3.455300 -738.324097
38.494202 3.652300 -739.784973
38.345402 3.444400 -738.534790
38.324001 3.448200 -739.488708
38.239101 3.400400 -738.261414
38.357201 3.418600 -738.921509
38.355900 3.422100 -739.080017
38.340199 3.408800 -739.242493
38.424500 3.520400 -739.614807
38.210300 3.565300 -739.397827
38.471199 3.493700 -738.237671
38.214199 3.717700 -739.625305
37.924599 3.632700 -738.365601
38.030602 3.802300 -740.011719
37.876900 3.634600 -740.510315
37.870399 3.757400 -738.622986
38.143200 4.093900 -739.181580
37.540401 3.849800 -738.263916
37.771500 4.129100 -738.571777
37.852901 4.228200 -738.708191
38.051899 4.472600 -739.128174
38.164799 4.616500 -739.570190
37.332298 3.815200 -738.227722
37.382301 3.877700 -738.382813
37.473301 3.986000 -738.438293
37.591801 4.128400 -738.565430
37.759300 4.329800 -738.758179
37.877399 4.471800 -738.884583
37.966702 4.585800 -739.254822
37.956200 4.577500 -739.415283
37.965801 4.594600 -739.649170
37.432899 3.830100 -738.065674
38.075901 4.748100 -739.818176
37.687901 4.518800 -738.218018
37.696301 4.533200 -738.411621
37.669300 4.505300 -738.576172
37.678699 4.519900 -738.731323
37.896599 4.786800 -739.224304
37.910198 4.806300 -739.378113
37.896801 4.794200 -739.539124
37.868999 4.765400 -739.704285
37.862900 4.762000 -739.863586
37.839600 4.739000 -740.051025
37.440102 4.471300 -738.309814
37.456299 4.493700 -738.453613
37.496799 4.544400 -738.600586
37.566399 4.629200 -738.739990
37.668701 4.752200 -738.870422
37.746101 4.846100 -739.007080
37.813301 4.928100 -739.146423
37.830502 4.951800 -739.299072
37.821301 4.944600 -739.458923
37.771301 4.890000 -739.630005
37.722500 4.836800 -739.801025
37.776299 5.026200 -739.577087
37.731800 4.978100 -739.746704
37.712601 4.960200 -739.943298
37.409801 4.647400 -738.675720
37.495201 4.750600 -738.810730
37.610699 4.888900 -738.937378
37.699100 4.995700 -739.071106
37.750801 5.059800 -739.214417
37.783001 5.100900 -739.362793
37.596199 5.066200 -738.970276
37.676201 5.163000 -739.106079
37.702702 5.197400 -739.256104
37.713501 5.215300 -739.488892
37.683498 5.183900 -739.654297
37.642101 5.139200 -739.823120
37.808601 5.339600 -740.059021
37.368801 5.128200 -738.790283
37.457199 5.234600 -738.924194
37.542198 5.336900 -739.058716
37.605400 5.414000 -739.198792
37.631100 5.447300 -739.348877
37.638802 5.459700 -739.503906
37.630501 5.453500 -739.663330
37.626701 5.452600 -739.821472
37.662300 5.499200 -740.047424
37.109901 5.112400 -738.598877
37.216000 5.239200 -738.728516
37.351700 5.400400 -738.849915
37.530300 5.616800 -739.194824
37.557201 5.651500 -739.344482
37.562500 5.661200 -739.500122
37.540901 5.639600 -739.663025
37.523499 5.622800 -739.825012
37.438900 5.535000 -740.320496
37.410099 5.573700 -739.062012
37.577400 5.788800 -739.958618
37.513599 5.721600 -740.290771
37.341702 5.524700 -740.464172
36.974499 5.085000 -738.669312
37.053799 5.306200 -738.812012
37.150501 5.420100 -738.865112
37.262100 5.551300 -738.914185
37.387100 5.701000 -739.116516
37.470001 5.800300 -739.251221
37.506599 5.850400 -739.633728
37.483898 5.827100 -739.796875
37.567101 5.933100 -740.260376
37.426998 5.801800 -739.941284
37.516602 5.782200 -739.433228
37.318901 5.853700 -739.120789
37.394001 5.943100 -739.257690
37.477299 6.044600 -739.549011
37.436501 5.999500 -739.717407
37.392502 5.950800 -739.886902
37.382500 5.945800 -740.323792
37.152302 5.948700 -738.273987
37.156700 5.956100 -738.429993
37.141102 5.940100 -738.591187
37.100601 5.895400 -738.759216
37.079700 5.873500 -738.922180
37.143501 5.949600 -739.062378
37.386299 6.238500 -739.546509
37.376400 6.229200 -739.706421
37.350700 6.201600 -739.870728
37.304001 6.149700 -740.041077
37.282101 6.126500 -740.204773
36.972198 5.846700 -738.257080
37.330002 6.278700 -739.419373
37.245399 5.862500 -738.833130
37.352200 6.002700 -740.063721
37.426399 6.090600 -740.186279
36.937000 6.023900 -738.745422
36.954399 6.045900 -738.898193
37.010399 6.112400 -739.040588
37.122501 6.243900 -739.167603
37.211601 6.348700 -739.300598
37.269199 6.417200 -739.442017
37.286201 6.438600 -739.594421
37.285999 6.440200 -739.751587
37.265701 6.418500 -739.914612
37.277500 6.436600 -740.304626
37.343201 6.514400 -740.445679
36.971001 6.305400 -739.111206
37.061401 6.411700 -739.244019
37.150101 6.515800 -739.377014
37.213600 6.590900 -739.516602
37.237499 6.620300 -739.667114
37.236401 6.620800 -739.824402
37.199200 6.579400 -739.992004
37.195000 6.576300 -740.150391
37.239300 6.629200 -740.299927
36.909698 6.424700 -739.161072
37.026501 6.561300 -739.286682
37.202301 6.769400 -739.709595
37.180901 6.746100 -739.872498
37.170502 6.739500 -740.399414
36.865898 6.661300 -738.845703
36.853401 6.648500 -739.015076
37.086498 6.923900 -739.579712
37.140800 6.988100 -739.721619
37.104801 6.950200 -740.123901
37.084801 6.928600 -740.286621
37.060699 6.902300 -740.450623
37.112099 6.963300 -740.605774
36.804298 6.976600 -739.177979
36.843601 7.023700 -739.343872
36.929798 7.124700 -739.477173
36.984402 7.189300 -739.619019
37.002102 7.211300 -739.770874
37.009300 7.221200 -739.925720
36.992199 7.203000 -740.087280
36.943001 7.147800 -740.258179
36.912601 7.114300 -740.424011
36.925201 7.130400 -740.577576
36.849300 7.043600 -740.677979
37.020100 7.241400 -740.707520
36.690601 7.230900 -739.252930
36.740200 7.289600 -739.396179
36.897400 7.474000 -739.666382
36.921600 7.504200 -739.894714
36.907101 7.490900 -740.212402
36.904900 7.489900 -740.369873
36.634201 7.507600 -739.095215
36.631302 7.505800 -739.252686
36.639900 7.517300 -739.407104
36.859901 7.776500 -739.972900
36.868198 7.789100 -740.283875
36.813099 7.728100 -740.534973
36.781200 7.692900 -740.701111
36.643101 7.710500 -739.023499
36.478199 7.521800 -739.146606
36.487000 7.533400 -739.301086
36.501099 7.551100 -739.454224
36.776001 7.876600 -740.396973
36.688000 7.777000 -740.579224
36.710800 7.805800 -740.841919
36.828499 7.627200 -739.708130
36.902500 7.723500 -740.785828
36.830898 6.832500 -738.906921
36.832401 6.836100 -739.121582
36.828300 6.832800 -739.280273
37.052799 7.096800 -739.847717
37.042599 7.086400 -740.007874
37.014099 7.054900 -740.173401
36.950699 6.983200 -740.349121
36.947399 6.980800 -740.507813
37.160900 7.229400 -740.761108
37.278301 7.365400 -740.805481
37.109100 6.709500 -740.087280
37.068901 6.664400 -740.256470
36.880100 7.698300 -740.090088
36.679298 7.657700 -740.911377
36.557499 7.590600 -738.915527
36.624699 7.696200 -740.689026
36.775002 7.937200 -740.010376
36.779900 7.943000 -740.245789
36.379601 7.708500 -739.178772
36.421600 7.756500 -739.328918
36.459000 7.799400 -739.477173
36.686298 8.059500 -739.812378
36.717300 8.094900 -739.961914
36.729599 8.109000 -740.116272
36.718498 8.096200 -740.277100
36.674599 8.045900 -740.446777
36.101101 7.776200 -739.216309
36.167000 7.851300 -739.384399
36.276299 7.976300 -739.514221
36.596600 8.341900 -739.982727
36.619598 8.368200 -740.134216
36.627499 8.377000 -740.289917
36.630100 8.379800 -740.446899
36.078899 8.205900 -739.442871
36.132500 8.267000 -739.615906
36.240501 8.390100 -739.745483
36.371700 8.539900 -739.868774
36.473400 8.655800 -739.999512
36.522598 8.711900 -740.143921
36.540001 8.731700 -740.296814
36.501701 8.687800 -740.464783
36.404999 8.577400 -740.806885
36.074699 8.642200 -739.342712
36.075600 8.643300 -739.486328
36.094200 8.664400 -739.639282
36.162998 8.742800 -739.778992
36.245300 8.836600 -739.914917
36.352001 8.958100 -740.122925
36.386799 8.997800 -740.271118
36.401100 9.014200 -740.424683
36.405300 9.018900 -740.659973
36.497299 9.123800 -740.792419
36.008999 8.890200 -739.526794
36.013500 8.895400 -739.683411
36.036098 8.921100 -739.835205
36.085999 8.977900 -739.979675
36.215000 9.124700 -740.102783
36.296101 9.217000 -740.238525
36.325401 9.250200 -740.388123
36.315800 9.239400 -740.627075
36.326900 9.252100 -740.781677
36.314999 9.238600 -740.942688
36.330002 9.255700 -741.096375
36.412998 9.350100 -741.230774
36.416500 9.354200 -741.387512
35.786900 8.863900 -739.628906
35.933701 9.030600 -739.747986
36.063301 9.177900 -739.871277
36.136902 9.261400 -740.009216
36.202499 9.336000 -740.149109
36.241299 9.380000 -740.296082
36.270000 9.412500 -740.445923
36.280998 9.424900 -740.600403
36.282600 9.426600 -740.757629
36.287701 9.432300 -740.913879
36.177299 9.306700 -741.102722
36.248001 9.387000 -741.240601
36.199799 9.332100 -741.412170
36.196499 9.347800 -741.604919
35.947399 8.711600 -739.422302
36.623600 9.198900 -740.870422
36.429401 8.905600 -740.514709
36.453800 8.932700 -740.813110
36.471298 9.230400 -740.940918
36.550999 9.320500 -741.110779
36.477798 9.363500 -741.519287
34.116901 16.587099 -744.638977
34.102001 16.568199 -744.797485
34.108898 16.573299 -744.950012
34.134899 16.599400 -745.096802
34.156601 16.619600 -745.322083
34.113400 16.569599 -745.489380
34.157299 16.614401 -745.687195
33.906898 16.718599 -745.031616
33.936798 16.749100 -745.177307
33.969002 16.782101 -745.322388
34.001202 16.815300 -745.467285
34.022301 16.836100 -745.615479
34.009499 16.819599 -745.773926
34.016102 16.824499 -745.926514
33.589199 16.698999 -744.849121
33.650700 16.764200 -744.985901
33.732800 16.852200 -745.116577
33.806599 16.930901 -745.249512
33.844898 16.970699 -745.392578
33.885101 17.009100 -745.766724
33.988998 17.121000 -745.890015
34.002899 17.134001 -746.040222
34.113098 17.253901 -746.083984
34.445599 17.990999 -741.766479
34.546902 18.101101 -741.816406
34.465401 18.010401 -741.913025
34.615501 18.173000 -742.025879
34.609901 18.164499 -742.178772
34.632999 18.187500 -742.324280
34.414200 17.944901 -742.533386
34.320599 17.839800 -742.710083
34.100700 17.597200 -742.844727
33.959702 17.440001 -743.034973
33.678299 17.119301 -743.877930
33.728500 17.172100 -744.017578
33.492401 16.903299 -744.700012
33.342899 16.736799 -744.897217
33.381901 16.777201 -745.040527
33.519501 16.923700 -745.309814
33.609600 17.020300 -745.437927
33.678200 17.093300 -745.572021
33.737999 17.156700 -745.708679
33.764500 17.183500 -745.855225
33.834900 17.258400 -745.988403
33.848801 17.738501 -742.710388
33.806801 17.660200 -744.705994
33.825001 17.677700 -744.854187
33.258202 17.052000 -745.248779
33.270302 17.062799 -745.399780
33.298199 17.090900 -745.546204
33.316299 17.108299 -745.695496
34.053001 18.445299 -742.577576
34.131802 18.528999 -742.708618
33.210098 17.512899 -743.334595
33.679001 17.999201 -744.814514
32.880798 17.116600 -745.509094
33.627800 18.332001 -744.890320
33.627399 18.328899 -745.043396
33.614101 18.311701 -745.200317
33.646900 18.344900 -745.343872
33.665401 18.362400 -745.491699
33.708900 18.406700 -745.669128
33.506001 18.368900 -745.408813
33.521599 18.383400 -745.557373
33.550999 18.413099 -745.692688
33.614399 18.216400 -744.782227
33.593201 18.190599 -744.940674
33.109699 17.568399 -743.840027
33.613201 18.095501 -745.078491
33.617901 18.097900 -745.233276
34.223000 18.624800 -742.882874
33.620098 17.930000 -744.941711
33.640598 17.836599 -744.754578
32.421299 17.655800 -743.558716
32.539299 17.780800 -743.736572
32.700600 17.954300 -743.848572
33.429401 18.715900 -745.483521
33.411201 18.692900 -745.640503
33.534000 18.824301 -745.762329
32.450401 18.078300 -743.366577
32.495201 18.124300 -743.507813
33.369999 19.026699 -746.049011
33.174500 19.149500 -745.910400
32.542000 18.835300 -744.697083
32.340900 19.222200 -745.383728
32.292599 19.310699 -745.280029
32.305199 19.319901 -745.504395
32.329700 19.343599 -745.649719
32.388500 19.404600 -745.785889
32.373100 19.384701 -745.942017
32.379200 19.385401 -746.244080
32.376499 19.379400 -746.396912
32.318600 19.445700 -745.422913
32.265999 19.376101 -746.043274
32.442200 19.619499 -745.379517
32.201900 19.354601 -745.593628
32.236801 19.377001 -746.343323
32.442501 19.382900 -746.106079
32.225498 19.403700 -745.190613
32.302799 19.455601 -746.747986
32.159401 19.544100 -745.222290
32.205002 19.589899 -745.398071
32.223900 19.607401 -745.544312
32.203800 19.580900 -745.776306
32.154999 19.521400 -746.091919
32.084301 19.441099 -746.262085
31.981701 19.324600 -746.517212
32.024700 19.523300 -745.400024
32.338699 19.849600 -745.909302
32.081699 19.612400 -745.550110
32.261799 19.800800 -745.800171
32.747101 19.261900 -746.848572
32.888599 19.267500 -746.427429
32.906399 19.273701 -746.767883
33.067902 19.210199 -746.267578
33.071999 19.208599 -746.416626
32.600899 18.686701 -744.444519
32.506802 18.640499 -744.321777
32.579399 18.709900 -744.584229
33.042198 19.170700 -745.807800
32.592602 18.479799 -744.246216
32.637001 18.522100 -744.426697
32.576401 18.208700 -744.103088
33.461300 18.885000 -745.549072
32.618099 17.665300 -743.720581
33.535400 18.627600 -745.195496
33.573502 18.664499 -745.334412
33.500401 18.579399 -745.429871
33.508999 18.583200 -745.577209
33.708500 18.083401 -744.964294
34.186798 18.489201 -742.552979
33.007599 17.066999 -745.413208
33.035801 17.093700 -745.555603
33.716900 17.731600 -742.931213
33.681900 17.681499 -743.237915
33.347500 17.240200 -745.124084
34.345600 18.134001 -741.663025
34.575401 18.386600 -741.825317
34.615002 18.426300 -741.961975
34.637402 18.446699 -742.103088
34.672401 18.481199 -742.241028
34.709400 18.518101 -742.378174
34.539501 18.323099 -742.496277
33.917801 17.554701 -744.518616
33.282700 16.819201 -745.150818
33.349800 16.890100 -745.281494
33.421799 16.966600 -745.410583
33.507599 17.058599 -745.535583
33.555302 17.107599 -745.671570
33.629902 17.187000 -745.799377
34.013000 17.413200 -742.853821
33.548801 16.868401 -743.500183
33.474602 16.742800 -744.718872
33.618301 16.887800 -745.202393
33.690601 16.964600 -745.331177
33.812801 17.053499 -745.513123
34.028198 17.400600 -743.158325
33.482201 16.725500 -744.952515
33.789799 17.048901 -743.401611
34.131802 17.340500 -746.213379
33.866402 16.914900 -745.557129
34.150200 17.087700 -745.830383
34.104000 17.030199 -745.993774
34.088200 17.056101 -743.243713
33.919102 16.861300 -743.363525
34.171799 16.946301 -745.613220
34.032200 16.683399 -745.718384
34.030499 16.676500 -745.868530
35.502899 9.343100 -739.748230
35.635601 9.495800 -739.894897
35.703201 9.572000 -740.028320
35.795399 9.677400 -740.155518
36.082199 9.997200 -740.831726
36.074100 9.981100 -741.058228
36.062599 9.963300 -741.210815
36.115002 10.021400 -741.346924
36.111801 10.013300 -741.497375
35.838100 9.449400 -739.609985
35.877602 9.492000 -739.750183
35.923698 9.542600 -739.888672
35.940800 9.558700 -740.034119
35.959099 9.576200 -740.179321
36.088902 9.724300 -740.371521
36.131001 9.770100 -740.510498
36.154598 9.793900 -740.654114
36.138100 9.763500 -741.032288
36.148499 9.771500 -741.179382
36.170502 9.793500 -741.323425
36.247700 9.677500 -739.623230
36.232899 9.653800 -739.836182
36.101601 9.495000 -739.942688
36.166100 9.560900 -740.300781
36.222000 9.620900 -740.511230
36.240601 9.632000 -740.880371
36.332901 9.737600 -741.006470
36.347801 9.751000 -741.152222
36.258499 8.663200 -739.528015
36.145599 8.525800 -739.629578
36.324699 8.733700 -739.811829
36.387001 8.804000 -739.946594
36.416302 8.834700 -740.089172
36.447800 8.868000 -740.231323
36.449799 8.866100 -740.380493
36.445900 8.852700 -740.681091
36.324699 8.207700 -739.617188
36.450199 8.351600 -739.812317
36.568901 8.487300 -740.008484
36.600201 8.520300 -740.150574
36.626701 8.547600 -740.293823
36.644299 8.561700 -740.514099
36.633999 8.544800 -740.666382
36.231499 7.732000 -739.125671
36.219601 7.711900 -739.312012
36.235100 7.725700 -739.458679
36.696999 8.255800 -740.174194
36.671902 8.220800 -740.330200
36.577000 8.099300 -740.578613
36.616600 8.142300 -740.718872
36.599300 7.914300 -740.597107
36.641399 7.959100 -740.779724
36.798500 7.926000 -740.815430
36.826500 7.742100 -740.912903
37.059700 7.723700 -740.630493
37.084400 7.746400 -740.854675
36.670300 6.945700 -739.120972
36.720402 6.965400 -740.445923
36.735298 6.978900 -740.593018
36.794800 7.043200 -740.830078
37.159801 6.900400 -739.901672
37.300900 6.898600 -740.453918
36.818001 5.889700 -738.596985
36.791698 5.853800 -738.736328
36.824902 5.889500 -738.880188
37.323601 5.842100 -740.045227
37.208698 5.697800 -740.224426
36.853600 4.996800 -738.666626
36.911201 5.062400 -738.805603
37.481899 5.093900 -738.678589
37.395401 4.983800 -738.849304
37.889099 5.547700 -740.045227
37.833401 5.020600 -739.983093
37.674198 4.825800 -740.022217
37.691601 4.227500 -738.638916
37.779400 4.030700 -738.343811
37.953602 3.750700 -738.472778
38.031601 3.800100 -739.862488
38.143902 3.837700 -739.709473
37.967701 3.536800 -738.123779
37.874199 3.407300 -738.570679
38.310600 3.220100 -738.634827
38.393398 3.304200 -739.148621
38.356201 3.253000 -739.308716
38.365700 3.259600 -739.458618
38.456200 3.096200 -738.918518
38.462101 3.098500 -739.069092
38.422100 3.044000 -739.229797
38.373100 2.978500 -739.392700
38.467701 3.092900 -739.447876
38.346199 2.938600 -739.600098
38.502701 2.823800 -737.915222
38.783798 3.164100 -738.085083
38.527599 2.844700 -738.213623
38.537701 2.844900 -738.591125
38.603298 2.921200 -738.729126
38.610298 2.924800 -738.879395
38.565498 2.859600 -739.192993
38.519600 2.797700 -739.355225
38.562599 2.845400 -739.517517
38.485699 2.586200 -738.294128
38.568100 2.678300 -738.580872
38.611900 2.727600 -738.723572
38.641300 2.751400 -739.097290
38.566799 2.656700 -739.189514
38.561501 2.645100 -739.342896
38.403599 2.447100 -739.453674
38.654598 2.644300 -738.848572
38.631500 2.610700 -739.005615
38.249001 1.886400 -737.842896
38.576099 2.270200 -738.461670
38.654202 2.362200 -738.597473
38.712799 2.430000 -738.737183
38.728298 2.444500 -738.885925
38.718201 2.427000 -739.040100
38.533600 1.906200 -737.550171
38.508202 1.869800 -737.707214
38.518902 1.878100 -737.857300
38.546700 1.907800 -738.003906
38.689499 2.070400 -738.431213
38.791000 2.189100 -738.638123
38.832100 2.235200 -738.781494
38.834000 2.232700 -738.932983
38.803001 2.189200 -739.091675
38.832699 2.221300 -739.237427
38.920799 2.325400 -739.384216
38.650200 1.950300 -737.438782
