35.776402 48.863800 -724.721619
35.726799 48.500301 -725.670227
35.611301 47.749401 -726.587585
35.326500 45.877998 -729.105774
34.949902 43.415600 -732.275024
34.780701 42.314499 -733.628418
35.316898 47.313400 -727.066711
35.254501 46.898899 -727.614624
35.039902 45.465000 -729.601685
34.970402 45.008900 -730.145630
34.903400 44.551601 -730.887207
34.678600 43.063301 -732.800293
34.438999 41.509899 -734.427612
34.348499 40.937801 -734.863220
34.282700 40.501202 -735.435974
34.205502 40.006100 -735.897583
35.323200 49.256199 -723.689880
35.237301 48.624100 -725.083374
35.154701 48.072701 -725.774475
34.921902 46.487801 -728.085815
34.876099 46.165100 -728.666870
34.587101 44.210300 -731.391418
34.251202 41.996700 -733.893616
33.900200 39.690601 -736.428284
33.824699 39.193100 -736.992615
35.106098 49.525600 -723.049805
35.034500 48.983299 -724.303101
34.847401 47.684799 -726.304077
34.569199 45.762402 -729.201477
34.282902 43.806499 -731.935913
34.118801 42.724201 -733.094604
34.880199 49.271801 -722.402893
34.619999 47.308399 -726.804382
34.559700 46.897701 -727.354187
34.331299 45.319698 -729.690491
34.289001 45.012299 -730.281128
34.232201 44.621498 -730.847778
34.040600 43.334000 -732.427307
33.809101 41.777100 -734.344910
33.743999 41.336800 -734.913330
33.673199 40.863201 -735.475220
33.602299 40.388500 -736.039429
34.652500 48.501999 -724.715576
34.604000 48.158199 -725.283325
33.769199 42.380100 -733.584778
34.616798 49.203400 -723.387512
34.241402 46.520699 -727.867920
34.198299 46.205700 -728.452087
33.908401 44.199402 -731.260986
33.291000 39.992901 -736.579773
34.416401 49.491402 -721.651917
34.337799 48.789101 -723.862122
34.199001 47.760799 -725.763672
33.932301 45.834000 -728.954529
33.640800 43.800701 -731.764221
33.535702 43.062500 -732.825012
34.172298 49.407700 -722.343872
34.047699 48.440701 -724.360474
33.915901 47.431198 -726.370483
33.868198 47.073299 -727.035583
33.653301 45.520802 -729.475708
33.609501 45.195202 -730.060303
33.548401 44.769402 -730.615723
33.352901 43.419998 -732.273682
33.216999 42.423500 -733.952515
33.150799 41.966599 -734.513428
33.089001 41.535400 -735.083618
33.024700 41.089199 -735.652222
32.954102 40.606201 -736.213623
33.992500 49.577099 -720.930786
33.947399 49.076698 -722.921082
33.819698 48.082401 -724.931213
33.641800 46.711399 -727.610229
33.591702 46.347099 -728.177979
33.108200 42.860401 -733.396423
33.737301 48.713402 -723.505493
33.151798 44.297798 -730.996826
33.631001 49.522999 -720.379395
33.640999 49.431000 -721.534973
33.447300 47.754200 -725.471985
33.243301 46.102299 -728.751526
32.960602 44.030701 -731.642700
32.888599 43.454700 -732.748291
33.387001 49.146000 -722.077209
33.306198 48.395401 -723.978271
33.202000 47.485001 -726.023926
33.166599 47.177299 -726.705811
32.989101 45.752102 -729.283020
32.918499 45.254799 -729.813904
32.872601 44.899300 -730.390625
32.582600 42.675900 -733.856995
32.532799 42.295799 -734.437927
32.483299 41.917400 -735.021118
32.416302 41.437901 -735.579285
32.351299 40.969398 -736.143127
33.043499 49.109600 -719.278687
33.105598 49.391701 -719.886719
33.128399 49.381901 -720.878174
33.084999 48.857101 -722.665588
33.068901 48.654400 -723.382507
33.002499 48.082199 -724.560181
32.868401 46.874001 -727.295288
32.830101 46.544201 -727.971924
32.566700 44.480801 -731.247986
32.504002 43.968300 -732.173584
32.420799 43.309799 -733.256470
32.831100 49.074799 -721.462830
32.727299 47.870499 -725.181580
32.535999 46.195999 -728.552673
32.464298 48.943501 -718.614380
32.547100 49.181900 -720.169373
32.549099 48.882099 -722.046997
32.524300 48.447701 -723.769470
32.451599 47.680500 -725.767578
32.417000 47.376301 -726.352417
32.232201 45.815201 -729.081787
32.198898 45.517700 -729.674622
32.168400 45.235298 -730.273010
32.136002 44.942501 -730.869019
32.070400 44.412899 -731.689209
32.005001 43.868900 -732.606323
31.909300 43.119400 -733.664917
31.860901 42.733501 -734.242615
31.814899 42.360802 -734.825684
31.761499 41.945801 -735.399170
31.695101 41.455101 -735.954895
32.198399 49.033699 -719.240479
32.233501 48.988800 -720.723877
32.244400 48.729900 -722.615906
32.202900 48.192101 -724.301697
32.109100 47.183201 -726.908508
32.074100 46.858002 -727.586121
32.030201 46.497299 -728.155273
31.692699 43.619900 -733.155212
31.816099 48.822899 -718.265381
31.876600 48.904999 -719.826172
31.933701 48.973099 -721.350220
31.917299 48.547600 -723.179321
31.888700 48.071301 -724.887024
31.840300 47.566700 -726.091675
31.687500 46.189999 -728.682495
31.647699 45.815201 -729.445984
31.619200 45.537899 -730.045288
31.583500 45.219501 -730.632874
31.547600 44.899502 -731.221008
31.481600 44.358799 -732.038696
31.331200 43.104500 -734.027405
31.299101 42.804600 -734.629211
31.254900 42.436100 -735.213379
31.194799 41.976299 -735.775085
31.511999 48.814400 -718.943970
31.582100 48.941299 -720.498230
31.610399 48.837700 -721.954895
31.601000 48.438099 -723.792480
31.568300 47.925800 -725.487183
31.509199 47.352001 -726.669189
31.474501 47.036201 -727.251709
31.439899 46.720299 -727.835083
31.154100 44.120499 -732.617981
31.096901 43.622501 -733.453125
31.122601 48.785702 -717.798889
31.192499 48.839802 -719.625183
31.264500 48.961899 -721.173706
31.270500 48.719398 -722.576599
31.277500 48.391499 -724.438599
31.107000 46.579498 -728.449707
31.066799 46.226002 -729.022827
31.034500 45.898602 -729.703430
30.995501 45.551498 -730.281128
30.966999 45.262901 -730.877930
30.937201 44.967300 -731.473572
30.770399 43.458199 -734.066772
30.716999 42.972401 -734.909424
30.659401 42.499401 -735.562805
30.856300 48.795399 -718.479675
31.008400 48.704399 -723.248779
30.998400 48.263802 -725.068604
30.961700 47.887001 -725.824829
30.924500 47.410801 -727.040222
30.898399 47.111401 -727.726379
30.635000 44.636700 -732.047485
30.581400 44.122898 -732.973328
30.670000 48.830799 -719.174011
30.733801 48.999001 -720.143982
30.791300 49.013100 -721.648987
30.808201 48.623402 -723.889099
30.753700 47.739799 -726.441223
30.382200 43.957401 -733.591187
30.347401 43.520000 -734.640320
30.406200 48.747898 -717.509583
30.582500 49.047901 -720.810425
30.634600 49.020699 -722.296021
30.504700 46.881901 -728.267578
30.466299 46.522301 -728.838074
30.431801 46.184399 -729.416992
30.409300 45.891998 -730.109314
30.385799 45.614799 -730.708984
30.346001 45.246101 -731.281921
30.136700 43.088600 -735.256470
30.504200 48.643902 -724.502930
30.480600 48.251801 -725.549011
30.154200 44.625599 -732.534180
30.166500 48.874001 -718.116272
30.251499 48.993500 -719.677917
30.385201 48.973099 -722.967285
30.326300 47.535400 -727.302429
30.092800 44.987900 -731.890320
30.021900 43.998901 -734.144897
30.116100 48.921799 -718.825378
29.990200 44.440899 -733.184814
31.019300 56.134602 -714.202698
30.176001 49.127499 -721.415588
30.254400 48.997501 -723.654480
30.214500 48.075699 -726.193787
30.847500 55.492100 -714.302673
29.864401 48.789101 -717.134827
30.068199 49.133900 -720.304688
30.105400 47.252499 -727.875977
30.989500 56.795601 -713.962585
30.739300 55.048801 -714.789185
30.160801 48.588001 -725.064514
30.972401 57.528500 -713.957520
30.749300 55.896801 -714.825378
30.035400 49.221199 -722.090515
30.859200 56.914299 -714.599121
30.441000 54.293098 -714.865479
29.625799 49.082699 -717.675781
29.986500 48.976898 -724.262329
29.951300 47.866501 -726.839111
29.888000 46.877602 -728.578674
29.868099 46.553902 -729.162720
29.856701 46.275902 -729.762329
29.726400 43.736599 -734.790405
30.746201 57.644501 -714.581421
30.591801 56.526600 -715.078674
30.452700 55.579498 -715.361389
30.349400 54.869400 -715.589111
29.579700 49.197601 -718.338684
29.631500 49.183701 -719.245178
29.761499 49.363098 -720.926086
29.878700 49.415100 -722.743713
29.767000 45.970299 -730.365601
29.742800 45.614399 -730.942871
30.621700 57.214001 -715.155029
29.843599 48.506901 -725.664490
29.326799 49.221298 -716.862122
29.552299 49.394001 -719.941284
29.685900 49.557201 -721.610413
29.779499 49.409901 -723.448914
29.644300 45.407200 -731.584290
29.639900 45.074299 -732.367188
29.632500 44.484100 -733.762024
30.276501 56.205002 -715.572998
29.653000 47.604801 -727.408386
30.248501 56.916698 -715.649414
30.060200 55.625401 -715.982727
29.976700 54.980301 -716.304016
29.539801 49.835899 -722.221497
29.592600 49.071602 -724.823425
29.556299 48.265301 -726.222412
29.479000 44.947300 -733.033875
29.463400 44.278099 -734.407593
30.247000 57.976200 -714.889404
29.030300 49.407600 -717.479187
29.139799 49.531502 -718.750427
29.292999 49.702400 -720.534607
29.493601 49.390999 -724.113525
29.439600 47.362400 -728.059326
30.189400 57.685600 -715.567017
29.158100 49.665100 -719.426575
29.330000 49.961498 -721.152527
29.938101 56.475300 -716.124023
29.676800 54.568199 -716.800598
29.360701 49.883301 -722.919006
29.318399 46.929600 -728.924072
29.310900 46.618900 -729.513916
29.742800 55.930500 -716.478882
29.499500 54.064999 -717.289490
28.731100 49.760201 -716.395020
28.851299 49.748100 -718.026428
29.221201 50.334702 -721.687805
29.254601 48.826599 -725.413330
29.224400 47.999401 -726.809387
29.211201 46.391998 -730.129883
29.214001 46.130001 -730.736572
29.217899 45.873798 -731.345581
29.219900 45.528301 -732.124512
29.580000 55.236099 -716.828186
28.982000 50.107601 -719.941772
29.070101 50.325600 -720.631409
29.215500 49.811401 -723.635376
29.199200 45.003399 -733.688782
29.763100 57.587601 -716.069214
29.279100 53.714401 -717.889587
28.597900 49.949902 -717.025085
28.773199 50.052700 -719.007019
29.098000 50.397301 -722.366272
29.499901 56.991299 -716.509827
29.256300 55.022400 -717.450073
29.186701 54.421600 -717.794373
29.041700 53.228500 -718.395630
29.002399 52.736599 -718.894714
28.888700 51.653702 -719.658875
28.905399 51.403099 -720.362427
28.896900 51.065800 -720.931091
28.916800 49.399101 -724.494507
28.909300 48.598701 -725.996216
28.907301 47.867699 -727.427917
28.908400 47.321201 -728.529907
28.981300 45.617802 -732.815918
29.303900 56.353500 -716.902588
29.219500 55.679199 -717.208008
28.820999 50.959202 -721.664795
28.831699 50.332699 -723.022888
28.808201 52.488602 -719.524170
28.726101 49.080002 -725.104187
28.738100 47.000801 -729.244202
28.821699 46.212200 -731.752014
29.267500 58.074402 -715.878113
29.294399 57.867100 -716.580505
28.851601 54.180500 -718.369202
28.691200 52.233299 -720.168274
28.628599 49.842800 -723.936584
28.618401 48.370899 -726.586914
28.626699 47.657299 -728.026001
28.665400 46.877701 -729.941711
28.673500 46.607300 -730.544678
29.081400 57.374199 -717.072021
28.770201 54.982300 -717.924011
28.653099 53.728001 -718.893982
28.618401 53.240898 -719.392517
28.530300 51.944698 -720.767517
28.510900 51.531799 -721.303772
28.504601 50.959599 -722.279785
28.597799 46.635300 -731.258972
28.624901 46.182899 -732.394714
28.887501 56.718899 -717.297729
28.804399 56.037399 -717.597778
28.375999 48.884701 -725.708374
28.406401 52.873699 -719.973022
28.302900 50.280399 -723.448181
28.282000 49.432999 -724.726929
28.302099 48.188499 -727.164429
28.334900 47.426201 -728.884888
28.214300 50.660801 -722.863708
28.472401 55.620899 -718.018372
28.382299 54.799301 -718.464600
28.212799 52.541401 -720.525330
28.152901 51.386700 -721.864075
28.217600 47.268299 -729.608887
28.278200 47.149700 -730.457825
28.342699 46.714401 -731.891418
28.578100 57.630699 -717.474121
28.499901 56.963799 -717.775879
28.166901 54.225101 -718.890198
28.125900 53.686798 -719.364807
27.960600 49.914200 -723.964478
27.992300 49.297001 -725.330627
27.997999 48.789501 -726.241028
28.031000 48.078999 -727.777222
28.211201 47.199902 -731.134277
28.254700 56.339100 -718.125000
27.877399 52.193100 -721.080078
27.840401 51.126202 -722.457520
27.900801 47.876099 -728.427124
28.015499 55.464199 -718.529480
27.802299 53.327599 -719.826904
27.705000 50.551300 -723.319519
27.738400 48.558498 -726.866028
27.839500 47.711399 -729.246887
27.913200 47.686901 -730.027771
28.118799 57.472801 -717.955872
27.789900 54.825699 -718.875488
27.659000 53.020599 -720.420715
27.601700 51.873402 -721.657288
27.561501 49.781502 -724.544373
27.847300 47.637501 -730.719116
27.879900 57.154202 -718.540405
27.778200 56.454800 -718.633484
27.545000 54.444099 -719.468079
27.416901 52.678799 -720.936279
27.360500 51.516998 -722.170776
27.338100 50.257301 -723.880615
27.356300 49.510700 -725.196289
27.378901 49.205299 -725.880615
27.447201 48.552700 -727.533325
27.532499 48.198601 -728.893982
27.608801 48.168301 -729.672180
27.419901 55.859501 -719.023376
27.203100 53.964500 -719.816528
27.176399 53.466499 -720.309326
27.098700 52.240601 -721.409302
27.082701 51.261200 -722.720215
27.080400 50.877899 -723.270325
27.111900 48.953602 -726.436523
27.225599 48.510899 -728.163330
27.380899 48.014801 -730.359924
27.269501 56.872799 -718.937378
27.070299 55.294998 -719.412720
26.893000 53.153301 -720.913330
26.818600 51.929501 -722.018127
26.806200 50.303600 -724.281494
26.799801 49.892101 -724.824402
26.892099 48.941898 -727.062012
27.047100 48.746899 -728.772888
27.002199 56.396000 -719.466125
26.789400 54.774101 -719.870117
26.715599 54.037300 -720.259705
26.574100 50.730099 -723.725830
26.593599 49.672001 -725.419617
26.615400 49.339600 -726.093323
26.760599 49.076900 -727.783081
26.439699 52.879902 -721.329895
26.377800 51.691200 -722.451172
26.381599 51.321602 -723.004883
26.532600 56.078602 -719.853882
26.431299 55.312599 -720.024597
26.286600 53.833302 -720.799072
26.194099 52.487000 -721.845825
26.143299 50.431400 -724.232971
26.166000 50.090302 -724.901184
26.263800 49.440102 -726.648682
26.357500 49.511902 -727.367615
26.150400 54.743801 -720.431213
25.923500 51.083099 -723.434875
25.983101 49.826000 -725.646912
25.855101 53.429401 -721.220886
25.778900 52.139801 -722.294495
25.779200 51.737701 -722.833313
25.927900 55.436501 -720.441528
25.803900 54.322300 -720.867798
25.683100 52.929298 -721.688782
25.764400 49.946301 -726.299316
25.468700 50.861301 -723.951599
25.475401 50.480099 -724.502930
25.514299 50.197899 -725.192383
25.664600 49.741100 -727.033997
25.573400 54.982399 -720.825378
25.327400 51.482300 -723.280823
25.344400 54.070702 -721.289185
25.234400 52.702801 -722.122070
25.207300 52.090801 -722.673401
25.176701 53.483700 -721.660522
25.160601 50.055801 -725.783813
24.815001 51.247501 -723.722229
24.829100 50.879700 -724.276672
24.842699 50.508999 -724.831177
24.731300 51.831699 -723.122314
24.723301 53.119499 -722.043396
24.687500 52.507000 -722.491089
28.686300 45.208698 -733.327271
35.040798 38.860500 -736.464783
35.322800 39.803101 -735.975281
35.573700 39.274799 -736.313477
35.509499 40.337101 -735.580017
35.994900 39.963100 -735.886475
36.174702 41.207802 -735.028870
36.241901 40.696800 -735.490417
36.640400 41.641499 -734.686584
36.917801 41.166100 -735.071777
37.041801 42.132198 -734.130371
37.390598 41.694302 -734.591309
37.506500 42.465099 -733.636230
37.864399 42.049099 -734.028320
34.025101 38.176998 -737.304199
28.648899 50.404301 -718.320129
28.671700 50.260700 -717.640930
28.479601 50.896099 -717.538818
28.497101 50.589199 -716.754517
28.509800 50.343601 -716.038025
28.542101 51.086300 -716.112976
28.302999 51.241299 -716.991272
24.659201 53.930801 -721.181274
28.599501 51.621601 -717.770630
28.536800 51.097900 -718.275330
28.858400 51.659500 -718.729187
28.805000 51.709000 -716.050171
29.430000 53.349602 -716.844788
28.915899 51.290901 -715.355713
29.249100 52.735901 -716.104614
29.119301 51.960701 -715.478210
29.666100 53.898201 -716.551025
29.507799 52.520599 -715.401611
29.647600 53.239899 -715.843811
30.024200 52.739300 -714.738708
29.922800 53.292198 -715.222107
29.960800 54.267799 -715.927185
30.430099 53.438202 -714.558289
31.024300 54.796501 -714.153625
28.694799 50.842400 -718.942078
28.931400 50.891300 -719.750916
27.163799 48.610600 -729.411804
35.363499 37.715900 -735.903870
34.247501 38.027500 -735.966797
34.908699 38.304199 -735.982483
34.946499 38.831902 -735.488525
34.497398 39.296700 -735.216125
34.278500 39.692299 -734.637085
34.882599 39.972801 -734.590027
34.473598 40.451302 -734.147583
30.106899 48.135799 -716.943481
30.838200 48.280300 -717.289978
35.115101 43.745602 -730.611084
29.457800 48.394299 -716.508789
36.620499 45.703602 -728.758484
35.677399 45.565300 -728.629578
28.858200 48.789600 -716.281677
33.416401 48.518200 -720.895020
35.801998 46.825298 -727.086121
33.411999 48.014198 -722.820679
34.021500 47.820400 -723.766418
35.412102 47.412701 -726.052917
33.451801 46.779099 -725.714111
34.497799 47.066799 -726.035095
28.411501 49.551498 -715.794312
34.911400 48.399101 -723.986816
28.126900 50.291302 -715.443787
28.666201 52.095798 -716.631470
29.054800 52.781200 -716.965027
28.767300 52.377998 -717.575684
28.891100 52.414501 -718.223083
29.159100 52.985500 -717.591614
34.475399 48.679699 -722.897583
35.113499 48.013599 -724.850281
29.364799 52.008400 -714.840088
34.885899 38.127602 -736.618774
30.718399 48.358898 -721.719910
34.024799 40.944801 -734.260498
34.421902 39.177399 -737.422974
33.883400 41.384899 -733.773621
33.769501 42.091599 -732.556580
31.702400 46.215500 -726.622375
30.989700 46.767799 -726.190613
29.481800 47.711201 -725.694885
33.819199 41.854900 -733.186584
33.400398 42.663300 -732.297119
33.461800 43.159801 -731.325073
33.026199 43.611401 -730.849121
33.060902 43.956501 -730.180115
31.600201 46.141800 -727.338928
30.477100 46.801498 -727.047607
32.584599 44.805099 -729.332520
28.661301 57.411098 -718.337402
29.869499 53.947201 -715.343811
30.581600 54.225399 -714.205383
32.476501 44.330200 -730.374390
42.482899 25.298300 -782.734985
42.397598 24.869600 -783.303223
42.315701 24.462299 -783.878784
42.223900 23.981800 -784.343079
42.150700 23.627899 -784.935486
42.321301 26.359900 -781.034180
42.237202 25.935400 -781.597229
42.172001 25.625799 -782.191406
41.705002 23.276100 -785.384216
41.612000 22.787100 -785.853271
41.961800 26.760401 -779.991882
41.664902 25.312700 -782.502625
41.589001 24.935699 -783.082886
41.507301 24.523199 -783.656616
41.430302 24.139601 -784.239319
41.358101 23.785000 -784.830811
41.116699 22.538099 -786.285522
41.028301 22.087299 -786.863586
40.942501 21.651800 -787.447815
41.459702 27.069099 -779.037476
41.393501 26.746799 -779.623718
41.324902 26.410101 -780.207520
41.263000 26.114300 -780.803528
41.190498 25.753901 -781.383972
41.131599 25.476500 -781.987305
41.044498 25.040199 -782.648315
40.960999 24.614201 -783.218018
40.886902 24.245001 -783.803589
40.812500 23.874901 -784.390930
40.737999 23.503901 -784.979675
40.653999 23.076000 -785.557617
40.524399 22.430000 -786.573120
40.351700 21.547899 -787.737793
40.262199 21.077101 -788.220581
40.168098 20.578899 -788.700378
40.080101 20.117399 -789.190186
40.877998 27.579399 -777.656189
40.816502 27.292000 -778.347107
40.741100 26.910400 -778.916382
40.681099 26.621599 -779.512817
40.610901 26.271299 -780.093811
40.554401 26.003799 -780.698181
40.481300 25.636700 -781.277710
40.410801 25.284901 -781.862793
40.328800 24.864401 -782.432373
40.268501 24.575199 -783.036621
40.199501 24.233200 -783.629211
40.119202 23.823601 -784.207214
40.044701 23.449200 -784.795715
39.963200 23.032600 -785.376404
39.895901 22.702101 -785.978821
39.815201 22.291000 -786.564880
39.724899 21.822800 -787.140808
39.644600 21.414499 -787.732300
39.546200 20.898300 -788.303406
39.465401 20.487700 -788.899292
39.371899 19.991100 -789.382813
39.274799 19.483801 -789.964478
39.165199 18.891399 -790.434875
39.060699 18.329800 -790.914612
40.273201 27.966200 -776.464478
40.214100 27.677900 -777.057922
40.145699 27.333900 -777.636414
40.088501 27.066799 -778.334778
40.025501 26.755699 -778.924927
39.960800 26.434500 -779.513611
39.900200 26.137800 -780.110229
39.831200 25.790899 -780.694580
39.772400 25.505800 -781.296570
39.694500 25.105700 -781.870422
39.631302 24.794201 -782.468506
39.554699 24.402700 -783.047974
39.478298 24.012501 -783.629883
39.410000 23.670700 -784.225525
39.340500 23.322100 -784.820984
39.253101 22.866800 -785.393616
39.180302 22.498899 -785.988586
39.100498 22.089100 -786.576172
39.016499 21.654499 -787.160522
38.921799 21.157000 -787.733887
38.841801 20.746700 -788.328613
38.759300 20.312500 -788.822998
38.670502 19.850201 -789.411682
38.584400 19.404400 -790.006287
38.501999 18.971800 -790.508179
38.413101 18.500401 -791.005005
38.319199 18.009001 -791.598816
38.208302 17.407200 -792.076782
39.709499 28.146200 -775.711914
39.633499 27.779600 -776.573303
39.575500 27.494699 -777.168884
39.501598 27.123301 -777.837585
39.437801 26.812599 -778.525085
39.378101 26.517700 -779.121216
39.323799 26.255699 -779.727417
39.259800 25.935200 -780.318726
39.189098 25.574600 -780.900818
39.122601 25.239401 -781.491089
39.059299 24.923901 -782.088013
38.983002 24.530199 -782.666626
38.910900 24.162500 -783.253601
38.834202 23.767200 -783.835815
38.759602 23.384399 -784.422974
38.674099 22.936600 -784.996887
38.617298 22.660400 -785.612793
38.529800 22.192499 -786.089172
38.456600 21.819401 -786.686584
38.383099 21.443800 -787.285400
38.287102 20.935101 -787.857605
38.200600 20.482700 -788.444824
38.113701 20.028700 -789.034180
38.028198 19.574100 -789.528320
37.944099 19.137100 -790.126221
37.858501 18.682301 -790.625183
37.777199 18.253401 -791.131409
37.692699 17.813999 -791.736328
37.600498 17.330099 -792.335388
37.501301 16.795700 -792.830017
39.256901 28.445999 -774.854919
39.140800 27.867901 -776.041321
38.489700 24.585501 -782.223877
36.950401 16.518101 -793.208313
38.835800 28.658199 -774.052917
38.737499 28.171200 -775.169617
38.628201 27.634399 -776.468506
38.571899 27.352600 -777.066528
38.507198 27.020201 -777.650818
38.454102 26.757700 -778.256226
38.388802 26.421499 -778.841919
38.333000 26.143000 -779.444885
38.271301 25.828800 -780.039124
38.203800 25.480301 -780.625488
38.134300 25.119900 -781.210327
37.981899 24.335501 -782.563416
37.926201 24.058100 -783.174377
37.839901 23.597700 -783.741577
37.768501 23.226700 -784.332886
37.692600 22.828800 -784.919678
37.623199 22.470400 -785.517822
37.550598 22.092501 -786.113220
37.467602 21.653200 -786.696777
37.378601 21.177999 -787.275085
37.299900 20.764900 -787.869385
37.221199 20.351299 -788.465881
37.137199 19.899099 -788.958801
37.062599 19.510500 -789.565125
36.965599 18.980499 -790.047119
36.881699 18.537100 -790.647278
36.803501 18.119699 -791.156677
36.725800 17.706100 -791.668823
36.644600 17.270800 -792.179077
36.447399 16.227501 -793.571594
38.430401 29.094500 -772.690674
38.376598 28.831800 -773.389099
38.285702 28.377701 -774.418823
38.192699 27.917999 -775.546387
37.590599 24.842100 -781.497925
37.531200 24.540100 -782.101074
36.112202 17.018299 -792.504883
36.034401 16.609400 -793.122620
35.925999 16.041800 -794.011780
35.837399 15.565300 -794.571594
38.037601 29.411400 -769.853821
38.025501 29.388300 -770.537415
38.011600 29.353901 -771.215576
37.976601 29.199699 -771.950989
37.851799 28.591400 -773.715576
37.759499 28.122700 -774.742920
37.663799 27.639900 -775.865906
37.600101 27.307899 -776.450195
37.546501 27.036100 -777.053406
37.492401 26.760900 -777.656372
37.432400 26.451099 -778.250488
37.376301 26.164000 -778.852112
37.311798 25.827801 -779.441101
37.252602 25.522699 -780.040100
37.189499 25.194401 -780.633972
37.007500 24.253799 -782.435486
36.941601 23.909700 -783.030884
36.885201 23.621700 -783.641724
36.805801 23.197399 -784.220825
36.736900 22.835100 -784.816772
36.661098 22.432199 -785.405212
36.582100 22.010799 -785.991394
36.505901 21.605400 -786.583618
36.438801 21.254801 -787.189880
36.349701 20.773500 -787.769775
36.265701 20.322800 -788.359009
36.168900 19.795900 -788.934875
36.101299 19.443300 -789.549622
36.012798 18.959299 -790.041382
35.931198 18.516100 -790.543823
35.854301 18.101400 -791.054077
35.778400 17.693001 -791.567688
35.529400 16.369600 -793.499329
35.334599 15.333700 -795.005615
37.534100 28.922800 -772.369385
37.479900 28.646999 -773.065979
37.396301 28.219900 -774.107422
37.311199 27.784300 -775.147827
36.770599 24.981701 -781.185486
36.683399 24.504499 -781.743286
35.361000 17.375200 -792.027283
35.284901 16.959999 -792.543274
35.116600 16.059900 -793.966003
34.927502 15.042100 -795.463013
37.272900 29.118700 -769.863770
37.276001 29.176201 -770.577087
37.243198 29.024099 -771.316284
36.957199 27.582800 -775.672424
36.909000 27.338900 -776.381714
36.853901 27.053499 -777.078979
36.801102 26.776199 -777.681885
36.747299 26.493099 -778.284119
36.692200 26.202299 -778.884888
36.641800 25.939600 -779.494629
36.587299 25.652300 -780.098328
36.532799 25.365299 -780.703125
36.343800 24.341700 -782.286987
36.285301 24.030899 -782.890808
36.200901 23.566401 -783.457581
36.141499 23.250700 -784.063416
36.065800 22.837799 -784.647217
35.990101 22.424999 -785.233276
35.925499 22.078300 -785.836792
35.841400 21.610600 -786.316528
35.779099 21.277901 -786.927002
35.691002 20.792000 -787.505371
35.639999 20.526600 -788.134216
35.558800 20.076900 -788.626709
35.476101 19.623301 -789.219177
35.391300 19.157101 -789.811584
35.312099 18.719601 -790.314026
35.225800 18.245199 -790.910095
34.916500 16.545099 -793.060486
34.765202 15.735400 -794.503479
36.959999 28.920799 -771.971313
36.935699 28.816299 -772.724915
36.890800 28.587799 -773.437317
36.805199 28.136801 -774.471802
34.916000 17.872400 -791.427795
34.471699 15.439800 -795.045227
34.361401 14.830100 -795.837280
36.480000 27.948200 -775.020630
35.966702 25.190399 -781.067688
35.903301 24.842199 -781.658081
34.582199 17.502199 -791.867798
34.497101 17.026699 -792.470215
34.371399 16.328300 -793.431396
34.306900 15.975400 -794.062622
36.414700 29.381300 -769.414795
36.408798 29.371700 -770.107422
36.384102 29.248899 -770.759216
36.371700 29.200500 -771.435486
36.343300 29.059401 -772.178101
36.304100 28.857201 -772.997986
36.252998 28.580799 -773.695129
36.106899 27.786501 -775.604187
36.060699 27.539499 -776.312622
36.015099 27.291800 -776.923218
35.962898 27.005199 -777.522827
35.917801 26.760900 -778.135681
35.858299 26.431000 -778.724487
35.806999 26.149900 -779.328430
35.759899 25.893299 -779.940186
35.691101 25.507799 -780.517273
35.517899 24.546400 -782.213013
35.456699 24.206200 -782.808289
35.399502 23.890200 -783.411377
35.321602 23.450701 -783.984924
35.265202 23.139500 -784.592285
35.187901 22.703699 -785.171021
35.114700 22.292900 -785.757874
35.037800 21.859699 -786.341919
34.966000 21.456600 -786.935120
34.884701 20.997801 -787.517883
34.810398 20.580000 -788.112305
34.719002 20.061001 -788.687195
34.638401 19.606300 -789.278809
34.559898 19.160601 -789.776306
34.482399 18.721001 -790.277405
34.403000 18.270300 -790.778503
33.941898 15.683100 -794.551697
33.867298 15.272200 -795.374878
33.767300 14.710500 -796.175720
35.882000 28.379801 -774.264221
35.831699 28.098400 -774.862488
35.303799 25.150900 -781.149780
34.035000 17.930300 -791.250122
33.928398 17.318399 -791.921997
33.849300 16.870501 -792.629272
33.732300 16.208500 -793.697205
33.416100 14.422900 -796.734314
35.810299 29.502001 -769.761475
35.801102 29.461201 -770.443115
35.782501 29.364000 -771.103577
35.749001 29.180500 -771.832825
35.710098 28.965401 -772.550781
35.669899 28.742100 -773.265991
35.483501 27.693001 -775.882202
35.440102 27.450300 -776.592590
35.396801 27.206699 -777.205078
35.343399 26.903200 -777.800293
35.257500 26.420401 -779.029724
35.196701 26.072500 -779.614990
35.135399 25.722300 -780.201172
34.980999 24.840200 -781.720398
34.905201 24.407200 -782.485901
34.847698 24.079599 -783.085327
34.782200 23.704399 -783.674011
34.720699 23.353100 -784.270630
34.653500 22.967800 -784.860413
34.584499 22.571600 -785.449524
34.513901 22.166201 -786.038513
34.432400 21.696100 -786.614502
34.351601 21.230301 -787.194214
34.284000 20.842800 -787.794128
34.213799 20.440100 -788.392700
33.534500 16.520800 -793.128723
33.358398 15.514300 -794.834717
33.289600 15.124300 -795.662476
35.302601 27.957399 -775.241699
35.090401 26.745001 -778.405212
33.938801 20.076500 -788.872681
33.858002 19.606800 -789.461121
33.768002 19.082300 -790.040771
33.693901 18.652000 -790.643127
33.223202 15.915400 -794.080017
33.030102 14.802900 -796.274902
34.621700 25.603901 -780.620483
34.563202 25.261200 -781.211426
33.373001 18.276501 -791.161682
33.296299 17.825899 -791.665588
33.219398 17.374399 -792.270813
33.143398 16.927799 -792.780273
33.047298 16.364100 -793.568481
32.724602 14.473200 -796.822205
34.798100 28.371300 -774.472900
34.731800 27.976999 -775.627380
34.686100 27.705200 -776.329224
34.636799 27.412800 -776.927124
34.595699 27.168301 -777.638428
34.516998 26.700600 -778.774475
34.462299 26.376499 -779.366516
34.405399 26.039000 -779.955994
34.232399 25.013500 -781.729370
34.179001 24.696400 -782.330017
34.119598 24.344700 -782.922974
34.057701 23.977900 -783.513611
33.992599 23.591801 -784.101074
33.925999 23.197701 -784.688599
33.856602 22.786400 -785.273926
33.784401 22.358700 -785.857422
33.709900 21.917900 -786.440125
33.635601 21.477501 -787.025330
33.557098 21.013100 -787.509094
33.491001 20.621700 -788.110107
33.284698 19.400200 -789.718079
32.679600 15.816900 -794.470520
32.625500 15.496200 -795.110596
32.570400 15.169300 -795.751221
33.195099 20.240700 -788.686829
32.990002 19.014299 -790.301025
32.603802 16.707199 -793.215576
32.290699 14.828000 -796.366882
34.299702 28.329500 -775.025085
34.115398 27.180401 -778.111389
33.912899 25.940901 -780.400696
33.856300 25.595301 -780.990723
32.910702 19.855499 -789.219177
32.706200 18.617500 -790.838074
32.633900 18.181299 -791.344177
32.556499 17.715200 -791.846619
32.486099 17.288200 -792.458374
32.337101 16.383101 -793.779175
34.067299 28.195101 -775.643921
34.029900 27.954599 -776.355713
33.986500 27.678900 -777.057129
33.873600 26.966900 -778.708679
33.825100 26.663799 -779.306885
33.617401 25.374800 -781.591919
33.556198 24.997601 -782.176086
33.494301 24.615999 -782.761230
33.435101 24.250900 -783.352295
33.369598 23.848400 -783.935608
33.306301 23.458200 -784.523987
33.243500 23.071501 -785.115295
33.176102 22.657900 -785.702026
33.097000 22.178301 -786.177124
33.028198 21.756100 -786.766296
32.956001 21.316401 -787.255493
32.895401 20.942400 -787.860107
32.044601 15.733300 -794.739929
31.993299 15.412400 -795.381470
33.628799 26.354799 -779.937683
32.530499 19.532200 -789.661926
31.808399 15.049900 -795.957397
33.653999 27.658001 -777.691223
32.528999 20.564501 -788.328186
32.294498 19.101101 -790.187683
31.963699 17.034401 -792.851685
31.822100 16.142300 -794.179077
33.497898 28.383200 -776.255798
33.465698 28.157301 -776.971191
33.379398 27.577700 -778.364624
33.332199 27.269300 -778.959412
33.276001 26.903500 -779.636597
33.181301 26.303801 -780.445618
33.134899 25.999599 -781.046326
33.043900 25.416599 -781.964417
32.990501 25.071600 -782.557617
32.929901 24.684799 -783.141602
32.873501 24.322100 -783.733582
32.806301 23.896601 -784.311584
32.736500 23.455500 -784.887878
32.215302 20.181299 -788.850281
31.995001 18.786900 -790.731201
31.924299 18.344200 -791.235779
31.851000 17.881701 -791.838074
31.785000 17.466101 -792.352722
31.654600 16.644400 -793.389893
32.448002 23.139500 -785.397278
32.367298 22.630800 -785.961609
32.291698 22.157200 -786.438721
32.223301 21.718901 -787.025085
32.144199 21.218901 -787.599670
31.916300 19.771799 -789.352478
31.311300 15.893600 -794.644592
31.239000 15.437100 -795.162109
33.065399 28.163200 -777.698730
31.942900 20.829201 -788.143799
31.724199 19.417900 -789.910583
31.263201 16.427601 -793.883728
32.883900 27.761900 -778.798218
32.841400 27.466101 -779.395691
32.762199 26.943899 -780.124878
32.689201 26.456699 -780.867188
32.623199 26.018000 -781.528015
31.278799 17.231400 -792.783386
32.426998 25.704000 -782.166870
32.357601 25.247000 -782.728882
32.310699 24.920300 -783.327698
32.259701 24.569401 -783.921509
32.193199 24.129000 -784.494324
32.121399 23.657301 -785.061584
31.627501 20.438700 -788.632080
31.416500 19.043200 -790.407715
31.349701 18.598200 -791.008911
31.285101 18.174000 -791.517578
31.220900 17.743799 -792.126587
31.846001 23.153700 -785.742676
31.761600 22.604099 -786.296814
31.684500 22.105200 -786.767822
31.601200 21.561600 -787.329712
30.876900 16.760099 -793.049805
31.196600 20.128799 -789.058228
31.126699 19.658501 -789.648071
30.685400 18.872801 -790.490723
30.558399 19.295300 -789.635010
30.975800 20.534201 -788.373779
31.000099 21.119499 -787.672180
32.205399 26.738501 -780.437012
32.266800 27.172100 -779.737122
32.269402 28.033400 -778.441772
33.337700 29.274700 -772.423828
33.604900 29.277000 -773.116577
33.833500 28.982300 -773.680725
34.059502 28.666100 -774.235901
33.772598 29.338400 -771.558594
34.040699 29.368099 -772.266113
34.275600 29.147699 -772.863525
34.506500 28.898001 -773.447815
35.078899 28.660500 -773.797729
40.380402 21.940399 -787.187073
34.302299 29.357401 -770.749573
34.565201 29.355700 -771.445007
34.804600 29.179199 -772.062378
35.040199 28.975800 -772.667480
34.779400 29.400200 -770.155273
35.017200 29.500700 -770.796082
38.580101 29.445299 -771.604492
39.052200 29.163500 -772.980774
39.265202 28.979099 -773.600525
39.478500 28.797899 -774.220886
38.657001 29.519199 -770.706177
39.118301 29.440901 -772.068970
40.003601 28.773701 -774.674072
40.205898 28.525000 -775.267578
40.409599 28.287800 -775.865417
40.839699 27.923800 -776.802490
39.008099 29.666500 -769.990173
39.281399 29.686600 -770.900024
39.718601 29.608999 -772.363770
39.901901 29.428499 -772.987976
40.085899 29.254499 -773.614014
41.487801 27.361099 -778.424377
39.707401 29.785200 -771.475891
40.504002 29.165300 -774.210083
40.679001 28.944000 -774.817200
40.845600 28.659901 -775.400879
41.037998 28.350100 -776.073914
41.381199 27.856100 -777.269226
40.348598 29.783899 -772.590027
40.500801 29.606701 -773.231323
41.429199 28.202299 -776.596191
41.711800 27.721100 -777.830872
42.067699 27.049500 -779.400879
42.115700 27.429701 -778.741516
42.828800 25.760900 -781.979492
41.979099 28.123600 -777.156982
42.584900 26.972700 -779.862488
42.702499 26.574800 -780.428589
42.906898 26.085501 -781.365112
42.343601 27.893299 -777.729187
42.652000 27.288700 -779.122314
42.737202 27.637199 -778.458130
32.252899 13.985700 -797.069275
31.625900 14.642500 -796.602905
31.139299 14.973400 -795.822083
30.701000 15.955400 -794.321716
30.632700 16.459400 -793.657227
30.540001 17.522400 -792.330627
30.572901 18.484900 -791.098877
30.584600 19.830500 -789.052124
31.087999 22.588499 -786.517822
31.391500 23.504801 -785.141418
31.567400 23.812599 -784.315674
31.655399 24.259701 -783.713379
31.741100 25.329000 -782.466614
31.998501 26.264200 -781.328796
42.772301 28.149401 -777.132507
32.206299 27.663601 -779.183228
42.781898 28.420601 -776.481079
42.110500 28.585199 -776.429871
42.520500 28.755501 -775.813477
41.832901 28.964100 -775.721497
32.331799 28.304600 -777.725281
42.451000 29.024900 -775.199402
41.825401 29.309200 -775.057312
32.902401 28.503099 -776.843689
41.887199 29.259399 -774.255310
41.287300 29.491899 -774.507629
32.830299 28.703100 -776.179688
33.441200 28.453600 -775.562012
41.530399 29.625799 -773.836975
32.937698 28.842699 -775.280273
33.640202 28.660101 -774.784912
41.366699 29.622601 -773.174194
33.056801 28.953501 -774.540771
33.118500 29.133900 -773.774170
40.518101 29.921000 -771.920898
40.307201 29.766899 -771.193115
39.590000 29.553801 -770.286072
31.040600 21.892200 -787.017517
30.603600 18.005899 -791.665100
31.189600 22.957100 -785.935913
37.540100 27.987200 -770.174011
37.895401 28.448099 -769.786682
38.545898 28.960699 -769.638184
39.241100 29.023100 -770.492126
39.686798 28.890301 -771.637695
37.909599 27.325701 -773.379395
39.221500 28.582399 -772.409790
37.667198 26.263201 -775.946594
40.063000 28.010799 -774.357300
40.030499 27.576300 -775.247070
37.401501 25.716801 -777.334778
38.195900 25.906200 -777.631409
38.915001 27.763500 -774.552124
41.116199 29.115801 -773.738892
37.383598 29.660500 -771.097717
40.788502 29.784201 -773.820618
41.733501 28.317499 -775.934021
37.355099 26.503799 -775.241089
37.970200 26.018900 -776.792908
39.067600 28.874701 -771.258972
40.667400 27.799601 -775.327087
36.787102 23.564301 -780.977173
41.137699 26.370399 -778.887512
42.119701 26.015600 -780.475098
31.549000 21.352900 -787.955688
40.271801 23.161900 -786.314575
41.122601 23.548599 -785.541077
38.274101 24.114300 -783.733826
38.167801 25.118200 -781.918823
41.663200 26.236900 -781.339783
38.721298 26.356199 -779.989319
37.921799 27.340500 -777.517883
37.997700 27.692699 -776.814575
41.231098 29.205299 -775.447327
42.344501 29.414499 -775.760315
37.877201 29.198099 -773.154785
41.886799 29.989100 -774.549988
39.978401 30.278299 -772.084778
39.008301 29.957199 -771.624084
39.170601 28.498301 -775.565796
42.001999 28.017401 -778.381470
39.050400 27.889799 -776.980408
39.057098 27.565300 -777.585205
37.791302 27.009701 -778.308716
38.749599 26.724501 -779.308777
38.685600 25.962999 -780.644226
41.595200 25.957399 -781.981384
40.745701 22.789801 -787.094177
38.206699 23.742500 -784.296814
37.314499 23.679600 -784.152283
37.415501 24.528400 -782.892883
35.962299 25.882601 -781.016113
43.121399 26.705999 -781.200989
41.758202 26.677799 -780.699524
37.523899 26.879801 -779.029907
43.241600 27.530100 -779.802185
32.760899 28.439501 -778.239929
37.732201 28.434999 -775.711426
42.358799 28.666201 -777.052429
41.099602 30.289801 -773.375427
38.946098 27.251699 -778.184875
37.673401 26.115101 -779.973328
37.595600 25.739799 -780.591187
38.591301 25.619499 -781.210876
37.516399 25.429100 -781.176270
42.239700 24.771400 -784.504517
37.077000 25.031401 -781.914612
32.287201 24.944401 -782.138977
36.922199 24.404600 -783.538574
35.834400 23.880301 -783.962830
37.270199 23.325800 -784.762207
36.953602 22.092400 -786.614197
36.061901 17.648399 -792.200012
36.946701 17.177799 -792.911072
9.909200 52.044899 -780.111389
10.124100 52.030399 -780.823730
10.294800 51.853500 -781.440674
10.461900 51.662498 -782.049988
10.637000 51.507500 -782.674622
9.260300 52.503899 -778.788025
9.425200 52.291801 -779.393127
10.515300 51.251099 -783.281372
10.463900 50.930698 -783.924011
9.224700 52.093601 -780.043274
9.400400 51.920601 -780.664490
9.580400 51.767200 -781.293396
9.766800 51.528301 -781.968811
9.948500 51.386200 -782.599976
8.731800 52.315899 -779.180908
9.781500 51.209000 -783.274109
9.965300 50.677101 -784.283691
6.876900 52.145302 -774.352295
8.588000 52.050900 -779.844482
7.456700 52.524101 -776.325989
7.665200 52.624802 -776.948425
7.878500 52.565201 -777.629578
8.067000 52.408001 -778.259888
8.737800 51.921101 -780.483704
8.917100 51.735699 -781.093506
9.099700 51.565300 -781.709106
9.239700 51.366100 -782.337402
6.907900 52.322102 -775.012329
7.063000 52.557301 -775.691772
8.081500 52.255199 -778.916077
9.175000 51.100601 -782.958984
9.393800 50.840199 -783.701172
9.668500 50.205002 -784.714417
6.199800 52.374100 -774.150513
7.953600 52.055599 -779.605530
6.974500 52.537601 -776.794495
7.190100 52.468601 -777.470825
7.392300 52.348400 -778.119019
8.049900 51.860401 -780.252319
8.234600 51.678501 -780.862976
8.423400 51.515499 -781.481384
8.606300 51.329899 -782.088013
9.544500 49.871498 -785.328613
6.163900 52.504398 -774.856201
6.372400 52.508400 -775.488892
9.093600 50.525002 -784.269104
6.405000 52.519798 -776.193420
7.231300 52.187302 -778.778870
8.424400 51.042301 -782.681030
8.618100 50.775101 -783.334778
9.354100 49.545898 -785.874573
7.256000 51.944099 -779.440308
8.907300 50.188301 -784.864319
9.359400 49.131401 -786.494385
5.465200 52.395302 -774.397278
6.282700 52.433601 -776.847107
6.500700 52.358898 -777.521606
6.704800 52.231800 -778.167175
7.309400 51.715698 -780.114807
7.508900 51.579800 -780.749023
7.700100 51.411701 -781.366272
7.895800 51.143200 -782.021790
8.497500 50.530602 -783.985107
5.533000 52.464401 -775.123230
5.756300 52.397202 -775.809021
8.761000 49.844002 -785.449524
6.486000 51.933899 -778.781799
7.685000 50.844101 -782.633118
7.878300 50.682701 -783.250488
8.289900 50.226601 -784.593079
8.721500 49.488998 -786.064697
8.981200 48.872501 -786.992676
4.789600 52.543098 -774.168884
5.561000 52.363800 -776.512512
5.794100 52.218899 -777.242920
5.999000 52.084202 -777.886902
6.505200 51.733398 -779.482117
6.815300 51.436600 -780.479614
7.011700 51.278900 -781.103821
7.204000 51.106701 -781.719482
8.905400 48.368000 -787.464783
9.028400 47.895500 -787.947510
4.882900 52.461899 -774.825317
7.754200 50.425800 -783.888489
9.076700 47.546902 -788.539917
5.112700 52.426399 -775.665100
8.103800 49.961498 -785.175781
8.475000 49.149399 -786.591187
9.085000 47.131599 -789.111084
5.825600 52.039700 -778.574829
7.034300 50.935501 -782.404724
7.240100 50.571800 -783.098083
8.061000 49.612000 -785.748901
6.227600 51.642300 -780.136597
7.598100 50.125401 -784.522583
9.132500 46.917999 -789.784424
4.825800 52.360802 -776.275513
5.064900 52.342201 -776.979614
5.309300 52.229401 -777.720581
5.813500 51.837399 -779.286316
6.353800 51.364101 -780.976379
6.545600 51.176300 -781.580811
8.223300 48.708000 -787.057617
9.217200 46.679100 -790.432129
4.249600 52.537102 -775.081116
7.064500 50.383598 -783.763611
7.860200 49.267200 -786.333191
8.222000 48.293598 -787.607300
8.401500 47.926800 -788.213013
9.280600 46.485401 -791.098877
4.281000 52.452801 -775.754578
5.160900 52.048901 -778.393311
6.395100 50.941002 -782.216370
6.608800 50.714001 -782.885986
7.290400 49.840199 -785.056274
8.401000 47.508099 -788.796082
9.349400 46.407299 -791.789612
5.494800 51.650101 -779.867493
5.723200 51.469799 -780.565491
7.358500 49.554699 -785.700623
8.464200 47.162899 -789.415588
9.439800 46.162701 -792.447571
9.620100 45.784599 -793.050720
3.642700 52.820900 -774.737122
4.268000 52.339100 -776.636902
4.503100 52.285900 -777.323120
5.074800 51.864899 -779.055481
5.824000 51.197102 -781.351379
6.773800 50.141899 -784.307373
7.561200 48.925999 -786.832581
8.542400 46.861900 -790.099426
3.059500 53.220699 -773.575378
3.647800 52.642399 -775.382202
4.523300 52.155800 -777.990112
6.297100 50.420799 -783.435120
7.530200 48.524700 -787.369324
7.714600 48.028900 -788.003479
8.589600 46.647800 -790.802917
9.537400 45.751701 -793.705688
3.617400 52.430801 -776.066528
4.514700 52.016201 -778.708679
4.837400 51.696999 -779.694885
5.068200 51.508400 -780.392029
5.577000 50.957600 -781.956970
5.792700 50.715302 -782.622620
6.538200 49.903301 -784.916870
6.941700 49.314999 -786.190308
7.670000 47.661598 -788.614685
8.593900 46.474998 -791.496216
8.816200 46.277699 -792.171021
9.551000 45.602001 -794.405884
2.732000 53.095001 -774.158325
2.946800 52.886902 -774.811218
3.601000 52.350201 -776.779724
3.829700 52.257099 -777.448120
5.017500 51.278900 -781.023193
5.978300 50.186901 -783.977905
6.486900 49.644001 -785.534485
6.886400 49.029099 -786.796875
7.614000 47.347301 -789.213074
7.824300 47.085098 -789.864990
8.800200 46.121601 -792.835388
9.545500 45.483501 -795.083679
2.304600 53.662498 -773.450378
2.940600 52.704700 -775.448425
3.856300 52.194000 -778.146118
4.239000 51.847301 -779.301086
5.502100 50.436798 -783.167603
6.827600 48.569302 -787.304993
6.971800 48.143902 -787.800598
7.840300 46.793999 -790.537415
8.831500 45.885899 -793.530823
9.582900 45.409698 -795.756470
4.924100 51.041401 -781.660522
5.894500 49.957199 -784.622803
7.071200 47.818600 -788.379883
7.974200 46.606899 -791.176880
1.860700 54.116001 -772.958130
2.933400 52.571098 -776.169678
4.285600 51.608398 -780.066711
5.074500 50.766800 -782.383179
1.406000 54.315601 -772.340820
1.984300 53.568199 -774.046021
2.138500 53.132500 -774.535400
2.337400 52.869999 -775.122681
2.961500 52.461102 -776.904114
3.622300 52.091801 -778.781311
4.307900 51.448399 -780.767029
5.337100 50.248798 -783.782227
5.846100 49.707001 -785.265930
6.121400 49.391800 -786.071716
8.087200 46.373501 -791.938110
8.871900 45.714100 -794.199524
0.904900 54.831600 -772.073120
1.223500 54.313801 -773.019714
1.439800 54.013599 -773.655090
2.142600 52.704399 -775.766907
2.782400 52.341801 -777.572021
2.998700 52.149300 -778.192017
3.428900 51.896400 -779.406982
4.122800 51.264801 -781.398499
4.329400 50.907398 -782.015320
4.593600 50.521198 -782.794312
4.795200 50.282299 -783.380798
5.141800 49.980202 -784.373413
5.910700 49.019001 -786.617188
6.121600 48.685200 -787.242493
6.322800 48.306400 -787.847778
6.685700 47.654400 -788.934814
6.898400 47.327702 -789.564209
7.118200 47.034801 -790.208008
7.943000 46.215199 -792.585022
8.150700 46.020901 -793.181885
8.741900 45.596802 -794.862305
8.967500 45.502102 -795.494080
9.275600 45.365299 -796.357788
0.153200 55.070702 -771.352173
0.607300 54.665901 -772.648682
1.104000 53.706402 -774.138672
1.270200 53.304100 -774.648621
1.445900 52.937801 -775.179504
1.872400 52.632999 -776.386597
2.098100 52.600498 -777.007507
2.735300 52.093800 -778.818481
3.153700 51.786301 -780.004211
3.368200 51.589802 -780.617310
4.542900 50.101799 -784.032715
4.875300 49.729401 -784.992188
5.083800 49.520000 -785.590881
5.284400 49.275902 -786.172607
6.032400 48.054699 -788.385681
6.855900 46.891499 -790.796570
7.060500 46.671398 -791.385986
7.267400 46.463799 -791.979980
7.918800 45.847000 -793.844910
8.129600 45.664101 -794.445984
9.034900 45.280300 -796.971924
0.007400 55.043400 -772.022583
0.438700 54.323399 -773.297485
1.308500 52.839001 -775.873230
1.947100 52.446701 -777.669312
2.158800 52.226501 -778.276917
2.589200 51.956600 -779.488220
3.208800 51.393002 -781.255798
3.402900 51.109501 -781.823914
3.611300 50.888199 -782.422729
3.809200 50.623100 -782.998779
4.005500 50.352001 -783.571472
5.107500 48.973400 -786.766296
5.301900 48.698200 -787.334412
5.497800 48.430401 -787.905518
5.876400 47.833000 -789.020020
6.082000 47.612099 -789.611023
6.259300 47.255501 -790.143372
7.133600 46.331001 -792.655273
7.351600 46.020699 -793.292175
7.993600 45.509800 -795.113770
8.215200 45.382801 -795.735718
8.452600 45.342400 -796.388977
8.867000 44.945999 -797.573914
-0.639000 55.525700 -770.861694
0.406000 54.020901 -773.902588
0.606400 53.478298 -774.518982
1.437200 52.616299 -776.893005
4.134100 49.957699 -784.580383
-0.697400 55.323799 -771.500916
-0.307900 54.828400 -772.616821
0.551000 53.217201 -775.142273
1.884500 52.180500 -778.880371
2.317500 51.899601 -780.087280
2.533000 51.689098 -780.696594
4.115600 49.731998 -785.223816
4.313100 49.453800 -785.793030
4.522700 49.231098 -786.388000
5.263900 48.197399 -788.522888
6.056300 47.108700 -790.803406
6.265000 46.889198 -791.395386
6.463000 46.617802 -791.965271
7.158100 45.839298 -793.943420
7.384300 45.715698 -794.570984
8.291100 45.257801 -797.081970
-1.696200 56.257702 -769.675598
-1.487200 55.997700 -770.269226
-1.287400 55.667500 -770.846924
-0.848100 55.067101 -772.101624
-0.466400 54.481098 -773.199585
-0.265900 54.138901 -773.780518
-0.075000 53.768398 -774.338989
0.420200 53.008999 -775.763184
0.648000 52.823299 -776.398682
1.033900 52.590302 -777.465515
1.255500 52.386398 -778.086182
1.795600 52.107300 -779.573486
2.426900 51.527901 -781.342285
2.643500 51.318001 -781.950623
2.848000 51.057999 -782.532288
3.048700 50.782600 -783.105713
3.254000 50.527699 -783.688904
3.455300 50.256500 -784.263428
4.415300 48.994900 -786.999329
4.614900 48.719898 -787.569702
5.151500 47.906399 -789.111816
5.352100 47.637001 -789.684326
5.556400 47.385700 -790.264404
6.381900 46.428001 -792.601501
6.582800 46.162998 -793.174316
7.301400 45.480202 -795.190430
7.522300 45.323101 -795.804016
7.751200 45.210499 -796.433716
8.219900 45.052502 -797.713989
-2.219400 56.844700 -768.917908
-0.101400 53.452999 -775.002075
3.419000 49.977299 -784.862427
4.578400 48.410000 -788.158875
-1.383100 55.399200 -771.463196
1.203100 52.300800 -778.750488
1.862600 51.804298 -780.576294
-1.018400 54.783699 -772.731018
3.631700 49.677799 -785.670715
3.856500 49.343800 -786.304626
-2.693600 57.165501 -768.467712
-2.302200 56.613201 -769.563171
0.343600 52.712200 -776.983826
4.595900 48.088200 -788.757324
5.372100 47.251701 -790.905823
5.578900 46.986599 -791.482117
5.790200 46.744598 -792.068115
6.410600 45.953300 -793.796692
6.625500 45.732899 -794.390381
7.619800 45.081200 -797.103577
-2.150800 56.175400 -770.176514
-1.951300 55.796200 -770.742920
-0.215900 53.191101 -775.609192
