18.249701 41.096401 -753.889404
18.567101 39.979500 -754.949524
13.203000 42.699600 -739.274780
13.395800 42.787899 -739.831604
15.183000 43.347900 -745.021912
16.955601 42.899502 -750.281982
17.310900 42.581699 -751.361816
17.911400 41.744202 -753.220581
18.224199 40.608700 -754.267029
18.571100 39.482601 -755.412720
13.434700 42.892601 -740.412170
14.582200 43.280998 -743.740784
15.209200 43.400398 -745.569885
15.679600 43.467499 -746.944580
15.843900 43.412498 -747.433777
17.466999 42.137299 -752.346313
17.876600 41.346100 -753.638611
12.514700 42.444801 -737.990112
12.691800 42.518799 -738.502930
13.533900 42.951000 -740.933105
13.722200 43.023499 -741.479126
14.124200 43.155102 -742.647522
15.352700 43.416801 -746.233521
15.969200 43.317200 -748.059204
16.465000 42.983398 -749.555786
18.066999 40.202900 -754.581604
12.417300 42.946800 -738.002380
13.803400 43.115501 -742.044800
14.203200 43.230202 -743.204712
14.569500 43.333401 -744.267517
14.737200 43.282600 -744.763306
16.151899 43.068699 -748.924316
16.768801 42.764900 -750.758484
17.114300 42.349899 -751.808228
17.417801 41.820000 -752.745422
12.620300 42.681900 -739.041016
12.828500 42.666698 -739.650818
16.390499 42.802299 -750.050476
16.782801 42.521900 -751.222717
17.424200 41.492901 -753.190430
17.668900 40.925201 -753.957092
18.002800 39.888802 -755.026794
18.272301 39.507401 -755.849121
11.917300 42.364201 -737.616577
12.195700 42.394001 -738.425781
12.822100 42.736000 -740.221985
13.004500 42.950001 -740.734802
13.212600 42.943901 -741.342285
13.638300 43.007599 -742.577881
14.049500 43.194099 -743.760315
14.561400 43.287399 -745.244812
14.738200 43.299801 -745.759277
15.055600 43.492100 -746.667786
15.235700 43.326401 -747.207703
15.403000 43.280499 -747.699585
15.679500 43.191101 -748.513916
16.347500 42.586800 -750.515686
16.917601 42.118900 -752.219788
17.379101 41.224998 -753.645325
17.547100 40.477699 -754.201782
18.002399 39.976101 -755.573914
11.648000 42.926300 -737.484314
12.136200 42.447800 -738.949097
12.331200 42.533798 -739.509277
13.169700 42.918098 -741.917603
13.573900 43.040001 -743.083984
14.003000 43.149601 -744.324219
14.181800 43.167198 -744.843506
14.695100 43.282501 -746.328186
15.617800 43.036999 -749.037781
15.798200 42.875999 -749.577576
16.285999 42.426998 -751.038513
16.459700 42.214298 -751.563416
16.805000 41.769001 -752.608826
17.015301 41.147999 -753.276672
17.166100 40.736301 -753.752686
17.504400 40.453800 -754.763184
17.653000 40.258801 -755.213379
11.342300 42.117199 -737.176819
11.635400 42.230202 -738.021118
12.330800 42.607700 -740.014526
12.717200 42.778801 -741.125793
14.726200 43.214199 -746.943176
15.155600 43.175499 -748.198303
15.775800 42.633701 -750.054626
16.435600 41.956902 -752.038513
17.667801 40.330101 -755.775818
11.691400 42.305901 -738.571472
12.369800 42.782501 -740.507019
13.035400 42.834702 -742.442810
13.442000 42.978001 -743.615417
14.063600 43.209202 -745.406921
14.234600 43.177700 -745.908325
14.788800 43.186501 -747.523193
15.805600 42.362099 -750.560486
16.535999 41.322701 -752.782104
17.042900 40.781300 -754.307678
11.803700 42.469101 -739.384583
12.580000 42.823399 -741.616577
13.065100 42.881100 -743.025879
13.466100 42.993500 -744.185181
13.641700 42.985298 -744.697815
14.297600 43.067402 -746.602905
15.014100 43.002201 -748.697998
15.223700 42.841999 -749.323303
15.788400 42.091999 -751.036194
15.971800 41.953400 -751.583374
16.207701 41.545799 -752.307312
16.482401 40.982201 -753.158325
16.646299 40.916000 -753.641907
17.057199 40.768299 -754.853210
17.198400 40.513599 -755.287476
17.549101 40.405102 -756.319580
10.656000 42.041302 -736.674927
10.974200 42.871899 -737.529114
11.092500 42.469002 -737.910583
11.235900 42.220699 -738.351379
11.776700 42.575100 -739.898010
12.150700 42.658798 -740.981995
12.561900 42.807800 -742.168884
13.106200 43.680099 -743.679382
14.279600 43.088600 -747.157288
14.566100 43.062599 -747.995972
15.173400 42.637699 -749.806519
15.347900 42.431900 -750.334229
16.610600 41.078800 -754.141113
17.181299 40.606998 -755.848816
10.625200 41.804298 -737.170288
10.806700 41.978298 -737.684387
11.231900 42.349701 -738.892273
11.787300 42.613899 -740.489624
12.560800 42.781799 -742.732117
12.859300 42.995098 -743.584473
13.418400 42.989101 -745.216797
13.598500 43.018700 -745.739929
13.773300 43.013599 -746.250427
14.726600 42.764702 -749.055298
15.307700 42.143002 -750.807129
15.489600 41.768600 -751.371582
15.638600 41.583698 -751.822998
15.917600 41.291000 -752.663574
16.595200 40.986599 -754.668579
10.164800 41.606899 -736.502625
11.206800 42.372799 -739.472107
11.892500 42.709301 -741.441223
12.079400 42.757000 -741.981873
12.802500 42.817799 -744.084412
12.990400 42.890499 -744.625671
13.729900 42.930302 -746.778076
14.021100 42.928902 -747.627380
14.310400 42.921299 -748.471497
14.664700 42.542999 -749.538086
14.841400 42.351101 -750.070618
15.876300 41.218800 -753.189026
16.055901 41.282001 -753.706970
16.541500 40.809200 -755.164917
16.711201 40.798599 -755.660522
16.922899 40.664200 -756.289917
10.123200 42.015800 -737.066772
10.492900 42.019699 -738.142883
10.661400 42.116299 -738.625183
11.164600 42.411301 -740.064087
11.466500 42.603901 -740.926086
12.020600 42.695000 -742.531677
12.238800 42.757500 -743.161682
12.406600 42.685398 -743.656799
13.084000 42.869499 -745.612976
13.263700 42.893600 -746.134277
13.655700 42.767200 -747.287415
13.947500 42.768902 -748.136780
14.219100 42.630600 -748.940430
14.750300 42.052601 -750.538818
14.894800 41.831501 -750.979492
15.328200 41.615200 -752.261108
15.998600 41.240700 -754.246887
9.582500 41.931599 -736.327393
10.026500 41.989300 -737.612915
10.558800 42.245998 -739.137390
10.744700 42.264400 -739.676270
11.065000 42.563599 -740.580627
11.360500 42.521301 -741.443481
11.526800 42.624001 -741.917725
12.302400 42.612801 -744.173523
12.497800 42.730499 -744.731018
12.678300 42.750801 -745.254028
13.150100 42.753101 -746.625183
13.543900 42.636101 -747.780518
13.823200 42.545200 -748.600586
14.083900 42.321301 -749.378479
14.243100 42.208199 -749.851318
14.801500 41.829102 -751.508301
15.222200 41.510101 -752.759705
15.365100 41.272900 -753.196411
15.548200 41.358601 -753.720886
15.901700 41.203999 -754.762512
16.041100 40.936699 -755.191528
16.223101 41.025600 -755.712585
16.398300 40.819698 -756.240479
16.542200 40.587399 -756.679382
9.100000 41.419899 -736.002197
9.260700 41.258099 -736.482605
9.460900 41.527500 -737.039124
9.627900 41.598999 -737.516907
9.795600 41.678299 -737.996094
9.987100 41.908699 -738.530823
10.571700 42.309299 -740.190125
10.899300 42.460701 -741.126404
11.343500 42.599998 -742.401978
11.524100 42.601799 -742.925415
11.705200 42.610199 -743.449829
12.509900 42.617500 -745.782715
12.682900 42.586700 -746.286987
12.941000 42.535000 -747.039917
13.371100 42.460999 -748.293701
14.074300 42.051498 -750.369690
14.220900 41.840900 -750.813477
14.639500 41.715000 -752.038513
15.380100 41.416401 -754.212891
9.847400 41.851002 -739.102905
10.016400 41.946602 -739.583496
10.409700 42.306599 -740.689575
10.757800 42.395500 -741.689026
11.555300 42.490200 -743.989014
11.725200 42.425098 -744.486389
11.904200 42.425201 -745.004822
12.082700 42.423801 -745.521423
12.801900 42.487202 -747.597290
13.231200 42.406799 -748.847229
13.399600 42.354599 -749.339417
13.559100 42.238201 -749.811401
14.066900 41.895302 -751.311890
14.491200 41.588001 -752.567505
14.641300 41.402802 -753.018616
14.826800 41.499500 -753.546875
15.237000 41.324402 -754.749817
15.414000 41.126999 -755.279907
15.589000 41.151699 -755.784302
15.768000 40.972198 -756.318481
15.909400 40.661400 -756.755676
8.576500 41.287601 -736.302917
8.732000 41.091900 -736.770386
8.899600 41.160900 -737.249512
9.075400 41.282700 -737.747192
9.251900 41.412899 -738.246277
9.439900 41.618401 -738.771912
9.921500 41.937599 -740.137024
10.304500 42.238499 -741.218323
10.651300 42.322899 -742.214172
10.836600 42.349998 -742.748413
11.021200 42.374901 -743.280212
11.979800 42.390999 -746.053101
12.166900 42.455898 -746.588989
12.341600 42.436600 -747.096130
12.692200 42.415401 -748.112793
13.428900 42.019798 -750.280823
13.590600 41.919899 -750.757629
13.956100 41.825100 -751.824097
14.723100 41.491600 -754.073975
9.331300 41.678299 -739.292725
9.803100 41.944500 -740.634277
10.197800 42.132198 -741.759827
10.924400 42.345100 -743.843811
11.099500 42.313400 -744.353577
11.284700 42.352299 -744.885986
11.442400 42.207100 -745.355713
12.232100 42.339298 -747.629822
12.580500 42.306702 -748.641296
12.749900 42.258999 -749.135803
12.912600 42.164799 -749.615479
13.487500 41.884602 -751.304871
13.839200 41.687801 -752.340820
13.988400 41.495800 -752.789917
14.166400 41.531200 -753.302124
14.611400 41.402302 -754.601929
14.786100 41.186501 -755.127075
14.956600 41.172401 -755.621887
15.125800 41.150200 -756.113770
15.273800 40.951500 -756.560181
15.436600 40.768799 -757.047913
8.112600 41.224499 -736.567200
8.277300 40.959301 -737.067871
8.458200 41.109699 -737.577881
8.640700 41.274601 -738.091370
8.831200 41.301800 -738.640503
9.261200 41.675400 -739.851685
9.735400 41.967300 -741.198425
10.130900 42.168201 -742.325012
10.313700 42.178001 -742.853394
10.499900 42.213902 -743.389404
11.368500 42.221600 -745.903320
11.547100 42.224098 -746.419922
11.732500 42.278301 -746.952026
12.142800 42.259201 -748.141479
12.803600 41.946800 -750.082581
12.976900 41.933601 -750.585693
13.393800 41.786301 -751.805908
14.084100 41.530102 -753.827393
8.773400 41.362000 -739.152710
9.242700 41.800701 -740.472229
9.686900 41.911800 -741.748413
10.444100 42.123901 -743.921387
10.622800 42.115898 -744.439575
10.777800 41.949100 -744.903076
10.967300 42.019299 -745.445496
11.424600 42.718800 -746.706970
11.668600 42.149799 -747.463928
12.165500 42.125900 -748.904785
12.336300 42.088402 -749.402405
12.922500 41.890499 -751.117310
13.326500 41.649200 -752.308472
13.633200 41.558300 -753.204285
14.021800 41.439201 -754.340088
14.197500 41.231800 -754.867188
14.420800 41.179600 -755.518372
14.583400 41.102100 -755.995911
14.751200 41.069500 -756.484497
14.871400 40.719299 -756.863892
8.383400 41.026199 -738.514587
9.264400 41.740501 -741.006287
11.676400 42.064400 -747.971375
8.154600 41.065300 -738.018005
8.731500 41.400600 -739.666077
8.926900 41.476398 -740.227722
9.661000 41.908401 -742.324280
9.844200 41.925598 -742.855530
11.070300 42.575100 -746.363586
11.212400 42.122700 -746.815674
11.794900 42.088600 -748.512024
12.258300 41.847698 -749.880005
12.460500 41.837502 -750.468628
12.862700 41.812199 -751.640015
13.249600 41.453300 -752.795715
13.575600 41.531399 -753.736694
7.789400 41.139702 -737.249084
9.917800 42.005100 -743.366028
10.815000 42.034401 -745.972717
8.217500 41.219501 -738.992310
8.843000 41.504799 -740.786987
9.109500 41.660000 -741.549072
9.921500 41.858799 -743.893127
10.095400 41.822701 -744.401611
10.272600 41.812000 -744.917725
10.466100 41.918598 -745.471680
11.097200 41.996498 -747.299988
11.739300 41.982201 -749.167786
12.363200 41.868698 -750.991394
12.768400 41.650398 -752.187500
13.486700 41.422901 -754.294800
13.660900 41.209202 -754.819275
13.834000 41.224201 -755.321289
13.999600 41.178398 -755.806519
14.184900 41.060699 -756.354980
14.368300 40.927299 -756.899414
7.619600 40.908001 -737.675781
7.855200 40.834900 -738.367493
8.269400 41.122299 -739.549194
9.172600 41.661499 -742.132874
10.668800 41.904400 -746.466675
11.134200 41.868000 -747.823914
11.319800 41.941101 -748.357788
11.763800 41.773602 -749.663696
12.999600 41.501999 -753.282288
8.408000 41.239399 -740.098999
9.304000 41.764999 -742.667114
9.487100 41.787701 -743.198792
11.928900 41.787498 -750.313171
12.718300 41.420502 -752.642578
12.362500 41.751202 -751.520020
8.698600 41.414799 -741.302124
10.309200 41.863899 -745.976807
10.658400 41.847401 -746.999023
11.302500 41.877201 -748.879822
12.972900 41.470501 -753.793274
7.604800 41.517200 -738.395813
7.739200 41.240101 -738.809204
8.377100 41.246601 -740.675598
9.435300 41.728901 -743.736816
11.860800 41.765099 -750.831726
13.169300 41.276798 -754.696716
13.868500 40.976299 -756.764771
7.855600 40.953602 -739.240417
9.575700 41.649799 -744.232178
9.757300 41.682098 -744.762024
9.943400 41.751301 -745.302612
12.243000 41.638199 -752.049988
13.326500 41.212799 -755.255981
13.491900 41.180302 -755.742920
8.700700 41.519600 -741.834412
10.653700 41.799900 -747.542297
11.276000 41.694000 -749.374573
7.955700 41.888500 -740.041870
8.733500 41.477901 -742.350403
8.954700 41.568699 -742.993225
10.151400 41.710602 -746.493713
10.705900 41.728600 -748.118774
11.336600 41.700901 -749.970581
11.819600 41.671600 -751.389221
12.366600 41.488499 -753.005798
12.529900 41.431000 -753.488525
12.806000 41.373199 -754.302124
7.290100 40.992298 -738.685608
7.737200 41.142700 -739.986877
7.901300 41.028099 -740.475220
8.145200 41.255100 -741.175903
8.956400 41.505798 -743.538025
9.715700 41.672699 -745.753479
10.152800 41.666801 -747.035278
10.701400 41.648800 -748.645020
11.341400 41.704498 -750.517700
11.987500 41.383400 -752.432373
7.377700 40.790401 -739.368713
8.205900 41.298901 -741.764526
8.996000 41.418098 -744.072327
9.185400 41.506802 -744.621704
9.366500 41.540001 -745.150391
10.733600 41.529202 -749.156616
11.377400 41.623699 -751.036987
11.677300 41.506500 -751.922729
12.663700 41.211102 -754.830811
12.908000 41.128899 -755.551697
8.512500 41.335201 -742.816528
9.690800 41.562099 -746.263184
10.128900 41.577702 -747.548706
10.848200 41.562599 -749.661377
12.299600 41.320599 -753.936707
7.435100 41.252499 -739.582581
7.569600 41.850601 -739.700806
11.861900 41.442101 -752.939026
7.216200 40.701302 -740.407593
7.544600 42.011902 -741.329285
7.608400 41.395500 -741.541382
7.731500 40.992802 -741.920776
7.919900 41.075401 -742.474915
8.134600 41.140202 -743.107483
8.319300 41.205700 -743.651489
8.501500 41.255901 -744.188416
8.652200 41.519798 -744.624207
8.806500 41.361000 -745.086670
8.975900 41.321800 -745.589172
9.156000 41.371601 -746.120117
9.325900 41.342999 -746.623779
9.503500 41.380001 -747.147827
9.735600 41.396900 -747.833679
9.898000 41.315800 -748.317078
10.071500 41.330700 -748.829895
10.255700 41.439602 -749.370422
10.490600 41.501801 -750.062927
10.677200 41.396900 -750.619019
10.852800 41.447102 -751.136597
11.013200 41.365299 -751.614075
11.176500 41.311501 -752.099182
11.347300 41.328300 -752.603821
11.631800 41.362099 -753.443787
11.924600 41.221699 -754.315430
12.086600 41.169201 -754.796692
7.111800 40.714699 -741.285706
7.677800 40.956402 -742.948425
8.256300 41.113998 -744.651428
9.248200 41.152302 -747.580017
10.019400 41.369099 -749.849915
11.121800 41.353901 -753.106384
11.396500 41.298302 -753.919983
6.953900 40.824200 -741.816284
7.118400 40.943298 -742.297180
7.520100 40.848000 -743.484802
7.679600 41.394501 -743.935913
7.807500 41.021000 -744.325989
8.099700 41.013500 -745.187378
8.280000 41.053799 -745.717712
8.453700 41.045200 -746.230103
8.627200 41.037201 -746.741577
8.801200 41.037800 -747.254700
9.076800 41.165600 -748.062622
9.252100 41.186199 -748.578613
9.429800 41.230900 -749.100830
9.590700 41.382301 -749.570129
9.859700 41.237400 -750.367981
10.026500 41.200298 -750.861084
10.198100 41.208401 -751.366577
10.366400 41.189800 -751.863220
10.546900 41.285702 -752.392029
11.239200 41.175800 -754.436584
7.302400 40.886200 -743.953430
7.595000 40.871799 -744.815186
8.025300 40.798801 -746.084717
8.595500 40.941399 -747.758789
9.371900 41.174900 -750.036987
10.355600 41.322899 -752.928772
10.535100 41.417198 -753.454224
10.720800 41.309502 -754.004272
10.524000 41.191700 -754.467407
7.616200 40.867599 -745.356384
7.765600 41.169998 -745.821289
8.018000 41.129200 -746.482422
8.213200 41.257500 -747.029724
6.987900 40.768799 -742.936096
11.480900 41.035400 -754.939270
7.961800 41.618198 -744.319519
12.300100 41.052700 -755.250916
7.196000 41.288300 -740.936279
7.615000 40.934700 -740.914612
9.023400 41.923901 -744.884888
7.227000 42.460800 -739.677612
10.106500 42.528400 -737.926514
19.631800 44.078899 -749.275879
19.981600 44.072498 -749.655579
19.865700 44.367699 -748.769775
20.349701 44.162399 -750.044678
20.258200 44.454601 -749.122498
20.631300 44.539700 -749.552917
21.962799 39.984798 -754.580078
18.001600 39.114700 -755.608276
10.036800 41.325600 -754.294495
9.599000 41.446800 -754.061584
10.057200 41.474300 -753.706421
9.080900 41.367401 -753.997681
9.589100 41.547298 -753.452026
9.790000 41.354301 -753.007080
9.092700 41.505501 -753.312683
9.955200 41.101601 -752.197876
9.602500 41.101501 -751.239685
9.467300 40.997601 -750.688293
8.940700 40.849400 -750.652527
8.411000 40.814301 -750.518372
8.865600 41.069500 -750.137695
8.346700 41.032600 -749.996582
7.774500 40.906700 -750.132019
9.051500 41.127102 -749.465515
8.626800 41.039200 -749.166382
8.088700 41.042198 -749.344971
7.551300 41.042500 -749.522278
8.665600 41.018501 -748.372925
8.128100 40.991402 -748.537720
7.590000 41.023102 -748.727783
7.157200 40.483200 -742.536987
7.357400 42.078899 -740.133911
8.047500 40.622002 -737.710510
10.031800 41.488400 -737.184998
10.659700 41.488499 -736.744995
9.838500 41.341400 -736.127930
8.509800 40.788101 -736.411316
9.505100 41.239399 -752.459412
8.661800 41.334999 -753.601807
8.258800 40.661999 -746.715088
7.900800 40.880699 -743.841003
22.184099 41.733299 -754.430786
9.509100 42.063599 -737.258606
11.165700 41.283901 -736.605408
11.135900 41.658600 -737.038818
11.840400 43.659500 -739.290527
10.325000 43.698502 -740.307922
12.009300 41.621498 -737.273682
12.162500 41.833099 -737.743530
12.709200 43.197300 -738.896606
11.757400 43.405701 -739.740417
11.348600 43.082802 -740.042114
13.088100 42.104698 -738.380920
13.928800 42.545300 -739.541870
16.289499 45.005100 -742.479614
14.016000 43.656399 -742.489319
17.677999 44.686001 -741.594727
16.064699 44.986599 -743.002625
17.271900 44.459000 -741.864624
11.592800 43.455200 -744.532715
12.611500 43.317501 -744.212830
18.060699 44.638100 -742.440186
16.106800 44.481998 -743.569580
11.872200 42.902500 -744.638611
14.103500 44.162102 -745.188171
13.718400 44.250500 -745.543884
18.693600 44.701801 -743.018982
9.756200 42.131901 -746.149719
13.413600 43.671299 -745.668518
8.331900 42.165501 -745.678528
8.956300 40.218102 -736.172974
8.368100 40.162998 -736.638428
9.366100 40.563801 -736.244629
9.873600 40.782501 -736.320618
8.024100 40.063202 -737.315491
8.694500 40.493401 -736.857788
8.410900 40.398800 -737.288330
9.162000 40.812099 -736.858887
10.148300 41.031300 -736.684814
8.022200 40.072102 -737.881287
9.683100 41.012600 -736.900879
9.294100 40.902802 -737.445984
7.857600 40.254700 -738.349792
8.529200 40.674801 -737.911804
9.569300 41.109600 -737.848083
10.382400 41.418400 -737.559326
28.566099 41.202301 -761.471924
28.705999 40.888699 -761.943726
28.930401 39.512402 -763.754822
29.100500 39.320801 -764.291077
29.270399 39.129200 -764.826477
29.425501 39.006302 -765.305481
29.577200 38.869701 -765.776794
29.737600 38.641499 -766.291687
29.883301 38.350601 -766.775574
27.801701 41.071201 -761.009521
27.970699 40.995399 -761.519470
28.122000 40.850700 -761.991211
28.476801 39.763401 -763.242920
27.015900 41.154999 -759.540771
27.146299 40.795898 -759.992371
27.372801 40.816799 -760.651978
27.926901 40.369202 -762.362183
28.072599 39.849701 -762.890076
28.334400 39.520199 -763.720886
28.481600 39.360001 -764.183411
28.644100 39.135399 -764.702881
28.796801 38.870499 -765.201721
28.954599 38.627602 -765.711182
29.121599 38.424500 -766.240112
29.282600 38.196400 -766.755981
26.604900 41.096802 -759.208313
27.262699 40.694401 -761.211975
27.421101 40.573898 -761.698975
27.674700 39.955101 -762.561523
27.938801 39.632599 -763.397278
29.611099 36.684799 -768.864319
29.733101 36.401100 -769.276428
29.868200 36.055401 -769.738586
26.467300 40.903900 -759.667480
26.618401 40.748001 -760.139221
26.786501 40.535301 -760.671692
27.248800 40.240200 -762.080078
27.533701 39.744202 -763.008423
27.795099 39.408901 -763.837097
27.955400 39.172100 -764.351624
28.111099 38.916500 -764.856018
28.268801 38.669300 -765.364380
28.426701 38.423901 -765.873413
28.575899 38.272400 -766.338623
28.724701 37.988899 -766.828125
28.993900 37.564301 -767.697083
29.087500 37.173500 -768.046021
29.236601 36.890202 -768.536377
29.720600 35.794998 -770.162170
25.880699 40.786900 -758.741882
26.056801 40.848400 -759.244873
26.679899 40.296700 -761.172119
26.855600 40.241501 -761.695984
27.115101 39.893600 -762.521301
28.597601 37.661800 -767.281982
29.119101 36.600700 -769.009705
29.260300 36.281101 -769.483582
29.610300 35.534000 -770.649902
25.977900 40.601002 -759.755920
26.138599 40.481098 -760.248413
26.287800 40.317001 -760.715698
27.118601 39.602501 -763.280029
27.266800 39.441700 -763.743774
27.412701 39.143600 -764.227112
27.575800 38.916801 -764.746826
27.723900 38.757599 -765.209778
27.885599 38.527000 -765.726624
28.035900 38.248402 -766.218872
28.197001 38.015701 -766.733887
28.534500 37.353199 -767.846680
28.679899 37.052799 -768.328674
29.172001 35.991402 -769.969116
29.514200 35.206001 -771.118896
25.261999 40.678299 -758.319519
25.505100 40.610001 -759.043396
26.198601 40.077099 -761.172119
26.362400 39.973099 -761.670593
26.541201 39.931301 -762.201294
26.732500 39.687901 -762.806580
28.099300 37.745399 -767.171326
28.578400 36.764400 -768.758118
28.741301 36.405499 -769.302429
29.076401 35.727001 -770.410706
29.415600 34.926300 -771.554382
25.465099 40.341801 -759.476379
29.072100 35.478199 -770.935913
29.356400 34.560101 -771.939514
25.499399 40.286900 -760.017029
25.654499 40.144199 -760.497070
26.559500 39.466000 -763.269287
26.715401 39.206799 -763.773376
26.871500 39.078300 -764.253723
27.018999 38.914902 -764.715210
27.168400 38.760601 -765.180725
27.331499 38.534599 -765.699585
27.479900 38.246399 -766.186829
27.641001 38.012798 -766.701172
27.916599 37.478199 -767.606506
28.049200 37.120602 -768.060486
28.557199 36.124901 -769.730713
25.009800 40.452400 -758.741699
25.737700 39.925400 -760.970520
28.114799 36.848801 -768.496887
28.612900 35.809200 -770.146423
28.965200 35.066002 -771.314270
29.293800 34.348801 -772.408020
24.795401 40.464401 -758.112183
26.259199 39.662800 -762.589417
28.270399 36.547501 -769.137573
25.826401 39.925701 -761.590515
25.998301 39.873199 -762.112915
27.573000 37.732399 -767.160095
28.624800 35.552502 -770.650391
24.948799 40.223701 -759.252319
28.840599 34.737598 -771.768372
24.306299 40.398499 -757.728882
24.566299 40.221100 -758.535583
24.974300 40.103500 -759.776184
25.125401 39.957001 -760.251587
25.276501 39.812000 -760.727112
26.027700 39.484901 -763.028381
26.177000 39.207699 -763.518921
26.376101 39.016701 -764.145020
26.836300 38.651001 -765.580811
26.967899 38.297199 -766.030212
27.120300 38.037300 -766.527222
27.512800 37.234200 -767.828003
27.834900 36.655899 -768.882813
28.020100 36.270599 -769.497620
28.479700 35.213902 -771.038818
28.970699 34.010502 -772.697083
25.218201 39.792900 -761.233582
25.458599 39.771500 -761.957214
25.608400 39.626301 -762.428223
26.316000 38.869999 -764.664673
27.037901 37.792198 -766.993103
27.176100 37.466999 -767.457520
27.426800 36.971298 -768.284485
27.925900 35.966801 -769.934509
28.058800 35.611099 -770.387390
28.389400 34.925900 -771.483521
28.587799 34.454601 -772.150513
23.582001 39.939701 -757.035278
23.783800 40.080700 -757.618286
23.966101 40.054401 -758.168274
24.127600 39.944500 -758.668823
24.297501 40.001499 -759.168823
24.460600 39.902699 -759.672729
24.610600 39.750198 -760.145203
24.780701 39.683899 -760.664612
25.502300 39.356701 -762.875916
25.667601 39.147800 -763.402771
25.840900 39.109901 -763.927917
26.231600 38.699200 -765.160583
26.431999 38.383701 -765.809082
26.605101 38.080799 -766.373718
27.327400 36.732498 -768.742920
27.469000 36.420300 -769.214600
27.947599 35.311600 -770.817383
28.490000 34.217201 -772.608826
28.612101 33.799702 -773.038330
24.882401 39.605801 -761.601196
25.074400 39.508900 -762.190979
25.804899 38.982300 -764.459717
26.541401 37.833000 -766.840210
26.686399 37.537899 -767.318970
26.834700 37.258801 -767.805725
27.395700 36.125500 -769.657593
27.885401 35.068699 -771.284729
28.045500 34.698502 -771.820190
23.448601 39.844101 -757.969116
23.610600 39.733398 -758.469971
23.961100 39.760700 -759.515015
24.103500 39.573502 -759.968689
24.477800 39.585098 -761.086975
24.992201 39.287899 -762.670410
25.159700 39.086102 -763.201477
25.720301 38.749298 -764.928589
25.894600 38.449001 -765.494690
26.098600 38.147701 -766.149719
26.748800 37.009701 -768.263672
27.303200 35.836899 -770.096313
27.442600 35.510201 -770.561890
27.945200 34.358101 -772.236084
28.289301 33.579102 -773.381226
23.327101 41.154598 -758.353088
23.482901 39.851002 -759.007874
23.985001 39.599998 -760.542725
24.313700 39.417099 -761.550293
24.475700 39.318501 -762.048218
25.028000 39.057098 -763.734375
25.197201 38.998501 -764.247681
25.926600 37.930801 -766.579895
26.073000 37.638000 -767.059387
26.216000 37.329102 -767.531128
26.599199 36.747398 -768.759277
26.742300 36.438202 -769.231384
26.878099 36.092899 -769.686829
27.262899 35.229698 -770.960815
27.408300 34.928200 -771.438599
27.537701 34.545799 -771.880371
27.758200 34.027901 -772.613770
22.643600 39.465000 -757.476318
22.816900 39.394199 -758.002686
23.009501 39.406502 -758.575073
23.273001 39.456001 -759.353271
23.424601 39.302700 -759.827087
23.823601 39.410000 -761.001099
24.306801 39.096001 -762.486328
24.462400 38.970699 -762.967896
25.019501 38.737000 -764.661926
25.188200 38.542301 -765.192688
25.339899 38.271599 -765.683777
25.495899 38.020500 -766.184814
26.053900 37.131001 -767.975525
26.697201 35.797600 -770.084229
26.832199 35.444801 -770.537170
27.359501 34.251999 -772.280090
27.585699 33.758900 -773.025085
27.696301 33.423000 -773.402771
23.376301 39.333302 -760.444824
23.721201 39.213902 -761.489075
23.880800 39.102001 -761.980530
24.393600 38.926399 -763.532715
24.564600 38.873001 -764.049683
25.373800 37.739399 -766.620483
25.525700 37.468899 -767.111389
25.679199 37.205700 -767.605774
25.921900 36.799900 -768.386414
26.074301 36.531898 -768.878174
26.219500 36.229099 -769.353577
26.716499 35.182598 -770.981995
26.861500 34.875999 -771.457214
27.002600 34.549198 -771.923828
22.183500 38.909901 -757.714905
22.376600 38.919601 -758.288025
22.620100 39.145100 -758.981384
22.776400 39.007198 -759.465698
22.963100 39.133598 -760.003723
23.270700 39.113800 -760.921814
23.787100 38.936298 -762.483521
24.462299 38.672600 -764.529419
24.618799 38.419800 -765.030518
24.783100 38.202702 -765.549500
24.942699 37.965000 -766.057495
26.099001 35.930801 -769.781372
26.244699 35.627499 -770.257080
26.940599 34.086102 -772.542419
27.160200 33.554001 -773.270020
22.913601 39.049000 -760.523621
23.214701 39.004101 -761.424927
23.377899 38.904499 -761.923523
23.732000 38.833500 -762.985718
23.902700 38.773701 -763.501099
24.063299 38.671200 -763.992493
24.990801 37.505798 -766.908081
25.156601 37.297298 -767.429626
25.318501 37.070599 -767.941528
25.558201 36.645901 -768.711975
25.698500 36.316601 -769.173889
26.182600 35.341599 -770.745728
26.342300 34.957802 -771.272705
26.490400 34.662899 -771.753174
26.636299 34.355900 -772.228577
21.868099 38.539001 -757.938782
22.161699 38.840099 -758.771729
22.337900 38.784000 -759.303223
24.691799 37.740501 -766.442688
26.690100 33.828800 -772.908081
21.544701 38.452999 -757.383118
22.405701 38.752499 -759.908630
22.759701 38.798901 -760.957214
23.225100 38.668098 -762.361084
23.891600 38.362099 -764.387085
24.050301 38.254799 -764.874084
24.199900 38.107101 -765.339111
24.349701 37.961800 -765.804626
25.164301 36.853699 -768.377930
25.530300 36.031700 -769.576599
25.673201 35.713402 -770.044373
21.748100 38.387100 -758.416077
21.984900 38.454102 -759.113281
22.441700 38.667500 -760.447876
22.791800 38.703999 -761.487183
23.377800 38.573200 -763.252014
23.543600 38.494499 -763.756714
25.687599 35.427299 -770.550110
25.849400 35.054798 -771.081299
26.312901 34.118000 -772.585571
21.410101 38.110600 -757.847229
24.418200 37.634602 -766.886292
24.562500 37.326401 -767.356812
24.720900 37.084999 -767.860718
25.025299 36.543301 -768.838928
25.853001 34.779301 -771.536072
25.998501 34.471699 -772.010193
21.842699 38.776100 -759.529785
22.670700 38.868198 -761.991577
22.943399 38.715599 -762.825623
24.053400 37.830101 -766.254578
25.004200 36.241600 -769.297974
25.185699 35.823299 -769.893799
26.103701 33.759102 -772.900024
26.251499 33.514702 -773.372681
21.233000 38.784199 -758.233521
21.422600 38.786701 -758.799988
21.872400 38.972000 -760.120972
22.105499 38.769001 -760.843689
22.295401 38.923801 -761.391785
23.029800 38.644901 -763.622925
23.208900 38.492401 -764.177673
23.379299 38.302200 -764.711487
23.553801 38.132000 -765.255005
23.708700 38.012199 -765.733276
24.509100 36.846600 -768.275330
25.144600 35.459000 -770.352478
25.290400 35.154999 -770.827087
25.775101 34.180500 -772.400513
22.525801 38.927502 -762.487915
23.879000 37.640400 -766.700684
24.040400 37.414600 -767.212524
24.189501 37.130501 -767.694824
24.516701 36.558498 -768.746704
25.293400 34.843800 -771.289185
25.440599 34.546299 -771.767517
24.713100 36.021702 -769.655579
21.259800 38.901299 -759.304016
21.429600 39.094898 -759.788208
21.702299 39.064800 -760.608887
22.148001 38.990501 -761.953491
22.528400 38.776402 -763.119812
23.525400 37.804298 -766.229126
24.445400 36.220200 -769.184814
24.719000 35.674900 -770.073120
20.949100 39.161499 -758.896790
21.706301 38.949100 -761.187683
22.610300 38.604401 -763.934326
22.786200 38.438202 -764.481201
22.952299 38.228699 -765.004211
23.105400 37.959999 -765.495728
23.923100 36.870300 -768.077881
24.675301 35.327099 -770.521179
24.853701 35.039200 -771.091003
25.174500 34.278400 -772.145874
25.369400 34.225899 -772.735229
21.287399 39.243401 -760.332520
21.995300 38.962200 -762.484375
23.332399 37.592999 -766.654785
23.494499 37.369202 -767.167725
23.647699 37.103901 -767.659180
23.924200 36.572701 -768.552979
24.844101 34.686298 -771.541077
25.432800 34.122799 -773.372375
24.195900 35.996399 -769.599915
23.057301 37.744301 -765.993225
21.391800 39.320000 -760.924622
21.643900 38.934799 -761.724487
20.761299 39.300499 -759.400208
21.968901 38.889599 -763.048706
22.117800 38.734402 -763.511230
23.855900 36.295399 -768.986877
24.183800 35.720299 -770.034119
20.446699 39.351501 -758.778320
20.829599 39.321602 -759.922119
22.272200 38.476200 -764.320129
22.450701 38.320999 -764.870422
22.611099 38.084499 -765.376770
24.346701 35.081100 -770.908325
24.693600 34.449699 -772.017822
21.292601 39.253300 -761.452271
21.543699 39.000500 -762.229919
23.409300 36.843102 -768.039795
22.811600 37.546700 -766.421204
24.102900 35.417400 -770.507813
24.366800 34.812302 -771.362976
24.745701 34.945801 -772.472595
20.775499 39.370800 -760.510010
21.510000 38.923100 -762.739685
22.528500 37.868801 -765.882202
22.869801 37.349201 -766.955017
23.033001 37.125900 -767.464783
23.369101 36.584702 -768.524719
23.645800 36.044899 -769.408020
20.283501 39.524899 -759.270020
20.879200 39.526600 -761.031189
21.826200 38.664200 -763.931519
23.710501 35.739899 -769.841980
20.388500 39.598099 -759.775024
21.102100 39.171001 -761.930115
21.579000 38.820400 -763.377930
24.218000 34.430901 -771.669373
21.889000 38.354500 -764.643005
22.063601 38.176201 -765.178284
23.291201 36.273899 -769.014893
20.783600 39.449501 -761.535278
21.067200 38.921299 -762.429810
22.852400 36.874802 -767.916382
23.612301 35.467800 -770.312073
23.755199 35.140099 -770.769714
19.819599 39.341702 -759.098022
20.239599 39.553299 -760.308716
22.021500 37.972301 -765.722778
22.199800 37.669998 -766.280701
22.356199 37.407398 -766.769714
22.509199 37.129200 -767.250610
19.859301 39.524601 -759.668823
20.253799 39.458302 -760.835815
20.945000 38.796902 -762.940796
21.204500 38.712101 -763.713013
21.373800 38.503899 -764.233826
22.699400 36.598701 -768.342712
23.026600 35.999298 -769.371216
23.168800 35.668301 -769.826172
20.575001 39.355900 -762.057617
21.531601 38.254902 -764.996277
22.760500 36.339298 -768.827515
23.798599 34.772499 -771.193481
20.281401 39.466999 -761.345520
22.374901 36.859402 -767.714783
19.750299 39.633202 -760.157776
20.568300 39.205399 -762.587585
21.520000 38.023300 -765.476379
19.240700 39.868500 -759.194580
19.749599 39.610401 -760.701477
20.628000 38.753601 -763.339478
21.076900 38.384998 -764.681274
21.501699 37.773201 -765.974670
21.671600 37.558399 -766.489075
21.842600 37.349998 -767.006287
22.214300 36.638901 -768.153687
22.688499 35.682098 -769.621582
19.709801 39.548100 -761.267578
19.866301 39.401402 -761.736816
20.033400 39.440800 -762.219910
20.306900 39.119099 -763.045227
20.561501 38.574799 -763.835205
20.716400 38.427299 -764.299500
20.990999 38.117298 -765.127075
21.757401 37.080799 -767.451782
22.134899 36.393600 -768.612488
22.296101 36.138901 -769.104980
20.945900 37.840500 -765.554016
21.731501 36.896801 -767.928406
19.194799 39.609600 -760.684875
19.886600 39.331299 -762.726501
20.159500 39.007900 -763.550476
20.550400 38.232700 -764.758911
20.981199 37.641701 -766.067383
21.158300 37.458000 -766.599915
21.329201 37.246399 -767.116699
22.124901 35.917801 -769.554382
19.360500 39.517200 -761.679993
20.201799 38.638802 -764.210876
21.570999 36.657398 -768.379028
21.765499 36.266800 -768.980591
22.091900 35.625198 -769.989075
18.971399 39.536800 -761.169617
19.330000 39.439400 -762.224915
19.662600 39.237801 -763.213806
20.295799 38.005001 -765.172424
20.521000 37.754002 -765.852173
21.092300 37.103600 -767.578003
19.326401 39.363400 -762.785889
19.646900 39.110901 -763.743774
19.959999 38.550701 -764.707886
20.488899 37.555199 -766.340881
20.660700 37.346298 -766.861023
21.056101 36.886600 -768.056274
21.322001 36.545601 -768.862976
21.507000 36.258801 -769.428772
21.668800 36.007401 -769.923401
18.754601 39.658199 -761.719971
19.606600 38.989799 -764.263489
20.599899 37.128502 -767.325989
18.774500 39.501400 -762.486572
19.023899 39.346100 -763.226990
19.666401 38.569302 -765.167419
20.516100 36.900600 -767.791199
20.728701 36.738998 -768.424805
21.011499 36.475601 -769.271912
21.190901 36.159302 -769.822510
21.326900 35.790401 -770.251709
18.954399 39.367199 -763.800720
19.125700 39.288799 -764.305725
19.298201 39.078400 -764.825928
19.134600 38.915401 -765.323730
19.239100 38.540600 -765.660583
18.400499 39.376598 -764.081177
18.595100 39.397701 -764.642578
18.469999 39.236000 -765.121704
18.616100 38.907101 -765.574402
19.346701 39.398300 -759.836792
24.749901 33.918499 -772.154114
22.049200 38.962502 -757.194092
24.161600 40.183601 -757.207703
29.448400 37.848000 -767.090881
29.938601 38.006901 -767.203003
30.353901 38.321098 -766.987122
30.252100 38.653999 -766.505188
29.595699 39.273800 -764.420715
29.790800 39.125401 -764.937073
29.965700 39.017399 -765.405823
30.144199 38.938301 -765.891174
25.133499 33.749100 -772.577881
23.284300 35.098801 -770.543213
22.825800 35.271999 -770.116516
20.659500 36.030899 -770.006409
20.444201 36.303699 -769.402771
20.604500 36.534901 -768.891296
20.071899 37.530300 -765.752319
28.475800 40.647400 -762.463318
23.224001 39.727501 -757.498596
25.568899 33.762199 -772.871521
26.713900 33.229099 -773.437622
27.217699 33.059700 -773.390930
20.489700 39.820301 -762.461670
27.275000 41.793098 -759.532715
18.714199 38.942001 -763.295471
28.973101 33.296101 -772.841003
28.617001 33.083302 -773.196289
29.198799 33.582699 -772.317322
28.137100 32.949100 -773.368591
29.771400 34.870602 -770.765076
29.637899 35.620399 -769.119324
56.790199 48.754601 -742.799377
56.960899 48.782600 -743.285583
57.148399 48.733898 -743.832581
57.333099 48.666599 -744.374512
57.521900 48.632301 -744.922974
57.696800 48.495899 -745.448181
57.484600 48.326099 -745.932312
56.090199 48.871101 -742.883911
56.276600 48.809299 -743.429382
56.450802 48.661098 -743.954285
56.636101 48.594101 -744.497620
56.824799 48.554001 -745.046082
57.014198 48.520901 -745.595276
56.866100 48.304501 -746.077087
55.540501 48.891701 -742.817200
55.729801 48.849400 -743.368774
55.895599 48.641201 -743.880615
56.071999 48.508099 -744.409973
56.243401 48.542599 -744.897400
56.426300 48.459900 -745.437073
56.285599 48.318802 -745.971313
57.143600 46.986500 -748.667480
57.280399 46.666302 -749.115417
57.421700 46.362999 -749.573303
54.953899 48.742100 -742.706299
55.121700 48.940102 -743.157227
55.295700 48.792198 -743.684326
55.458000 48.559502 -744.191284
55.640900 48.475601 -744.733215
55.826000 48.409500 -745.278503
55.994202 48.204601 -746.378479
57.113499 46.115700 -749.958130
55.660599 48.363899 -745.815186
55.997200 47.990398 -746.850708
56.529800 47.184601 -748.525024
56.670300 46.878799 -748.982178
56.810699 46.572701 -749.439270
54.573601 48.937099 -743.019775
54.752800 48.826000 -743.556396
54.919102 48.623699 -744.070801
55.084301 48.412998 -744.583496
55.268002 48.335400 -745.127380
55.447399 48.242001 -746.277588
55.784698 47.870998 -747.314026
56.590698 46.329899 -749.899475
56.702202 45.909199 -750.291626
54.077099 48.888901 -742.833008
54.998001 48.301800 -745.590515
55.409302 48.064602 -746.818115
55.998699 47.198700 -748.664673
56.135899 46.878201 -749.114075
56.268700 46.540699 -749.554016
53.837898 49.336102 -742.589172
54.084400 48.916302 -743.371826
54.252201 48.722801 -743.888794
54.416801 48.507000 -744.400818
54.580700 48.284698 -744.911621
55.530800 47.720402 -747.751892
54.820999 48.238400 -746.096680
55.213200 47.861801 -747.294678
55.522099 47.493099 -748.250183
56.071201 46.331100 -750.032715
56.212299 46.024700 -750.492126
53.540501 48.923401 -742.827820
54.383202 48.177200 -745.394226
54.823898 48.152100 -746.675415
55.480301 47.235298 -748.730591
55.614700 46.904202 -749.175415
55.748001 46.568100 -749.617676
56.133999 45.624699 -750.893799
53.537899 48.961498 -743.343872
53.710602 48.803600 -743.871094
53.872501 48.569599 -744.379700
54.038101 48.360100 -744.894714
55.005699 47.723301 -747.806824
54.190102 48.144501 -745.900574
54.359699 48.165901 -746.388977
54.602901 47.915100 -747.136108
55.002399 47.485699 -748.365784
55.529800 46.357899 -750.083374
55.686001 46.108799 -750.577881
53.012699 48.909500 -742.921387
53.808201 48.214500 -745.344116
54.947102 47.228901 -748.810730
55.089802 46.927299 -749.274719
55.221100 46.581902 -749.712891
55.618401 45.800301 -750.995178
53.002201 48.892399 -743.450928
53.176701 48.746201 -743.982178
53.345798 48.562401 -744.504089
54.134102 48.031502 -746.882324
54.379799 47.799599 -747.634521
54.552700 47.644001 -748.162476
53.321499 48.393902 -745.016418
53.573502 48.006001 -745.814026
53.750999 48.082901 -746.317322
54.952301 46.336201 -750.103027
55.115299 46.112999 -750.614380
52.489101 48.855000 -743.069519
53.900501 47.798000 -747.351379
54.322102 47.433201 -748.638794
54.448700 47.149700 -749.054382
54.585800 46.827702 -749.507385
55.085201 45.833401 -751.126526
52.485802 48.868999 -743.609680
52.659199 48.715599 -744.140015
52.830502 48.547901 -744.666504
53.092400 48.232899 -745.481628
53.534199 48.011600 -746.804382
53.877899 47.686798 -747.859314
54.509499 46.495602 -749.897217
53.070400 47.982601 -745.971924
53.872501 47.559101 -748.378723
54.478500 46.255100 -750.362793
54.629601 46.107300 -750.827515
54.829700 45.537998 -751.505981
51.907902 48.804901 -742.982422
52.633701 48.415401 -745.163513
53.063301 47.909801 -746.500916
53.330002 47.831200 -747.291321
53.836300 47.276699 -748.860474
53.963402 46.985901 -749.279907
51.930401 48.849998 -743.531494
52.109200 48.736801 -744.072815
52.288399 48.626900 -744.614502
52.647400 48.218201 -745.731812
53.318199 47.656300 -747.784912
53.921799 46.709900 -749.707397
54.399101 45.876598 -751.241577
53.347000 47.554600 -748.351318
53.901699 46.387299 -750.171875
54.061798 46.154701 -750.679810
54.375801 45.422001 -751.722717
52.099499 48.473900 -745.070923
52.457001 48.058998 -746.187927
52.674000 47.826801 -746.862610
53.321999 47.310902 -748.847229
53.455898 47.074699 -749.279480
51.286098 48.806099 -743.186829
51.516800 48.859200 -743.854126
51.679298 48.638000 -744.368286
52.075500 48.304199 -745.587219
52.664398 47.766899 -747.405579
52.831501 47.576302 -747.928223
53.385601 46.767799 -749.690796
53.832001 45.943501 -751.140686
52.873100 47.415699 -748.486084
53.357700 46.430901 -750.077087
53.515999 46.193001 -750.582703
53.853901 45.679798 -751.662415
51.518299 48.559898 -744.846497
51.905602 48.165501 -746.049988
52.064999 47.920300 -746.559509
52.874001 47.176899 -749.060303
50.623600 48.701000 -743.009888
50.808201 48.849899 -743.526123
50.987701 48.745399 -744.070496
51.415699 48.441002 -745.377991
51.951099 47.717999 -747.071472
52.133801 47.640900 -747.620728
52.303699 47.470100 -748.148010
52.733501 46.917801 -749.502991
52.870201 46.596199 -749.958374
53.008099 46.279301 -750.416809
53.194698 46.028999 -751.006775
53.354900 45.799301 -751.515991
53.487701 45.462200 -751.962585
50.906300 48.584499 -744.555176
51.339600 48.318401 -745.871704
51.506302 48.127300 -746.393616
52.227200 47.347599 -748.641602
50.489899 48.736401 -743.940979
50.868999 48.481201 -745.098511
51.453300 47.918701 -746.911011
51.635399 47.637501 -747.493713
51.804199 47.460701 -748.019775
52.172501 47.129902 -749.158325
52.369202 46.717999 -749.806091
52.503700 46.389301 -750.257324
52.695301 46.159901 -750.859375
50.087601 48.723701 -743.520630
50.785500 48.371601 -745.631714
50.984901 48.218498 -746.243774
51.724201 47.380600 -748.558777
52.592999 45.924599 -751.360107
52.743900 45.660400 -751.848389
50.073502 48.666199 -744.254211
50.245899 48.514198 -744.786011
50.891800 47.992699 -746.770691
51.060600 47.816200 -747.296326
51.220200 47.570900 -747.806274
51.633598 47.165001 -749.089172
51.780201 46.904800 -749.563477
51.909599 46.556499 -750.002625
52.096298 46.307598 -750.593018
52.600800 45.348400 -752.237000
50.202599 48.383202 -745.288208
50.428398 48.219501 -745.979187
51.163601 47.345699 -748.286804
52.031300 46.048302 -751.055481
52.231998 45.734699 -751.698425
49.521702 48.681499 -743.788879
50.408401 48.111301 -746.494019
51.148499 47.284401 -748.811584
49.460201 48.619301 -744.329224
49.630299 48.454399 -744.857727
49.911999 48.297401 -745.712891
50.330502 47.938000 -747.005005
50.497601 47.752201 -747.528198
50.662800 47.551701 -748.048279
51.073601 47.072800 -749.338074
51.200001 46.715099 -749.770874
51.358601 46.480900 -750.277405
51.514301 46.236000 -750.777100
51.735199 45.881302 -751.487427
51.936699 45.573502 -752.132385
48.955898 48.428699 -743.666016
49.515800 48.278400 -745.339722
49.803600 48.168598 -746.205688
50.534500 47.282700 -748.509521
51.777901 45.271000 -752.515686
48.894100 48.638100 -744.142578
49.071499 48.526199 -744.684082
49.740398 47.993599 -746.745300
49.941200 47.856400 -747.360229
50.105202 47.650799 -747.878479
50.473598 47.128700 -749.053284
50.618500 46.907200 -749.518372
50.786701 46.591000 -750.068115
50.938000 46.330399 -750.558472
51.088001 46.065300 -751.046021
51.306702 45.704399 -751.752319
49.017300 48.330002 -745.211914
49.188099 48.173401 -745.741699
50.037701 47.357101 -748.383179
51.253700 45.477200 -752.287292
48.349998 48.447800 -743.923828
48.557301 48.541500 -744.517883
49.125301 48.076801 -746.270325
49.396702 47.854000 -747.107727
49.594398 47.695099 -747.717102
49.952702 47.101601 -748.874695
50.113602 46.870098 -749.388489
50.263699 46.678501 -749.863281
50.445801 46.416000 -750.444885
50.596001 46.151798 -750.932922
50.745998 45.887199 -751.420288
48.503601 48.389900 -745.018372
48.690399 48.154400 -745.609924
49.532299 47.495701 -748.206116
50.667999 45.626701 -751.878723
50.890701 45.283901 -752.594788
52.253300 44.621899 -756.726074
52.445400 44.420601 -757.327515
48.918400 47.951801 -746.779724
47.884201 48.462101 -744.138489
48.047501 48.448898 -744.624084
48.503399 47.987999 -746.054688
48.914600 47.796700 -747.305603
49.083900 47.637199 -747.834473
49.335400 47.279900 -748.641785
49.454800 46.949200 -749.052917
49.621201 46.765400 -749.577576
49.765999 46.582199 -750.038574
49.926601 46.360500 -750.552795
50.065701 46.056301 -751.017578
50.212101 45.780800 -751.499512
50.474602 45.475601 -752.329895
51.696201 44.869202 -756.052795
52.274502 44.341999 -757.857117
47.939499 48.327599 -745.137390
48.103901 48.133801 -745.658630
48.401901 47.914799 -746.579895
50.084202 45.576801 -751.974182
50.309601 45.126999 -752.721130
51.257301 44.888100 -755.570923
51.598801 44.806000 -756.596985
51.770599 44.772900 -757.111816
47.414501 48.338699 -744.440125
47.957298 47.907398 -746.125122
48.268002 47.780201 -747.068726
48.438801 47.632198 -747.601196
48.605499 47.453899 -748.126587
48.766998 47.236599 -748.643616
48.885799 46.902302 -749.054504
49.058300 46.765499 -749.590210
49.211601 46.555901 -750.081482
49.361599 46.293701 -750.572083
49.504501 46.004398 -751.046570
49.645802 45.709301 -751.517578
49.943100 45.419998 -752.449890
50.803501 44.889801 -755.093872
51.137699 44.831299 -756.094727
51.621399 44.600300 -757.569519
51.769299 44.345001 -758.052673
47.321201 48.311100 -744.960815
47.493999 48.175999 -745.497314
47.853500 47.809898 -746.628113
49.531898 45.552299 -752.003418
49.798100 45.111698 -752.870422
50.724998 44.823502 -755.670410
51.040401 44.758900 -756.617188
51.216099 44.617500 -757.163330
47.313000 47.993500 -745.947998
47.675400 47.647099 -747.084290
47.847301 47.505699 -747.619202
48.019199 47.365299 -748.154175
48.178299 47.129398 -748.667786
48.306400 46.864101 -749.094604
48.632999 46.465900 -750.134094
48.784801 46.210201 -750.629272
48.923500 45.904499 -751.094788
49.070900 45.632401 -751.580017
49.369999 45.350498 -752.517273
50.010899 44.813099 -754.513916
50.189499 44.712101 -755.061707
50.556499 44.729900 -756.147583
51.067501 44.487900 -757.706726
51.211300 44.215000 -758.181213
46.546398 48.173199 -744.838806
46.709202 48.156300 -745.324219
47.043201 47.799599 -746.377380
47.201099 47.555401 -746.888611
48.006100 46.632599 -749.437988
48.813000 45.516499 -752.026794
49.080700 45.110500 -752.892212
49.482498 44.749699 -754.146912
49.940300 44.634201 -755.524475
50.284599 44.559601 -756.558105
50.443802 44.472599 -757.045715
46.443401 47.981400 -745.739624
46.934299 47.365898 -747.301880
47.114601 47.280499 -747.850830
47.290501 47.164700 -748.392273
47.454201 46.958900 -748.913513
47.930901 46.230202 -750.453918
48.070400 45.925400 -750.920776
48.220001 45.659599 -751.410583
48.575699 45.351898 -752.518311
48.736000 44.763802 -753.096924
49.243000 44.703701 -754.608826
49.419300 44.676998 -755.135681
49.708900 44.496498 -756.025330
50.199600 44.283401 -757.515991
50.363400 44.217400 -758.012573
50.478401 43.820599 -758.423279
45.944199 47.938202 -745.252930
46.257301 47.814301 -746.201721
46.420799 47.607700 -746.722229
47.220402 46.632801 -749.261414
48.051102 45.564999 -751.909180
48.363701 45.089100 -752.918518
48.606998 44.831299 -753.684509
48.780102 44.786598 -754.204712
49.243698 44.563999 -755.616394
49.536400 44.398399 -756.512329
49.701302 44.332298 -757.012085
45.813301 47.903900 -745.775574
46.263000 47.383598 -747.198914
46.393902 47.137600 -747.629822
46.571400 47.030399 -748.174377
46.740002 46.858501 -748.703979
47.367001 45.986000 -750.714417
47.521801 45.860001 -751.194824
47.887600 45.347000 -752.368530
48.173500 44.765800 -753.317627
48.642399 44.675900 -754.721497
48.813599 44.627998 -755.236816
49.097099 44.421398 -756.112610
49.555698 44.198002 -757.509888
49.712101 44.099800 -757.990295
44.478500 50.121899 -742.343872
45.384800 47.661098 -745.463074
45.668098 47.711601 -746.292603
45.837898 47.549198 -746.824097
46.561699 46.619801 -749.131470
46.719398 46.364899 -749.643799
47.373901 45.666199 -751.705078
47.721901 45.084599 -752.838318
48.036301 44.740398 -753.830078
48.204899 44.677601 -754.340271
48.669300 44.457100 -755.754272
48.967899 44.315300 -756.663574
49.126900 44.224300 -757.150330
43.974701 50.543201 -741.576111
44.153099 50.446301 -742.121277
44.346500 49.905399 -742.789917
44.456200 49.535500 -743.180420
44.570499 49.192501 -743.579590
45.706501 47.323299 -747.274475
45.866600 47.089901 -747.789978
