22.125500 81.802002 -801.669006
19.881800 79.856003 -803.528809
15.971900 77.353104 -807.447021
14.452100 76.334602 -808.935181
10.054700 71.627998 -811.899719
23.215799 83.068497 -800.460876
20.987101 81.093803 -802.274902
12.968100 75.325699 -809.816895
11.372600 73.782700 -811.017273
7.685700 68.983498 -812.853882
18.754999 78.908501 -803.539978
16.912001 77.421898 -805.153625
14.745300 76.522797 -807.358521
17.556200 78.048500 -803.985474
15.724300 76.961800 -805.884583
10.437600 72.748199 -810.558289
6.490400 68.141800 -812.953491
21.961901 82.341400 -800.286682
13.309600 75.740402 -808.159485
11.935400 74.467102 -809.242188
8.681800 70.953499 -811.433411
19.585199 80.664597 -802.051880
20.683800 81.620499 -800.590271
18.583700 80.902298 -803.158203
15.745900 76.945396 -804.416809
14.388900 76.260002 -805.912170
11.056200 73.345802 -808.673523
7.487300 69.181702 -810.857727
22.329800 82.830803 -798.622925
18.242599 79.607101 -802.268127
13.257800 75.639900 -806.687805
6.301900 68.004601 -811.306885
10.522100 75.292900 -810.254700
10.030500 72.194099 -808.705627
9.061700 71.145699 -809.288025
12.188300 74.628197 -807.042908
17.035900 78.834602 -802.610291
16.078899 77.940201 -803.373230
20.983700 82.399902 -798.974609
19.245399 81.188499 -800.664917
14.423900 76.290703 -804.244873
8.092700 69.935097 -809.000183
6.492900 67.736298 -809.774475
13.370500 75.571899 -804.978394
11.032800 73.675797 -807.060608
19.706900 81.825302 -799.359924
17.953300 80.405899 -800.934570
14.886000 77.093697 -803.106018
12.187600 74.926300 -805.540588
9.900800 72.703598 -807.332886
7.038900 68.811302 -808.795105
21.159100 82.777901 -797.346619
16.917500 79.316902 -801.135010
9.144900 71.483101 -807.032104
5.344500 66.437897 -809.064270
15.711200 78.574600 -801.670898
13.163800 75.903297 -803.528198
11.005700 74.012497 -805.361877
8.087500 70.149101 -806.928284
6.176500 67.836304 -808.105774
4.184400 65.665100 -809.500916
19.814100 82.993103 -797.951904
18.348000 81.331802 -798.934570
12.059800 74.885902 -803.623779
9.869800 72.900497 -805.437927
6.986300 69.085297 -806.988525
3.749100 64.518204 -808.531616
17.077200 80.676697 -799.309082
16.261999 79.510201 -799.687622
14.408300 77.925499 -801.292603
13.559300 76.685402 -801.669128
10.905200 73.895203 -803.603516
8.983400 71.751297 -804.918274
8.042700 71.142097 -805.868774
5.780100 67.480103 -806.623413
4.812900 67.127899 -807.791626
19.639299 83.815903 -796.498474
18.533199 82.647003 -797.301514
17.725700 81.414200 -797.622925
15.023200 78.674698 -799.666077
12.167500 75.974998 -801.961182
11.344600 74.679398 -802.261414
9.763600 72.935799 -803.358398
8.114300 70.643898 -804.172729
6.550400 68.779503 -805.160278
5.311200 66.631401 -805.474792
4.455200 65.523499 -805.954407
3.444700 63.953800 -806.338013
1.955600 62.013500 -807.163086
16.431101 80.703400 -797.692688
15.491500 79.755402 -798.405273
13.691800 77.841400 -799.701477
12.858100 76.707001 -800.129028
10.224500 73.741302 -801.910889
8.782700 71.973396 -802.785583
6.971100 69.441002 -803.667725
0.947600 60.912102 -806.524475
16.701700 81.262100 -796.365479
14.392000 78.851898 -798.056885
11.776700 75.731697 -799.699524
10.838100 74.691498 -800.344727
9.062800 72.736702 -801.573486
8.092200 71.034897 -801.803589
4.647500 65.616600 -803.054321
3.453700 64.385201 -803.938599
2.268500 62.335400 -804.239380
1.345800 60.942101 -804.615112
0.109300 59.506199 -805.418884
15.385000 80.656998 -796.567688
13.323400 77.922699 -797.668213
12.398500 76.872803 -798.285278
9.786700 73.730904 -799.903870
6.968800 70.099503 -801.482178
6.238200 68.672897 -801.553223
3.076000 63.564999 -802.604492
0.440800 60.009998 -803.969421
-0.998100 58.447899 -804.979126
14.172400 79.801399 -796.549988
11.405200 75.899696 -797.868713
10.586000 74.609497 -798.164978
9.088600 72.748802 -799.053101
8.230900 71.690002 -799.566528
3.942400 64.966698 -801.139221
1.666700 61.664398 -802.158508
-0.309800 59.014198 -803.195618
15.074100 81.127296 -795.081787
13.177400 78.791603 -796.221130
11.920700 76.276001 -796.303589
7.290300 70.666801 -799.149475
5.954300 68.480797 -799.576416
5.081700 67.174797 -799.939819
2.985600 63.739300 -800.605713
2.084700 62.757301 -801.235229
0.480100 60.772900 -802.193298
-1.415000 58.050400 -803.061523
-2.334100 57.158600 -803.780273
10.808000 75.311699 -796.179810
9.861500 74.242798 -796.814880
9.172500 72.827904 -796.836121
8.153500 71.746399 -797.567871
7.396800 70.353600 -797.702576
3.798500 64.837097 -799.110413
0.787500 60.859501 -800.730774
-0.339700 59.675400 -801.548706
13.730500 80.814301 -794.574402
12.902300 79.578499 -794.920715
12.019300 78.390503 -795.379211
6.283500 69.409401 -797.484070
5.408200 68.373802 -798.037170
4.743900 67.024200 -798.066772
2.749800 63.814098 -798.737915
1.841600 62.790501 -799.346924
9.587600 74.026199 -794.753723
8.735200 72.937599 -795.235291
7.955600 71.669098 -795.486877
6.993300 70.669601 -796.189026
3.527800 65.536102 -797.657288
12.708800 80.568398 -793.168518
11.804400 79.557899 -793.781311
7.793900 72.280502 -793.854614
6.926200 71.139603 -794.326416
3.218800 67.956299 -797.503418
-1.288000 58.467499 -801.643005
5.164400 66.227600 -801.093323
5.535400 66.907700 -802.631775
6.402700 67.973503 -803.573181
2.551400 62.707901 -806.000793
2.449700 63.134602 -808.119690
4.900500 65.376198 -807.791687
7.171700 71.054802 -809.044373
14.039600 77.796204 -810.385010
1.114100 61.525700 -799.391296
4.477200 65.492500 -804.503296
15.525100 78.298103 -812.924377
22.913200 80.896698 -805.245972
-0.257800 60.040901 -806.754883
5.124000 67.711899 -796.749084
5.020800 67.930702 -812.673889
8.429300 72.395203 -811.185303
12.977100 77.131104 -812.377075
22.309299 80.648598 -808.846985
4.471700 67.726196 -809.102478
15.033700 81.189102 -797.950378
9.003600 75.655403 -799.820129
7.160100 72.125900 -801.436584
4.979400 70.980202 -798.279175
9.872900 74.307602 -806.437988
4.454800 68.883400 -799.641174
7.351700 70.002800 -805.248901
8.471600 72.197998 -808.255615
-2.585300 57.633202 -805.161072
1.980200 64.217003 -806.289124
2.181200 63.636600 -804.879395
0.685000 63.227299 -801.053528
6.327300 70.379799 -806.421692
2.952500 66.246101 -798.834106
20.577499 84.353798 -797.871826
24.920300 84.481598 -802.369324
16.809500 78.410301 -812.208618
-0.027600 59.801498 -800.059570
-1.865800 56.887798 -802.220825
12.145800 76.251900 -813.419617
12.947400 77.400002 -807.082886
24.256300 83.260803 -803.727905
5.980400 70.392700 -808.297180
7.279400 70.957703 -811.829407
5.671400 69.332802 -810.816284
6.498500 69.363800 -812.051270
9.066000 72.418602 -812.727478
10.450000 75.072998 -812.761902
11.231000 76.055702 -808.513000
15.669700 78.742203 -807.890381
19.921101 80.437798 -809.119629
16.032900 79.679199 -803.266785
17.444500 81.806999 -800.849792
21.001400 83.311600 -800.886902
22.904400 83.914001 -801.777283
21.533800 83.911499 -799.214600
22.813000 77.346901 -808.768188
16.224199 79.117599 -810.280579
84.269501 74.413902 -771.602417
83.178001 74.806801 -772.522827
84.691101 76.407303 -771.011230
83.589798 76.752197 -771.961121
82.553398 76.292503 -772.961426
85.040703 78.335899 -770.656372
83.957199 78.743698 -771.634216
82.914597 78.204903 -772.500122
81.836800 77.622398 -773.349121
85.126602 80.110100 -770.428772
81.504501 78.795799 -774.450317
83.977898 80.224998 -771.331787
82.901398 79.698700 -772.278076
81.737000 79.610298 -773.264282
85.082802 81.760597 -769.860779
80.688103 80.086899 -774.572571
84.106201 81.795197 -771.004578
83.031898 81.270897 -771.944275
81.840599 81.071098 -772.897705
85.049400 83.459900 -769.789673
80.684303 81.422203 -773.738098
83.933403 83.284401 -770.830383
82.928802 82.862297 -771.824524
79.546501 81.174103 -774.684814
81.783203 82.732399 -772.724915
85.253700 84.838799 -769.188477
84.229401 84.813004 -770.222473
83.010300 84.265800 -771.368286
80.576401 83.075600 -773.477112
79.440697 82.790100 -774.393188
81.774300 84.191101 -772.228821
85.300102 86.369598 -768.595886
78.211304 83.182198 -775.206482
84.265900 86.195297 -769.633606
83.254402 85.821404 -770.723206
80.584801 84.547302 -773.076721
82.153801 85.606003 -771.733521
79.496002 84.302803 -774.008423
85.098396 87.818802 -767.974426
83.353500 87.285400 -770.034424
80.871696 86.156097 -772.295410
79.819099 85.743202 -773.373718
78.325600 84.971397 -774.567688
82.184998 87.215103 -770.938416
77.073196 84.753502 -775.342712
83.992599 88.393501 -768.781311
84.944099 89.134804 -767.357422
80.910500 87.619499 -771.587524
79.911903 87.281303 -772.701477
78.747803 86.716301 -773.691589
82.821404 88.864304 -769.516174
77.479103 86.501404 -774.464111
76.291397 85.983498 -775.577271
81.707802 88.914703 -770.499023
83.868301 90.053703 -767.801086
78.743500 88.092598 -773.078918
80.457603 89.261200 -771.203613
77.454300 87.881203 -773.873230
76.317802 87.308998 -774.793579
82.658798 90.442802 -768.611084
79.255302 89.156898 -772.132690
75.075302 87.052696 -775.512390
81.603699 90.469200 -769.667725
83.714302 91.360100 -766.919189
80.397499 90.621696 -770.473328
77.906700 89.511200 -772.731873
76.249603 88.712402 -774.127014
82.598297 91.738800 -767.841187
79.145401 90.375801 -771.286987
74.950600 88.302002 -774.724487
83.939796 92.467903 -765.974670
81.528702 91.811798 -768.913513
73.891403 88.344398 -775.732300
76.528000 89.800003 -773.094482
77.889000 90.761703 -771.949585
82.751099 92.804398 -766.787476
80.211899 91.956100 -769.603821
79.052399 91.685699 -770.448425
75.233398 89.907700 -773.781921
81.613602 93.053200 -767.751526
73.985001 89.542999 -774.471985
76.498596 91.095001 -772.238098
80.381897 93.125504 -768.635498
77.757301 91.973801 -771.053101
82.654900 93.875801 -765.643127
75.658096 91.570297 -773.433228
79.161797 92.969803 -769.685181
84.287399 95.054802 -764.062683
81.589600 94.288902 -766.542725
74.258598 91.050797 -773.228210
72.658401 90.205498 -774.444885
83.016800 95.264198 -764.877319
80.454300 94.277000 -767.467896
77.779602 93.222603 -770.129883
76.386703 92.503098 -771.217590
79.229202 94.088097 -768.246216
75.143700 92.305496 -772.015686
83.928703 96.061996 -762.989319
81.686699 95.337502 -765.505371
72.809998 91.378998 -773.558472
78.032303 94.229698 -769.099487
71.713600 91.338898 -774.699585
80.459999 95.302399 -766.336487
73.696999 92.325401 -772.525879
82.748299 96.369499 -763.800781
76.478104 93.824699 -769.901184
79.351097 95.440498 -767.262695
75.343597 93.602501 -770.791199
81.400299 96.671501 -764.280579
77.961899 95.422997 -767.869629
73.990501 93.587700 -771.340576
72.287498 92.693001 -772.644409
71.157097 92.114601 -773.536621
80.204300 96.608200 -765.124207
76.612396 95.076401 -768.483887
70.432198 92.999603 -775.219910
81.643501 97.349297 -762.821472
79.067497 96.726898 -766.042419
75.336998 94.933701 -769.185181
74.365601 94.622498 -770.269226
69.386398 93.268799 -776.237671
68.409599 92.911598 -777.252319
77.832901 96.684196 -766.819885
72.632797 94.139503 -771.119385
70.966003 93.361397 -772.561584
70.406799 93.592499 -773.881775
80.372101 97.826599 -763.385925
76.507004 96.402496 -767.369202
79.143402 97.824699 -764.240479
75.149399 96.084602 -767.902283
74.073303 95.681999 -769.000610
72.975800 95.187302 -769.978882
71.197998 94.366402 -771.530823
68.996902 93.865898 -774.322510
67.953201 93.414703 -775.285278
77.885597 97.840103 -765.103821
69.841301 94.274101 -772.368103
80.081299 98.990997 -762.190674
76.546600 97.656303 -765.760193
75.399902 97.271896 -766.999573
71.597900 95.551903 -770.363892
66.584801 93.240402 -774.726807
78.795502 98.889297 -762.946106
73.971802 96.711800 -767.204224
72.929001 96.298401 -768.219788
70.305801 95.500099 -771.176392
68.396400 94.511002 -772.650574
67.347702 94.055496 -773.606079
65.928101 93.989799 -775.814697
77.573898 98.902199 -763.790894
71.763397 96.426598 -769.146179
76.221497 98.710098 -764.494324
75.156502 98.176003 -765.340027
70.464203 96.357399 -769.944275
68.819801 95.615097 -771.385620
65.946098 93.917000 -773.245972
73.827103 97.936401 -765.983276
72.690002 97.167397 -766.558777
67.404701 95.097000 -771.689270
77.619400 99.950203 -762.185974
71.625999 97.323303 -767.537781
76.419899 99.809601 -763.006775
70.448700 97.242401 -768.413574
69.008202 96.660698 -769.778687
65.920601 94.826103 -771.754578
75.202499 99.661201 -763.791077
74.117401 99.093201 -764.607910
67.626198 96.099701 -770.145325
72.762703 98.672897 -765.073486
71.630798 97.834099 -765.528381
70.529404 97.939697 -766.564819
68.994598 97.564697 -768.395386
66.111198 95.941902 -770.371887
64.505898 95.293404 -771.878296
75.901604 100.554497 -761.632874
67.732101 96.885399 -768.694275
73.809402 99.858704 -763.414185
74.582001 100.643204 -762.308716
72.397202 99.470398 -763.895813
69.147003 98.185997 -766.976379
66.362900 96.821198 -769.201782
71.097900 98.762001 -764.174500
70.102501 98.431396 -765.209717
67.881798 97.570000 -767.327087
64.688499 96.397797 -770.474976
63.632401 96.499001 -772.275330
75.924500 102.211800 -760.747986
74.568604 101.646698 -761.224426
73.108597 100.894897 -762.324219
68.643402 98.524902 -765.579529
66.486801 97.773697 -767.754822
64.901299 97.059097 -769.105225
76.767502 103.567902 -760.051819
71.817902 100.392899 -762.817810
69.759697 98.692596 -763.388184
67.218597 98.347198 -766.095886
68.378601 98.745903 -763.960815
65.078300 97.723999 -767.395325
75.297203 103.570999 -760.086487
73.196503 102.034302 -760.949585
71.899399 101.104698 -761.510925
70.403999 100.256599 -762.487793
69.102097 99.463600 -762.332520
67.107697 99.015404 -764.629211
65.756401 98.535103 -765.926514
75.781303 104.626801 -758.984619
73.811501 103.464302 -760.193115
71.796898 102.390297 -760.628784
70.521599 101.348900 -760.990112
67.809799 99.051003 -761.637878
67.089897 99.219803 -762.939209
64.197601 98.756104 -766.511719
63.207901 98.488899 -767.577026
74.312599 104.594498 -759.271423
69.230797 100.658401 -761.019897
65.731300 99.255096 -764.107178
61.948898 98.402901 -768.401489
72.380402 103.643799 -759.772583
64.466698 99.155502 -764.825195
60.762199 98.499397 -769.255798
70.445900 102.712196 -760.121216
67.848198 100.425201 -760.613220
66.742500 99.220901 -760.494812
66.118500 99.494301 -761.780701
62.906700 99.215202 -766.005798
69.008003 102.207298 -760.190308
64.800102 99.570099 -762.491211
61.555901 99.266098 -766.705872
60.676800 99.200699 -767.872009
59.424702 99.092400 -769.511414
71.535797 104.514297 -758.586487
70.414902 103.727997 -759.081482
67.232201 101.922096 -761.086609
65.205002 99.327301 -760.333191
63.694199 99.948303 -763.363525
62.784000 99.832703 -764.500610
67.669601 102.032204 -759.599182
66.665398 100.981300 -759.559204
61.646900 100.033997 -765.381226
68.980904 103.315903 -758.765381
64.341797 100.244797 -761.084473
60.319199 100.003502 -766.462402
59.462601 99.982697 -767.650024
65.297897 100.398804 -759.323486
64.704201 99.537003 -758.204407
63.262600 100.774101 -761.924072
62.425301 100.794502 -763.129089
67.288803 103.257599 -758.591003
63.846298 100.434402 -759.563171
61.165298 100.841301 -763.861328
60.236301 100.716103 -764.988586
65.432899 101.127998 -757.125122
63.760799 100.908897 -758.148376
63.023602 101.570999 -760.056519
62.148300 101.542900 -761.228821
61.181900 101.359596 -762.318726
65.311096 102.334503 -756.047913
64.139503 101.848000 -757.006714
62.226299 102.669296 -759.390381
61.232101 102.518097 -760.542725
60.246498 102.384003 -761.705322
63.491100 102.377403 -758.277222
67.099297 93.031998 -776.396301
63.243698 96.562897 -770.820984
58.933601 100.497902 -766.285828
65.111099 93.524498 -774.434875
67.119400 92.396400 -777.839111
60.230301 101.695000 -766.894592
69.490799 104.131104 -760.949890
70.958900 104.379898 -760.436218
72.190102 105.309898 -759.639221
62.004002 101.967598 -764.659424
79.590103 91.978302 -767.577881
72.208099 96.694000 -761.273621
85.154297 84.663300 -771.397888
66.550499 98.181801 -757.521973
80.175797 85.647697 -774.810425
66.798103 96.444199 -771.608215
83.540298 88.360100 -770.994385
79.983002 83.618896 -775.631775
70.120598 94.665901 -775.664185
64.291702 97.784103 -761.994690
66.303001 96.832703 -760.186829
65.409698 97.241501 -758.942505
70.360298 95.750801 -772.713074
74.242599 95.006699 -771.685608
70.140701 96.903297 -771.790588
70.648102 97.805702 -769.936584
66.301804 99.783501 -766.896423
64.820396 100.871803 -764.549683
70.564903 98.683701 -767.869629
64.457603 101.440102 -763.225098
69.630302 99.489403 -766.155579
64.790001 101.668503 -761.716492
75.759804 97.129700 -768.953613
73.202797 98.285599 -767.631226
71.763397 98.937302 -767.056213
63.633400 102.601898 -761.072876
74.743401 98.033600 -768.353516
71.412102 99.972504 -765.374329
78.514999 99.739799 -765.271118
76.080704 103.709702 -761.585876
73.182297 105.246101 -758.520325
78.199997 91.528603 -773.307495
83.265900 75.366898 -771.099670
69.768700 104.767197 -758.187012
79.180298 100.112801 -761.913574
66.072304 101.760597 -758.438171
60.958000 103.945396 -760.964478
63.804001 97.635201 -769.868225
60.916599 102.288498 -755.085083
61.425400 101.754898 -752.768799
59.856701 102.746300 -756.017395
58.438499 102.017197 -756.946106
63.855701 103.568199 -751.151123
62.410400 102.996696 -752.302673
60.397598 102.406502 -753.581970
57.584301 102.919502 -757.779907
62.566502 102.303299 -749.699280
59.391201 103.005898 -754.567322
58.497101 103.292999 -756.045776
60.825500 103.070702 -752.338501
59.878899 101.962196 -752.201172
60.273300 101.215202 -750.583679
62.117298 103.602997 -750.916016
57.049301 103.139198 -756.333191
59.078499 102.907898 -752.965271
57.939999 103.159203 -754.685486
61.167599 104.477898 -751.662415
55.736099 103.268501 -757.003296
60.306801 101.867897 -748.806274
59.978001 103.569199 -751.213318
58.936401 102.464897 -751.205811
54.508499 103.460701 -757.862122
56.597599 103.702003 -755.065796
60.864300 104.511902 -750.067688
57.713299 102.812599 -751.962891
57.415600 103.585800 -753.233521
53.087101 103.074203 -757.967773
55.120998 103.724701 -755.317871
54.023800 103.370399 -756.254272
51.722801 102.592003 -758.176819
59.360100 104.400002 -749.815125
58.174099 103.313301 -750.003418
55.937401 103.564903 -753.049072
61.154999 106.140602 -748.558228
56.784199 103.245102 -750.543823
54.573799 103.551697 -753.619812
53.555199 103.352501 -754.638916
52.528702 103.142601 -755.655273
51.505501 102.943398 -756.679993
59.730301 105.656303 -748.811584
55.717201 103.740196 -751.497681
58.538101 104.821503 -748.626709
57.128700 103.717003 -749.064575
52.207500 103.163498 -754.004211
51.045101 102.511101 -754.667480
61.483200 107.668198 -747.526184
55.775799 103.307800 -749.442688
54.348301 103.994797 -751.991516
60.066700 106.790497 -747.840027
53.144299 103.815903 -752.867310
49.659901 101.845497 -754.847412
58.847198 105.848396 -747.501099
54.469002 103.481003 -750.124573
48.363899 101.148697 -754.910217
57.270599 104.843002 -747.909973
56.042500 103.918900 -747.982300
53.028999 103.687401 -751.412781
51.007000 103.003197 -753.099609
61.103699 107.747002 -745.897888
46.909698 100.768501 -755.203430
49.648701 102.302696 -753.418884
57.929199 105.357903 -746.447388
54.676300 103.591698 -748.407227
59.843700 107.757004 -746.701416
51.668499 103.533699 -751.893127
58.864399 106.750198 -745.985779
56.396702 104.775703 -746.737915
53.129200 103.825302 -749.685181
48.240799 101.898201 -753.501892
51.844898 103.407501 -750.231384
50.034500 102.981400 -751.985413
45.440899 100.816498 -755.161621
60.709000 108.240799 -744.352417
54.995602 104.714996 -747.327087
48.847900 103.505798 -753.572815
46.883999 101.357101 -753.491882
59.555698 108.140404 -745.245911
57.978298 106.227699 -744.960693
53.276600 103.910202 -748.102722
48.662498 102.563103 -752.280273
56.723099 105.617302 -745.366516
50.395699 103.171402 -750.396729
51.916401 103.798599 -748.623901
49.082500 102.523399 -750.665222
47.427898 101.818703 -751.904175
43.942699 100.550301 -754.769714
57.841301 106.425598 -743.458130
55.296299 105.266701 -745.276611
53.811901 104.705498 -746.473572
52.708500 103.764900 -746.741699
46.087601 101.289597 -752.112976
44.965000 100.906898 -753.067688
56.478401 105.850304 -743.541992
50.513100 103.503304 -748.238403
49.392700 103.083298 -749.145081
47.949100 102.064903 -749.745483
46.761200 101.546799 -750.620178
43.572800 100.445999 -753.313416
57.964100 106.666603 -741.976013
51.291901 103.487503 -746.562317
53.827900 105.238701 -745.101929
45.026100 101.028603 -751.125183
54.997002 105.658401 -743.732788
52.566601 104.478500 -745.375427
56.544399 106.300201 -741.822083
49.900501 103.059601 -746.290894
48.887199 102.861198 -747.325073
47.701900 102.237503 -748.068176
46.585400 101.351700 -748.412415
45.444302 100.699097 -749.065613
57.373001 106.393303 -739.954407
55.187000 105.805397 -741.994324
51.496601 104.029297 -744.501526
53.912701 105.854599 -742.749207
52.783100 105.281998 -743.480713
50.088299 103.632698 -744.886719
48.213600 102.602303 -746.005005
44.832100 100.420197 -747.634521
43.584000 99.634804 -748.259827
55.968800 106.629303 -740.366394
46.942402 101.860397 -745.973328
42.605999 98.684502 -747.605713
54.619598 105.951500 -740.641724
50.487499 103.857498 -743.313416
45.678398 101.160797 -746.111206
56.927200 107.034599 -738.437500
52.821602 105.570099 -741.831787
48.702499 103.450104 -744.455322
44.432400 100.395401 -746.144775
55.583500 106.694199 -738.958496
51.446301 105.092003 -742.228394
49.171398 103.238899 -742.855103
47.477100 102.683800 -744.315979
43.061600 99.623299 -746.178711
41.691101 98.431503 -746.465515
54.217499 106.083504 -739.074890
53.058498 105.454498 -739.772827
51.877899 104.905602 -740.594482
50.709000 104.174599 -741.181580
46.243099 101.914001 -744.067383
45.064999 101.028099 -744.478882
43.912498 99.999901 -744.686523
56.269501 106.959297 -736.830078
48.343399 102.758102 -741.718872
40.899399 97.776604 -745.056396
47.094601 102.372299 -742.388977
42.477299 98.930496 -744.032471
39.589298 97.260902 -745.645996
55.040600 106.913597 -737.604675
53.240501 105.486801 -738.143677
52.044399 104.794296 -738.811584
50.912601 104.248596 -739.576782
49.254601 103.639503 -740.928223
45.908298 101.576797 -742.645325
44.670200 100.728996 -742.817688
45.185902 102.847702 -744.739929
48.203201 102.950699 -740.203430
46.480900 101.828796 -741.013123
45.057701 100.973198 -741.389526
52.841499 105.048103 -736.132019
51.848900 104.902000 -737.208801
50.700199 104.325798 -737.957886
49.553902 103.876297 -738.858582
43.613800 99.749199 -741.329773
47.132000 102.189903 -739.499573
48.381199 102.989601 -738.635803
45.496799 101.004303 -739.861572
50.963200 104.255402 -736.233887
49.805698 103.564697 -736.856018
51.933498 104.738998 -735.042725
48.530701 102.824898 -737.011475
47.341000 102.212601 -737.770020
45.849400 101.251404 -737.944275
49.346100 103.052902 -735.168274
51.388599 104.190697 -733.348572
51.400200 106.017097 -735.597778
47.501701 102.018097 -734.905029
46.308300 101.532898 -735.825989
50.686798 103.684502 -732.054871
49.549801 103.285400 -733.013428
47.744099 104.122597 -736.374329
46.622398 101.752899 -732.275879
44.043201 101.668098 -752.012024
43.430401 99.528603 -742.794922
42.393501 98.693497 -742.186829
41.429199 97.999001 -743.023682
40.210999 97.297997 -743.597473
41.405300 97.780899 -741.589783
42.777901 98.758598 -740.028687
41.603802 97.821899 -740.116089
43.570599 99.522499 -738.372925
42.441502 98.546303 -738.556702
40.304401 97.136597 -740.456787
44.038300 99.281799 -736.525879
41.427799 97.253304 -738.645386
44.448299 99.166100 -735.050476
42.891998 98.381401 -736.577881
40.189499 96.212502 -738.718811
41.696098 97.655998 -737.038330
44.579300 98.683998 -733.177612
43.592701 98.301300 -734.214783
42.598301 97.673798 -735.106506
40.773300 96.460800 -736.704224
39.811699 95.551003 -737.374329
41.483299 96.713097 -735.207703
44.072300 97.556297 -731.784424
43.070099 97.476196 -733.031189
40.330799 95.508202 -735.327271
39.353199 94.511398 -735.959595
41.984798 96.350502 -733.165222
44.537899 97.493202 -730.088928
43.491501 96.572899 -730.856201
39.932201 94.671402 -733.814087
39.037399 93.550903 -734.256714
41.927200 95.630096 -731.541382
43.886101 96.233299 -729.146606
42.403400 95.871803 -730.092102
39.254200 93.589203 -732.682922
39.996799 92.868599 -728.682617
39.301201 91.373901 -729.680176
41.783699 94.670601 -729.430908
40.140800 92.584198 -730.206726
39.067001 92.172401 -731.119507
41.385201 94.334297 -730.808777
40.320301 94.008797 -731.751221
45.608200 98.562698 -730.654602
46.558300 100.031799 -730.618286
45.931499 99.405899 -731.921814
47.193001 100.938797 -733.331909
46.104401 100.413902 -734.211121
48.277000 102.208099 -733.668884
45.619400 100.282097 -736.206787
44.856098 100.166298 -737.636230
50.665501 103.930397 -734.589294
44.361301 100.082802 -740.039795
39.222000 96.503403 -744.411377
43.999599 100.118698 -751.960571
39.058998 88.487900 -727.685913
38.820301 89.263496 -728.979675
39.863998 89.719902 -727.512329
40.015900 90.759399 -728.542114
41.034599 91.850098 -728.518616
39.014099 91.631401 -732.468079
41.945000 92.985497 -728.715088
43.184101 94.618797 -729.049805
41.063702 94.589798 -732.890015
41.428001 95.339401 -734.339478
45.926899 99.159500 -733.491516
47.245098 99.953499 -732.214172
40.592701 97.274101 -746.716919
47.664700 101.757698 -736.382324
54.047401 107.260498 -742.404114
56.635899 107.979797 -740.835876
49.943901 103.367104 -755.147888
50.139900 102.817703 -757.165222
55.951000 104.652603 -750.092285
59.593399 106.629501 -744.726013
58.631802 104.685898 -751.084900
59.104900 104.452904 -753.366699
59.445599 105.891602 -750.813416
58.836300 106.913002 -749.612183
60.810001 103.786598 -753.840820
60.797501 106.070099 -750.179871
57.615601 104.773804 -755.080688
59.129299 104.385696 -755.119873
54.680698 104.806503 -757.191528
56.629200 107.978500 -743.210205
48.478100 103.363602 -732.001221
43.873798 101.293503 -736.958618
50.105999 104.930702 -746.085815
46.980202 103.231201 -749.130798
49.150200 104.519203 -742.097778
49.085300 104.737503 -739.988220
51.292599 105.615196 -733.962891
56.170399 108.133102 -739.371216
60.683300 109.131500 -745.663208
55.989399 107.992401 -737.835876
38.910301 90.564598 -730.956116
46.683601 102.394997 -754.660217
54.997200 104.792503 -754.326416
53.812901 105.501602 -752.283875
58.714699 107.694397 -747.622314
52.763802 105.732300 -746.286987
50.819901 105.654503 -744.879822
52.508801 105.466797 -751.354675
47.606201 104.163498 -745.086975
50.681599 104.747101 -752.064514
55.166100 102.114998 -752.961914
57.349701 99.143204 -750.935974
77.200996 104.125198 -758.716187
76.786201 105.300102 -757.526001
75.316498 104.989502 -757.441284
76.672699 106.429100 -756.436523
73.937599 104.862198 -756.881470
72.796600 104.191299 -757.567627
75.284897 106.358902 -755.826721
76.219398 107.818100 -754.744385
73.835503 105.953003 -755.536987
72.708603 105.210701 -756.105286
71.563103 104.448196 -756.672302
74.912003 107.231598 -754.385193
73.601097 106.506897 -754.189270
72.468498 105.751999 -754.745300
70.169098 104.494499 -756.248474
71.068100 105.382301 -755.046387
74.261703 107.881401 -752.992676
72.620796 106.871696 -753.161804
71.489502 106.121101 -753.718018
69.624199 105.034401 -754.835876
68.596397 104.697998 -755.802124
73.158600 107.773697 -751.964478
70.054100 105.741699 -753.541016
71.846603 106.859299 -751.778381
73.700104 108.962700 -751.169128
70.497902 106.286598 -752.033630
68.616798 105.734497 -753.858276
72.378601 108.388397 -750.835815
70.846603 106.463898 -750.428772
69.031403 106.160599 -752.451172
71.175301 107.904503 -749.698486
69.496696 106.942596 -750.686584
75.793098 108.274902 -753.383118
68.186096 106.456398 -751.200317
68.209099 107.357201 -753.070496
75.092598 109.196198 -754.583191
67.550102 106.196297 -752.493774
71.930901 109.186699 -749.602783
69.285202 106.909103 -748.292297
68.246201 107.150803 -749.365784
70.158401 107.729897 -747.220398
71.206596 109.284401 -746.691711
68.800301 107.128098 -746.913513
66.749001 107.165199 -749.546326
67.808998 107.133797 -747.972229
70.387703 108.956100 -745.465576
69.225098 108.327003 -746.170776
66.341698 107.288803 -748.072388
65.281303 107.135300 -749.209778
67.475601 107.303902 -746.313904
68.973099 109.027496 -744.465881
67.832001 108.224297 -744.931824
66.033600 107.385597 -746.164978
64.901703 106.987297 -747.092590
63.715900 106.816704 -748.353027
66.555496 108.067703 -744.173706
65.362297 107.414497 -744.876282
63.580700 106.881798 -746.443176
63.887100 107.201401 -744.848816
65.444000 108.014900 -743.076721
62.443199 106.888100 -745.039429
64.082001 107.570999 -743.437378
62.621101 107.179703 -743.374878
64.348099 108.596901 -742.291687
63.193802 107.666000 -742.094788
64.141502 108.342400 -740.717712
61.811699 107.288803 -741.854980
62.193298 106.413300 -746.461670
66.351303 108.620598 -742.082581
64.480301 108.074600 -746.010925
61.232399 106.668602 -743.105713
61.071602 106.569901 -744.690613
68.006500 109.159897 -743.370483
62.785599 108.211899 -746.228271
68.108299 109.482697 -746.069214
33.631001 83.468399 -789.179016
33.232201 83.945396 -787.510925
32.282299 83.213501 -788.371826
30.669800 83.279800 -790.834412
29.615000 83.098801 -792.273682
31.279900 82.123100 -788.271484
34.000599 85.170502 -786.021973
31.060900 83.529602 -789.146484
32.946201 85.659798 -786.891785
29.241800 83.551498 -790.799194
28.182100 83.319504 -792.195129
31.891800 84.244698 -787.020325
33.625702 86.817200 -785.875305
30.899401 83.115402 -787.153503
29.866199 83.220398 -788.221497
28.841499 83.240601 -789.330322
28.120501 84.526199 -791.340576
27.888201 83.123901 -790.451782
26.849899 83.992897 -792.509521
32.124199 86.519699 -785.941772
31.293400 85.396896 -786.353577
33.263802 87.824600 -784.775513
30.276400 84.381599 -786.699219
26.580601 82.805702 -791.013489
25.378599 82.471298 -791.823608
29.058701 83.550598 -786.854980
27.972700 83.571404 -787.921814
27.119400 83.507103 -789.126587
31.714500 86.975304 -784.146484
30.761000 86.462898 -785.182373
29.860901 85.420403 -785.769714
25.723000 83.078102 -789.380615
24.767900 82.664101 -790.486816
31.863001 88.114197 -782.879578
28.389200 85.309799 -786.002625
27.446699 84.338699 -786.703430
26.517401 83.445602 -787.439270
21.992201 81.447304 -792.661377
21.072901 80.486801 -793.335388
30.483500 87.621902 -783.285706
29.506001 86.811897 -784.150879
24.275299 82.979797 -789.131287
23.338400 82.461899 -790.140930
19.720200 79.921097 -793.662720
28.149700 86.736198 -784.765015
27.060900 85.368301 -785.402527
26.074900 84.608597 -786.314514
25.153900 83.574203 -786.939514
21.318600 81.565002 -791.146301
20.408001 80.666000 -791.850586
29.950899 88.288200 -781.918579
28.974800 87.669296 -782.912415
23.802099 83.122002 -787.294128
22.849501 82.554497 -788.289185
19.061199 80.141602 -792.138123
27.607700 87.456100 -783.483215
26.706400 86.420197 -784.075317
25.657499 85.777100 -785.156799
24.650700 84.773399 -785.925293
21.469000 82.117500 -788.713928
20.546000 81.230797 -789.441895
19.583300 80.540703 -790.364685
29.390400 89.072403 -780.815125
28.403500 88.400200 -781.786072
23.476900 83.795197 -785.763672
22.408100 83.158699 -786.878784
18.577101 79.500702 -789.918396
27.080299 87.665802 -782.143188
25.268299 86.316299 -783.844116
21.086500 82.421204 -787.227173
19.329000 80.860100 -788.701721
17.401899 78.545403 -789.899719
25.790501 87.012299 -782.509216
23.935200 85.731903 -784.318970
22.001699 83.359596 -785.485474
19.789101 81.747299 -787.584473
16.449200 77.508904 -789.502380
26.701401 88.058296 -780.773987
22.670000 84.840302 -784.394714
20.759800 82.612602 -785.623718
18.487200 80.552399 -787.494324
17.635000 79.435799 -787.957581
15.301500 76.585403 -789.369873
25.388201 87.405502 -781.132385
24.408800 86.649498 -782.027527
23.458300 86.028702 -782.973877
19.511999 81.820801 -785.777527
16.555700 78.427101 -787.710815
14.022700 75.922798 -789.646179
21.704201 84.311897 -783.450928
20.733601 83.680099 -784.418091
18.295900 81.102402 -786.164429
15.572800 77.295502 -787.475830
14.695600 76.160004 -787.960876
26.037100 88.575401 -779.403198
19.662500 82.718300 -784.592896
17.170700 80.097099 -786.393616
24.243401 87.143402 -780.265930
23.021099 86.206100 -781.390320
16.184700 78.855103 -786.232300
13.933900 75.250702 -787.014221
21.791700 85.430000 -781.869995
20.370001 84.009102 -782.946716
18.617300 81.816597 -783.972290
14.900100 77.202301 -786.171997
24.587601 88.231300 -779.132385
17.483700 80.968201 -784.374329
16.552799 80.023003 -785.065674
15.538200 78.035599 -785.165710
19.225100 83.054497 -782.806702
16.522499 81.631599 -785.709412
14.070800 76.142799 -785.484070
13.322000 74.666603 -785.551575
25.091101 89.081596 -778.026978
23.014400 86.859802 -779.487183
22.107100 85.815498 -780.075073
20.784700 84.557899 -781.111816
17.989700 81.500000 -782.538879
19.577900 83.675301 -781.341675
16.448200 80.218399 -783.448730
15.645400 79.005203 -783.768616
14.235700 77.530098 -784.772888
23.310200 88.288902 -778.408813
18.492201 82.702499 -781.468872
21.344999 85.427399 -778.850830
14.497400 77.558098 -783.242126
20.242599 84.600502 -779.415894
17.332300 81.228104 -781.257507
23.642500 89.233902 -777.301025
22.079201 87.446800 -778.303223
19.119400 83.411400 -779.766174
16.249701 80.302399 -781.720886
15.399900 79.076103 -782.095703
12.977400 76.027901 -783.463074
20.509600 84.701202 -777.751099
18.008301 82.311996 -779.665527
22.269199 88.506203 -777.245300
17.120399 81.127403 -779.544373
16.206900 80.007103 -780.077820
18.931700 83.530502 -778.050781
15.181300 78.987000 -780.273193
17.956900 82.415100 -778.177185
15.784100 79.608002 -778.485596
18.455700 83.136299 -776.543213
16.916000 81.284500 -777.462585
12.915200 74.117996 -776.329712
17.279600 81.708702 -775.765320
14.839400 78.054901 -777.758789
14.464800 76.604202 -778.109375
13.674400 75.297897 -778.392029
13.451500 77.689598 -780.361694
15.022500 77.988403 -779.231201
14.175200 76.577797 -779.533630
13.549200 75.197701 -779.945374
13.019000 73.697098 -779.903381
12.160600 70.878197 -780.406311
14.007300 76.253304 -781.091614
13.207300 74.833099 -781.347778
14.732400 77.987602 -781.304688
12.741300 73.282402 -781.508911
13.105700 74.601898 -783.116882
12.489000 71.411201 -782.538513
12.984600 73.260399 -784.748718
14.927600 79.622498 -786.486328
13.968100 74.944504 -788.515686
17.414400 80.774498 -788.506775
22.148800 82.740402 -790.955872
11.810300 65.283997 -779.037170
12.106400 66.572304 -778.386414
11.435300 66.641800 -779.874878
12.469900 67.858101 -777.727783
12.134500 67.875397 -779.453674
12.747000 69.262398 -777.350220
11.914700 67.964798 -781.078430
12.425900 69.284897 -779.116516
13.260300 70.625603 -776.927124
12.579200 70.534599 -778.387878
12.214500 69.320000 -780.621094
13.280700 72.074997 -777.054382
12.064400 69.349297 -782.197021
12.712600 71.731796 -779.354614
13.164400 72.775101 -778.375610
11.775700 70.290703 -783.474915
13.613800 73.995201 -777.674072
12.351700 71.483704 -784.360291
12.719500 72.671997 -783.405029
18.571699 82.134102 -788.956970
22.190300 84.412598 -787.693726
23.281500 82.018799 -791.742371
25.608900 85.699799 -787.546570
24.215200 82.477600 -793.021729
28.703100 85.285599 -787.762573
25.591999 82.874496 -793.296021
30.614000 84.639900 -790.065918
27.154400 84.352303 -794.136475
30.723900 86.666496 -787.622986
30.095600 81.196198 -786.875671
32.033501 81.893799 -787.012329
28.792801 90.234901 -781.693604
11.453200 72.918297 -782.674011
22.871099 83.177696 -792.962524
26.743299 84.889702 -789.880615
20.572300 83.429703 -788.412781
27.961901 88.953598 -780.480713
14.235200 75.258698 -777.021912
19.464100 84.228600 -776.835999
25.229000 89.992302 -779.833130
23.955299 84.453201 -789.928894
25.810699 84.298103 -788.564209
27.475500 88.009102 -785.657776
25.999599 86.787804 -786.559326
26.667801 86.127998 -781.568909
26.484301 88.494698 -783.540222
62.480000 65.829803 -796.329773
61.782101 65.900200 -797.683472
62.047600 67.219704 -796.251587
61.291199 67.270599 -797.678284
60.479401 67.139503 -798.877014
61.748402 68.577797 -795.762573
61.024101 68.609200 -797.096130
60.298302 68.637497 -798.426514
61.155300 69.897003 -795.895081
60.457100 69.955597 -797.234985
60.747299 71.318100 -795.300171
59.864700 72.280800 -796.000977
58.896900 72.849297 -796.962585
59.823601 73.583504 -795.028320
58.881599 74.128799 -796.065674
58.001900 74.335800 -797.239685
58.787899 75.070000 -794.916687
57.968399 75.437798 -796.078674
57.951401 76.528198 -794.622986
56.972801 76.502502 -796.271973
57.070801 77.678101 -794.807800
57.474300 80.037498 -793.066711
56.290699 79.531303 -794.184875
56.580399 81.190002 -793.307617
55.372700 80.985603 -794.146118
54.458599 82.093002 -793.719299
52.226799 85.759499 -791.955872
50.905201 86.233299 -792.506897
51.791100 87.306503 -791.678223
46.246498 88.268898 -790.526611
44.832901 88.134003 -790.915527
43.429001 87.631798 -790.741516
53.598000 81.628601 -794.891418
53.449001 80.588097 -795.897095
54.674198 80.140099 -795.214783
53.581299 79.683098 -797.023987
55.555099 78.938904 -795.387085
54.866901 78.629997 -796.626282
53.851700 78.537003 -797.925293
56.118000 77.692802 -796.355103
55.117199 77.549599 -797.565430
54.477600 77.002800 -798.844727
56.332901 76.380600 -797.640320
55.558498 75.912102 -798.777283
54.641998 75.827103 -799.942993
54.228699 75.054100 -801.108521
56.992100 75.057404 -798.112610
56.287498 74.589798 -799.313599
53.773701 74.125702 -802.193787
55.540699 74.152000 -800.570374
57.501598 73.551498 -798.437805
54.945900 73.326302 -801.685486
56.836300 73.292702 -799.748901
54.148899 72.835297 -802.866577
56.406898 72.456802 -800.863403
58.560200 72.093002 -798.180908
57.683899 72.086197 -799.383118
55.620701 71.924004 -802.023010
59.695499 71.422699 -797.167786
57.556400 71.162903 -800.518616
59.206100 70.791702 -798.453918
56.918499 71.061897 -801.959106
58.407101 70.347801 -799.650391
59.364201 68.941803 -799.574829
58.089901 69.498596 -800.878723
52.636398 73.927696 -803.137329
52.916401 75.635902 -801.433716
51.990200 75.193901 -802.589478
53.435101 77.074501 -799.917725
52.192101 76.972900 -800.760315
51.263901 76.528397 -801.908691
49.506599 75.782402 -804.196289
48.607101 75.336899 -805.291626
52.847301 78.182404 -798.928284
49.950699 76.793999 -802.506226
50.934200 77.658501 -801.020325
51.626499 78.318298 -799.809998
48.670101 76.799797 -803.346191
47.766300 76.278397 -804.359924
52.550400 79.439903 -798.015320
49.534698 77.852097 -801.549072
51.272499 79.266197 -798.769287
50.294601 78.903702 -800.075073
48.295601 77.768204 -802.310486
47.233200 77.257599 -803.169922
52.369400 80.582199 -796.975830
48.935501 79.075302 -800.710571
51.154301 80.455597 -797.850708
50.030399 80.034500 -798.826477
52.338501 81.532204 -795.820007
47.559700 78.934601 -801.243225
46.635601 78.382896 -802.240112
45.647999 77.769501 -803.280212
48.820000 80.187103 -799.653503
51.075699 81.584297 -796.629089
53.118401 82.704498 -793.701782
49.891399 81.125397 -797.521606
52.010300 82.604401 -794.712219
47.420898 80.272903 -800.049194
45.222698 78.832298 -802.280273
48.507099 80.999298 -798.090881
46.200901 79.844704 -800.789124
50.764000 82.890800 -795.402222
49.834702 82.369301 -796.434509
52.199799 83.682701 -793.104492
47.262501 81.174400 -798.857483
43.860100 79.257896 -802.636292
51.140900 83.670097 -794.212219
48.542599 82.216904 -797.113220
44.753201 79.908401 -801.158020
45.934101 80.916000 -799.448120
49.831100 83.885201 -794.897522
47.162601 81.835197 -797.347229
50.839001 84.818901 -793.096375
48.616798 83.714302 -795.731873
44.538200 81.003899 -799.903320
43.344002 80.301201 -801.213379
42.486698 80.011398 -802.363281
47.418900 83.286400 -796.542297
45.757099 81.746902 -797.820618
49.496201 84.808403 -793.795898
45.961700 82.820198 -796.812622
44.439499 81.958397 -798.505371
43.056198 81.114799 -799.988525
48.108501 84.772797 -794.317627
47.185902 84.250298 -795.340820
41.890301 80.933998 -800.926208
49.437500 86.215698 -792.729675
44.636902 82.190498 -796.863525
50.339001 87.383698 -791.510925
45.810200 84.072701 -795.847717
42.946602 82.050903 -798.654724
48.005402 85.794998 -792.976624
41.702400 81.676003 -799.442688
46.809399 85.500000 -793.748779
44.412899 83.667297 -795.969482
43.243099 82.591202 -796.890625
40.554901 81.589203 -800.328003
45.616501 85.122902 -794.509277
41.914101 82.682198 -797.596619
43.081001 83.073601 -795.521973
39.405899 82.354301 -800.789673
46.676201 86.339600 -792.217224
44.212601 84.881302 -794.872803
40.667099 82.446602 -798.396423
45.405499 86.012604 -792.939575
41.698299 82.868500 -796.090698
39.558201 82.665001 -799.331787
38.437599 83.428497 -801.191528
44.146198 85.516296 -793.550598
42.780102 84.545197 -794.875977
40.491699 82.726700 -796.927612
39.404301 83.033897 -797.910217
45.182201 87.140999 -791.930786
41.576401 83.700798 -794.686890
38.378899 83.518402 -799.553589
40.477402 82.825996 -795.275208
42.673100 85.231102 -793.535217
43.969898 86.480003 -792.377625
39.424599 83.477097 -796.130615
41.265099 84.777298 -793.726318
38.051201 83.557503 -797.748230
42.518902 86.249397 -792.323303
40.227100 83.695297 -793.823303
45.316399 89.005501 -789.380676
39.031399 83.288902 -794.552307
41.070702 85.740700 -792.559326
38.109200 83.878098 -795.669373
43.911400 88.490700 -789.520508
39.916000 84.902397 -792.841980
39.034801 83.400902 -792.999817
36.916302 83.598999 -796.460876
41.728001 87.131203 -790.708130
40.006001 86.042702 -791.027222
38.502399 84.712700 -792.298828
37.589699 83.432701 -792.687988
36.986801 83.845901 -793.964172
36.255501 83.981003 -795.215820
38.961800 86.866997 -791.666626
39.277302 88.351898 -790.828186
37.568001 86.729599 -792.179688
36.918400 85.343399 -792.069519
36.259701 83.778702 -791.828613
35.405399 83.690300 -793.089722
37.981701 88.346901 -791.515015
35.658600 85.038696 -791.259583
36.577000 86.494003 -790.919006
36.422699 82.290802 -791.757507
37.879200 82.393997 -791.268127
39.459999 81.368797 -791.637512
38.835701 82.811203 -790.119080
37.949100 83.870300 -791.216797
41.371601 82.696198 -791.632385
35.703701 81.456596 -800.515076
44.997398 82.002197 -793.942871
54.035400 75.302498 -798.537415
38.998299 84.641197 -798.255798
38.475201 89.672600 -791.859375
38.540199 84.971901 -799.721497
57.379902 82.449799 -793.367615
46.274700 86.710197 -795.666504
49.372299 87.816200 -793.013489
49.042099 86.362900 -794.173279
55.920799 82.480301 -793.484985
41.028198 83.555397 -799.442505
43.905499 85.383202 -790.978821
41.237099 82.648598 -793.475281
36.988899 84.654503 -797.793518
36.982101 83.380302 -800.601074
45.772202 83.246902 -794.515076
43.187302 83.554001 -792.734070
41.479301 87.061798 -793.244080
41.822201 86.115097 -794.582886
53.915001 79.843597 -793.332825
57.058201 74.484100 -800.585571
48.398899 86.571899 -791.608215
54.139801 76.632797 -801.160217
56.412800 73.239998 -802.132629
52.928001 78.290001 -800.698975
51.728001 76.177696 -803.663879
58.871101 70.734497 -800.971497
58.588001 75.970001 -797.335327
38.765598 85.614197 -796.202576
42.938202 89.038101 -791.500671
46.242199 80.349800 -798.098389
42.487301 87.752502 -792.462585
44.333302 86.448402 -795.093506
36.242199 87.438599 -792.351929
54.435699 84.143799 -793.433716
37.011398 88.646004 -792.615112
52.864399 90.489098 -761.388306
52.424000 91.003403 -762.702515
51.050900 90.822998 -763.176819
50.046398 90.614601 -764.289978
53.996899 91.704102 -759.287720
52.625801 91.234497 -759.826782
51.521999 90.684502 -760.612427
48.607498 90.769302 -764.737671
50.536201 90.866699 -761.739624
49.601002 91.010597 -762.907104
47.429298 90.795700 -765.588501
48.206100 91.463600 -762.965820
47.273998 91.382202 -764.118103
49.070499 91.672600 -761.403687
46.761299 91.439796 -762.698120
47.625599 91.694702 -761.076111
45.340302 91.593697 -763.031128
47.963699 92.291100 -759.481689
46.165501 91.821404 -761.231384
50.237000 94.219002 -757.892090
49.076500 93.660004 -758.698608
44.772800 91.537804 -761.628723
43.871700 91.730202 -763.028992
46.501999 92.495697 -759.803772
47.649399 93.397202 -758.419189
45.078701 92.118698 -760.131470
42.681999 91.369499 -762.263184
49.116501 95.047302 -757.486511
43.719101 92.120796 -760.788391
43.237301 92.732803 -762.133972
46.196701 93.160698 -758.474670
41.191502 91.470200 -762.330017
44.793301 92.759102 -758.777222
42.257599 91.974098 -761.014221
46.842701 93.963898 -757.081970
43.382702 92.644203 -759.338989
40.770802 91.588501 -760.928101
45.415501 93.947098 -757.445984
39.424000 91.193199 -761.617981
41.878601 92.432297 -759.335022
43.931198 93.749100 -757.432495
42.789501 93.074997 -758.049927
40.363701 92.461098 -759.223511
39.224098 91.727203 -759.767273
38.115601 91.349899 -760.689819
41.312698 93.259903 -757.881775
37.835800 91.556602 -759.203186
36.727699 91.189102 -760.133728
39.307598 92.573402 -757.898010
41.881500 94.662903 -757.715088
50.159100 91.124603 -760.327026
54.828602 90.277901 -760.916199
53.082500 90.892799 -764.005310
53.523701 93.355904 -758.605225
52.346699 92.516602 -758.997070
51.035198 92.347702 -759.656677
51.733002 94.054901 -757.974426
35.287899 90.725304 -759.972717
36.332901 91.479103 -758.547485
49.454102 92.535301 -759.564270
54.106602 90.128899 -762.226379
38.475601 89.766403 -758.966797
43.142101 90.523300 -758.837830
46.535099 88.910599 -759.646484
45.477100 90.247299 -759.805725
47.703400 88.831100 -760.931580
45.783401 91.756104 -758.379700
46.910301 90.686996 -759.957825
41.660000 92.969200 -762.339417
44.683701 92.874199 -763.642517
47.140499 92.707703 -762.047913
42.569500 92.233498 -763.516479
56.150600 91.055099 -760.876892
37.620998 93.008499 -758.090576
46.054401 91.334099 -765.034180
49.405399 91.886703 -765.420715
44.373299 94.761497 -756.476990
50.287800 92.582298 -761.190491
53.577999 92.224899 -763.435425
52.172901 93.273598 -761.107117
53.435398 93.119598 -760.047913
52.241402 93.894501 -759.651428
50.836102 93.762100 -759.140625
53.874401 91.796700 -761.988770
45.674900 95.254997 -758.114502
49.385799 93.249802 -762.670898
48.466999 95.315598 -758.987976
55.778500 93.093002 -760.046082
50.986599 88.999199 -759.895874
49.397900 89.954399 -761.463074
68.531303 79.596199 -775.319092
68.292702 80.761398 -774.252625
67.240700 80.253098 -775.138672
65.730499 80.507599 -774.872375
67.653397 81.634201 -773.082825
66.490097 81.255402 -773.882874
64.991699 81.290901 -773.758179
66.388603 82.349403 -772.799011
64.917099 82.236603 -772.567200
63.510700 81.511902 -773.668823
63.428001 82.357101 -772.451477
64.198601 83.199402 -771.481323
62.230701 82.494797 -773.555298
62.748199 83.209503 -771.271423
61.701401 82.705002 -772.151184
55.932400 87.299301 -767.265076
55.371899 87.774399 -765.531982
57.735901 85.273804 -769.075378
58.183201 85.078201 -771.017517
58.234798 84.072601 -772.277283
66.800499 83.246696 -771.633972
62.672501 80.134102 -773.569519
64.329102 84.493103 -770.238220
63.956699 85.352097 -769.100281
62.867001 84.315300 -769.927429
61.352600 83.528297 -770.978210
59.981300 83.403503 -771.492676
58.798599 82.938103 -772.982727
61.392799 84.524300 -769.343018
60.018398 84.985603 -769.229126
60.530701 85.649902 -767.543518
59.165901 85.664597 -768.055786
60.602402 86.701500 -766.462219
59.278500 86.147697 -766.057922
60.611801 88.404800 -764.992371
58.164700 86.197502 -767.021118
59.475700 87.426201 -765.206726
57.040100 86.245399 -768.049377
56.007099 86.484596 -769.051086
58.309299 86.756104 -764.550171
57.440102 86.561600 -765.748230
57.816799 88.440002 -763.497192
57.057800 86.972099 -763.492920
55.837002 87.794800 -763.297913
61.560200 87.583000 -765.767273
62.232601 87.308601 -767.040588
61.903702 86.136497 -767.989990
65.826698 84.222099 -770.573730
59.300400 88.534698 -763.454712
61.803299 88.174698 -764.177002
63.353298 88.168900 -766.470520
57.394299 87.957603 -766.138123
61.885502 89.422897 -764.995728
63.552101 88.655098 -765.076111
55.639301 88.737602 -764.477417
57.736801 89.581100 -762.597900
66.185997 86.520302 -769.374023
64.643402 87.267799 -768.660889
61.546501 89.038902 -766.420471
60.193802 89.661102 -764.206299
56.299099 88.563797 -768.166382
63.484402 86.441498 -768.231628
