-6.380600 66.792000 -790.455017
-6.797500 65.502296 -792.151428
-1.597400 82.036499 -769.812500
-3.606800 75.826897 -778.094299
-4.686400 73.016602 -783.017273
-5.500500 70.353600 -786.239929
-2.148300 81.381599 -770.602173
-2.359600 80.561996 -771.331482
-2.580700 79.797203 -772.177917
-2.797600 79.086998 -773.045105
-3.594700 76.927399 -776.638184
-5.219900 72.331299 -783.789673
-5.422900 71.722000 -784.651184
-6.023700 69.489998 -786.812927
-6.332300 68.456596 -788.025696
-6.538600 67.858803 -788.920898
-7.489900 64.795898 -792.769714
-1.984500 83.342499 -768.403015
-3.367600 78.749802 -773.915771
-3.570300 78.195198 -774.831421
-4.457000 75.688599 -778.764587
-4.652300 75.243202 -779.727722
-4.861200 74.666901 -780.667725
-5.070000 73.964798 -781.491699
-5.987800 70.984100 -785.210815
-7.112400 67.299301 -789.737915
-7.381700 66.520699 -790.916809
-2.550000 82.834503 -769.213379
-4.131400 77.730301 -775.691711
-4.499500 76.600304 -777.252625
-5.617900 73.483101 -782.286072
-6.549700 70.241699 -785.888489
-6.906500 69.113998 -787.372620
-7.942000 65.802696 -791.643127
-8.361500 64.335297 -793.257324
-3.023300 82.121002 -769.986511
-3.243800 81.312302 -770.809387
-3.460800 80.551300 -771.652283
-3.668100 79.761497 -772.399414
-6.062600 72.861900 -783.074097
-6.296700 72.053596 -783.994324
-7.378900 68.473099 -788.393677
-8.785900 63.605099 -793.917114
-8.463600 64.996002 -792.362183
-4.756800 77.254799 -776.425415
-5.120800 76.249397 -778.118713
-2.958600 83.913399 -767.888184
-4.271300 79.406898 -773.212585
-4.467300 78.866302 -774.128479
-5.552700 75.720497 -779.061218
-5.751100 75.196503 -780.009521
-5.967900 74.492798 -780.926392
-6.883800 71.298500 -784.595520
-7.346800 69.846901 -786.599792
-7.956600 67.831001 -789.143616
-8.167400 67.146698 -790.034912
-3.422000 83.364998 -768.726379
-4.925200 78.396400 -775.022583
-8.646300 66.392403 -790.878723
-9.571300 63.148201 -794.581482
-3.859100 82.712303 -769.545471
-4.059700 81.923500 -770.274109
-4.273100 81.149696 -771.108826
-4.486000 80.392601 -771.954895
-5.610800 77.104698 -777.076477
-6.632700 73.991203 -781.614624
-6.837900 73.276299 -782.443909
-7.053100 72.472099 -783.263184
-7.557200 70.832497 -785.407410
-8.015900 69.286400 -787.308716
-9.085400 65.549698 -791.620483
-9.372100 64.568497 -792.795593
-5.567200 77.992104 -775.778870
-8.433200 68.733002 -788.135803
-9.803500 63.864498 -793.640076
-10.197000 62.558899 -795.305420
-3.905800 84.076202 -767.328796
-5.153000 80.034698 -772.760315
-5.350900 79.430496 -773.655884
-6.265900 76.748001 -777.900513
-6.594000 75.782097 -779.419128
-6.796000 75.050400 -780.228210
-7.703700 71.883003 -783.973389
-8.193800 70.335197 -786.145020
-8.991700 67.567101 -789.452026
-9.250500 67.664803 -791.439392
-4.334500 83.847397 -768.296082
-5.800600 78.886497 -774.565125
-9.411900 66.926903 -790.244629
-4.842700 83.249397 -769.033630
-5.050600 82.464798 -769.853516
-5.259500 81.679398 -770.680176
-5.469200 80.895500 -771.514587
-6.498700 77.762299 -776.270508
-7.521800 74.617897 -780.968628
-7.726100 73.855904 -781.782715
-7.938200 73.023903 -782.590271
-8.427900 71.394302 -784.723389
-8.903700 69.818199 -786.803528
-9.342600 68.258904 -788.624512
-9.901800 66.234200 -790.909180
-10.149300 65.295502 -791.880615
-10.692700 63.258701 -794.036926
-11.076000 62.114201 -795.828125
-6.196200 79.924301 -773.102295
-6.639100 78.573700 -775.154724
-7.062600 77.329803 -777.160889
-7.299500 76.589203 -778.241882
-8.501300 72.476303 -783.395325
-8.984100 70.789703 -785.433777
-9.468500 69.136299 -787.514587
-10.716200 64.613197 -792.629578
-11.258700 62.593601 -794.804626
-5.201300 84.515404 -767.273315
-5.407000 83.877602 -768.219910
-6.338800 80.609497 -772.154419
-6.726900 79.413300 -773.946777
-7.832700 76.065002 -779.109314
-8.030000 75.348000 -779.919312
-10.191900 67.706596 -788.994629
-11.248600 63.779800 -793.252075
-11.936300 61.562901 -796.337524
-5.916600 83.185898 -769.055115
-6.121300 82.422997 -769.882202
-6.328000 81.499001 -770.575684
-7.434800 78.241302 -775.856079
-8.591800 74.405403 -780.976074
-8.794000 73.651199 -781.793396
-9.292800 72.005699 -784.008728
-9.767400 70.391098 -786.070374
-10.261400 68.505302 -788.026184
-10.671400 67.096603 -789.794373
-10.956400 66.023201 -790.936279
-11.178800 65.053001 -791.704712
-7.508000 79.005997 -774.662415
-8.109800 77.166100 -777.485291
-9.289100 73.140800 -782.627014
-9.803500 71.338402 -784.826782
-10.275700 69.622101 -786.787903
-11.988700 63.104500 -793.632874
-12.283500 62.240101 -795.050293
-12.686400 61.021900 -796.952698
-6.234600 84.477303 -767.645386
-7.112100 81.252197 -771.284485
-7.372300 80.442299 -772.500122
-7.561000 79.881302 -773.405701
-8.224200 77.865997 -776.549500
-8.608400 76.597702 -778.276428
-9.042700 75.100998 -780.169922
-11.937300 64.431099 -792.143372
-6.716400 83.693398 -768.313599
-6.947400 82.876701 -769.311279
-7.145800 82.014603 -770.017700
-9.084200 75.988602 -779.156006
-10.041100 72.639999 -783.318909
-11.017200 69.039001 -787.391724
-11.255100 68.103401 -788.330627
-11.641200 66.630898 -789.896912
-11.932900 65.464798 -791.030090
-13.007100 61.714802 -795.711487
-8.463000 78.766502 -775.122070
-9.723600 74.517197 -780.809082
-9.926200 73.853500 -781.740906
-10.466300 71.951302 -784.101013
-10.749100 70.893997 -785.280029
-10.950200 70.159103 -786.133972
-11.668200 67.390503 -789.047974
-12.602500 63.676102 -792.736084
-12.900700 62.604401 -794.019775
-13.604100 60.557800 -797.495728
-8.438500 79.501404 -773.975525
-9.086700 77.561302 -777.148376
-7.951600 81.654404 -770.705811
-8.137400 81.071404 -771.596680
-8.393400 80.258400 -772.814087
-9.038200 78.296799 -775.961914
-10.487800 73.309601 -782.503418
-12.673200 64.825104 -791.473083
-13.759900 61.097301 -796.387024
-7.362200 84.559402 -767.218323
-7.689800 83.401703 -768.677979
-9.653000 76.997101 -777.915710
-10.024700 75.654999 -779.546204
-11.682300 69.501602 -786.659973
-12.548300 66.094101 -790.199524
-13.610200 62.112301 -794.720825
-8.131300 82.545898 -769.344482
-11.118400 72.541397 -783.247070
-11.407400 71.491997 -784.517700
-12.119400 68.731499 -787.487183
-12.312400 67.940598 -788.252930
-12.582100 66.905502 -789.387024
-13.508600 63.261398 -793.203918
-14.493300 60.136398 -797.945129
-9.427400 79.247398 -774.379517
-10.315600 76.479599 -778.722778
-10.677100 75.098999 -780.258484
-10.864800 74.413002 -781.084412
-11.832000 70.806702 -785.273315
-13.485600 64.171600 -792.005798
-14.248000 61.584599 -795.541199
-8.134500 84.008797 -767.856323
-9.063400 80.794403 -772.093628
-9.314800 80.017998 -773.324524
-9.957700 78.037598 -776.476624
-13.284400 65.420502 -790.659607
-14.644500 60.717201 -796.866882
-9.780000 78.791100 -775.323181
-14.099000 62.647999 -793.931580
-8.831700 82.046997 -770.013428
-9.025400 81.508202 -771.009399
-11.350800 73.791603 -781.880676
-12.326800 70.001701 -785.965881
-10.478200 77.417999 -777.266907
-8.798800 83.315399 -768.341309
-11.095800 75.891502 -779.277283
-11.857600 73.023201 -782.560486
-12.086700 72.186600 -783.569885
-12.818100 69.267899 -786.582886
-13.270500 67.496101 -788.474976
-13.545500 66.392303 -789.602112
-14.706400 62.099300 -794.671814
-15.443900 60.051899 -798.466919
-9.220400 82.566704 -769.135620
-11.047600 76.870201 -778.012695
-12.499900 71.527199 -784.385071
-13.232100 68.478798 -787.300598
-14.146400 64.920898 -791.150208
-14.439200 63.813900 -792.410217
-15.206000 61.201302 -795.949219
-9.973200 81.233498 -771.458191
-10.168300 80.677200 -772.455078
-10.394100 79.895203 -773.492920
-10.576500 79.355103 -774.408203
-10.810900 78.650002 -775.574829
-11.768000 75.395599 -780.025024
-11.951400 74.743896 -780.854370
-12.950100 70.828796 -785.064819
-14.202700 65.722000 -790.181885
-14.884900 63.164101 -793.155029
-15.703200 60.581799 -797.127380
-10.010400 82.160202 -769.835022
-11.331300 78.207001 -776.456970
-11.818600 76.598900 -778.775879
-12.472400 74.290298 -781.760315
-13.472200 70.214500 -785.870117
-14.219300 67.007500 -788.805786
-15.402800 62.466301 -793.907104
-15.639400 61.828400 -795.151794
-10.560200 81.677399 -770.669312
-11.875200 77.808502 -777.339600
-13.026600 73.622299 -782.516479
-13.227900 72.772499 -783.322876
-13.418600 72.057899 -784.162781
-14.030100 69.524803 -786.654480
-14.272000 68.424004 -787.557922
-14.758900 66.388199 -789.525818
-15.187500 64.615402 -791.273926
-16.255699 60.996799 -796.296875
-16.544399 60.259499 -797.854614
-16.726999 59.784401 -798.832214
-11.134900 81.148102 -771.500000
-11.328300 80.602203 -772.501282
-11.515300 80.149803 -773.531372
-11.703100 79.691498 -774.562927
-11.885600 79.141602 -775.478516
-12.451700 77.299500 -778.206116
-12.713800 76.428101 -779.453674
-12.899700 75.718597 -780.263306
-13.095000 74.906197 -781.057312
-13.981700 71.451599 -784.857727
-14.846300 67.570000 -788.138672
-15.332300 65.710999 -790.250183
-15.764400 64.060097 -792.129272
-15.952100 63.339699 -792.943176
-12.482000 78.732002 -776.321106
-13.692300 74.342300 -781.798828
-14.587400 70.653702 -785.484070
-15.434700 66.989899 -788.829773
-16.549700 62.678299 -793.655029
-16.750601 61.974701 -794.584900
-16.939501 61.407001 -795.537170
-17.181400 60.718899 -796.788574
-17.660400 59.662300 -799.520325
-11.949000 81.851097 -771.102112
-12.134200 81.394699 -772.124512
-12.316900 80.806503 -773.018188
-12.507500 80.289703 -774.031372
-12.697300 79.790398 -775.052917
-13.136800 78.365700 -777.195496
-13.444700 77.361397 -778.690979
-13.711800 76.411003 -779.922729
-13.899900 75.665100 -780.726013
-14.334100 73.812897 -782.473572
-14.520800 73.119102 -783.309570
-14.714400 72.352699 -784.137878
-15.232100 70.093597 -786.178284
-15.430200 69.165100 -786.906372
-15.627500 68.259201 -787.646423
-16.078699 66.441200 -789.550476
-16.342600 65.424004 -790.702087
-16.540600 64.708397 -791.606079
-17.809000 60.339802 -797.575378
-13.408100 79.525101 -775.830872
-14.619500 75.273499 -781.499878
-15.428400 71.725800 -784.691772
-15.609100 70.970497 -785.436401
-16.335800 67.557503 -788.115417
-17.251600 64.272202 -792.341614
-17.430300 63.485802 -793.045105
-17.611601 62.825100 -793.872925
-17.810301 62.129501 -794.804016
-18.004101 61.494400 -795.748718
-18.513800 60.101398 -798.465088
-13.184500 81.971603 -771.529907
-13.349000 81.777702 -772.626526
-13.531300 81.175102 -773.515686
-13.712500 80.595001 -774.415710
-14.145000 79.201599 -776.555725
-14.328400 78.619797 -777.470886
-14.516500 77.986603 -778.378723
-14.710500 77.287399 -779.276672
-14.900700 76.646599 -780.194214
-15.370200 74.772102 -782.213013
-15.552000 73.807098 -782.793274
-15.726900 72.936302 -783.400085
-16.349199 70.303703 -785.950928
-16.538000 69.467201 -786.693115
-16.720800 68.710503 -787.456299
-17.071301 67.100502 -788.786316
-17.256001 66.351196 -789.570007
-17.444099 65.718201 -790.478516
-17.634600 65.068001 -791.390320
-18.735399 61.081299 -796.466797
-18.916599 60.585201 -797.437195
-14.453700 80.340599 -775.207214
-15.636900 76.279297 -780.885986
-16.474300 72.287399 -783.959229
-16.668400 71.505997 -784.792908
-17.473600 68.010399 -788.037781
-18.378901 64.611603 -792.137024
-18.573000 63.787300 -792.934692
-18.767599 63.109901 -793.860718
-18.962900 62.433701 -794.793274
-19.145901 61.756199 -795.629883
-14.459300 82.223701 -772.238586
-14.638400 81.810699 -773.274475
-14.821600 81.181999 -774.158813
-15.174600 80.124199 -775.994019
-15.360100 79.489502 -776.891113
-15.551000 78.793900 -777.778687
-15.742100 78.107101 -778.674622
-15.935600 77.400497 -779.572083
-16.362000 75.840599 -781.548584
-16.549999 75.080101 -782.358215
-16.735500 74.209801 -783.054626
-16.914101 73.433098 -783.777100
-17.394600 70.914200 -785.356079
-17.589001 69.991798 -786.077820
-17.774799 69.328499 -786.952820
-18.209499 67.462303 -788.732178
-18.390100 66.597000 -789.395386
-18.577101 66.105301 -790.425598
-18.773899 65.367401 -791.322876
-19.868299 61.357800 -796.390076
-15.515300 81.013802 -774.975220
-16.638700 77.093300 -780.374573
-17.633801 72.628799 -784.308777
-18.476200 68.604202 -787.429382
-19.474199 64.804901 -791.955872
-19.663700 64.157402 -792.878418
-19.851999 63.531200 -793.809814
-20.041500 62.758999 -794.626221
-20.236700 62.076500 -795.562988
-15.670200 82.394402 -772.992126
-15.842900 81.914001 -773.933594
-16.219200 80.659698 -775.807617
-16.396900 80.102097 -776.721985
-16.582300 79.452103 -777.617920
-16.768900 78.795898 -778.517822
-16.954201 78.166100 -779.429688
-17.336901 76.782097 -781.242126
-17.534401 76.029503 -782.144714
-17.722200 74.956902 -782.695190
-17.901800 73.995399 -783.277222
-18.328800 71.902199 -784.826111
-18.524200 70.941597 -785.532898
-18.702000 70.197403 -786.288025
-19.163799 68.252899 -788.238770
-19.343201 67.379898 -788.894775
-19.533300 66.683296 -789.787720
-19.718100 65.912399 -790.574524
-16.525400 81.648598 -774.715027
-17.628599 77.986702 -780.251221
-18.606300 73.307503 -783.916870
-19.392099 69.690903 -786.987427
-20.408199 65.555603 -791.426270
-20.599100 64.868500 -792.338196
-20.788900 64.201797 -793.259277
-20.987400 63.286999 -794.033875
-17.160101 81.248398 -775.530701
-17.337200 80.680603 -776.439819
-17.519600 80.053703 -777.338379
-17.707500 79.363197 -778.226685
-17.882900 78.841301 -779.161377
-18.251801 77.742996 -781.127014
-18.431400 77.188004 -782.066895
-18.608900 76.666496 -783.018494
-19.231400 73.057701 -784.815186
-19.405001 71.893600 -785.179199
-19.603701 70.887199 -785.878723
-20.040199 69.045799 -787.735413
-20.221001 68.427002 -788.629211
-20.402300 67.524002 -789.280579
-20.585899 66.891403 -790.184326
-17.195400 82.182999 -774.064819
-18.516199 78.556503 -780.044983
-19.228001 76.560501 -783.952820
-20.112600 71.582901 -786.688599
-19.202499 77.621399 -782.692017
-19.792400 73.442101 -783.851501
-17.961100 82.034599 -774.883789
-18.171499 81.318901 -775.942200
-18.347200 80.754204 -776.853821
-18.523500 80.189903 -777.769775
-18.712999 79.453697 -778.647705
-19.204000 78.168701 -781.435608
-20.238899 72.574501 -784.930725
-20.415701 71.629501 -785.536621
-21.054800 66.261002 -790.924683
-19.473000 79.390297 -779.430298
-19.645300 78.896301 -780.374695
-21.147400 71.294098 -786.433594
-19.222200 81.547096 -776.111023
-19.408600 80.998199 -777.122925
-19.581100 80.474899 -778.048889
-21.265100 72.652901 -785.320618
-15.099300 72.863403 -785.048828
-19.569300 59.978401 -798.323975
-20.184601 60.811901 -797.294312
-20.380301 70.212997 -786.371277
-21.950800 71.995300 -785.995911
-19.051800 73.975502 -783.170105
-9.843100 82.956398 -768.243896
-20.761200 73.401497 -784.321411
-18.740700 59.680401 -799.465515
-2.369400 77.580803 -777.549683
-3.166000 78.360100 -776.512512
0.922100 78.017197 -774.997375
-15.511600 61.362301 -798.462891
-16.427900 61.833801 -797.246521
-17.967699 65.233902 -793.608276
-18.670799 65.588799 -792.555298
-12.476000 63.303902 -794.845276
-18.776600 67.372704 -791.106506
-17.919500 66.959801 -790.316895
-18.377701 68.563301 -789.189819
-9.638500 64.545799 -794.969116
-13.220700 62.068100 -797.226501
-18.123400 60.907501 -799.467712
5.486100 86.413200 -746.572815
5.290500 86.218597 -747.652222
5.070200 85.825500 -748.715088
4.858700 85.392197 -749.687073
4.325900 85.227203 -750.695618
4.997600 86.613602 -745.480713
3.826700 85.007004 -751.646790
4.458200 85.878304 -746.986389
4.250500 85.562103 -748.059570
3.423000 84.703796 -752.688782
3.915300 85.364197 -749.137695
4.058800 86.054001 -745.632019
3.270500 85.061699 -749.960510
2.670300 84.611000 -753.526917
3.575300 85.441200 -746.411926
3.374200 85.151100 -747.491272
2.799100 84.766098 -750.971191
2.948400 84.926804 -748.505920
2.387200 84.631798 -751.997375
1.771900 84.460800 -754.141418
2.827100 85.020302 -745.448486
2.628400 84.959099 -746.742493
2.219600 84.735100 -749.317627
1.665000 84.432800 -752.812927
2.203400 84.658302 -747.719299
1.811400 84.552803 -750.308777
2.652800 85.373596 -743.485718
1.384900 84.411797 -751.369873
0.880600 84.349297 -754.793274
2.622900 85.830002 -741.426392
2.119400 85.268303 -744.421875
1.837800 84.786400 -745.945496
1.427500 84.473900 -748.517517
0.706500 84.244301 -753.327026
2.679500 86.590897 -738.664185
2.501700 86.402702 -739.739807
2.029100 85.601196 -742.322571
1.243000 84.517601 -746.846313
0.850700 84.341202 -749.435974
0.687500 84.306999 -750.549011
0.481200 84.243401 -751.937622
1.442600 85.197098 -743.212524
1.180800 84.866798 -744.756592
-0.222700 84.029999 -753.891113
-0.396900 83.966797 -755.061829
2.168700 86.762901 -737.343323
1.652000 85.821297 -740.150391
1.457000 85.478401 -741.221313
0.710000 84.550697 -745.678894
0.418000 84.408302 -747.623718
-0.330100 84.060204 -752.622375
-0.237000 84.128098 -751.116272
1.659400 86.223000 -738.569519
1.021200 85.126297 -742.147278
0.006400 84.307800 -748.683289
-0.173700 84.096298 -749.782715
0.529600 84.791496 -743.601074
0.073500 84.429298 -746.550415
1.453600 86.608002 -736.533875
0.784100 85.174301 -740.051025
0.080500 84.558601 -744.560974
-1.211000 83.899902 -753.272217
-1.369300 83.871300 -754.387512
0.919900 85.558701 -737.631226
0.358800 84.801498 -740.992126
0.125600 84.688004 -742.572998
-0.603600 84.188797 -747.382996
-1.218800 83.895203 -751.557983
-1.784300 83.559998 -755.335815
0.443600 84.873802 -738.390015
-0.587700 84.302101 -745.362122
-1.042400 84.033897 -748.421509
-1.240100 83.991501 -749.819275
-0.040500 84.377296 -739.259521
-0.597800 84.335098 -743.308105
-1.045600 84.100800 -746.376526
-1.920300 83.693901 -752.416687
-0.515600 84.052002 -740.238525
-0.637300 84.233299 -741.305908
-1.053500 84.151398 -744.309021
-1.956300 83.778099 -750.642212
-2.358300 83.576202 -753.428772
-0.320500 85.023102 -737.050903
-0.518200 84.455498 -737.995483
-1.151200 83.996101 -742.277283
-1.569800 83.874603 -745.277283
-1.821400 83.770203 -747.051025
-2.045100 83.686897 -748.637573
-2.833300 83.614098 -754.431091
-1.218200 83.427803 -739.188721
-1.401800 83.500999 -740.627380
-1.710700 83.821899 -743.231689
-2.593600 83.583900 -749.602417
-2.832500 83.469002 -751.279175
-2.998700 83.330200 -752.391785
-1.438800 83.120102 -737.821777
-1.907700 83.391899 -741.583496
-2.239200 83.490799 -744.155579
-2.457600 83.455002 -745.756592
-2.713600 83.416801 -747.637024
-3.519000 83.063103 -753.335022
-1.548300 82.841003 -735.943420
-3.184500 83.308998 -748.660706
-3.416100 83.141800 -750.243530
-2.000700 83.021103 -736.897278
-2.222600 83.090897 -738.634888
-2.369000 83.148300 -739.791321
-2.694400 83.301102 -742.385376
-3.243100 83.339401 -746.556091
-3.903600 83.017403 -751.233521
-4.074500 82.829498 -752.346130
-2.039400 83.018600 -734.521118
-2.851600 83.155701 -740.798706
-3.173900 83.317596 -743.389893
-3.317400 83.381302 -744.535522
-4.587100 82.486801 -753.315918
-2.780100 82.963203 -737.656494
-3.771300 83.299896 -745.519226
-4.008700 83.285202 -747.312927
-4.231100 83.175797 -748.904480
-2.426800 82.873398 -732.744690
-2.763100 82.925102 -735.367371
-3.232000 83.008698 -739.034912
-3.550300 83.191803 -741.642212
-4.657900 83.014397 -749.955627
-4.905000 82.782097 -751.630371
-3.128300 82.967598 -736.444214
-5.488300 82.218102 -753.859314
-2.988900 82.937103 -733.715820
-3.782400 83.136101 -740.004089
-4.107000 83.236099 -742.593628
-4.257600 83.213501 -743.730774
-4.592300 83.194504 -746.287720
-5.491000 82.372398 -752.441223
-5.813900 82.335503 -754.891113
-2.891700 83.142197 -731.474976
-4.616100 83.210403 -744.822571
-5.009000 83.095497 -747.743713
-3.609900 82.812401 -734.669617
-3.931100 82.852097 -737.186890
-4.044500 83.096603 -738.286621
-4.387700 83.135002 -740.972717
-5.405000 83.044403 -748.746094
-5.647900 82.829102 -750.424316
-3.214700 83.127296 -729.866699
-3.554900 82.986900 -732.369995
-4.008300 82.825798 -735.729919
-6.075300 82.513199 -751.432678
-6.514800 83.066902 -755.337708
-6.391500 82.374702 -753.024780
-6.498100 82.642601 -754.083008
-4.628300 83.128403 -739.213379
-4.983000 83.124199 -741.887573
-5.134100 83.126404 -743.030701
-5.464900 83.088501 -745.495117
-5.615000 83.093102 -746.632629
-6.911500 83.015099 -756.354126
-4.028800 82.845802 -733.394287
-5.423300 83.076500 -744.082275
-3.812600 83.058800 -730.761597
-6.073900 82.951599 -747.615784
-6.315700 82.801903 -749.301086
-3.747200 83.226501 -728.810913
-4.815700 82.882103 -736.503296
-4.952000 82.944504 -737.572876
-5.275700 83.055702 -740.083923
-6.704900 82.601997 -750.378479
-6.945900 82.467400 -752.065613
-4.470000 82.815697 -731.570190
-4.823100 82.781601 -734.186096
-7.401900 82.573799 -753.322388
-7.514200 82.829498 -754.377319
-7.611100 83.231201 -755.437927
-7.780400 83.407097 -756.852722
-4.547700 82.942902 -729.476990
-4.982800 82.709396 -732.548523
-5.336300 82.655403 -735.157776
-5.732000 82.977402 -738.396912
-6.066600 82.945099 -740.881897
-6.221500 82.920197 -742.023987
-6.374700 82.912102 -743.166687
-6.532700 82.848099 -744.299927
-6.685900 82.834099 -745.438416
-6.830800 82.905296 -746.585693
-7.043200 82.795097 -748.088013
-4.701100 83.103302 -727.802429
-5.102800 82.581200 -730.388672
-5.858500 82.670097 -736.143921
-5.986500 82.822502 -737.232971
-6.267200 82.828903 -739.349121
-7.577100 82.636299 -749.037903
-7.777600 82.644501 -750.551819
-7.944200 82.483002 -751.670105
-5.264100 82.716202 -728.676575
-5.649400 82.466301 -731.365295
-5.883400 82.462303 -733.121216
-6.022100 82.507401 -734.200378
-7.743000 82.542000 -747.162598
-8.464100 82.637001 -752.661072
-8.614800 82.634697 -753.792114
-8.727700 82.883400 -754.846375
-8.825100 83.278999 -755.906616
-8.933400 83.560997 -756.953979
-5.870000 82.400803 -729.567383
-6.608200 82.414803 -735.138489
-6.935400 82.646301 -737.794312
-7.214500 82.670799 -739.916016
-7.368500 82.658699 -741.065491
-7.518400 82.688202 -742.219177
-7.674400 82.647697 -743.360229
-7.820600 82.711502 -744.513977
-7.977700 82.653297 -745.649109
-8.299500 82.718903 -748.127014
-8.500000 82.727303 -749.643494
-6.237500 82.324699 -728.264404
-6.543500 82.079300 -730.376587
-6.689000 82.046303 -731.450378
-6.824900 82.127602 -732.546082
-6.961000 82.199600 -733.636292
-7.262200 82.288597 -735.990112
-7.587900 82.515099 -738.643921
-8.625200 82.521301 -746.500427
-9.148400 82.559502 -750.492676
-9.296100 82.584396 -751.630920
-9.473900 82.681099 -753.056885
-9.631800 82.596603 -754.182190
-9.737400 82.910896 -755.242493
-9.840500 83.242401 -756.299072
-9.947300 83.532303 -757.348328
-6.993400 81.993896 -729.050476
-7.702800 81.997299 -734.454895
-7.994200 82.180199 -736.827087
-8.330100 82.265503 -739.456299
-8.465600 82.310097 -740.524597
-8.600800 82.352097 -741.590027
-8.751200 82.363800 -742.744202
-8.885300 82.411697 -743.805603
-9.034300 82.430199 -744.956177
-9.323100 82.691002 -747.373230
-9.469100 82.731102 -748.518188
-7.460400 81.880898 -727.606812
-7.758100 81.815598 -729.831970
-7.903900 81.766701 -730.907593
-8.042300 81.804199 -731.999817
-8.169800 81.969704 -733.115601
-8.441600 82.078796 -735.289673
-8.731700 82.251503 -737.656982
-9.759500 82.556099 -745.786377
-10.210400 82.652603 -749.321716
-10.382800 82.406601 -750.434875
-10.503900 82.563400 -751.494690
-10.645500 82.633202 -752.637817
-10.796500 82.604301 -753.770386
-10.936400 82.686302 -754.910706
-11.038000 83.023102 -755.972717
-11.144100 83.309700 -757.026306
-8.237800 81.622002 -728.386108
-8.908800 82.034500 -733.906921
-9.176400 82.169403 -736.083679
-9.488600 82.206100 -738.521118
-9.622700 82.253799 -739.594971
-9.761500 82.244202 -740.656677
-9.895800 82.282997 -741.724182
-10.055000 82.179901 -742.864014
-10.181900 82.293198 -743.938110
-10.505600 82.555099 -746.654724
-10.647000 82.630699 -747.808777
-8.605100 81.479698 -726.236084
-8.737200 81.584999 -727.349304
-8.984200 81.550598 -729.234375
-9.118500 81.634003 -730.345703
-9.254800 81.685898 -731.446228
-9.388100 81.768501 -732.549927
-9.645300 82.029602 -734.765381
-9.909500 82.183800 -736.944275
-10.907400 82.324303 -744.797424
-11.381900 82.530098 -748.650085
-11.548000 82.335999 -749.771973
-11.663800 82.536903 -750.840698
-11.810500 82.541496 -751.981384
-11.961100 82.504601 -753.116882
-12.106500 82.518700 -754.255798
-12.216300 82.765297 -755.316711
-12.322800 83.039803 -756.375488
-12.444800 83.170700 -757.432373
-9.115800 81.213501 -725.278320
-9.468200 81.413597 -728.195984
-10.104500 81.730499 -733.424988
-10.358100 82.012703 -735.642822
-10.631700 82.037598 -737.796326
-10.770800 82.018303 -738.863770
-10.906400 82.035896 -739.935486
-11.061000 81.976303 -741.089172
-11.196800 81.986504 -742.155579
-11.327000 82.054100 -743.228577
-11.610200 82.333702 -745.674316
-11.736400 82.431999 -746.741821
-9.828600 81.163002 -726.079773
-9.960000 81.285400 -727.215881
-10.184600 81.346703 -729.032288
-10.318300 81.422699 -730.146729
-10.459500 81.399696 -731.235229
-10.595900 81.430901 -732.333008
-10.810700 81.724197 -734.271179
-11.061500 82.012100 -736.487915
-12.020400 82.082703 -744.075317
-12.433100 82.386902 -747.576782
-12.584000 82.338501 -748.719421
-12.728600 82.354797 -749.868286
-12.850800 82.474998 -750.931030
-12.996000 82.479500 -752.074524
-13.141600 82.477303 -753.215881
-13.279200 82.555000 -754.362671
-13.395300 82.724800 -755.419800
-13.490200 83.100502 -756.488770
-10.081900 81.133904 -723.421814
-10.230200 81.041801 -724.512085
-11.290600 81.422699 -733.209717
-11.505100 81.699402 -735.142029
-11.764600 81.865303 -737.333313
-11.930500 81.665604 -738.469971
-12.058800 81.755402 -739.559998
-12.198500 81.710800 -740.624023
-12.329600 81.761398 -741.701782
-12.449600 81.930397 -742.795471
-12.695500 82.188301 -744.959229
-12.824700 82.242302 -746.025696
-10.849400 81.084099 -725.486572
-10.991000 81.067902 -726.592773
-11.122400 81.178299 -727.727417
-11.264300 81.149399 -728.823975
-11.404100 81.142197 -729.923279
-11.541300 81.163002 -731.026123
-11.672100 81.257301 -732.142090
-11.914700 81.355202 -734.145813
-12.127900 81.638603 -736.076721
-13.055800 82.025002 -743.748474
-13.443600 82.183899 -746.953125
-13.595000 82.124702 -748.098572
-13.716400 82.252502 -749.169312
-13.839100 82.362000 -750.234924
-13.979100 82.414597 -751.387085
-14.122800 82.425598 -752.533020
-14.267400 82.425201 -753.676270
-14.382900 82.596199 -754.737671
-14.488000 82.867401 -755.804016
-10.800600 80.781502 -722.353027
-11.101800 80.925598 -723.692200
-12.734300 81.485802 -737.019287
-12.946200 81.634804 -738.813477
-13.086000 81.598198 -739.883118
-13.215000 81.684799 -740.971802
-13.338600 81.827797 -742.066406
-13.715600 82.156502 -745.313171
-12.336900 81.263000 -733.017090
-12.581600 81.362503 -735.020630
-11.196100 80.573898 -720.657227
-11.658200 81.008003 -724.637024
-11.973900 80.933998 -727.050781
-12.118400 80.895599 -728.151794
-12.258800 80.908699 -729.262817
-12.393800 80.987701 -730.386108
-12.528400 81.065804 -731.505310
-13.911500 81.841904 -742.985779
-14.047900 81.985100 -744.173218
-14.296200 82.111397 -746.223389
-14.443700 82.114304 -747.381409
-14.585500 82.177299 -748.544983
-14.714200 82.246498 -749.610718
-14.843500 82.305397 -750.672791
-14.981700 82.397202 -751.831909
-15.124700 82.433701 -752.982727
-12.014400 80.940804 -725.721375
-13.038900 81.148201 -733.905701
-13.284800 81.247299 -735.909973
-13.507900 81.454803 -737.825989
-15.469500 82.518799 -754.042480
-15.581900 82.749702 -755.111816
-11.764300 80.732399 -722.868225
-11.877400 80.626198 -721.535828
-13.310200 80.988701 -732.301819
-13.648300 81.019600 -734.806519
-13.905100 81.247498 -736.841980
-14.151900 81.388603 -738.747925
-14.300100 81.375504 -739.828491
-14.435400 81.561203 -740.943604
-14.575600 81.660500 -742.038574
-14.932700 81.876999 -744.804382
-11.962700 80.356796 -719.795715
-12.467600 80.691902 -723.711121
-12.971100 80.651299 -727.374329
-13.124600 80.628601 -728.484680
-13.279100 80.582298 -729.586487
-13.422800 80.726501 -730.732483
-15.010000 81.781898 -743.042419
-15.390700 81.848999 -745.874878
-15.532900 81.898300 -746.948730
-15.663200 82.115700 -748.044128
-15.802400 82.197304 -749.116272
-15.941800 82.269699 -750.184570
-16.078400 82.376999 -751.254822
-16.234100 82.395103 -752.407227
-16.467699 82.769402 -754.360107
-12.884700 80.653099 -724.794678
-13.050000 80.710899 -726.036072
-14.017400 80.763603 -733.123474
-14.338900 81.129997 -735.700806
-14.608800 81.167099 -737.692627
-12.597900 80.538002 -720.657898
-12.796600 80.536499 -722.102905
-14.096000 80.579102 -731.585510
-15.687100 81.761803 -743.904480
-16.901100 82.638199 -753.287476
-14.684100 80.838997 -733.976196
-15.030200 81.030403 -736.608093
-15.297800 81.120201 -738.607300
-15.436900 81.298897 -739.727478
-15.577400 81.441498 -740.836182
-15.718100 81.571404 -741.938416
-16.104700 81.835999 -744.910278
-12.908700 80.015999 -718.350220
-13.044100 80.229897 -719.458008
-13.506500 80.458900 -722.936584
-13.661900 80.483002 -724.072815
-13.836300 80.388298 -725.274475
-13.994300 80.336800 -726.383728
-14.143900 80.452202 -727.534729
-14.303600 80.349899 -728.624817
-14.457200 80.362801 -729.742188
-15.136100 80.946198 -734.999512
-16.173700 81.664398 -742.929688
-16.584700 81.773804 -745.964111
-16.696800 82.122803 -746.986206
-16.836201 82.241798 -748.065613
-16.978901 82.304604 -749.133972
-17.121799 82.358597 -750.198608
-17.261400 82.456299 -751.266479
-17.399700 82.567802 -752.333191
-17.620300 82.820602 -754.080078
-13.584900 80.297997 -721.116577
-14.923700 80.260597 -730.699890
-15.092600 80.528198 -732.073425
-15.807900 80.929298 -737.447021
-15.513200 80.689003 -733.094482
-15.879000 80.899002 -735.832214
-16.309900 81.121597 -739.042419
-16.452900 81.271301 -740.153076
-16.595100 81.424797 -741.260315
-16.923000 81.658600 -743.741211
-18.145599 82.771301 -753.136719
-13.532500 80.124199 -717.084229
-13.963300 80.010399 -720.080994
-14.214600 80.257797 -722.013672
-14.915100 80.028801 -726.860596
-15.074400 79.983597 -727.966919
-15.233800 79.928802 -729.068176
-15.883600 80.795502 -734.198914
-17.301201 81.647301 -744.782104
-13.969700 79.892197 -718.511414
-14.584300 80.232803 -723.054077
-14.742700 80.255898 -724.187195
-14.906000 80.153603 -725.281982
-16.667601 80.710800 -738.059021
-17.194500 81.476402 -742.228088
-17.660101 81.966400 -745.804504
-17.787399 82.343102 -746.923218
-17.927000 82.503899 -748.004028
-18.087400 82.542702 -749.159790
-18.246901 82.588402 -750.314026
-18.386999 82.720200 -751.380920
-14.629400 79.999298 -721.014404
-15.905800 79.950104 -729.979309
-16.038500 80.169403 -731.040771
-16.170300 80.392700 -732.098206
-16.764400 80.671700 -736.444824
-14.375800 79.808296 -716.357300
-14.538600 79.821098 -717.508423
-14.788800 79.851501 -719.283997
-15.731400 79.701302 -725.821777
-15.920500 79.688004 -727.142822
-16.079300 79.693497 -728.261719
-16.705099 80.400803 -733.066101
-16.898800 80.500999 -734.485229
-17.482800 80.917198 -738.828308
-17.626400 81.103600 -739.945129
-17.774300 81.201698 -741.040771
-18.025999 81.416603 -742.932983
-18.175900 81.457298 -744.009521
-19.205601 82.939903 -752.098083
-15.341300 79.626900 -720.182617
-15.528500 79.737000 -721.558594
-15.694200 79.631401 -722.660217
-15.856300 79.607101 -723.783203
-17.441000 80.502296 -735.409973
-17.679899 80.527702 -737.100586
-18.679001 81.872101 -744.878174
-18.788900 82.341003 -745.917297
-18.921200 82.647797 -747.021179
-19.066500 82.730003 -748.087280
-19.211100 82.816399 -749.151184
-19.354401 82.917603 -750.214172
-15.089800 79.546303 -715.436829
-15.455600 79.704102 -718.080994
-16.424700 79.487503 -724.723083
-16.660801 79.441597 -726.345825
-17.003201 79.600800 -728.827026
-17.140900 79.755402 -729.877075
-17.273899 79.998703 -730.944214
-17.407801 80.205299 -731.997498
-17.628599 80.377296 -733.637024
-18.241600 80.616898 -738.053528
-18.711000 81.035698 -741.570190
-15.598900 79.656998 -716.444580
-15.976100 79.594398 -719.027100
-16.238501 79.368896 -720.719971
-17.184700 79.374901 -727.289185
-18.355200 80.337601 -735.957703
-18.758200 80.797501 -739.014893
-18.909700 80.875397 -740.110413
-19.260900 80.900703 -742.562012
-19.368401 81.472702 -743.632324
-16.627001 79.406197 -721.723694
-16.792700 79.357697 -722.843323
-18.392900 80.214996 -734.399414
-18.763599 80.265900 -736.994019
-19.693001 82.137100 -744.474976
-19.806700 82.578102 -745.508484
-19.939501 82.912598 -746.615479
-20.083401 83.049301 -747.688416
-17.251101 79.291496 -725.424011
-18.236900 80.232300 -732.737671
-16.035000 79.587601 -714.698181
-16.399000 79.649300 -717.228271
-16.783600 79.466103 -719.770508
-17.375799 79.305000 -723.748474
-17.998800 79.367996 -728.056274
-18.139700 79.538696 -729.113403
-18.279600 79.717796 -730.168030
-18.412201 80.054604 -731.255127
-19.353701 80.424896 -737.910828
-19.756500 80.692497 -740.816284
-16.575199 79.670197 -715.702026
-16.943899 79.545601 -718.166626
-17.327600 79.370102 -720.707520
-18.127100 79.225403 -726.116882
-19.122101 80.106102 -733.405518
-19.338900 80.137703 -734.909424
-19.498699 80.131401 -736.002625
-19.880100 80.604897 -738.867676
-20.308901 80.619698 -741.817993
-20.411600 81.931602 -743.210083
-20.698999 83.132500 -745.811584
-20.854601 83.347198 -746.992188
-17.912600 79.289497 -721.705627
-18.080200 79.220703 -722.820496
-18.306101 79.185097 -724.353088
-18.707199 79.216698 -727.123718
-19.344101 79.873001 -731.838623
-20.052200 80.290901 -736.918274
-20.453100 80.627197 -739.846619
-20.906500 82.601501 -743.988525
-17.171000 79.524399 -714.184326
-17.477100 79.517700 -716.278503
-17.844101 79.457199 -718.761230
-18.013100 79.378998 -719.879272
-18.837601 79.020699 -725.343018
-19.214199 79.308800 -728.072083
-19.355900 79.474098 -729.128418
-19.513700 79.591301 -730.269470
-20.027700 79.923500 -733.962402
-20.568001 80.486000 -737.954529
-21.375401 83.132698 -744.851624
-17.625401 79.454697 -715.162170
-17.930201 79.512802 -717.272095
-20.148800 79.867699 -732.596985
-20.496799 79.949203 -735.013977
-21.250900 80.730598 -740.559021
-21.791901 83.668602 -745.746399
-18.743500 79.267197 -720.753479
-18.943300 79.186897 -722.072815
-19.109200 79.207397 -723.211670
-19.550200 79.087997 -726.151672
-20.247900 79.576797 -731.143677
-20.929300 80.168297 -736.075073
-21.286301 80.641502 -738.741089
-21.829901 83.071297 -743.655884
-19.516800 79.000900 -724.230225
-19.928301 79.306999 -727.175110
-21.303499 80.427597 -737.065125
-18.529100 79.345596 -716.400085
-18.760599 79.326302 -717.957825
-18.932199 79.216904 -719.067017
-20.281200 79.253998 -728.214722
-20.443199 79.335098 -729.350220
-20.993999 79.732002 -733.268921
-22.379700 83.552597 -744.483704
-20.080999 78.979202 -725.188477
-21.039801 79.558601 -731.927307
-21.371401 79.832802 -734.292419
-19.584801 79.062698 -719.976929
-19.754900 79.029602 -721.105286
-19.954500 79.027496 -722.446228
-21.100700 79.265404 -730.260803
-21.787100 80.112701 -735.264282
-22.138399 80.561401 -737.832520
-19.486300 78.971397 -716.891785
-19.704201 78.982803 -718.354919
-20.462799 78.944099 -723.411072
-20.842300 79.072098 -726.007629
-21.009399 79.091499 -727.134094
-22.289700 80.349403 -736.264771
-20.330000 78.759102 -719.248779
-21.087999 78.879303 -724.343079
-21.639400 78.928497 -728.032227
-21.808001 78.903397 -729.142517
-22.040800 79.254898 -730.846313
-22.184700 79.491302 -731.908630
-22.328600 79.704803 -732.960388
-22.472099 79.910400 -734.005798
-21.003201 78.614502 -720.175293
-21.157600 78.744598 -721.249817
-21.329399 78.769798 -722.392822
-21.747499 78.886803 -725.198730
-21.917900 78.892799 -726.324524
-23.134600 80.115799 -734.876526
-23.346600 80.515297 -736.447998
-22.044701 78.688004 -723.218628
-22.632000 78.920197 -727.171082
-22.805000 78.831398 -728.267029
-23.430599 80.026703 -732.885315
-24.122999 80.445503 -733.701782
-24.286100 80.583504 -734.824219
-22.756100 78.949699 -729.645081
-19.405199 79.001999 -715.777222
-14.837300 81.425903 -723.861206
-15.494900 82.979500 -756.193115
0.540500 85.782402 -736.479492
-18.614901 79.117203 -714.911987
-7.566400 81.829002 -726.506409
-15.867000 80.916801 -716.594116
-18.449699 80.266197 -719.192078
-13.554400 81.332199 -721.811523
-11.703600 81.866203 -723.609680
-14.142100 81.433998 -724.775330
-9.435900 82.306999 -726.970520
-10.822900 82.034203 -727.063110
-10.245800 82.769798 -726.414978
-11.325200 82.094704 -728.298401
-11.239900 83.045700 -726.846619
-4.726400 83.954697 -730.501282
-8.353400 83.697502 -729.486877
-4.154300 83.954201 -731.533508
-3.062800 84.122002 -736.518372
-4.856700 84.056999 -736.190918
-22.676201 81.894897 -734.057129
-5.339700 84.622398 -738.691589
2.165600 86.753700 -740.785828
-16.356800 82.682198 -742.125977
-19.259800 82.656700 -741.515320
-15.284000 82.918297 -745.622498
-20.939699 84.149200 -745.262512
-21.938200 84.478996 -744.859070
-20.595699 84.101799 -746.278015
-9.531300 83.382103 -735.449707
133.537704 52.486900 -832.351318
132.737106 51.839901 -832.904419
131.951508 51.250702 -833.471924
131.191101 51.113998 -834.254578
130.704697 51.747601 -835.143982
130.111694 52.074501 -835.987976
129.532196 52.432400 -836.833679
128.781601 51.739899 -837.305908
127.965797 51.078899 -837.868591
127.279297 50.062401 -838.094177
126.558502 49.260300 -838.473877
127.657898 49.041698 -838.053772
127.216003 47.968800 -837.975098
130.431396 51.085999 -836.264771
129.838196 51.420700 -837.109314
128.357300 50.087399 -838.057129
133.401993 50.991699 -833.195923
132.259094 50.505501 -834.216370
131.462799 50.464100 -835.086182
129.223907 50.620300 -837.677429
133.223999 49.946400 -834.018372
132.273193 49.657398 -834.924988
131.441299 49.715000 -835.882385
130.784302 49.895000 -836.710022
129.915405 49.492199 -837.465027
129.165802 48.759300 -837.912720
128.608505 47.820400 -838.036804
131.938904 48.724098 -835.490723
131.201797 48.690300 -836.292908
130.120804 48.439499 -837.363586
131.036804 47.606098 -836.523621
129.630402 47.380699 -837.498108
125.825600 49.987099 -838.950623
133.795502 53.687000 -831.601501
130.781998 52.092602 -834.098572
129.631607 53.074501 -835.896484
132.776199 53.195702 -832.027222
131.849594 52.385502 -832.625671
130.201004 52.889000 -834.725281
128.820007 53.396400 -836.529602
127.974403 52.694199 -837.095520
127.016899 51.707100 -837.634277
126.293701 50.951000 -838.035522
125.195198 51.102200 -838.876404
133.789001 54.753799 -830.787170
130.877502 52.861099 -833.014771
129.583099 53.810101 -834.960327
132.748795 54.459801 -831.226929
131.693497 53.450199 -831.862183
130.167892 53.554600 -833.616821
128.853897 54.430302 -835.547913
128.000107 54.051701 -836.296082
127.174599 53.407398 -836.870972
126.444901 52.504299 -837.200684
125.658096 51.921902 -837.765320
124.391403 50.442501 -838.384888
133.626007 56.094200 -829.847107
132.835999 55.647099 -830.488098
131.664795 54.660301 -831.264587
130.704102 53.939602 -831.949097
129.590500 54.477100 -833.479187
129.041199 54.942501 -834.341614
128.093597 55.195099 -835.533691
126.974899 54.452000 -836.382507
124.632103 52.327999 -837.855225
123.851700 51.607201 -838.338623
125.974899 53.998501 -836.567322
125.212799 53.235401 -837.007202
133.311996 57.119400 -829.274414
132.511993 56.637600 -829.907593
131.714005 55.984501 -830.446289
130.838394 55.309601 -831.059692
130.082794 54.811100 -831.634399
129.531799 55.282600 -832.503174
128.940796 55.631802 -833.350708
128.352905 55.983299 -834.196106
127.614998 56.094200 -835.079285
126.848297 55.597198 -835.666992
123.587097 52.664501 -837.726379
122.825798 52.071602 -838.256470
125.745903 55.275101 -835.880188
124.951500 54.377201 -836.282104
124.225899 53.591801 -836.667786
121.735100 52.019600 -838.598572
133.120407 57.980099 -828.305908
132.345200 57.864601 -829.107605
131.556702 57.233501 -829.645630
130.787704 56.674599 -830.200928
130.000305 56.076000 -830.755127
129.218399 55.881599 -831.521729
128.607101 56.178101 -832.363403
128.151703 56.724899 -833.166382
127.536697 56.998299 -833.999817
126.807899 56.956600 -834.789612
125.997002 56.343899 -835.362488
123.189697 53.622601 -837.021484
122.409203 53.292198 -837.713013
124.641403 55.357101 -835.568115
123.945602 54.524899 -835.893188
121.342300 53.169498 -838.060181
132.825806 58.866402 -827.642883
132.014206 58.732201 -828.473999
131.243698 58.153702 -829.019104
130.453506 57.721100 -829.664978
129.679901 57.160599 -830.223328
128.876694 56.902199 -830.978027
128.069107 57.009499 -831.935181
127.924698 57.882599 -832.568298
127.200798 57.851002 -833.357178
126.447098 57.918800 -834.233215
125.647697 57.512699 -834.903625
124.845497 56.407501 -835.199219
122.918297 54.533600 -836.331726
122.140198 54.215302 -837.026001
121.115501 54.171600 -837.448730
120.339203 53.530499 -837.966187
132.577194 59.858101 -827.157898
131.791595 59.604801 -827.895386
130.365204 58.792702 -829.044312
129.456894 58.209499 -829.740173
128.679993 57.835098 -830.402588
127.959999 57.818401 -831.195129
126.518204 58.687099 -833.269592
124.568398 57.457802 -834.775574
123.531799 55.886398 -835.080078
121.947800 55.058998 -836.396118
127.148399 58.228802 -831.875122
125.588600 58.770802 -833.901672
122.560799 55.565899 -835.539429
130.688705 59.550400 -828.168579
123.529900 56.923401 -834.697327
120.966698 55.363602 -836.701782
120.153000 54.870098 -837.338989
119.336403 54.256802 -837.914978
132.207504 60.748100 -826.443298
131.424194 60.505501 -827.180481
129.705200 59.595798 -828.595581
128.860794 59.206001 -829.321472
128.059998 58.953602 -830.072876
127.281502 58.957901 -830.937683
126.584503 59.192799 -831.836182
126.021301 59.613998 -832.686829
124.529999 59.098701 -834.061829
123.816902 58.237598 -834.388672
122.492104 56.487900 -834.915222
121.562897 56.050301 -835.709229
125.071899 59.905602 -833.203918
119.977997 55.806400 -836.637329
119.175903 55.387600 -837.299927
130.348694 60.673100 -827.267517
127.326103 59.771801 -830.124084
126.590103 59.895599 -831.004211
122.726097 58.002102 -834.257813
121.501198 56.955200 -835.049377
120.556602 56.441502 -835.817383
118.166901 55.138901 -837.758972
131.914093 61.792301 -825.684082
131.108307 61.478699 -826.405273
129.376007 60.715500 -827.908081
128.550400 60.376900 -828.638000
125.871101 60.500900 -831.661804
123.961700 59.911400 -833.453186
123.141296 59.115601 -833.932129
127.624901 60.366600 -829.239380
125.035500 60.756302 -832.304810
121.632401 57.925701 -834.543518
118.966400 56.234600 -836.579224
126.631203 60.610199 -830.032898
120.475998 57.359402 -835.083130
117.987099 55.994202 -837.098022
135.243103 66.321404 -823.118591
130.944000 62.283699 -825.700500
130.080994 61.801102 -826.394226
129.293793 61.367401 -827.030518
128.418701 61.258598 -827.937378
125.842499 61.108398 -830.698486
123.954102 60.921299 -832.681274
122.918297 60.240799 -833.459778
122.081902 59.248001 -833.851074
119.489304 57.122299 -835.573730
134.285202 65.987198 -823.492920
127.468300 61.258701 -828.482300
125.018600 61.478802 -831.301880
135.630203 67.248802 -822.121277
133.336395 65.455002 -823.694092
131.249496 63.061401 -824.717102
126.547897 61.485901 -829.066711
121.597900 60.215698 -833.854126
121.006699 59.013901 -833.863281
120.238701 58.348301 -834.355225
118.387398 57.176701 -835.772522
117.598701 56.833199 -836.459778
116.825302 56.404999 -837.084717
132.399597 64.942497 -823.907593
130.239700 62.959499 -825.231628
129.179001 62.266998 -826.032715
128.419403 62.110500 -826.788330
127.665802 61.977798 -827.549988
125.655899 61.772400 -829.661621
123.997498 61.849602 -831.535889
123.052002 61.399799 -832.339783
122.201500 60.977798 -833.053528
119.236099 58.098499 -834.787170
134.510803 66.914398 -822.257874
124.814903 61.969101 -830.327576
133.609299 66.319901 -822.728516
131.421097 64.362396 -824.099609
126.704300 62.107300 -828.106873
118.210297 58.076801 -835.144409
135.275497 67.832199 -821.248474
130.483902 63.732101 -824.353516
120.686897 60.152500 -833.268311
119.959999 59.328999 -833.631714
117.294800 57.651699 -835.681030
116.495102 57.259899 -836.355530
132.613495 65.933800 -822.872192
129.119995 63.148300 -825.246887
125.755600 62.349602 -828.539795
122.943001 62.116001 -831.524414
122.074699 61.884899 -832.361023
119.050003 58.955700 -834.140686
131.502899 65.224503 -823.392883
128.171707 63.012600 -825.896118
127.415398 62.869202 -826.655884
124.893501 62.492401 -829.243530
123.843597 62.460800 -830.387817
121.173302 61.346001 -832.745728
134.179703 67.696602 -821.424316
133.495499 66.878403 -821.744873
126.531403 62.815399 -827.282104
115.405602 57.323002 -836.661072
130.469604 64.724998 -823.635681
129.361801 63.856998 -824.399109
117.951797 58.928902 -834.399719
120.112900 61.081501 -832.806274
119.445198 60.208698 -833.080383
116.997597 58.602901 -834.934021
116.186996 58.138802 -835.583923
134.452805 68.428001 -820.334778
132.435303 66.703201 -821.650391
131.624207 66.113503 -822.234375
128.282806 63.813702 -824.709778
127.248398 63.598400 -825.740723
125.464897 63.093201 -827.446594
124.719299 62.995899 -828.220520
123.947701 63.013100 -829.084229
122.857399 62.869598 -830.215088
122.052597 62.625801 -830.976379
121.230598 62.481701 -831.810120
118.453796 59.870399 -833.494324
133.399002 68.013100 -820.695007
130.642807 65.785698 -822.562317
129.369598 64.776299 -823.435181
126.252998 63.674900 -826.301880
120.235199 62.117298 -832.140686
115.111504 58.271400 -835.769104
128.397598 64.423401 -823.799011
119.136398 61.396000 -832.453674
117.383797 59.936199 -833.618774
116.574898 59.445999 -834.254272
115.808899 58.851200 -834.786621
132.310501 67.681900 -820.719299
131.380905 66.900703 -821.332825
129.519196 65.599403 -822.701477
127.427002 64.457603 -824.410522
126.445099 64.205299 -825.363586
125.160500 63.834301 -826.588623
124.385101 63.645901 -827.346985
123.601402 63.624199 -828.203430
122.869698 63.570599 -828.985107
121.925598 63.293400 -829.883118
121.079697 62.939899 -830.631592
118.180901 60.803799 -832.704285
133.467896 68.922096 -819.663574
130.410797 66.504601 -821.758728
120.158798 63.030102 -831.248230
114.084801 58.601398 -835.609924
128.441696 65.443703 -822.946472
119.205597 62.519100 -831.604675
114.771301 59.241100 -834.765381
132.410797 68.726997 -819.851685
131.246994 67.781898 -820.636414
129.365494 66.403503 -821.984619
127.473801 65.080299 -823.373413
126.362297 64.818298 -824.463318
125.364998 64.528503 -825.412170
121.856903 63.926399 -828.971680
118.327599 61.932701 -831.815186
117.141800 61.102501 -832.685425
116.389297 60.545601 -833.221619
115.633003 59.988899 -833.762085
130.276093 67.470398 -821.029480
124.398697 64.512802 -825.956177
123.626801 64.335197 -826.715271
122.854202 64.344902 -827.574829
120.825798 63.762600 -829.508118
120.063004 63.639702 -830.286194
132.502304 69.351501 -818.929382
131.277893 68.601501 -819.884094
128.256393 66.408699 -822.057678
126.463997 65.413696 -823.509827
119.073502 63.572102 -830.700928
117.219498 61.813099 -831.814575
114.527397 59.949001 -833.798889
113.745796 59.640301 -834.498718
130.253494 68.355202 -820.215271
129.187698 67.565201 -820.972900
127.261803 66.113800 -822.328918
125.452103 65.475601 -823.989990
124.662300 65.229103 -824.732117
121.809601 64.638100 -827.571777
121.024597 64.440598 -828.334717
118.061798 63.171501 -830.934570
116.160797 61.581001 -832.189026
115.353302 61.087700 -832.818970
131.397202 69.434196 -818.978088
123.705597 65.252899 -825.254028
122.949699 65.118500 -826.018372
120.031898 64.395798 -828.859680
119.232002 64.198601 -829.639221
117.203697 62.523102 -830.988525
112.685600 59.834999 -834.551208
130.440399 69.070602 -819.381592
128.107193 67.453201 -821.098877
126.199097 66.087799 -822.480591
118.224197 63.995098 -830.184021
114.236603 60.937199 -832.962219
113.427498 60.472698 -833.609192
129.221207 68.568604 -820.002319
127.131798 66.977203 -821.463013
125.238800 66.075600 -823.074585
124.489601 65.944702 -823.833130
121.900101 65.168503 -826.281921
120.773003 64.917503 -827.394226
116.097504 62.379700 -831.208923
115.090500 61.855400 -832.042480
123.556198 65.887802 -824.400330
117.168701 63.590000 -830.238220
109.471298 60.777000 -837.249817
131.006500 69.807800 -817.844116
128.112198 68.350800 -820.270325
122.555702 65.641403 -824.975098
119.737396 65.002899 -827.754578
118.958801 64.657097 -828.432007
118.207802 64.666397 -829.268677
