52.975899 69.601196 -762.553711
53.623402 69.259499 -764.375671
42.211899 63.758701 -756.124512
45.162498 64.498497 -758.526001
43.806000 63.251099 -757.035583
43.508499 62.290798 -758.612183
52.656200 67.763199 -761.846375
52.910000 67.124199 -763.636230
40.187000 61.124401 -754.801270
41.994701 61.894001 -755.240173
46.862598 63.773701 -759.118530
48.827900 65.264999 -759.111206
50.403702 66.256203 -759.544800
51.918499 66.196701 -760.618713
52.523300 65.306198 -763.497620
45.735001 62.152802 -758.741089
43.614799 61.421398 -756.117310
45.147301 61.392101 -757.136108
48.353001 63.363201 -757.946228
50.511101 64.520203 -758.852905
52.171398 64.546700 -761.387817
42.599400 60.116798 -755.240479
46.980499 61.473801 -757.329529
51.493301 63.437302 -760.065125
51.691898 62.726601 -761.868530
52.499599 63.297199 -763.833374
49.966702 62.419800 -757.980713
50.987900 61.002300 -762.232971
43.995499 58.917400 -755.259583
45.536098 59.486301 -756.127808
48.804699 61.114201 -757.109619
50.972500 61.441799 -759.297729
50.008999 59.369701 -762.262085
47.381401 59.584000 -756.308594
50.932201 59.872898 -760.376526
50.000000 59.715801 -757.493530
44.806099 56.777401 -754.987305
46.507599 57.664001 -755.388672
50.580799 58.504002 -758.955078
48.390598 57.924000 -755.796509
49.914398 56.937199 -759.759827
49.802101 57.649399 -757.001282
44.666401 54.809502 -754.685181
46.406502 55.879002 -754.708923
50.195000 56.066002 -758.100586
51.959000 57.845299 -762.135986
48.259701 55.463299 -754.682922
49.555099 55.613899 -755.976196
49.685600 54.392399 -758.963928
44.488201 52.307999 -754.094788
46.131001 53.292500 -753.901184
50.170700 54.144299 -757.015686
47.323898 46.354198 -771.275513
48.104099 53.231800 -754.038696
49.506302 53.449100 -755.283081
49.880699 52.512600 -757.872192
49.277000 46.543701 -770.669922
47.395100 45.198502 -769.669128
45.299500 50.865299 -753.307922
46.987202 51.758400 -753.343079
50.119900 51.839199 -755.957397
49.752701 50.643501 -758.182617
49.140202 45.408100 -769.111816
48.776798 51.532398 -753.828125
47.540600 43.959099 -767.783203
45.316002 49.068699 -752.490479
47.068501 49.853901 -752.801880
49.774601 50.323299 -754.924194
49.338200 48.915600 -757.524170
48.745701 49.160400 -753.096191
50.123402 48.677502 -755.737915
47.826698 42.587898 -766.434387
45.099098 46.925098 -752.139526
46.806999 47.851898 -752.066772
49.707600 47.178398 -756.836975
49.740200 47.790699 -753.910278
47.566799 53.193901 -738.122681
48.459301 47.065201 -752.268311
47.875301 40.808399 -765.043274
45.119400 44.920799 -751.333130
46.788101 45.817600 -751.266724
50.239601 46.088100 -754.509888
49.884998 45.163399 -756.090576
47.208099 51.276600 -738.375183
49.505901 45.653702 -752.872375
47.766899 39.798901 -763.408325
48.388901 44.937801 -751.430298
49.535801 43.310902 -756.139893
47.589298 49.550201 -738.946289
44.771000 42.946098 -749.796997
46.390400 43.373699 -750.667114
50.118900 43.996300 -753.434021
49.231098 38.574299 -763.903381
48.049301 37.705002 -762.463501
47.244202 47.566700 -738.964417
45.976002 41.557499 -750.152222
48.010201 42.484501 -750.421326
49.424999 42.644600 -751.621582
50.283199 42.131599 -753.625183
49.602200 41.108898 -755.024902
47.379200 45.684700 -739.570313
49.214802 39.297199 -754.868713
47.530300 35.788898 -760.353821
49.028500 36.077599 -761.375610
47.263599 44.372700 -740.841919
46.232399 39.826599 -749.197083
48.046700 40.519501 -749.719971
49.461201 40.674599 -750.929810
50.229000 40.261902 -752.622070
50.123199 38.532101 -753.445129
45.713501 38.042500 -749.006592
49.346600 37.226299 -754.575195
47.685902 34.056301 -759.384827
49.081001 34.184601 -760.606079
47.637699 38.598000 -749.076904
49.245800 38.955502 -750.043884
47.395100 42.351799 -740.272827
50.172600 38.305500 -751.547119
47.686501 41.382900 -741.814087
50.165501 36.664200 -752.650818
49.490799 35.321602 -754.693115
49.152599 32.987999 -759.120117
45.997200 36.333000 -748.403015
48.926498 37.260101 -748.992615
49.947601 36.672600 -750.478394
47.707699 32.108601 -757.472412
46.669998 39.407398 -740.392883
44.067001 34.450901 -747.802917
48.202301 39.058300 -741.349487
47.641998 35.476501 -748.075623
50.419102 35.207600 -751.542786
49.758900 34.136299 -753.036926
49.214699 31.288799 -758.280273
45.870399 33.965000 -747.801880
49.435398 35.315701 -748.786377
48.023300 37.309700 -741.895020
48.337601 30.206200 -756.645996
50.211498 33.898399 -749.787109
50.036301 32.922501 -751.582886
46.992199 35.880199 -740.851624
45.728100 32.159100 -747.055481
47.506100 32.954102 -747.298096
49.187199 33.487000 -747.969116
48.346699 35.155800 -741.865173
49.786999 30.924601 -751.855774
48.224998 28.492901 -755.127625
48.344002 33.593300 -742.848022
47.276299 31.154699 -746.627075
48.996700 31.713800 -747.280579
50.191700 31.595100 -748.749023
50.413399 29.881399 -749.717896
49.800098 28.842800 -751.155273
48.077202 26.798599 -753.454102
48.053902 30.973801 -742.127075
47.890598 30.013300 -743.859924
47.726799 29.040800 -745.615784
49.277401 29.330099 -746.630676
47.522499 28.996401 -742.317627
50.116699 27.816900 -747.289307
50.234100 26.985001 -749.045898
48.833000 25.068300 -751.384827
47.268101 26.187599 -744.164124
48.828800 26.544901 -745.059875
50.147999 25.980499 -747.513916
45.590698 23.605801 -743.989502
47.346298 24.282900 -744.464600
49.531700 24.890100 -745.515503
50.038101 24.106501 -747.560486
48.912201 23.239700 -744.549988
49.930199 22.197399 -747.606628
44.900600 19.878300 -743.457275
46.564400 20.813700 -743.349487
48.290100 21.497801 -743.788330
49.514400 21.435101 -745.154724
49.569000 20.386101 -747.229126
49.494099 19.603800 -745.240173
46.060501 17.406200 -742.511475
47.716499 18.095800 -742.877319
49.473598 17.706200 -745.397583
44.197399 14.679300 -742.299194
45.852402 15.552500 -742.320801
48.773800 16.608200 -743.275513
49.249500 15.750300 -745.374390
43.919601 13.705100 -740.581726
47.603100 14.848500 -742.141724
49.209099 14.870600 -743.714783
48.870998 13.442600 -746.051514
44.645802 12.167200 -741.262573
46.398499 13.139900 -741.206970
49.250301 13.069900 -744.195374
48.461601 11.452300 -746.418823
42.492001 10.574900 -739.547974
42.543900 9.709600 -741.201294
48.030201 12.352100 -741.782288
44.850700 10.157500 -740.430481
46.632000 10.819700 -740.979126
49.012798 11.116500 -742.793091
48.926201 9.798700 -745.128418
42.606300 8.442000 -739.376526
49.630100 8.494800 -746.209473
44.487499 8.075000 -740.290222
46.230400 8.921300 -740.468018
47.996601 9.555500 -741.054382
49.109200 9.268600 -742.672424
49.036701 7.845900 -744.103394
48.699902 6.421800 -745.432617
45.351200 10.322200 -735.620422
42.081600 7.441400 -737.410889
43.873199 6.838600 -738.324219
44.309399 6.163700 -739.982788
47.798302 7.851000 -740.403870
46.152500 6.610600 -739.539673
48.934200 6.970500 -741.671021
49.211201 6.099600 -743.523682
48.958199 3.707500 -746.031311
43.553299 3.607700 -739.117310
45.204899 4.161900 -739.782288
47.530998 5.376100 -739.937012
49.038399 5.145000 -741.872681
48.755402 3.992700 -743.665222
48.227798 2.047600 -743.928528
46.936901 3.512500 -739.246826
48.557999 3.828500 -740.324219
49.180698 3.260500 -741.976929
49.797401 1.379300 -745.984009
45.187500 2.477400 -738.950317
50.229599 2.625900 -743.356079
42.541901 0.079100 -738.424194
44.083302 0.437100 -739.356689
46.717899 1.472700 -738.932312
48.351200 1.879200 -739.874512
49.127300 1.372200 -741.578186
48.615601 0.300800 -742.976624
49.608898 -0.022600 -744.573181
45.057899 -0.510600 -737.990173
48.649101 -1.530200 -743.491516
43.387901 -2.654800 -738.534973
46.838902 -0.721200 -738.638184
48.446999 -0.261300 -739.470581
49.368000 -0.644400 -741.096985
41.630100 -3.460200 -736.463501
43.459499 -3.581100 -736.868530
45.024601 -3.412000 -738.179321
46.491001 -2.325500 -737.767883
47.992802 -2.117300 -738.944580
49.065399 -2.370900 -740.495483
48.767601 -3.420400 -742.043274
48.859299 -4.435600 -743.931030
46.685902 -4.260200 -737.933228
48.406300 -3.934400 -739.131470
49.989201 -4.826400 -742.324829
48.762600 -5.214900 -740.504822
47.490200 -5.943000 -738.137695
50.855598 -4.780900 -739.597900
52.138100 -4.835400 -741.023682
50.897301 9.409900 -747.338684
48.879799 17.147200 -747.216309
49.168499 21.435900 -749.169128
50.585999 46.858501 -759.310425
46.229000 51.092899 -751.608215
48.910599 43.348900 -768.887207
31.805799 67.272697 -754.650513
35.119499 67.107002 -756.948120
46.282501 69.053101 -760.180115
47.253300 68.521202 -761.723511
29.732901 68.672203 -754.653076
31.491501 69.164299 -754.836182
32.793598 68.861702 -756.180115
48.979500 70.921799 -762.337219
50.717201 71.579597 -762.206970
52.527500 71.832703 -762.854675
53.756699 71.515503 -764.180298
53.770000 70.589104 -765.867126
26.653200 69.975197 -754.246277
29.238001 70.629097 -754.652527
30.546000 70.323303 -756.016724
48.668400 72.434601 -763.365173
50.514000 73.050400 -763.384399
52.320000 73.564301 -763.564514
53.940102 73.573502 -764.548218
54.672501 72.934601 -766.163086
25.311899 71.597198 -754.338074
27.245899 72.059998 -754.697815
28.256599 71.326401 -756.663513
50.450600 75.573601 -762.727417
49.660500 74.413101 -764.351318
51.620399 75.086800 -764.342407
53.411301 75.335197 -765.003723
54.949699 75.297401 -766.029419
55.433201 74.562103 -767.670410
25.019899 73.514801 -754.701477
25.733801 72.641998 -756.750671
49.946701 76.355202 -765.225586
51.778301 76.883499 -765.413513
53.592098 77.281303 -765.829285
55.342300 77.388802 -766.736694
57.043701 77.605301 -767.413574
58.716499 77.682800 -768.327026
23.056499 74.766602 -755.304321
23.089399 73.880600 -756.961121
51.337399 78.600098 -766.435303
53.169399 79.141098 -766.616089
54.652100 79.012398 -767.808228
56.017700 78.812302 -769.056824
19.474600 76.259399 -754.263184
20.555099 75.857697 -755.720093
49.530201 80.081398 -766.908020
51.288101 80.375198 -767.516785
53.058601 80.880600 -767.740723
16.956400 77.520699 -753.950378
18.046801 77.134300 -755.402283
49.238800 82.092003 -767.027100
48.775200 69.822098 -758.859985
72.426804 115.464401 -807.064087
58.200401 118.784103 -795.490601
63.468399 116.395103 -808.186218
67.046898 119.043602 -811.184021
51.515800 129.585495 -790.458679
46.241299 134.042603 -790.023987
49.543999 97.654503 -787.517700
56.438702 115.749001 -794.950195
63.547298 116.278198 -799.407715
66.354301 118.620102 -805.924072
59.628101 118.039398 -792.161377
60.609501 116.657898 -793.007874
61.153801 117.786499 -794.728516
67.541000 114.452301 -801.951782
59.901600 117.258499 -789.833618
62.783401 118.468201 -795.289673
71.591599 117.499199 -810.385315
62.261101 115.938698 -795.456482
58.612499 113.580002 -791.628296
59.134899 114.471497 -793.211182
64.941002 114.830002 -807.187012
46.674198 97.061798 -773.135681
50.245499 96.036598 -786.455811
47.102402 100.206200 -789.944275
48.133598 99.866898 -791.508179
45.688900 100.415497 -791.169983
46.197300 101.387802 -792.674988
47.239601 100.980499 -794.199829
44.254902 100.515297 -792.583313
44.718899 101.788200 -794.189270
45.337799 102.616798 -795.773376
42.970600 109.160202 -799.408081
43.420200 101.844200 -795.527283
43.841202 103.229797 -797.114380
42.906700 103.969498 -798.956909
44.053799 104.798897 -801.394226
43.223400 105.629097 -802.848816
44.274200 104.474297 -803.872986
42.959599 106.080399 -804.608521
41.348701 105.792603 -803.322815
42.967800 106.465797 -806.399292
39.720901 104.002296 -801.694702
38.538799 106.870697 -805.279907
37.891399 106.566299 -807.768616
38.181198 107.928802 -810.018616
9.352600 81.402496 -753.706482
7.103600 81.906502 -753.139893
9.014200 80.526604 -755.313599
5.481000 83.483101 -752.454590
7.298100 81.502899 -754.935913
5.180300 82.764099 -754.197998
3.155500 84.276299 -752.608887
5.435800 81.380501 -755.371277
1.335000 84.787498 -752.538330
2.936300 83.527901 -754.281372
-0.366600 85.523804 -752.303711
0.115100 84.956703 -754.051086
1.206300 83.705002 -755.004211
1.866700 81.974297 -755.023682
-2.410600 85.955704 -751.905273
-1.809400 85.770103 -753.641602
-4.038700 86.762703 -752.329285
-1.417900 84.536797 -755.034790
-3.545800 86.218803 -754.052429
-6.273400 88.015800 -751.928223
-5.530300 87.433403 -753.592224
-8.479200 88.657402 -751.635986
-5.354200 86.056801 -754.836914
-7.656000 88.267403 -753.280212
-10.445700 90.272400 -751.963013
-7.437600 86.953499 -754.565979
-9.915600 89.203300 -753.351379
-12.278300 90.157097 -751.527771
-9.361800 87.875198 -754.562500
-19.106701 94.382797 -744.940674
-18.540800 93.829102 -746.643127
-14.123000 90.819000 -751.466980
-12.557300 90.077202 -753.353027
-11.405200 88.967903 -754.435181
-17.954000 93.126297 -748.250671
32.694901 115.942200 -834.328979
-21.131399 94.179604 -745.427429
-17.570000 93.238403 -750.094971
-16.424700 92.104301 -751.149780
-14.503300 90.883102 -753.284973
-20.298901 93.539200 -747.885315
-19.059900 92.362000 -750.909973
-17.905899 91.992401 -752.375000
-16.749001 91.720200 -753.895813
-15.780600 90.284500 -754.530518
-21.276600 93.109001 -752.218384
-20.168600 92.980103 -753.729004
-19.140301 91.413803 -754.382690
-23.558300 93.887001 -752.297424
-22.451700 93.644402 -753.736694
-25.317499 94.686897 -752.510315
-24.235399 94.133797 -754.007202
-28.353701 95.383499 -752.266479
-27.165800 94.830101 -753.651489
-26.023199 93.993797 -754.833374
26.520000 115.411301 -838.764282
-30.382500 96.136398 -752.321411
27.792601 116.647400 -842.837402
-30.519400 95.344704 -754.024780
-29.510201 95.741898 -755.599976
-32.881100 96.300903 -752.358398
-33.478600 94.415398 -760.803101
-31.674101 94.784798 -760.723389
-32.710499 94.721001 -758.813171
-38.262699 97.653503 -752.145325
-37.136700 96.632202 -753.209778
-35.796600 95.740601 -754.116211
-40.255600 97.308502 -751.924316
-39.506500 96.517899 -753.425293
-42.968399 97.826302 -751.585571
-42.466099 96.701797 -753.067505
-44.931900 97.399498 -751.520813
-44.772099 96.582703 -753.153320
-47.224400 97.344299 -751.381104
-47.010101 96.575203 -753.113525
-49.033100 96.922096 -751.603577
-48.984699 95.693100 -753.031128
-50.692600 96.353996 -752.584473
21.135401 116.542801 -851.250916
20.616899 116.645203 -853.082397
21.941401 116.692101 -856.054077
20.068001 116.960899 -855.014282
20.504700 116.972397 -859.352295
20.350800 116.517899 -861.138916
16.917200 113.520103 -865.933472
15.381000 113.271896 -866.963989
14.153000 112.663300 -868.185730
14.832100 111.457703 -869.437073
12.552600 110.398804 -869.304077
13.675800 110.474503 -870.800293
13.382300 108.937401 -871.871277
11.799300 109.630203 -871.016724
18.493401 118.353798 -861.707275
16.997999 117.686501 -857.175476
19.586300 119.455200 -856.266785
24.929300 118.508904 -846.308228
10.614500 79.631104 -755.457397
11.597700 80.003304 -753.257385
12.617800 79.291801 -754.694702
14.227500 78.464798 -753.324585
15.269700 78.065201 -754.916870
18.725500 75.626503 -756.319092
16.253000 76.936996 -756.008911
36.257000 107.465302 -804.860474
20.960100 74.307404 -756.633972
21.010201 75.141998 -754.021484
23.380600 72.041901 -756.981628
29.051500 69.742401 -757.280823
30.964800 68.797302 -757.354004
45.533501 102.991898 -797.825073
46.502201 101.653503 -796.822327
46.537800 98.391701 -787.604980
46.794899 68.843201 -758.126587
47.928001 98.934402 -788.736816
45.583698 95.326401 -775.265625
47.869598 87.764099 -773.908020
47.990700 95.047302 -782.327393
47.678299 104.177803 -793.252686
47.648201 86.527603 -772.461426
46.578098 93.934998 -779.244385
48.524200 72.540001 -759.079712
45.486900 97.116798 -780.950989
47.687500 83.834801 -770.994080
48.221001 81.809700 -769.869995
50.057598 67.953003 -757.820374
48.311501 99.203697 -796.248230
47.992199 62.115200 -754.581482
42.546600 99.714600 -793.939819
42.647099 101.808701 -797.544617
42.096401 111.326599 -809.842407
47.818199 56.189800 -751.632019
41.894699 103.605499 -800.511230
42.561199 106.860100 -808.248474
40.233101 104.866600 -804.541504
36.427898 114.484596 -832.119812
26.358500 69.965401 -757.288879
22.427601 115.481796 -848.561829
22.458700 115.233200 -863.723022
7.138500 79.252403 -755.601013
13.250200 78.032402 -755.934326
33.035500 67.222099 -757.718018
36.227001 108.843803 -815.273193
39.739899 105.598801 -806.287170
54.967899 76.311501 -763.888123
50.284500 95.152603 -781.386414
48.905701 101.116203 -793.279480
52.316002 102.703598 -784.650391
53.734901 83.471298 -769.554688
53.629700 85.248901 -770.555176
53.525700 86.935699 -771.531616
53.393101 88.484497 -772.673584
50.408298 81.169800 -769.030212
50.295601 82.819702 -770.130127
50.199600 84.387299 -771.108215
50.093800 86.063301 -772.172607
49.936699 87.548401 -773.499817
4.956800 81.472397 -752.290283
9.340000 79.212997 -752.641113
12.209300 78.238998 -752.766785
15.101900 76.612297 -753.466797
46.437901 96.674301 -786.841797
23.092800 73.190102 -753.927979
46.909000 95.897102 -785.215881
47.701801 97.556801 -785.657104
48.001701 96.309196 -783.799683
49.595501 96.157097 -782.801392
51.314301 105.304001 -779.790527
30.347099 71.852501 -757.091187
46.741402 93.678200 -775.563110
48.379501 96.763199 -776.835327
46.828400 91.251999 -771.975220
33.572102 66.144501 -754.700195
37.565701 65.509201 -757.481873
39.050900 64.277901 -757.960022
40.790298 65.553703 -760.479919
-10.635400 88.385101 -751.565308
-6.073200 89.041801 -754.722229
-5.834100 85.926498 -752.147095
-1.764200 84.245201 -752.153870
10.068100 82.225098 -756.319885
1.700400 82.646103 -752.196899
24.234301 74.841400 -758.024292
17.301901 75.880997 -753.192871
43.711700 53.428600 -755.791077
50.252800 56.479198 -754.386719
43.744999 50.009701 -754.955627
43.734600 46.400200 -754.456482
43.556499 34.479099 -751.825623
44.553902 35.887199 -751.163818
52.812199 39.536701 -749.789612
44.700199 38.231201 -750.727905
44.093601 35.421398 -753.372620
51.853500 46.894001 -754.121521
44.013199 43.441898 -754.237305
44.232899 41.720901 -753.109375
44.630501 43.328999 -752.185486
44.937599 40.085400 -750.943481
51.738098 39.492699 -751.776489
44.093498 31.577801 -751.560120
44.553600 33.752701 -750.335815
46.009998 53.896500 -738.810425
44.523602 27.634100 -749.049072
44.955502 29.254499 -748.160278
43.412601 20.979300 -747.922913
44.561901 22.466999 -747.171082
45.020401 24.064600 -746.315796
45.773399 25.614700 -745.505005
43.898499 15.249900 -746.763489
50.946400 21.113600 -744.039978
43.847198 12.907800 -744.375183
43.978100 9.277400 -743.303101
50.274101 12.281900 -742.139893
42.987900 5.471700 -742.991699
44.209499 7.080100 -742.232727
50.457199 7.829400 -742.263977
50.863201 10.288100 -741.004578
43.161999 2.620900 -743.198914
51.572601 8.126700 -740.655396
44.416302 10.995900 -742.718811
44.455002 14.632500 -745.118225
44.719799 16.218700 -744.234497
49.782799 18.477501 -743.227295
44.352699 17.832001 -745.067322
51.961399 11.837300 -741.232300
42.958000 3.894500 -741.833618
39.434200 0.864200 -740.062927
41.827999 -3.204600 -742.359680
43.441700 -2.363700 -741.998779
40.656502 -3.352300 -739.486023
42.334000 -4.006500 -739.921326
49.338699 -6.119500 -738.922485
52.282501 -4.871200 -738.437073
53.452301 -6.168400 -739.172913
43.945599 -4.137000 -741.366699
44.214802 -2.207800 -740.327393
43.792900 -0.440600 -741.589417
50.531898 3.700700 -739.757690
52.265800 2.284800 -740.669800
42.228001 0.116000 -743.120789
51.753799 6.035200 -740.465088
44.145401 2.551000 -741.251587
40.337399 3.377200 -741.613403
43.719799 7.006800 -744.414673
40.332901 5.253600 -743.457397
44.531700 12.253800 -745.956116
51.633701 18.176201 -743.139771
48.453098 19.829700 -743.050171
42.065102 15.523500 -746.927612
43.571201 17.585600 -746.795410
44.780102 19.562500 -745.726379
45.412800 21.149000 -744.840576
48.272202 27.609200 -743.408691
42.785702 23.750700 -747.171814
45.065300 23.221300 -748.776184
45.058300 25.689800 -747.268372
46.167198 27.646999 -746.155518
43.233898 25.392700 -748.565186
44.711102 29.519100 -750.135986
45.012901 31.175501 -749.117615
44.337299 37.347500 -752.578125
44.429298 39.283600 -752.603516
42.745701 38.960201 -753.918579
44.392200 48.092701 -753.943726
43.907200 48.008801 -757.681885
44.019901 50.917900 -756.570679
43.884102 54.605701 -757.331726
43.361198 56.803001 -756.786987
45.634499 63.226101 -757.210205
41.509998 69.245102 -754.170471
52.989700 62.477501 -759.513184
45.545502 61.665001 -760.654114
37.391399 67.826797 -757.228394
45.623299 64.147003 -760.664185
23.278400 71.254898 -755.255981
34.188499 69.067398 -757.403320
46.465500 63.143600 -762.098389
20.782301 73.294098 -754.390991
53.985298 67.383400 -759.347229
18.485001 74.570602 -753.933472
46.523102 64.980698 -762.152588
47.302502 66.637100 -762.085876
47.240002 65.843803 -763.783875
6.941200 80.052200 -753.098328
49.011799 69.017799 -761.922974
47.586201 67.678596 -763.771729
46.396500 65.844002 -765.570618
47.813999 69.650398 -763.645020
14.384400 79.722099 -757.025024
45.098999 68.831703 -765.649414
48.189499 68.922997 -765.599182
48.576302 70.768700 -765.293030
48.952301 72.667603 -765.200684
49.456902 74.067902 -767.493530
49.875401 75.785301 -768.065186
49.891102 77.554298 -768.586487
49.099701 76.983803 -770.931519
50.444000 79.245102 -769.088501
57.859501 79.070099 -769.341614
54.246601 81.551102 -768.966797
48.221100 80.332901 -771.425903
50.080700 80.310402 -771.480530
52.028999 82.808296 -769.424377
54.457100 84.823601 -767.781982
56.753799 83.249100 -769.145813
48.599701 82.295601 -772.400085
55.389000 84.376602 -770.768188
50.285198 83.105003 -772.683472
51.682301 85.531403 -771.282715
46.459999 82.919800 -773.997681
47.683201 86.930801 -770.569519
48.198299 83.566597 -773.720276
51.551300 87.257004 -772.401917
49.636501 85.560097 -774.868408
50.087898 87.401901 -775.949585
50.451000 88.974602 -774.556213
51.913700 89.887802 -773.791382
53.842201 89.889000 -773.858826
88.273697 80.051498 -785.497986
49.739101 89.468102 -777.149170
50.796902 90.646202 -776.118530
51.843498 91.832497 -775.080017
53.739700 91.738899 -775.236694
77.014099 82.733398 -784.300415
58.119701 92.331100 -776.320923
49.693298 91.804001 -777.797424
51.084702 92.818802 -776.917480
52.353401 93.834999 -776.031372
54.250198 93.751602 -776.184204
78.848801 84.853897 -785.374023
80.844002 83.446503 -786.751709
57.034901 93.644501 -777.514282
85.325996 83.500198 -788.081299
49.185398 91.763100 -779.836670
53.113800 95.422096 -776.594482
57.354000 95.328796 -776.860596
49.663502 93.397400 -779.078491
51.008202 94.473999 -778.130188
51.738098 96.202400 -777.822327
48.204102 92.830299 -781.398621
53.042801 97.404999 -777.296814
59.588001 98.363701 -776.682617
51.303600 95.328003 -779.773376
56.036999 96.641403 -778.744812
94.514603 83.751999 -792.679871
56.556198 98.605904 -777.555176
51.823898 97.766098 -778.779114
48.596199 97.840302 -779.166382
52.975201 99.110497 -778.171875
113.320702 79.773804 -799.615479
52.000198 97.006699 -780.738525
57.886902 100.316902 -777.867310
115.243301 79.428497 -800.747620
47.656898 94.015999 -784.003418
51.536201 95.594704 -782.685425
54.201302 100.539101 -778.074219
116.830704 79.236702 -801.719727
56.993301 99.420799 -779.890015
51.742599 99.440201 -780.120117
118.338600 80.645798 -801.799011
119.565804 82.156898 -800.405029
120.874100 83.168404 -799.497620
52.726501 100.791100 -779.250427
48.607800 100.367203 -779.663086
59.606201 100.161003 -780.546387
59.692699 97.647797 -780.708923
56.472301 91.494003 -773.210693
56.537800 84.618599 -773.311584
47.500099 87.219299 -767.075073
57.204102 84.136597 -771.036987
21.789301 77.475899 -756.646606
13.271600 76.938797 -753.922607
44.421001 65.611298 -762.962280
34.478500 64.468201 -755.621887
58.477901 84.959900 -772.939880
14.670100 74.640404 -754.125183
55.733200 86.855499 -771.924988
55.535400 88.461998 -772.912109
-0.275100 83.252296 -752.612671
-4.169200 84.867104 -752.483826
49.526100 96.713402 -784.838623
-0.858800 88.091301 -754.758484
49.361000 103.647797 -783.570618
-7.821400 86.960701 -751.899292
45.864101 97.190102 -788.909729
-10.889100 86.260498 -751.629028
45.120602 98.518600 -791.050903
14.892700 77.800301 -756.967896
46.992901 51.314701 -740.204773
50.941502 36.045300 -747.533691
49.537601 41.737999 -748.751221
51.422401 49.290699 -750.541321
50.514198 46.539001 -749.017273
-29.581499 95.266296 -757.368896
-30.203600 94.898903 -759.153625
-31.173401 95.952797 -756.406616
-32.294998 95.710098 -754.403870
-34.721699 96.099899 -751.916016
-51.837700 97.632004 -750.031677
-53.775600 97.542297 -749.859070
-53.949699 96.597099 -751.489075
-13.669300 89.857597 -754.837524
-18.828199 91.692703 -756.173828
-52.845299 96.338097 -752.944275
-54.981300 96.190804 -752.955017
-48.741901 99.496300 -753.493896
-36.585701 96.877998 -751.453491
-33.939800 91.943199 -761.508484
-26.949600 94.406502 -751.343811
-28.941200 96.328400 -753.959106
-32.245399 97.957497 -760.861694
-18.640499 90.693001 -748.822327
-49.948700 98.006203 -750.388916
27.390400 73.606598 -756.615417
30.416901 72.067703 -754.373474
35.088902 65.162903 -758.241577
46.879902 47.208302 -740.723511
44.974800 40.328602 -754.355713
16.947599 76.761902 -757.693115
51.564201 34.455601 -748.296997
47.193501 49.034901 -740.967896
50.770401 37.487099 -748.812317
44.778198 42.212200 -755.382629
45.132801 41.223202 -757.748230
46.749401 40.104599 -758.461304
44.605202 45.154598 -756.160522
48.427601 46.892502 -749.377686
50.742599 45.538898 -751.347229
50.976601 50.119598 -753.423218
51.751900 51.234299 -752.080383
45.416302 52.647999 -761.853088
40.931900 63.471600 -757.538086
44.474201 62.745300 -755.068481
45.935799 58.670200 -762.970215
52.055500 59.884800 -755.331299
50.067699 62.581902 -755.483826
46.660702 61.126400 -762.603027
46.167500 59.410301 -765.327576
47.859001 63.448700 -763.707825
48.408798 63.208401 -766.562622
51.226101 68.851402 -756.106018
48.321499 65.705597 -765.470703
49.635502 63.081402 -768.420471
49.450901 70.158302 -766.950378
48.914799 69.375504 -769.500427
50.584400 68.958702 -767.825928
49.431999 71.049301 -768.654785
49.736500 71.997704 -767.110413
49.243000 71.513100 -771.095825
50.885502 70.722397 -769.921509
50.579201 72.890297 -769.119873
48.694099 74.205803 -770.278198
49.281898 73.815300 -772.780579
54.182999 77.794998 -761.465210
50.099998 75.648903 -772.084473
54.991798 77.987396 -763.151184
56.048901 79.939499 -766.093323
54.466801 82.558701 -767.293823
50.526001 84.749802 -773.483582
51.272400 83.688004 -776.337830
49.960499 83.031097 -778.303589
55.766701 86.262703 -769.833130
54.771900 93.198502 -774.013306
56.663502 95.053497 -773.215088
52.228500 94.523399 -781.194885
44.872799 98.332397 -792.904419
51.202202 98.310997 -784.275513
50.750198 100.378899 -782.000000
53.019199 99.301903 -781.523804
44.198601 99.411499 -794.734680
53.469700 102.287300 -778.401184
49.470100 99.802200 -787.979919
52.209999 100.089302 -783.746277
55.039299 102.334099 -777.055725
43.858601 99.832001 -796.695374
53.228100 101.111603 -781.747986
50.735699 98.314003 -786.065613
52.566898 99.966400 -785.711975
42.493698 101.811401 -800.280579
53.493999 104.267197 -779.774902
54.469200 104.365303 -778.140015
53.864601 102.516701 -783.586426
41.147701 103.417099 -803.468811
53.881100 106.116402 -779.596191
55.268299 106.397003 -778.233582
54.146198 102.434097 -787.416016
53.781700 104.293602 -785.029419
39.381100 105.184898 -808.415588
54.241600 107.918098 -779.934082
53.766899 104.927399 -787.512695
55.046700 109.001297 -778.677124
53.632500 104.969704 -789.675903
52.935299 106.887398 -787.612915
55.393902 105.244598 -786.260376
55.422798 108.047302 -781.488892
54.678101 107.245499 -785.915405
55.066002 109.922096 -780.658386
55.033600 110.898300 -779.037598
56.289101 110.502098 -777.578430
56.116299 105.685799 -788.008301
52.453800 109.864197 -788.796875
54.070702 108.627899 -788.152710
54.294601 109.420898 -786.338684
55.661098 108.746101 -785.132385
53.821602 108.043999 -791.095093
55.995998 107.514000 -788.140930
55.627399 111.721497 -781.099487
55.179100 112.930298 -779.694702
56.325901 112.560303 -778.302490
55.654598 110.439796 -784.357483
53.939701 110.744102 -788.145813
54.265598 111.337502 -786.385986
55.871601 109.091904 -789.113770
56.177898 110.317703 -786.114075
56.176601 113.466301 -781.284912
55.528000 114.754402 -779.975586
56.573601 114.506401 -778.437317
53.666302 113.192902 -788.344727
56.613098 111.967201 -785.021423
54.971298 113.353897 -786.978516
54.568901 112.797897 -790.285278
55.850700 116.550400 -779.813171
58.313702 108.496803 -792.568420
56.535801 115.291199 -781.822876
56.921600 116.608200 -778.257019
54.591499 115.470200 -785.315308
57.855598 109.461197 -790.711121
56.302101 110.961098 -789.742920
52.170101 113.881500 -790.680115
27.691299 114.579201 -837.494019
53.331001 110.251099 -791.208130
57.144501 107.198700 -789.897095
55.495602 105.187798 -793.649475
55.044201 107.592697 -789.806519
56.547699 104.108704 -791.479370
55.803299 109.208603 -782.957886
56.136398 106.384598 -792.187378
55.227001 112.008400 -783.135376
55.050400 112.902496 -784.735229
53.187000 112.606499 -792.005676
53.960400 115.055603 -788.362976
51.103401 118.177803 -787.713623
56.427101 112.925003 -790.156677
56.871300 117.422302 -781.330322
56.320301 118.692001 -780.007813
57.193501 118.795799 -778.312500
58.942101 110.550301 -794.244324
54.146599 116.876404 -791.214111
54.783600 117.884003 -788.368713
57.632301 119.198898 -781.252930
56.788399 120.541901 -780.315674
58.817001 112.269203 -793.313599
59.893600 114.577797 -787.454712
60.327202 110.975403 -795.761414
56.070801 120.054497 -786.990479
56.623798 112.923698 -794.493896
52.976101 118.496201 -790.865601
55.694901 118.295898 -786.559692
60.984100 111.503799 -785.280823
44.846500 107.101997 -804.722900
47.158199 104.488503 -795.959229
50.417400 100.699203 -789.596619
51.583099 100.601601 -787.705200
54.353100 102.205902 -785.337402
41.236099 109.782700 -799.526978
54.460499 102.761902 -775.107422
54.993198 105.695702 -781.153870
54.827499 97.550102 -785.935974
47.738899 103.113899 -794.881470
47.485699 105.340500 -799.409973
32.589401 117.047897 -828.277100
40.198700 112.810402 -812.414612
22.779100 120.562401 -850.325623
55.274300 114.937401 -783.666077
57.894798 104.714798 -782.069885
58.209301 114.110901 -785.770020
51.577000 120.822800 -793.374817
56.433701 114.914803 -792.046387
56.907299 112.036102 -799.087219
53.256802 116.219498 -789.621826
52.409901 115.747299 -792.422119
54.568501 96.968300 -774.370117
43.529099 98.175797 -797.428223
54.711800 87.793900 -769.701904
30.259701 72.504097 -758.864929
3.758400 83.035599 -756.894775
33.713699 68.116203 -754.726807
51.128601 41.184898 -750.264282
49.597500 56.005798 -752.405579
45.893101 49.702099 -760.203430
51.862400 66.098503 -758.086975
46.364498 59.289600 -761.177002
52.239101 72.081596 -759.648621
53.727798 70.539597 -760.133484
54.253502 73.273697 -762.286316
54.084400 80.811600 -763.264221
57.561798 81.950104 -767.841309
48.931198 78.590500 -772.260071
49.862701 83.442200 -774.668091
54.993500 89.078499 -771.143127
54.355202 94.507797 -772.230530
57.151798 89.257500 -773.473816
51.989101 103.968498 -786.421021
50.143600 87.110298 -778.255981
49.432598 88.662598 -779.119080
50.685101 78.077599 -774.809021
51.012501 78.832199 -770.831116
57.442001 78.454201 -765.783691
48.284401 65.457497 -767.838928
49.211498 67.304802 -765.398682
49.910999 66.454803 -766.924377
48.122398 60.360500 -763.993286
52.097401 69.301201 -759.433777
45.587502 57.040600 -764.151001
47.892200 59.123798 -762.323181
46.119301 57.440300 -761.484009
49.510502 40.403702 -764.124390
46.966400 51.203602 -759.342896
45.541901 52.843700 -758.451721
45.644798 49.149601 -757.826416
-44.201801 98.472702 -753.466125
51.569401 40.342701 -748.670715
51.651199 38.657299 -747.555908
-38.770302 99.296402 -754.418701
-32.816601 92.976303 -759.651001
-35.488998 97.690102 -754.655823
-34.007801 96.274498 -754.001282
-49.001099 96.591599 -749.590515
-54.430401 98.153603 -752.409912
40.928600 6.141900 -741.024292
44.904800 4.604000 -743.766479
46.683399 4.731200 -744.949097
44.411900 5.032900 -741.487488
45.569099 6.319100 -744.755676
47.318802 7.800600 -745.274170
45.585098 8.457500 -745.119873
46.784599 10.288000 -746.229614
44.773800 10.930500 -744.647827
49.258099 11.295400 -748.177917
46.729099 12.122300 -746.493408
45.827801 13.754400 -746.555298
47.521198 13.729500 -747.254211
46.523102 15.310600 -747.324219
45.408401 16.780600 -746.951416
47.162498 17.594900 -747.913879
45.684502 18.882000 -747.694214
48.430199 19.415701 -748.537598
46.783001 20.533600 -748.580811
47.470901 22.202101 -749.368286
47.052898 23.981300 -749.914612
45.646999 25.247900 -749.563416
46.500500 25.817801 -753.329102
46.925598 25.567499 -751.408386
46.194401 27.082600 -750.591309
48.348000 27.078199 -751.613586
48.453800 28.510500 -752.883972
47.000500 28.975901 -751.776611
46.080399 30.607901 -751.451782
48.108200 30.477400 -752.620605
46.874199 31.920900 -752.494629
45.468899 33.001202 -751.752319
49.447701 31.883400 -753.518372
33.097301 115.372902 -831.158081
39.779999 109.406601 -811.712402
53.924301 108.594902 -784.553284
53.143002 110.659897 -785.025513
55.654900 111.292297 -787.596375
58.749699 110.336098 -789.357300
57.972401 112.007599 -789.747681
55.782101 114.211800 -788.944214
58.257801 113.827698 -789.825989
53.497299 116.232903 -786.668518
65.161400 117.636002 -800.705688
64.248001 120.012703 -795.617981
64.789299 118.975601 -792.924927
65.773598 121.630203 -795.421509
56.962200 121.550499 -778.750000
58.988499 118.505096 -780.227417
59.653099 120.734703 -788.676270
68.408096 122.198097 -805.080872
59.519100 124.521103 -784.931274
59.575500 124.966301 -780.738586
58.561001 126.420898 -780.043213
57.809700 127.126900 -778.492920
60.512699 127.602798 -780.238403
58.995300 128.702499 -779.921997
59.995800 129.537796 -781.227295
60.967899 129.434799 -779.667725
59.621498 131.653900 -779.081299
61.509201 131.376404 -779.299377
59.705700 133.328506 -778.299011
62.002201 133.157394 -779.209473
63.672100 132.572693 -779.962585
61.054600 134.631500 -778.614014
59.886700 134.641693 -777.025391
60.474998 136.682800 -777.504883
61.459900 138.255096 -777.339417
63.604801 137.482407 -777.850586
58.126701 141.735107 -777.550476
61.012299 138.886307 -775.671814
63.428501 139.307205 -777.405396
61.216702 140.783798 -775.861877
59.958801 142.197006 -775.716125
59.733002 140.519501 -772.638977
62.770500 140.959000 -776.907471
58.549500 143.388397 -775.221619
62.716900 142.470703 -775.831726
62.718300 143.703796 -774.449585
66.019203 144.965393 -775.013672
63.910702 146.331406 -773.418518
66.812698 146.994293 -774.162598
64.875999 147.914001 -773.289124
66.921501 148.779099 -773.612183
65.333000 149.105606 -771.942993
67.437798 150.298798 -772.708130
66.203201 150.797394 -771.386414
69.376297 150.501495 -772.054688
68.088997 151.825607 -771.800415
71.027298 154.438202 -769.133789
72.124100 155.427200 -767.885071
72.488503 157.791702 -769.412720
74.261200 156.640503 -768.676086
74.790802 155.634598 -765.932373
73.380302 157.322906 -766.189697
74.753899 158.052704 -764.979126
75.158798 161.587906 -763.927917
77.130302 161.805496 -759.111572
65.313904 143.572495 -778.136414
59.555801 122.513100 -780.530518
58.022499 123.546204 -780.148682
57.811901 127.720901 -788.414124
58.750999 124.945297 -788.476379
77.768799 79.055199 -782.783386
49.542400 73.913902 -761.343506
53.228901 73.006599 -768.465820
24.798401 70.806198 -756.570984
21.777700 72.672798 -756.186890
43.490398 48.258598 -779.984070
44.574699 48.182098 -781.581177
45.285900 47.807701 -783.292114
46.977600 47.757500 -784.024780
48.149700 47.116600 -786.887878
53.355701 45.215500 -797.669983
54.338402 45.058601 -799.291992
56.295101 45.265900 -801.458313
43.890301 47.655300 -778.135925
45.383999 48.039902 -779.318787
46.727200 48.285500 -780.587585
47.890499 48.291500 -782.108826
48.898300 48.146999 -783.732727
49.729000 47.826500 -785.482483
56.419998 45.621101 -798.809570
48.435200 48.654400 -779.989075
56.327599 46.471199 -794.795227
57.191601 46.243198 -796.393616
45.356998 47.597401 -776.109314
46.889301 48.089401 -777.104492
48.434799 48.602901 -778.073425
50.307999 48.959900 -779.787720
51.507500 49.017502 -781.233521
55.838100 49.301601 -786.298218
56.431999 48.829800 -788.032471
56.630501 48.093102 -789.790527
50.248100 48.948898 -777.939880
55.098701 50.088100 -781.904785
55.730598 49.670502 -783.571472
46.003101 47.389099 -774.111511
47.614899 47.952801 -775.040588
49.241901 48.540699 -775.939880
54.255501 50.079601 -779.264893
51.025501 48.919498 -776.269226
53.592201 49.869801 -776.708496
47.588200 47.349499 -773.157593
49.566399 48.186298 -773.950684
52.251202 49.369598 -774.929016
55.594898 46.753201 -790.629395
50.224400 47.654800 -771.934875
51.388901 48.513302 -773.187683
44.107101 46.723202 -787.034119
43.645802 47.564301 -784.869324
45.945999 46.720100 -787.056519
46.624199 46.091900 -788.722290
46.449100 45.688000 -790.503296
44.476700 46.346901 -789.504028
53.544102 48.590099 -783.475525
52.790501 48.234501 -785.200684
53.355000 47.881500 -786.972778
51.280399 47.761902 -786.616882
51.618301 47.266102 -788.392517
51.965302 46.749001 -790.166504
52.323799 46.204700 -791.938416
52.549000 45.986000 -793.793518
53.753101 47.461201 -788.789673
54.404099 46.300701 -794.122375
56.721901 47.499802 -793.175171
51.470200 44.971600 -797.335083
54.925598 45.730099 -796.760986
49.711601 44.228600 -799.911682
51.550301 44.705200 -799.547180
49.088699 43.807701 -802.057129
50.776199 44.457699 -801.544800
52.666401 44.699902 -801.378113
50.085701 43.957100 -803.607910
51.904999 44.371601 -803.294312
53.793301 44.658798 -803.089417
48.853901 43.758301 -805.226318
55.088402 44.819000 -804.452026
50.544601 44.035801 -806.149292
52.376999 44.472698 -805.815918
48.931801 43.797100 -807.077026
53.793701 44.590698 -806.979614
51.575001 44.064899 -807.684875
50.251701 44.015499 -809.211121
52.846500 44.343800 -809.006287
45.346100 44.869701 -795.960327
44.648899 45.733700 -792.422485
46.469601 45.368301 -793.030518
48.234299 46.220200 -790.451904
51.944099 49.166302 -778.750916
49.779499 48.424999 -781.785400
53.348598 49.266300 -781.048218
50.790600 48.298801 -783.981201
54.566200 48.806801 -785.066895
45.449902 47.308800 -785.347229
49.770000 47.090099 -787.746277
50.086399 46.451698 -789.940613
53.760601 46.739601 -790.883118
48.393600 45.142101 -793.251099
50.233002 45.436298 -792.989990
46.970901 44.661301 -794.939270
48.278198 44.457199 -796.319702
45.987801 44.251202 -797.715210
47.787701 44.157902 -798.335083
46.292198 43.907001 -799.606812
47.862099 43.328300 -803.489502
46.948200 43.515598 -801.731812
49.689701 44.369900 -798.030212
52.679501 45.223999 -795.882080
50.085602 44.708900 -795.638672
55.095402 46.651901 -792.420410
37.402199 70.938698 -720.054321
37.658699 70.241402 -721.813171
37.626999 69.366203 -723.557312
38.005901 68.748596 -725.314209
38.217098 68.022598 -727.072510
38.446499 67.303902 -728.839722
38.241600 72.793098 -715.553772
38.601501 72.146698 -717.338501
39.533901 66.482101 -730.083313
39.693401 65.742104 -731.797424
39.461899 69.834099 -721.538025
39.449299 68.981201 -723.254578
39.765099 68.308197 -725.031006
39.852798 67.218300 -727.359070
40.343300 64.678299 -733.155396
39.843800 75.477097 -709.169189
40.225498 74.870003 -710.892578
40.479801 73.738503 -713.516724
40.348701 72.304901 -716.258179
40.741299 71.705399 -717.980286
40.652699 63.471802 -734.580872
41.452301 73.117500 -714.970215
41.134899 67.463097 -726.033325
41.209400 66.354500 -728.377075
41.395500 65.588799 -730.167725
41.724701 74.339500 -711.949219
41.885399 70.874802 -719.189575
41.453800 68.795898 -722.864014
41.769901 64.643997 -731.697388
40.960400 61.842098 -736.360413
40.872101 75.583298 -707.440186
41.595600 74.995499 -709.558716
42.528999 72.265198 -716.319824
41.965302 69.676903 -720.891113
42.092800 68.015297 -724.446716
42.007999 63.645100 -733.265076
42.842999 73.542397 -713.219177
43.240200 71.226898 -717.779297
43.129200 67.301903 -725.781982
42.797100 65.571503 -728.949524
42.328999 62.518902 -734.686890
43.168598 74.523598 -710.410278
43.611099 72.736900 -714.722229
42.621799 75.288101 -708.028015
39.499001 70.650597 -719.658325
44.239601 74.518799 -708.565308
44.848701 73.875504 -710.838013
45.065800 73.228996 -712.618713
44.800900 71.728798 -715.771118
44.402401 70.181602 -718.862793
44.103699 68.425400 -722.567993
44.132801 67.707703 -724.274780
43.697899 66.227898 -727.163208
46.394600 72.247902 -713.539185
46.364899 70.966904 -716.461426
45.867298 69.301300 -719.679199
46.051300 68.626404 -721.471619
46.066299 67.870003 -723.238281
46.033001 67.114700 -724.941223
44.109299 62.209599 -733.836670
43.522900 61.177502 -735.478394
42.838200 60.014801 -737.297119
47.768600 71.433899 -714.436218
48.926601 70.127602 -716.715088
49.050098 69.420898 -718.471924
49.859001 68.033600 -722.622375
49.866798 68.341499 -720.566223
50.820202 67.286201 -724.108582
50.981201 66.616501 -725.813782
51.206799 65.941498 -727.610107
51.320499 64.900200 -729.185791
51.260502 63.776001 -730.733582
51.451401 62.254501 -731.793579
51.625500 60.409302 -733.383789
51.418999 58.999901 -734.619995
48.509602 54.866600 -737.636475
46.674999 55.853001 -736.729919
45.432301 61.050900 -734.625122
46.435200 59.652302 -735.377808
47.304699 58.317101 -736.444580
44.165401 63.284500 -732.116211
48.237000 56.825001 -737.086975
45.853401 61.807999 -732.824219
44.515202 59.402500 -736.705688
43.530201 64.561699 -730.295410
44.742401 65.082703 -728.226807
45.290199 63.926399 -730.178711
45.848202 66.089401 -726.502197
46.468700 64.704903 -728.724426
47.035198 63.428001 -730.658691
47.562099 62.185200 -732.047180
48.034199 61.098900 -733.495117
48.606998 59.716000 -734.767212
49.225399 58.158798 -735.664917
47.508400 65.489799 -727.068481
48.108101 64.086403 -729.306213
48.325802 66.111298 -725.524170
38.631901 73.822502 -711.122070
41.096901 73.688797 -706.996521
38.489799 73.057297 -712.999390
46.659599 72.707100 -711.299011
46.461300 69.647400 -717.797607
44.201099 58.023102 -738.112793
48.115501 68.072403 -721.053772
45.799301 57.115898 -737.765381
48.732700 66.821098 -723.467407
49.525501 63.125099 -731.021179
49.445000 61.853500 -732.492126
49.562599 65.142303 -727.752319
44.136799 69.093597 -720.419922
-82.607300 55.523102 -735.995728
-82.310097 53.994301 -737.094421
-82.237396 52.388599 -738.110718
-82.347900 50.593899 -739.136475
-83.060501 55.523300 -737.869385
-83.005798 53.911499 -738.877930
-82.535896 52.476601 -740.007324
-83.278900 52.033100 -741.692383
-84.466400 54.923000 -740.977722
-84.734901 54.419701 -742.802612
-60.077599 102.041901 -728.396423
-58.777401 102.119698 -729.691711
-57.824501 102.129700 -731.274719
-57.407700 102.652397 -733.630676
-54.613400 102.884804 -738.591919
-54.865799 101.752098 -741.273315
-55.052399 100.776802 -742.899170
-55.218201 100.034302 -744.662781
-55.410000 98.952103 -746.126770
-55.571800 98.240196 -747.882080
-55.759998 97.245697 -749.492676
-55.931599 96.410797 -751.147217
-56.444599 102.635902 -735.246704
-56.559601 102.444099 -737.099609
-56.735298 101.691399 -738.784424
-56.909199 100.959702 -740.483398
-57.106400 99.971603 -742.014893
-57.284801 99.216400 -743.747314
-57.466900 98.437698 -745.496216
-57.649300 97.612297 -747.135010
-57.831402 96.838699 -748.896179
-58.000000 96.144302 -750.581909
-58.178200 95.370102 -752.262817
-58.307999 95.063499 -754.131226
-58.551701 101.357903 -734.384399
-58.721401 100.778198 -736.162720
-58.870499 100.399597 -738.045410
-59.014400 100.063202 -739.935303
-59.193802 99.423599 -741.750977
-59.380501 98.695900 -743.486877
-59.557701 98.049896 -745.243774
-59.743099 97.301598 -746.904175
-59.931999 96.528297 -748.569519
-60.143600 95.526199 -750.101807
-60.319901 94.867203 -751.810791
-60.478600 94.401398 -753.661682
-60.618301 94.093498 -755.541626
-60.775700 93.641403 -757.402283
-60.898701 93.471100 -759.304810
-61.013302 93.367203 -761.214172
-61.299599 92.056396 -763.396606
-60.348598 101.442596 -730.380371
-60.506699 101.073303 -732.243774
-60.690701 100.479797 -734.018677
-60.852798 100.049103 -735.802673
-60.992500 99.823303 -737.689026
-61.165298 99.323601 -739.492920
-61.348499 98.712700 -741.213989
-61.526402 98.144798 -742.945313
-61.695400 97.656097 -744.710083
-61.917099 96.727203 -746.338013
-62.139099 95.801903 -747.980225
-62.352402 94.950996 -749.650391
-62.542198 94.290901 -751.367126
-62.719799 93.775299 -753.218506
-62.901299 93.187302 -754.962280
-63.054001 92.869698 -756.855103
-63.164799 92.830902 -758.685425
-63.318802 92.504601 -760.578125
-63.471100 92.147003 -762.368286
-63.645699 91.622101 -764.144897
-63.798401 91.266502 -765.944824
-63.982201 90.678299 -767.729919
-64.173401 90.038696 -769.520630
-64.519997 88.157204 -771.039429
-64.573799 88.552597 -772.918701
-64.670601 88.625603 -774.774475
-66.210602 79.040100 -778.595825
-66.080002 80.539902 -779.913086
-62.167599 100.836403 -725.624084
-62.191799 101.444603 -727.404175
-62.373001 101.007202 -729.260925
-62.549000 100.610901 -731.126770
-62.765499 99.853401 -732.804016
-62.940300 99.429901 -734.591370
-63.091202 99.216797 -736.482788
-63.282200 98.691101 -738.289978
-63.450600 98.322800 -740.102112
-63.643101 97.754097 -741.833130
-63.858200 96.995796 -743.487305
-64.024399 96.650902 -745.318176
-64.377502 94.862503 -746.781982
-64.574898 94.258499 -748.509583
-64.788803 93.534500 -750.222290
-64.932999 93.333099 -752.036011
-65.141602 92.654602 -753.770508
-65.372200 91.771400 -755.379883
-65.513199 91.597900 -757.207825
-65.647697 91.472000 -759.041077
-65.759499 91.509399 -760.893127
-65.901299 91.328598 -762.715576
-66.004601 91.424599 -764.566406
-66.171402 91.063301 -766.370178
-66.339699 90.693901 -768.177979
-66.540398 90.097504 -769.974670
-66.804298 88.875099 -771.331726
-67.040100 87.951103 -772.930298
-67.258499 87.202003 -774.656128
-67.448799 86.654198 -776.402100
-67.668098 85.863602 -778.047485
-68.767601 78.920197 -779.445984
-68.286301 82.422997 -779.898621
-63.996300 99.466400 -721.002319
-64.026299 100.081001 -722.731689
-64.077698 100.594498 -724.541077
-64.126503 101.119499 -726.338684
-64.314903 100.764801 -728.197998
-64.567703 99.898003 -729.857483
-64.797203 99.190598 -731.534912
-65.002502 98.693497 -733.325378
-65.182404 98.412697 -735.223328
-65.401001 97.792603 -736.935486
-65.595596 97.378700 -738.754272
-65.817596 96.794601 -740.590027
-66.021004 96.334503 -742.432129
-66.224197 95.880302 -744.284790
-66.668404 93.803299 -746.018616
-66.849503 93.464104 -747.810303
-67.093201 92.679398 -749.519226
-67.265297 92.409203 -751.331482
-67.469101 91.915001 -753.106689
-67.730904 90.963600 -754.711426
-67.828102 91.222504 -756.614075
-68.069801 90.419998 -758.257202
-68.320297 89.562599 -759.905396
-68.575401 88.679703 -761.563782
-68.735397 88.507797 -763.417725
-68.758202 89.574402 -766.011719
-68.837700 89.941399 -767.897827
-69.095596 89.050903 -769.578491
-69.355103 88.106796 -771.167480
-69.572502 87.502098 -772.894714
-69.796997 86.854797 -774.630493
-70.054298 85.995796 -776.370178
-70.311401 85.095901 -778.019714
-70.606499 83.754700 -779.254272
-65.629898 98.688202 -720.336487
-65.685898 99.438400 -722.281982
-65.783699 100.484001 -725.211304
-66.073898 99.618896 -726.857117
-66.314903 99.128899 -728.628296
-66.602303 98.241699 -730.203186
-66.776100 98.237297 -732.100281
-67.000999 97.917900 -733.999084
-67.265404 97.305397 -735.809814
-67.516701 96.779999 -737.631470
-67.761803 96.298798 -739.463318
-68.040604 95.565102 -741.216370
-68.281197 95.068199 -742.971924
-68.857903 92.969902 -745.567505
-69.101196 92.449699 -747.310730
-69.395401 91.592499 -749.013672
-69.639297 91.089401 -750.793823
-69.854897 90.782997 -752.612976
-70.166603 89.760803 -754.215027
-70.776497 88.798203 -759.191528
-71.107300 87.735703 -760.931213
-71.405998 86.836197 -762.608521
-71.695198 85.945000 -764.195984
-71.978500 85.163498 -765.913574
-72.541603 86.408203 -774.296570
-73.372398 83.127098 -777.577576
-67.159500 97.557198 -721.635925
-67.112701 99.338501 -723.836426
-67.769096 97.741798 -727.152222
-67.999100 97.685898 -729.050415
-68.239998 97.566200 -730.948608
-68.499199 97.340202 -732.849182
