48.399200 36.107498 -737.435730
48.131802 36.188801 -737.431396
47.863400 36.268398 -737.426270
47.601101 36.361301 -737.426819
47.335098 36.446602 -737.424072
47.078300 36.551701 -737.429688
46.831001 36.676899 -737.443909
46.557999 36.748001 -737.435120
46.279800 36.808800 -737.421875
45.989498 36.845501 -737.398376
45.730099 36.872398 -737.375183
57.430801 34.605000 -737.722473
57.203800 34.776299 -737.755981
56.968102 34.923199 -737.779419
56.719799 35.036301 -737.788879
56.464100 35.130100 -737.790283
56.203201 35.210098 -737.786072
55.948299 35.306099 -737.788513
55.688599 35.389702 -737.785828
55.420399 35.452000 -737.774170
55.156101 35.524700 -737.766785
54.884800 35.580002 -737.752319
54.610802 35.629200 -737.735229
54.329201 35.660198 -737.710388
54.038101 35.668900 -737.676270
53.762600 35.716900 -737.658630
53.487900 35.767700 -737.642029
53.201500 35.790798 -737.613770
52.918598 35.823399 -737.589417
52.611500 35.799400 -737.541382
52.366501 35.747601 -737.491089
52.085300 35.611599 -737.405579
51.772598 35.579601 -737.353882
51.495201 35.631500 -737.337280
51.225800 35.702499 -737.328674
50.933300 35.721199 -737.298096
50.654598 35.772301 -737.281128
50.381199 35.836201 -737.269409
50.093498 35.868500 -737.244385
49.814999 35.922100 -737.228271
49.523998 35.948898 -737.200806
49.249699 36.013500 -737.189270
48.980701 36.090401 -737.182922
48.714199 36.173000 -737.178894
48.441898 36.243599 -737.169800
48.170799 36.317200 -737.161926
47.907101 36.407001 -737.160889
47.649502 36.510201 -737.165588
47.381500 36.591400 -737.160889
47.123199 36.693501 -737.165100
46.872002 36.810600 -737.175720
46.606098 36.896900 -737.173096
46.321201 36.944199 -737.153870
46.049999 36.861500 -737.089111
57.637600 34.612598 -737.473389
57.404999 34.769199 -737.500610
57.167999 34.913300 -737.522583
56.926601 35.045200 -737.539612
56.667301 35.129501 -737.536987
56.403301 35.201698 -737.529297
56.153500 35.311401 -737.537109
55.898602 35.407600 -737.539307
55.631500 35.472698 -737.528687
55.360802 35.529099 -737.514282
55.091999 35.590801 -737.502197
54.826099 35.660599 -737.493408
54.544300 35.691101 -737.468201
54.262798 35.723099 -737.443604
53.985600 35.766899 -737.423828
53.699501 35.789501 -737.395203
53.420799 35.831402 -737.374573
53.136101 35.859402 -737.348083
52.842098 35.866402 -737.312683
52.512901 35.790901 -737.242798
52.251301 35.701199 -737.176392
52.004601 35.648300 -737.125183
51.725300 35.695301 -737.106384
51.464298 35.785801 -737.105774
51.190899 35.847900 -737.093201
50.892101 35.852402 -737.056274
50.618099 35.914501 -737.043579
50.336899 35.960999 -737.024414
50.052399 36.000900 -737.002319
49.759701 36.023300 -736.972717
49.483799 36.084099 -736.959412
49.209202 36.148399 -736.947388
48.935299 36.214699 -736.936279
48.667198 36.294201 -736.930725
48.395100 36.365501 -736.921570
48.135300 36.463699 -736.924011
47.872898 36.556702 -736.924072
47.608200 36.644699 -736.922119
47.353500 36.754299 -736.929321
47.095200 36.856300 -736.933228
46.827702 36.939201 -736.928894
46.548401 36.998100 -736.914429
46.278900 37.077599 -736.908691
53.293900 35.898201 -737.158020
52.759998 35.864201 -737.076477
52.418701 35.761398 -736.994812
51.905701 35.785198 -736.937012
51.635300 35.853199 -736.926819
51.365101 35.922501 -736.917114
51.076698 35.950199 -736.889771
50.788101 35.978600 -736.862915
50.501400 36.012199 -736.838013
50.208698 36.033100 -736.807678
49.924400 36.074100 -736.785828
49.651199 36.140800 -736.774780
49.379299 36.210800 -736.765076
49.112400 36.292000 -736.760193
48.839001 36.359600 -736.749512
48.566299 36.429401 -736.739624
48.310799 36.536598 -736.745605
48.043701 36.618900 -736.741089
47.779701 36.708199 -736.739380
47.522400 36.812199 -736.744080
47.260201 36.905800 -736.744324
46.983398 36.969002 -736.731506
46.709999 37.039902 -736.721924
46.402901 37.041599 -736.682800
57.935902 34.695400 -737.169189
57.647999 34.820599 -737.177429
57.403900 34.945900 -737.191284
57.154999 35.057899 -737.199829
56.896198 35.143902 -737.197388
56.644100 35.247501 -737.202393
56.386002 35.335300 -737.200806
56.124500 35.414700 -737.195679
55.856998 35.479000 -737.184387
55.593102 35.552799 -737.176880
55.334099 35.639500 -737.174927
55.062401 35.694401 -737.159485
54.778599 35.719700 -737.131775
54.499802 35.758499 -737.109680
54.234100 35.830399 -737.101379
53.953999 35.867401 -737.078430
53.676201 35.910900 -737.058105
53.094101 35.936798 -736.991821
52.211700 35.786900 -736.822388
53.448601 35.973598 -736.934326
52.824699 35.902000 -736.826416
52.558498 35.800701 -736.754578
52.002899 35.899899 -736.718018
51.727901 35.957100 -736.702698
51.437801 35.980202 -736.673096
51.149700 36.008701 -736.645813
50.873402 36.065300 -736.630127
50.583401 36.091499 -736.601624
50.292801 36.117298 -736.572876
50.011799 36.165901 -736.553772
49.732201 36.218102 -736.536194
49.456902 36.280602 -736.522888
49.186699 36.354698 -736.514404
48.921600 36.440601 -736.510986
48.662102 36.538799 -736.512817
48.394001 36.618900 -736.506775
48.135300 36.719200 -736.509399
47.867199 36.799702 -736.503601
47.594898 36.871799 -736.494202
47.339100 36.978901 -736.499573
47.075901 37.070801 -736.498718
46.787399 37.110199 -736.475220
54.942402 35.794701 -736.954590
54.664600 35.835499 -736.932800
54.114201 35.932499 -736.895508
58.070400 34.744598 -736.874023
57.827499 34.873600 -736.888916
57.579700 34.988701 -736.897888
57.327400 35.091900 -736.902222
57.067299 35.174599 -736.897827
56.809399 35.263100 -736.895874
56.563301 35.382401 -736.906677
56.301998 35.462200 -736.901184
56.038300 35.536098 -736.893188
55.773102 35.606499 -736.883789
55.516899 35.700298 -736.883972
55.250801 35.769100 -736.873779
54.417999 35.893299 -736.808899
53.851002 35.951199 -736.754883
53.271702 35.983700 -736.690186
53.015202 35.903301 -736.627014
52.410599 35.883499 -736.539917
46.972900 37.096401 -736.261902
46.694698 37.157600 -736.247375
58.280300 34.612499 -736.754883
53.627499 36.009102 -736.646179
52.767200 35.905602 -736.494629
52.141899 36.015400 -736.451721
51.860500 36.057400 -736.429626
51.567101 36.072399 -736.396179
51.288200 36.121899 -736.377319
50.992901 36.134602 -736.342773
50.705299 36.166199 -736.316223
50.421001 36.205898 -736.292908
50.144798 36.264900 -736.277771
49.863400 36.312801 -736.257874
49.581600 36.360699 -736.237976
49.313702 36.439701 -736.231201
49.044800 36.517101 -736.223816
48.783798 36.612000 -736.223572
48.534302 36.731899 -736.234192
48.274200 36.828999 -736.234985
48.001202 36.898701 -736.224182
47.739300 36.992401 -736.223572
47.476200 37.083801 -736.221985
55.039799 35.846802 -736.679077
54.758598 35.879299 -736.653503
54.214699 35.992401 -736.622375
47.215099 37.181198 -736.124878
58.096100 34.806801 -736.611328
57.862598 34.961300 -736.636414
57.618801 35.087502 -736.649780
57.360401 35.174702 -736.646973
57.100700 35.258400 -736.642883
56.848099 35.361198 -736.646606
56.591202 35.452599 -736.645630
56.328201 35.528500 -736.638184
56.069599 35.615898 -736.635498
55.799999 35.675598 -736.621277
55.548302 35.780998 -736.626099
54.522701 35.974602 -736.559875
53.957100 36.036499 -736.507080
53.428299 36.012402 -736.427917
53.167000 35.920399 -736.359680
52.594398 35.977001 -736.304016
46.940899 37.218300 -736.002380
58.298698 34.668201 -736.493713
55.278599 35.848999 -736.518372
53.733398 36.044102 -736.382385
52.936798 35.917999 -736.229919
52.328899 36.070202 -736.203918
52.051102 36.121101 -736.185181
51.758701 36.139000 -736.152527
51.470600 36.167599 -736.124329
51.184101 36.201302 -736.098206
50.893101 36.225498 -736.068115
50.605400 36.258099 -736.041382
50.333199 36.326500 -736.029785
50.055000 36.382000 -736.012817
49.774899 36.433800 -735.994080
49.496899 36.491199 -735.977722
49.222698 36.557598 -735.965088
48.964600 36.659302 -735.967529
48.710098 36.768799 -735.973206
48.458698 36.885101 -735.981812
48.192902 36.970600 -735.977295
47.919701 37.040699 -735.966187
47.660198 37.140202 -735.967590
54.990700 35.947601 -736.441528
54.292900 36.047199 -736.383789
47.423500 37.217499 -735.884583
54.722698 35.998501 -736.388672
47.102901 37.196301 -735.793579
46.463402 37.005501 -736.343689
58.531399 34.778999 -736.260803
58.300499 34.936199 -736.280518
58.051800 35.060501 -736.285706
57.795399 35.165901 -736.283203
57.536701 35.265900 -736.278381
57.276798 35.362900 -736.272278
57.013302 35.451500 -736.262878
56.754799 35.552200 -736.258301
56.481701 35.618698 -736.239624
56.212002 35.693600 -736.224182
55.956299 35.801601 -736.222717
55.688900 35.882599 -736.209900
55.412399 35.942902 -736.188416
55.132500 35.996101 -736.163879
54.861099 36.069401 -736.147705
54.574699 36.109600 -736.117615
54.272301 36.114601 -736.072571
54.026901 36.077900 -736.021790
53.782501 36.044701 -735.972412
53.535599 36.007000 -735.921021
53.234402 36.019699 -735.878906
52.955399 36.081902 -735.857727
52.679600 36.151901 -735.839722
52.392700 36.198399 -735.811707
52.104401 36.242599 -735.782715
51.815201 36.285900 -735.753296
51.508202 36.292301 -735.708130
51.214401 36.327702 -735.675110
50.910099 36.342300 -735.633179
50.629398 36.406799 -735.612610
50.348701 36.471901 -735.592102
50.062401 36.526100 -735.567017
49.783798 36.596802 -735.548828
49.534901 36.687901 -735.542419
49.261700 36.762600 -735.526428
48.990799 36.875999 -735.524475
48.719601 36.978100 -735.518494
48.449100 37.086498 -735.514771
48.176800 37.161098 -735.499023
47.903900 37.222099 -735.478271
47.628799 37.246498 -735.444397
47.354099 37.278301 -735.413086
58.590000 34.781700 -735.983398
58.390099 34.989899 -736.025818
58.151901 35.139301 -736.041626
57.895599 35.244099 -736.038879
57.635601 35.340099 -736.032471
57.373901 35.431999 -736.024475
57.107601 35.513199 -736.011902
56.842300 35.597000 -736.000427
56.579700 35.687801 -735.991821
56.317001 35.778400 -735.983215
56.032501 35.818401 -735.953308
55.766701 35.902599 -735.941895
55.504601 35.995701 -735.934082
55.233501 36.068401 -735.917908
54.963902 36.145100 -735.903198
54.673000 36.174099 -735.868530
54.375401 36.188900 -735.827698
54.115002 36.118000 -735.762512
53.849602 36.037399 -735.693176
53.537498 36.024300 -735.640320
53.268398 36.107300 -735.627991
52.993099 36.176800 -735.609924
52.705399 36.220299 -735.580688
52.422100 36.273998 -735.555908
52.133301 36.316700 -735.526428
51.834202 36.338200 -735.487671
51.532398 36.355202 -735.447083
51.234600 36.381699 -735.410400
50.949100 36.435200 -735.385071
50.669201 36.500702 -735.364929
50.373299 36.533699 -735.330872
50.091499 36.596802 -735.309509
49.813000 36.667198 -735.291321
49.547001 36.763401 -735.284119
49.265999 36.887299 -735.284180
48.994499 36.986900 -735.277405
48.722301 37.067001 -735.263489
48.451500 37.167999 -735.257324
48.179401 37.243801 -735.241882
47.906700 37.306801 -735.221985
47.632500 37.344601 -735.192871
58.524101 34.944199 -735.802429
58.309502 35.151600 -735.842224
58.061401 35.275700 -735.847473
57.799099 35.365299 -735.838379
57.534901 35.450401 -735.827515
57.273102 35.541500 -735.818909
57.010700 35.631599 -735.809998
56.742901 35.708900 -735.795776
56.464298 35.761398 -735.771118
56.197399 35.841801 -735.758118
55.928001 35.916801 -735.742676
55.668201 36.014599 -735.736877
55.400101 36.093201 -735.723083
55.129101 36.165798 -735.706726
54.847198 36.214199 -735.680115
54.547199 36.222599 -735.636475
54.283298 36.142700 -735.567505
54.025002 36.076698 -735.504272
53.723099 36.084999 -735.460510
53.442600 36.141800 -735.437012
53.183899 36.246899 -735.434021
52.894001 36.284302 -735.402222
52.605598 36.325802 -735.372192
52.306000 36.344101 -735.332214
52.011299 36.374100 -735.297180
51.709301 36.389599 -735.255920
51.408401 36.408501 -735.215881
51.120899 36.456799 -735.188416
50.837101 36.513199 -735.164307
50.562698 36.590199 -735.148926
50.272301 36.634399 -735.119385
49.986900 36.689800 -735.094788
49.712399 36.767899 -735.079773
48.584301 37.158199 -735.042480
48.039200 37.288898 -735.004028
47.764500 37.318501 -734.971924
58.699402 34.887299 -735.571899
58.487000 35.160301 -735.634888
58.252602 35.317501 -735.653687
57.989700 35.404598 -735.643494
57.718300 35.471298 -735.624817
57.444199 35.531898 -735.603516
57.178501 35.613300 -735.590698
56.913502 35.696800 -735.578918
56.644600 35.771400 -735.563293
56.381401 35.859798 -735.553406
56.107899 35.924400 -735.533630
55.840401 36.003502 -735.519775
55.574799 36.087399 -735.507996
55.312599 36.179298 -735.499512
55.033699 36.233601 -735.475220
54.739300 36.253502 -735.436523
54.479599 36.181702 -735.370789
54.210800 36.090900 -735.296997
53.911301 36.103500 -735.254822
53.643902 36.188301 -735.243103
53.371101 36.261600 -735.226379
53.097801 36.334202 -735.209473
52.806400 36.368000 -735.176025
52.501701 36.374199 -735.130798
52.200901 36.390099 -735.089478
51.901901 36.410702 -735.050293
51.611301 36.450600 -735.019104
51.325600 36.501301 -734.992493
51.034698 36.542198 -734.961609
50.758400 36.614201 -734.943970
50.473301 36.668499 -734.918701
50.186199 36.719200 -734.891907
49.913200 36.799599 -734.877686
49.645302 36.890701 -734.867981
49.417999 36.995098 -734.869385
49.146702 37.090698 -734.860779
48.874100 37.157101 -734.841797
48.464802 37.245899 -734.809326
48.189098 37.255501 -734.769775
47.907700 37.173000 -734.697083
58.859501 34.968700 -735.335205
58.652199 35.193501 -735.381775
58.412300 35.336800 -735.394592
58.151600 35.428501 -735.385986
57.886398 35.509499 -735.372925
57.619701 35.587101 -735.358521
57.343800 35.643200 -735.335022
57.074100 35.714699 -735.317810
56.811600 35.803699 -735.307983
56.546299 35.886299 -735.295471
56.275398 35.956200 -735.277588
56.029400 36.084499 -735.284180
55.757801 36.153599 -735.265930
55.488098 36.227299 -735.249573
55.210999 36.284801 -735.226379
54.916401 36.303001 -735.186584
54.644901 36.203499 -735.109070
54.400398 36.166500 -735.057678
54.091000 36.155899 -735.005615
53.820801 36.233501 -734.990479
53.555801 36.323101 -734.980530
53.275600 36.379799 -734.956482
52.988499 36.422001 -734.926270
52.695000 36.451199 -734.890625
52.388500 36.453602 -734.843384
52.085400 36.464699 -734.799805
51.794800 36.503201 -734.767822
51.498402 36.530800 -734.731079
51.215000 36.586399 -734.706177
50.938400 36.656898 -734.687683
50.655998 36.715900 -734.664185
50.358700 36.744999 -734.627808
50.084099 36.821499 -734.611816
49.817200 36.914101 -734.602417
49.555801 37.018002 -734.598022
49.287201 37.112400 -734.589172
49.015499 37.194401 -734.575378
48.741501 37.230000 -734.544983
48.469299 37.298000 -734.526184
48.198101 37.381199 -734.513000
59.233601 34.947300 -735.052673
58.982800 35.054298 -735.050720
58.765301 35.253300 -735.086182
58.528599 35.403599 -735.101624
58.280499 35.525600 -735.105286
58.015202 35.605499 -735.091309
57.747898 35.680901 -735.075500
57.479900 35.754799 -735.059082
57.201599 35.805000 -735.032715
56.932899 35.878399 -735.015930
56.659100 35.940201 -734.994324
56.390499 36.014999 -734.978027
56.126400 36.100601 -734.966309
55.864899 36.192600 -734.957275
55.587200 36.247501 -734.932617
55.299599 36.280499 -734.898621
54.999298 36.285599 -734.852783
54.748501 36.232700 -734.794617
54.440701 36.223900 -734.742676
54.164398 36.286598 -734.720886
53.879398 36.330799 -734.691284
53.612801 36.416302 -734.679199
53.334499 36.476501 -734.656311
53.043800 36.510201 -734.622070
52.747700 36.533501 -734.583374
52.435001 36.521999 -734.529785
52.146599 36.564098 -734.499023
51.859402 36.609402 -734.469421
51.560001 36.629902 -734.429199
51.268799 36.668701 -734.396729
50.976200 36.705399 -734.363281
50.702599 36.782501 -734.347107
50.411098 36.823200 -734.315186
50.139599 36.905602 -734.301208
49.883499 37.019600 -734.300781
49.608799 37.096199 -734.284180
49.310799 37.199501 -734.273315
49.039398 37.281799 -734.259277
48.763401 37.278999 -734.214600
48.486401 37.259499 -734.163879
59.241402 34.898499 -734.742188
59.102001 35.107601 -734.793396
58.886101 35.310101 -734.830017
58.640800 35.438801 -734.835999
58.390301 35.554298 -734.836426
58.133499 35.654499 -734.830505
57.869499 35.737099 -734.817322
57.603699 35.816002 -734.802429
57.334801 35.887798 -734.784607
57.064999 35.957802 -734.765930
56.790298 36.016800 -734.742676
56.508099 36.058998 -734.712280
56.241402 36.138100 -734.697388
55.970501 36.207802 -734.678528
55.688999 36.253601 -734.649475
55.408199 36.301899 -734.621521
55.079601 36.242500 -734.547913
54.831902 36.196499 -734.492126
54.560699 36.269901 -734.474426
54.291000 36.346802 -734.458191
54.018700 36.418400 -734.439819
53.733898 36.463001 -734.409790
53.456001 36.523800 -734.386719
53.169201 36.565601 -734.355408
52.874298 36.590900 -734.317017
52.569199 36.595200 -734.269714
52.262798 36.598202 -734.221619
51.975201 36.642399 -734.191101
51.679001 36.669102 -734.153015
51.394501 36.721600 -734.125916
51.103500 36.761200 -734.093079
50.826500 36.830601 -734.073181
50.544201 36.889702 -734.048706
50.265900 36.957802 -734.028076
50.000900 37.053299 -734.019226
49.729000 37.135201 -734.004395
49.446602 37.196201 -733.980713
49.200100 37.279202 -733.970276
48.929001 37.363098 -733.956421
48.713799 37.211498 -733.868591
59.539001 34.943501 -734.611511
59.318600 35.135201 -734.643005
55.298901 36.265598 -734.387573
49.107700 37.264000 -733.733704
48.886902 37.166500 -733.663696
59.085300 35.287102 -734.529297
58.845798 35.429501 -734.539917
58.595200 35.544300 -734.538879
58.347198 35.665401 -734.540710
58.090500 35.765202 -734.533508
57.837399 35.873798 -734.530029
57.573700 35.957199 -734.515991
57.301399 36.020401 -734.493530
57.008400 36.035702 -734.450806
56.737598 36.104000 -734.430420
56.458900 36.154499 -734.402283
56.201698 36.255402 -734.395508
55.910000 36.277302 -734.355286
55.616501 36.296200 -734.313782
55.078499 36.277199 -734.219116
54.804798 36.343899 -734.197510
54.535400 36.420700 -734.180176
54.250900 36.464699 -734.148987
53.975201 36.528702 -734.126221
53.682201 36.555599 -734.087585
53.391201 36.588100 -734.051270
53.109299 36.640999 -734.023621
52.791500 36.617699 -733.963379
52.494499 36.640301 -733.922607
52.205700 36.681400 -733.889587
51.919399 36.728802 -733.859314
51.621498 36.752602 -733.818787
51.334400 36.799999 -733.788330
51.042301 36.837799 -733.753723
50.763199 36.903198 -733.730774
50.489601 36.980301 -733.713013
50.224800 37.075901 -733.703125
49.938202 37.127701 -733.674194
49.649200 37.214901 -733.657288
49.373699 37.212700 -733.611511
49.172699 37.152302 -733.447021
59.653301 35.001202 -734.323975
59.417000 35.152401 -734.336975
55.472500 36.291698 -734.072876
54.424999 36.497501 -733.969177
54.139099 36.539799 -733.935974
53.842800 36.560200 -733.893616
53.563202 36.618000 -733.866821
53.276299 36.660801 -733.833679
52.968201 36.659199 -733.781616
52.666199 36.672001 -733.735474
52.367401 36.692501 -733.692627
52.087399 36.753799 -733.667114
51.783501 36.765800 -733.620422
51.487598 36.795700 -733.581299
51.205799 36.855301 -733.554871
50.920799 36.909199 -733.525879
50.643902 36.980301 -733.504272
50.140301 37.153301 -733.480225
49.799198 37.203499 -733.440491
49.523800 37.199799 -733.393127
59.251499 35.306801 -734.210876
58.992199 35.401199 -734.199829
58.748100 35.532700 -734.204224
58.503300 35.662102 -734.207703
58.250000 35.770802 -734.202576
57.998798 35.884800 -734.199829
57.738300 35.976700 -734.187683
57.470100 36.050900 -734.168091
57.202400 36.126499 -734.149109
56.938702 36.212101 -734.134277
56.653500 36.248501 -734.098816
56.377899 36.307999 -734.072876
56.076500 36.309399 -734.022522
55.762600 36.284302 -733.960815
55.247898 36.321201 -733.886719
54.987900 36.419498 -733.876770
54.720299 36.500999 -733.859924
50.420601 37.090000 -733.338318
59.888500 34.959801 -733.984314
59.662102 35.135899 -734.006775
59.413200 35.256302 -734.006226
55.964199 36.331100 -733.792603
55.592098 36.347500 -733.735107
54.547100 36.563099 -733.632324
54.263199 36.610802 -733.600586
53.973999 36.648102 -733.564270
53.679401 36.674599 -733.523499
53.396500 36.727100 -733.493713
53.152000 36.698601 -733.442200
52.854301 36.721500 -733.399597
52.546799 36.725300 -733.348694
52.272400 36.798801 -733.327515
51.982399 36.840801 -733.292786
51.670700 36.839298 -733.239380
51.386700 36.895401 -733.210571
51.092300 36.931099 -733.172913
50.813000 37.011200 -733.153320
50.271400 37.171200 -733.116577
49.997398 37.191898 -733.077271
49.722198 37.191502 -733.030396
49.471600 37.174801 -732.982117
60.249199 34.912998 -733.754089
60.007099 35.026501 -733.752014
59.763199 35.159698 -733.756287
59.519199 35.292500 -733.760620
59.261200 35.391102 -733.750610
59.010201 35.506599 -733.747681
58.758598 35.620701 -733.744080
58.502602 35.724201 -733.736206
58.251900 35.840401 -733.733521
57.995800 35.944000 -733.725586
57.738899 36.045601 -733.716919
57.478699 36.139801 -733.705017
57.218601 36.234600 -733.693298
56.947102 36.303200 -733.670715
56.669201 36.358200 -733.642212
56.382401 36.393600 -733.605286
56.060200 36.350800 -733.535522
55.761902 36.363201 -733.488770
55.537201 36.539398 -733.511292
55.241699 36.559200 -733.467712
54.961102 36.612801 -733.438171
54.665699 36.635201 -733.395386
54.368099 36.653702 -733.351013
54.081100 36.696098 -733.316589
53.784901 36.719898 -733.274170
53.488998 36.745201 -733.232422
53.171001 36.725300 -733.171082
52.862099 36.725899 -733.118530
52.571899 36.766701 -733.082886
52.293301 36.832298 -733.057983
51.987900 36.843601 -733.009705
51.690300 36.872101 -732.968689
51.395401 36.906898 -732.930298
51.132000 36.963501 -732.904907
50.861500 37.054401 -732.890076
50.590302 37.127800 -732.869080
50.317799 37.175098 -732.838928
50.043301 37.187401 -732.796204
49.761700 37.084702 -732.712524
60.392200 34.939301 -733.468872
60.152901 35.066700 -733.471924
59.902802 35.185200 -733.469788
59.660900 35.323502 -733.476074
59.408600 35.436298 -733.471680
59.151402 35.537399 -733.462524
58.889599 35.627499 -733.448730
58.632500 35.729000 -733.439575
58.388000 35.860401 -733.443115
58.136700 35.975399 -733.439575
57.879398 36.076599 -733.430420
57.618999 36.171001 -733.418274
57.356499 36.260502 -733.404114
57.096199 36.355400 -733.392212
56.808899 36.389400 -733.354492
56.526798 36.436001 -733.322083
56.278900 36.390099 -733.263489
55.982399 36.406601 -733.218323
55.726601 36.514301 -733.211487
55.465900 36.611198 -733.200317
55.179001 36.651299 -733.164795
54.889900 36.687401 -733.127625
54.603600 36.730400 -733.093079
54.303200 36.744202 -733.046326
54.007401 36.768799 -733.003784
53.697800 36.765301 -732.949402
53.386002 36.758701 -732.893372
53.089802 36.786201 -732.852112
52.785400 36.797600 -732.803589
52.493500 36.836102 -732.766724
52.205200 36.882900 -732.733276
51.888699 36.872799 -732.675415
51.631599 36.917099 -732.646484
51.358898 36.966801 -732.616821
51.087200 37.036999 -732.594421
50.817902 37.146599 -732.585876
50.545101 37.190399 -732.554077
50.266499 37.132500 -732.486084
49.989899 37.115700 -732.432800
60.494499 34.942001 -733.194397
60.248299 35.107498 -733.209106
60.006401 35.246300 -733.215271
59.769600 35.397202 -733.226624
59.503899 35.477798 -733.208618
59.244499 35.574001 -733.197021
58.990601 35.683399 -733.190918
58.738499 35.797100 -733.186584
58.476002 35.886398 -733.172119
58.228500 36.010899 -733.172424
57.964401 36.096699 -733.156372
57.706001 36.195999 -733.146118
57.449402 36.299599 -733.137573
57.184898 36.385399 -733.121521
56.895901 36.416199 -733.082214
56.601700 36.436199 -733.038208
56.356201 36.396599 -732.981995
56.076698 36.451500 -732.952576
55.829300 36.578098 -732.953674
55.566502 36.670700 -732.940186
55.291500 36.737000 -732.915588
55.001598 36.771702 -732.877502
54.699600 36.781300 -732.828613
54.408600 36.815498 -732.789978
54.102100 36.817799 -732.737793
53.789799 36.809299 -732.680786
53.476501 36.800098 -732.623413
53.181801 36.831100 -732.583130
52.866199 36.820000 -732.524719
52.566898 36.843800 -732.481079
52.283699 36.901699 -732.452087
52.039200 36.880001 -732.402283
51.742298 36.966099 -732.380676
51.469700 37.019100 -732.351929
51.197800 37.082001 -732.326721
50.926800 37.161999 -732.307495
50.650902 37.150902 -732.255920
50.370800 37.073898 -732.180725
60.700699 34.888199 -732.987610
57.354198 36.347599 -732.910583
57.079300 36.410599 -732.884583
56.788502 36.438400 -732.843689
54.568298 36.924900 -732.625916
54.000401 36.862801 -732.505615
53.683601 36.846001 -732.444580
53.370602 36.838699 -732.387695
53.070702 36.860100 -732.342896
52.763000 36.866501 -732.291626
52.459202 36.882301 -732.244202
51.939400 36.924999 -732.168579
51.667000 36.984798 -732.141907
51.327000 37.064400 -732.110291
51.053001 37.090302 -732.071716
50.779800 37.131599 -732.038391
50.500198 37.065102 -731.966675
60.508400 35.080299 -732.848816
60.277802 35.247398 -732.866272
60.035900 35.386299 -732.872070
59.777500 35.485199 -732.861084
59.523800 35.595402 -732.854919
59.275799 35.719200 -732.854370
59.027901 35.843102 -732.853882
58.771301 35.946301 -732.844788
58.505001 36.027100 -732.826172
58.235401 36.100800 -732.804626
57.974098 36.193802 -732.791077
57.707901 36.276001 -732.773010
56.640400 36.432598 -732.640686
56.364799 36.496601 -732.614685
56.103802 36.593399 -732.602478
55.843399 36.691799 -732.591125
55.581100 36.785999 -732.577820
55.297298 36.834099 -732.544922
55.011101 36.877800 -732.510010
54.408401 36.903198 -732.413513
52.308102 36.889000 -732.041687
60.765099 34.919899 -732.708313
57.473598 36.382198 -732.637329
57.194599 36.436501 -732.607178
56.889702 36.433498 -732.552917
54.816700 36.912300 -732.355530
54.134998 36.936100 -732.244385
53.823200 36.930401 -732.187927
53.497002 36.896000 -732.118896
53.191898 36.907101 -732.069275
52.883999 36.913700 -732.017700
52.637699 36.887798 -731.965698
52.077301 36.941502 -731.886230
51.804501 36.992401 -731.856018
51.533298 37.075298 -731.837219
51.257999 37.077400 -731.789673
50.981800 37.067600 -731.737976
50.702499 37.009899 -731.669189
60.605099 35.116501 -732.614197
60.369301 35.271099 -732.626282
60.130501 35.417702 -732.635071
59.882900 35.542801 -732.634888
59.633400 35.663300 -732.632874
59.379601 35.773499 -732.626526
59.122002 35.874500 -732.616272
58.868099 35.984600 -732.609924
58.608299 36.080898 -732.597717
58.334499 36.145000 -732.571899
58.062599 36.214001 -732.548096
57.801899 36.309200 -732.535278
56.664398 36.481300 -732.395813
56.341900 36.610500 -732.383911
56.078800 36.703098 -732.369812
55.814602 36.793400 -732.354797
55.548302 36.879398 -732.337830
55.263000 36.924702 -732.303589
54.588799 36.961300 -732.198181
52.402000 36.930500 -731.805115
60.867100 34.919300 -732.416077
57.585300 36.412399 -732.357727
57.290199 36.431198 -732.312500
56.994301 36.449200 -732.267029
55.096600 36.978901 -732.117981
54.411800 36.995800 -732.004211
54.117298 37.026001 -731.963074
53.863098 36.979801 -731.902710
53.617199 36.952000 -731.850098
53.307701 36.954601 -731.796875
52.990299 36.942101 -731.737122
52.672600 36.930500 -731.677612
52.216000 36.956299 -731.606628
51.942799 37.004101 -731.575378
51.674599 37.143299 -731.576477
51.396801 37.103001 -731.513977
51.115601 37.010601 -731.432983
60.787201 35.109798 -732.260925
60.556999 35.278900 -732.279114
60.314301 35.417099 -732.284302
60.074200 35.560902 -732.291992
59.834202 35.704800 -732.299683
59.585899 35.828602 -732.299011
59.325500 35.923801 -732.286316
59.077099 36.047298 -732.285522
58.816700 36.142601 -732.272827
58.537899 36.195599 -732.242371
58.263699 36.260101 -732.216675
57.990299 36.326900 -732.192017
56.867100 36.534000 -732.067017
56.611698 36.643600 -732.060120
56.345402 36.729500 -732.043213
56.074600 36.805901 -732.022217
55.806801 36.889301 -732.004211
55.528801 36.951000 -731.976807
54.935699 36.997299 -731.888977
54.644402 37.033199 -731.850525
52.887501 36.930401 -731.507629
52.518101 36.934299 -731.444275
52.105701 36.959499 -731.380920
51.764900 37.035999 -731.347717
51.346699 36.961399 -731.248779
61.095501 34.862301 -732.016174
57.831402 36.411598 -731.980896
57.532101 36.421799 -731.932129
57.255001 36.482700 -731.904724
55.348499 36.998199 -731.749512
54.468300 37.093201 -731.628418
54.168701 37.113998 -731.583130
53.921501 37.083401 -731.529419
53.673199 37.051601 -731.474976
53.349201 37.025501 -731.409302
53.082699 36.958698 -731.339478
52.729099 36.988499 -731.288025
52.383301 36.966499 -731.219910
51.970100 36.982899 -731.153381
51.694099 36.987000 -731.106506
60.954700 35.107399 -731.908386
60.721298 35.269798 -731.923828
60.492298 35.442001 -731.943176
60.261600 35.609600 -731.960815
60.015701 35.740101 -731.962830
59.756199 35.838299 -731.951294
59.509399 35.966400 -731.952393
59.252701 36.071201 -731.943726
58.993099 36.169399 -731.932190
58.723701 36.245098 -731.911072
58.450001 36.311401 -731.886230
58.169998 36.363899 -731.855286
57.055801 36.594200 -731.739807
56.798000 36.699200 -731.731018
56.529301 36.780499 -731.711975
56.249199 36.837399 -731.682617
55.971100 36.899300 -731.655396
55.684799 36.944099 -731.620728
55.176998 37.009998 -731.554626
54.890598 37.056999 -731.520691
52.193298 36.966099 -731.016907
61.209000 34.908798 -731.773621
57.937401 36.449501 -731.732727
57.628101 36.438099 -731.674622
57.367100 36.535801 -731.662598
55.429699 36.989700 -731.479919
54.629601 37.093800 -731.375610
54.340099 37.136398 -731.339600
54.023998 37.124500 -731.280029
53.779701 37.101700 -731.229370
53.454700 37.074200 -731.162781
53.204601 37.041801 -731.107788
52.942001 37.025799 -731.056213
52.665401 37.012100 -731.003113
51.970901 36.935600 -730.854797
51.711800 36.961498 -730.818298
52.433800 36.980202 -730.858826
61.077702 35.146900 -731.663391
60.840401 35.300098 -731.674805
60.611198 35.472401 -731.694214
60.369900 35.615200 -731.701172
60.128300 35.756699 -731.707825
59.880600 35.883202 -731.708130
59.634300 36.013100 -731.709778
59.384399 36.134102 -731.707886
59.112099 36.203098 -731.684021
58.847500 36.290401 -731.667786
58.571201 36.351200 -731.640381
58.296501 36.416302 -731.614929
57.179401 36.641998 -731.497192
56.918400 36.740398 -731.485474
56.641998 36.805199 -731.459412
56.373199 36.887402 -731.440674
56.092701 36.944401 -731.411316
55.815498 37.009102 -731.385071
55.210201 37.032299 -731.287109
54.912201 37.055698 -731.242981
52.194302 36.868099 -730.702209
57.789600 36.466999 -731.483521
57.510899 36.525501 -731.454712
54.511299 37.187099 -731.155273
54.194901 37.174599 -731.095276
53.948101 37.146500 -731.042175
53.625500 37.123901 -730.977722
53.361698 37.063400 -730.910278
53.115299 37.050900 -730.862671
52.838799 37.037201 -730.809326
61.302200 34.901299 -731.501709
55.614799 37.030800 -731.232422
58.161598 36.442902 -731.404419
54.780300 37.102600 -731.033691
52.654400 36.977600 -730.614685
52.371300 36.850300 -730.520813
61.133301 35.121899 -731.388428
60.918701 35.331001 -731.422485
60.682999 35.488098 -731.434998
60.455200 35.663502 -731.455078
60.210602 35.798000 -731.458313
59.961601 35.922001 -731.456909
59.710602 36.041100 -731.453613
59.452999 36.144699 -731.443787
59.189899 36.235699 -731.428589
58.922901 36.317799 -731.409729
58.641998 36.368698 -731.377625
57.404099 36.664902 -731.260803
57.132198 36.739399 -731.238525
56.867298 36.829700 -731.222717
56.593700 36.901100 -731.198975
56.311199 36.953999 -731.167297
56.021099 36.991199 -731.128784
55.427399 37.039501 -731.040527
55.131401 37.067001 -730.997681
54.474201 37.151100 -730.910522
54.153198 37.130100 -730.846497
53.844002 37.134998 -730.793579
53.533100 37.137501 -730.739380
61.434700 34.929100 -731.273621
58.377800 36.447701 -731.257874
58.011600 36.478802 -731.204102
57.736198 36.544201 -731.178101
55.804100 37.009800 -730.997803
53.275101 37.107700 -730.585571
52.995499 37.028801 -730.509216
59.349098 36.201698 -731.221313
59.082500 36.284401 -731.202881
58.818600 36.373798 -731.187378
56.758900 36.875599 -730.997986
56.485298 36.946999 -730.974487
56.200500 36.994801 -730.940918
55.312500 37.071201 -730.810974
55.008900 37.082699 -730.761597
54.708099 37.101200 -730.715088
54.328098 37.117901 -730.653992
54.022999 37.130199 -730.604614
53.721199 37.150501 -730.558472
61.581001 34.898499 -731.022522
61.442600 35.112202 -731.071899
61.196499 35.244202 -731.074097
60.974899 35.435799 -731.101196
60.740101 35.594200 -731.114502
60.491299 35.718700 -731.113586
60.254200 35.870701 -731.124390
60.004398 35.992199 -731.122314
59.746799 36.095100 -731.112427
58.615101 36.449299 -731.035400
58.318401 36.464100 -730.988220
58.035198 36.511002 -730.954529
57.717300 36.651600 -730.947083
57.453098 36.742100 -730.931824
57.177601 36.807701 -730.905884
55.975399 37.025501 -730.769287
55.685799 37.064400 -730.731689
53.537800 37.111801 -730.369812
53.277100 37.058201 -730.305298
52.999298 37.028999 -730.246277
59.526199 36.199902 -730.987488
59.254398 36.269699 -730.963623
58.997898 36.375301 -730.954773
56.942001 36.878101 -730.765808
56.673199 36.959301 -730.746521
56.386902 37.002701 -730.710876
55.421799 37.075199 -730.565674
55.119301 37.088299 -730.516907
54.800900 37.068699 -730.453979
54.508900 37.106300 -730.415527
54.194199 37.097500 -730.356873
53.907700 37.148499 -730.323975
61.445999 35.015999 -730.825378
58.513802 36.457802 -730.804199
57.912701 36.642200 -730.761475
55.876900 37.035702 -730.537170
61.654701 34.817299 -730.692078
61.296600 35.226799 -730.769897
61.083199 35.437599 -730.804810
60.848000 35.593800 -730.817078
60.617199 35.760300 -730.833618
60.378502 35.906898 -730.841919
60.119598 36.005100 -730.830017
59.863400 36.109901 -730.820679
58.796799 36.433201 -730.743530
58.298698 36.504700 -730.679993
57.654499 36.762901 -730.655029
57.392300 36.856400 -730.640930
56.247002 37.021999 -730.495422
55.653599 37.065498 -730.405273
53.768002 37.164902 -730.106018
53.478100 37.048801 -730.014709
59.600201 36.234200 -730.715271
59.333000 36.313099 -730.695007
59.060699 36.380600 -730.669922
57.168701 36.899700 -730.512573
56.882900 36.941601 -730.476318
56.610500 37.013699 -730.452820
55.414600 37.079601 -730.263123
55.103298 37.072800 -730.205383
54.801102 37.086899 -730.156677
54.499599 37.103298 -730.108826
54.197399 37.119598 -730.060730
61.553600 35.009800 -730.507080
60.491001 35.885300 -730.618713
58.704498 36.460300 -730.497681
58.177898 36.639599 -730.465515
57.916199 36.733601 -730.450989
57.515598 36.856499 -730.421875
56.391998 37.068401 -730.294312
56.080601 37.057098 -730.234802
55.775002 37.060001 -730.181274
54.009102 37.083698 -729.874390
61.799801 34.790001 -730.239075
61.509499 35.181900 -730.321899
61.288700 35.374298 -730.348389
61.069698 35.570099 -730.376526
60.840801 35.740799 -730.394226
60.409401 35.964298 -730.393677
60.162300 36.090401 -730.392700
59.903400 36.188499 -730.380005
59.640999 36.278702 -730.364014
59.375500 36.361801 -730.344910
59.096298 36.413601 -730.312622
58.631599 36.560799 -730.279785
58.353199 36.616402 -730.249023
58.102600 36.735199 -730.244873
57.828999 36.802299 -730.218872
57.429501 36.928299 -730.190613
57.153599 36.991798 -730.162903
56.856400 37.008900 -730.115479
56.578400 37.069099 -730.086304
56.275002 37.075100 -730.033875
55.970200 37.079300 -729.980713
55.663101 37.079800 -729.925781
55.352299 37.074001 -729.867981
55.040699 37.067699 -729.809875
54.718201 37.040298 -729.742615
54.421700 37.068699 -729.699219
54.117298 37.081699 -729.648987
61.887901 34.789398 -729.956177
61.678398 35.012100 -729.995117
61.539001 35.221802 -730.042114
61.324600 35.429798 -730.075012
61.110199 35.636600 -730.107422
60.889400 35.826900 -730.133118
60.639198 35.945801 -730.128784
60.382599 36.049599 -730.118225
60.122601 36.145302 -730.104187
59.859001 36.232800 -730.086670
59.601200 36.334000 -730.074890
59.322399 36.386799 -730.042725
59.031601 36.412800 -729.999207
58.771801 36.510799 -729.986023
58.529099 36.647598 -729.989319
58.267899 36.742500 -729.974670
57.995800 36.813202 -729.950012
57.732601 36.903999 -729.933716
57.463001 36.981098 -729.911499
57.174500 37.017101 -729.871826
56.888901 37.060200 -729.835022
56.605400 37.108700 -729.800476
56.298401 37.107399 -729.744629
55.982899 37.089199 -729.681396
55.681801 37.103100 -729.631775
55.434399 37.068699 -729.575317
55.127701 37.073200 -729.521423
54.884201 37.049400 -729.469177
54.569000 37.038700 -729.408630
54.266602 37.056099 -729.359985
62.082001 34.652100 -729.620178
61.909901 34.894199 -729.672180
61.709099 35.138199 -729.719727
61.505600 35.373699 -729.763672
61.289101 35.576000 -729.793884
61.070099 35.771198 -729.821228
60.817600 35.885300 -729.814514
60.575500 36.023998 -729.818115
60.320202 36.131001 -729.808289
60.060799 36.228699 -729.794678
59.787998 36.294998 -729.767822
59.506199 36.341099 -729.732422
59.225800 36.391300 -729.698486
58.975498 36.511101 -729.694214
58.727600 36.636600 -729.692200
58.469398 36.738201 -729.680115
58.197701 36.809898 -729.655273
57.925098 36.880001 -729.629700
57.654202 36.954399 -729.606018
57.376099 37.013500 -729.575623
57.070301 37.012199 -729.519409
56.782200 37.050999 -729.480286
56.479401 37.059101 -729.427917
56.174000 37.062599 -729.373413
55.871399 37.073799 -729.322083
55.578701 37.106899 -729.280212
55.308498 37.025398 -729.202820
54.990299 37.007198 -729.138489
54.726200 37.103901 -729.123718
54.458900 37.032501 -729.050415
61.938499 34.838902 -729.371582
61.815102 35.089298 -729.435181
61.675701 35.298801 -729.481812
61.461300 35.506901 -729.514221
61.236099 35.687901 -729.535278
60.999401 35.840199 -729.544312
60.763199 35.993401 -729.553711
60.509899 36.105202 -729.545776
60.247601 36.196098 -729.528992
59.976700 36.266800 -729.503723
59.699200 36.322899 -729.472107
59.422901 36.382401 -729.441895
59.175400 36.508701 -729.440002
58.924099 36.626301 -729.434387
58.663700 36.723202 -729.419983
58.389000 36.787800 -729.391907
58.121799 36.869999 -729.371216
57.888599 37.028099 -729.382874
57.638302 36.979301 -729.320190
57.351299 37.019199 -729.281311
57.053501 37.036098 -729.232483
56.750099 37.042099 -729.178772
56.449200 37.054699 -729.127991
56.203800 37.022800 -729.072021
55.912899 37.059399 -729.031311
55.588501 37.025700 -728.960083
55.329102 36.967400 -728.892517
55.014400 36.957600 -728.831421
54.655201 36.985298 -728.775024
59.586601 36.306999 -729.240417
56.943001 37.030899 -729.002930
56.639900 37.038399 -728.949585
55.795601 37.042702 -728.795715
62.024799 34.937500 -728.813416
61.906399 35.199902 -728.882324
61.693001 35.410900 -728.916321
61.469799 35.597099 -728.939880
61.232399 35.747898 -728.948914
60.994900 35.898201 -728.957520
60.747101 36.023201 -728.955627
60.498501 36.146198 -728.952820
60.211601 36.178799 -728.911926
59.928101 36.220299 -728.874817
59.686401 36.360001 -728.879028
59.448898 36.508900 -728.887207
59.199402 36.630001 -728.883728
58.935299 36.717602 -728.865784
58.664398 36.789902 -728.841614
58.386902 36.848000 -728.811218
58.117901 36.925598 -728.789124
57.834999 36.973099 -728.754028
57.556900 37.031502 -728.723694
57.249001 37.025398 -728.665588
56.999401 36.980900 -728.604980
56.698700 36.993000 -728.554626
56.392502 36.994701 -728.499512
56.083500 36.991901 -728.442383
55.827900 36.939499 -728.377930
55.551498 36.844200 -728.294922
53.726299 37.112801 -729.813721
48.244301 37.306198 -734.261902
47.345100 37.444401 -735.160217
53.350899 35.985699 -736.180786
52.722900 36.040901 -736.095093
50.187000 36.432899 -735.803406
49.916401 36.487999 -735.776611
48.825100 36.867901 -735.719482
47.281502 37.405102 -735.638672
48.364899 37.027699 -735.777222
48.107101 37.115299 -735.762878
47.845901 37.195099 -735.745728
43.423801 34.749100 -740.811707
43.222301 34.406399 -741.040771
43.147999 34.262901 -741.500610
51.979801 34.313702 -743.648682
51.736698 34.441101 -743.651978
51.336700 34.499100 -743.611511
51.048302 34.445202 -743.642517
50.751999 34.401600 -743.586182
50.430599 34.288601 -743.505188
50.182999 34.187401 -743.438477
51.524502 34.382500 -743.788086
49.945801 34.095798 -743.471985
49.709801 34.030300 -743.417908
49.450298 33.901100 -743.341125
49.185398 33.759300 -743.259583
48.946201 33.690399 -743.203979
48.707401 33.623901 -743.149109
51.228298 34.348400 -743.862122
50.870800 34.329300 -743.804626
50.562302 34.251900 -743.736572
48.404701 33.393799 -743.164307
48.158699 33.311501 -743.103821
47.836601 33.220299 -743.029480
47.571701 33.091599 -742.952209
47.247101 32.998798 -742.877075
46.975899 32.858002 -742.795227
46.719799 32.759300 -742.728210
46.474602 32.690601 -742.671875
51.454399 34.179001 -744.022827
50.323799 34.161999 -743.854614
50.062199 34.021000 -743.774109
49.822102 33.943001 -743.715820
49.586201 33.878101 -743.662170
49.325802 33.746799 -743.584778
49.063499 33.612598 -743.506287
48.818699 33.528500 -743.445496
51.189602 34.155201 -744.145081
50.902500 34.136398 -744.098083
50.620499 34.133999 -744.056885
48.574402 33.372601 -743.532776
48.317902 33.259800 -743.461914
48.074699 33.184700 -743.404175
47.754299 33.097500 -743.331787
47.513802 33.033100 -743.277771
47.249699 32.907902 -743.202087
47.005600 32.837399 -743.145691
46.740002 32.712200 -743.069702
46.420700 32.449299 -742.944275
50.397800 34.019699 -744.108826
50.095100 33.960899 -744.047913
49.784599 33.882000 -743.979675
49.530499 33.765301 -743.908081
51.067501 33.877300 -744.251587
46.860001 32.697601 -743.297485
46.587502 32.554501 -743.215515
50.826801 33.952202 -744.328613
48.289001 33.197102 -743.741882
47.706501 32.981400 -743.594421
50.567402 33.911900 -744.337585
50.201599 33.871700 -744.273987
49.899799 33.815701 -744.214722
49.647800 33.703098 -744.145203
47.079201 32.745201 -743.494080
50.742901 33.568600 -744.684570
50.494598 33.615299 -744.666626
50.220699 33.633801 -744.636597
49.926601 33.594398 -744.586121
49.612701 33.499500 -744.516113
50.476601 33.353100 -744.744202
49.419300 33.345699 -744.604370
49.115398 33.283699 -744.545776
48.797901 33.185299 -744.474182
48.474098 33.071899 -744.397217
43.016201 31.758301 -743.283203
50.208401 33.370201 -744.884521
49.923599 33.358799 -744.843994
49.626701 33.313499 -744.791504
49.312801 33.177299 -744.758728
48.945400 33.136799 -744.698486
48.619999 33.016701 -744.619324
48.354801 32.891300 -744.703979
50.063000 33.199699 -745.164124
49.802200 33.051201 -745.084900
49.525398 33.065701 -745.053589
49.226601 33.016998 -745.000183
48.924900 32.961899 -744.944397
48.687801 32.890701 -744.892029
49.980801 32.927898 -745.228821
49.664902 32.783901 -745.341919
49.153801 32.732498 -745.260620
43.104500 30.251900 -744.384521
45.914001 30.182600 -745.595520
60.620800 36.088100 -729.166077
60.372002 36.173000 -729.211487
60.120201 36.246899 -729.252502
59.859600 36.291401 -729.281311
62.010399 35.047901 -729.094727
59.009102 35.165600 -735.275818
62.029099 35.040600 -728.248291
61.942699 35.162300 -728.490601
61.665199 35.390999 -729.179504
62.016602 35.143200 -727.459900
61.925301 35.231800 -727.694519
61.842800 35.380600 -727.944580
61.749298 35.450699 -728.173279
61.656101 35.521400 -728.401794
61.525902 35.572399 -728.694702
61.304501 35.701801 -729.216614
61.935200 35.277302 -727.015686
61.843498 35.362499 -727.249695
61.749901 35.432899 -727.479187
61.658501 35.517399 -727.712219
61.564701 35.584202 -727.940125
61.441399 35.683300 -728.246094
61.346699 35.740700 -728.470825
60.994499 35.909100 -729.281189
61.871498 35.389801 -726.659180
61.753899 35.446098 -726.929993
61.660000 35.514500 -727.159180
61.568401 35.598202 -727.392090
61.441601 35.674900 -727.692810
61.309399 35.711399 -727.982422
61.183498 35.790798 -728.282776
61.089802 35.853699 -728.508606
58.382401 35.741600 -733.958496
61.682598 35.312099 -726.499329
61.549301 35.592499 -726.926880
61.324902 35.709900 -727.449219
61.199001 35.790901 -727.750671
61.105999 35.860100 -727.978577
60.849098 35.978600 -728.567688
61.501999 35.426201 -726.352722
61.416100 35.551300 -726.597778
61.297100 35.684101 -726.914490
61.203499 35.751598 -727.142883
61.077000 35.828602 -727.443604
60.949299 35.894901 -727.740906
60.817902 35.933998 -728.030579
60.726898 36.014000 -728.260681
60.597000 36.061100 -728.551819
61.233898 35.723099 -726.627197
60.331001 36.114498 -728.687317
61.380501 35.623600 -726.182922
61.075100 35.830399 -726.920410
60.944500 35.878399 -727.213196
60.814098 35.926102 -727.505493
60.685902 35.987900 -727.801086
60.457901 36.067200 -728.309814
60.571800 36.030300 -728.050781
61.167400 35.752998 -726.321106
60.223000 36.110802 -728.440308
60.931999 35.845699 -726.403015
60.844799 35.958099 -726.643372
60.751099 36.023201 -726.870789
60.659199 36.100399 -727.101013
60.524300 36.115700 -727.384216
60.396599 36.179199 -727.679688
60.259602 36.178299 -727.958130
59.992699 36.222099 -728.525818
60.943600 35.764999 -725.997314
60.044899 36.292801 -728.125183
60.704899 35.855900 -726.158997
60.622101 36.001202 -726.408630
60.536098 36.121601 -726.650879
60.441299 36.179798 -726.875977
60.348202 36.248402 -727.103577
60.219101 36.304600 -727.397217
60.085400 36.327400 -727.681519
59.821701 36.395302 -728.254883
59.688801 36.420200 -728.538818
59.384201 36.436401 -729.166382
59.920399 36.409302 -727.942017
51.016800 33.822899 -744.514771
60.312302 36.234501 -726.666016
60.081799 36.308102 -727.173706
59.954201 36.375702 -727.470093
59.687698 36.431198 -728.040588
59.560200 36.495701 -728.334900
59.429600 36.537701 -728.622986
59.161400 36.573299 -729.185791
56.768101 36.285400 -733.869324
60.318501 35.994499 -726.083496
60.191299 36.073200 -726.384827
60.049999 36.290501 -726.792786
59.732201 36.472198 -727.537415
59.389999 36.709801 -728.362488
59.981499 36.133099 -726.249084
59.888401 36.207001 -726.478821
59.798000 36.298199 -726.712891
59.705399 36.373798 -726.942383
59.610401 36.431301 -727.166626
59.481400 36.490601 -727.460571
59.351898 36.544701 -727.752686
59.223301 36.603802 -728.045715
59.133900 36.694099 -728.277100
59.003899 36.741501 -728.566223
58.729698 36.738899 -729.118591
56.281502 36.348202 -733.843018
59.489498 36.135502 -726.435730
59.413502 36.325100 -726.696594
59.321499 36.403801 -726.926880
59.232800 36.503700 -727.162598
59.141998 36.587898 -727.393677
59.013599 36.649601 -727.687805
58.922199 36.727402 -727.916382
58.790699 36.765400 -728.203491
58.662601 36.824501 -728.495728
58.355598 36.830601 -729.119324
59.025002 36.312199 -726.684082
58.942200 36.452999 -726.931396
58.855801 36.567699 -727.171021
58.767300 36.666698 -727.406128
58.639599 36.732399 -727.701172
58.512798 36.802601 -727.997070
58.382301 36.846199 -728.285522
58.290699 36.919701 -728.512085
58.018200 36.927700 -729.067017
58.886398 36.174599 -726.292114
58.792301 36.241501 -726.520081
58.711601 36.397099 -726.771790
58.629101 36.539001 -727.019226
58.540199 36.636299 -727.254028
58.449299 36.718899 -727.484619
58.357601 36.794998 -727.713013
58.230301 36.861599 -728.007874
58.105000 36.939301 -728.305176
57.769100 36.981800 -729.007324
58.517101 36.232800 -726.507629
58.445099 36.446602 -726.775391
58.364101 36.597599 -727.025391
58.277401 36.708302 -727.263977
58.148800 36.767200 -727.557678
58.021999 36.836899 -727.853821
57.897400 36.919201 -728.152771
57.769402 36.977798 -728.445007
57.502701 37.021801 -729.009277
58.096600 36.607700 -727.065613
58.007801 36.703400 -727.300110
57.883499 36.790199 -727.601379
57.751701 36.826302 -727.888672
57.628201 36.915199 -728.189392
57.237499 37.041500 -729.052429
48.979401 33.467201 -743.714905
57.387901 36.969398 -728.368225
57.788700 36.514400 -726.908386
57.697399 36.596001 -727.139404
57.611801 36.713699 -727.379700
57.519501 36.786201 -727.607483
57.393501 36.861900 -727.905273
57.302101 36.937698 -728.133179
57.441399 36.651798 -727.169678
57.347000 36.711399 -727.394409
57.259998 36.818501 -727.631470
57.130299 36.869900 -727.922913
57.038898 36.945999 -728.150879
56.809898 36.978699 -728.247070
56.964600 36.714199 -727.473877
56.877399 36.819698 -727.710510
56.751202 36.894501 -728.007996
56.396702 37.043201 -728.808777
56.496899 36.927101 -728.168396
56.486301 36.759998 -727.744019
56.079899 37.016998 -728.713196
56.284199 36.831501 -727.926208
45.668098 30.162201 -745.546326
56.128101 36.895699 -728.162415
55.487598 36.930698 -728.541626
55.207500 36.795700 -728.528687
54.039600 36.947701 -729.397827
53.637600 36.917500 -729.675476
