-0.186600 56.915001 -785.083313
-5.398100 54.389599 -786.660889
-6.564600 57.225101 -786.456787
-6.541100 58.356201 -785.182678
-5.355500 57.863602 -786.631592
-6.659800 58.834900 -784.395386
-5.077400 58.754501 -784.091614
-6.408500 59.639500 -783.333130
1.233300 56.649101 -785.454590
2.179300 57.475700 -784.122192
-6.002800 61.204498 -781.709778
-5.927800 61.237701 -780.825928
14.961100 72.307800 -748.631592
14.672500 72.135696 -749.517517
14.204000 71.848198 -750.241821
14.510000 72.542999 -747.911072
13.821800 71.449097 -751.156982
14.102800 72.353600 -748.861572
13.656900 72.157799 -749.628601
13.629600 72.453903 -747.740601
13.177600 71.983498 -750.334900
12.971100 71.599197 -751.267395
13.063900 72.362396 -748.432129
12.399900 71.401703 -751.914490
13.981400 74.608704 -741.446411
13.847300 74.555397 -742.383911
13.681500 74.281097 -743.219299
13.496100 73.854698 -743.968079
13.296000 73.301903 -744.632629
13.106800 72.918297 -745.476379
12.682300 72.228699 -747.635803
12.466700 72.120300 -749.107788
12.338700 72.047401 -749.968079
12.177300 71.838097 -750.870972
11.820900 71.212402 -752.611816
13.670700 74.446297 -740.553528
12.608500 72.793900 -746.199219
12.177600 72.566498 -747.010315
11.971200 72.269302 -748.175110
11.457700 71.702904 -751.351990
11.106500 71.110100 -753.193420
13.030700 74.517998 -741.173523
12.888500 74.374001 -742.099121
12.744800 74.223297 -743.025879
12.569000 73.858803 -743.862976
12.396500 73.513603 -744.704285
11.601300 72.199699 -749.040771
11.457700 72.047401 -749.964111
11.071800 71.465500 -752.160889
12.007200 73.165604 -745.488525
10.533000 70.771896 -753.808716
11.701100 72.794998 -746.310486
12.558700 74.232697 -740.309570
12.292300 74.058899 -741.427612
12.061900 73.896698 -742.315613
11.359200 72.501999 -747.310730
11.707600 73.704597 -743.148315
11.602400 73.571800 -744.077881
11.020200 72.324898 -748.113281
10.748200 71.957901 -750.464905
11.653700 73.793999 -740.799316
11.221800 73.307899 -744.818115
11.110100 73.094803 -745.665100
10.670900 72.227898 -748.933594
10.391500 71.789497 -751.260803
10.219500 71.414101 -752.461914
11.273300 73.492897 -741.566711
11.172500 73.364799 -742.497620
10.737500 72.801697 -746.488220
9.872100 71.146698 -753.225403
10.833400 73.242897 -743.290710
10.391300 72.571297 -747.263977
10.117600 72.140602 -749.689697
9.521500 70.793503 -754.025391
10.441200 73.182404 -744.106018
10.347700 73.063301 -745.040588
9.998600 72.419899 -748.053284
9.711000 71.847702 -750.433289
9.587000 71.663696 -751.610474
10.336600 72.624298 -739.058716
10.270200 72.628304 -739.980774
10.191500 72.572800 -740.921021
10.134200 72.635300 -741.866028
10.100600 72.793602 -742.727600
9.881300 72.818604 -745.803589
9.547900 72.214996 -748.860718
9.146200 71.434898 -752.412415
9.012200 71.081001 -753.360596
10.138600 72.834900 -737.437317
9.700800 72.765701 -743.515015
9.635400 72.767799 -744.455505
9.445600 72.546097 -746.589111
9.149400 72.088501 -749.627930
8.991200 71.719704 -750.924988
9.990300 73.290497 -736.302795
9.814500 73.048897 -738.255920
9.070400 72.348999 -747.393677
8.350700 70.823502 -753.940125
9.844600 73.700600 -734.335205
9.780500 73.667801 -735.235901
9.418600 73.028603 -739.042480
9.333500 72.892097 -739.977173
9.249500 72.762398 -740.913330
9.179800 72.713097 -741.853882
9.104600 72.633202 -742.793579
8.936700 72.468399 -744.931274
8.866500 72.416603 -745.872986
8.676300 72.187202 -748.173218
8.492700 71.902000 -750.214722
8.338600 71.513000 -751.507874
8.246700 71.333000 -752.424683
9.494200 73.709602 -733.330017
9.247500 73.497002 -736.709900
9.155700 73.276299 -737.550110
8.668300 72.644203 -743.602173
8.417000 72.304298 -746.681824
8.223400 71.998802 -748.924683
7.809700 71.165100 -753.185608
9.026800 73.768501 -734.652771
8.956900 73.685997 -735.588379
8.718000 73.274101 -738.385071
8.618100 73.051903 -739.399719
8.538900 72.918198 -740.335571
8.474700 72.897301 -741.363770
8.407300 72.830101 -742.304016
7.989400 72.187599 -747.435730
7.781000 71.770203 -749.695984
7.706700 71.667297 -750.642822
7.565500 71.279800 -751.851624
8.783100 73.551804 -732.465576
8.751300 73.798798 -733.820679
7.968000 72.683098 -744.127319
7.892600 72.559303 -745.067505
7.818900 72.445900 -746.008972
7.616300 72.031601 -748.271301
7.094100 70.838402 -753.701477
8.295100 73.584801 -736.156189
8.214100 73.416100 -737.086609
7.783400 72.801598 -742.971924
6.960300 71.124298 -752.548706
8.111700 73.502502 -734.374023
8.086300 73.615196 -735.245300
7.889800 73.317497 -737.970398
7.823800 73.224297 -738.908630
7.766400 73.179199 -739.850220
7.693700 73.048401 -740.786926
7.632200 72.980499 -741.727722
7.258100 72.347298 -746.688477
7.056100 71.891701 -748.975891
6.952000 71.597603 -749.951904
6.844900 71.256699 -750.823303
7.863000 73.458000 -732.813782
7.193100 72.788803 -743.698120
7.122400 72.660103 -744.638672
7.053100 72.538902 -745.580627
6.894900 72.213501 -747.552673
6.464700 70.957901 -751.597229
7.540400 73.396698 -733.632629
7.432800 73.384102 -735.788879
7.385900 73.380600 -736.736328
7.038900 72.984596 -742.386108
7.310700 73.295303 -734.736328
6.444900 72.037102 -748.292419
7.058000 73.277496 -738.321594
6.999400 73.191200 -739.262329
6.954900 73.185699 -740.208618
6.895600 73.095802 -741.149109
6.281500 71.773399 -749.377319
6.143000 71.472801 -750.299988
5.901500 70.580399 -752.163513
6.411100 72.488701 -746.203979
6.960500 73.121696 -732.855530
6.802000 73.313698 -737.378601
6.489200 72.926804 -743.123596
6.755300 73.116203 -733.924622
6.674100 73.190102 -736.185974
6.283200 72.822998 -744.010071
6.219800 72.665497 -744.864014
6.074300 72.347504 -747.006897
5.687300 71.109901 -751.052124
6.569500 73.149902 -735.176025
6.276800 73.028702 -741.817871
6.456800 72.683998 -731.845825
6.266000 73.142197 -738.736877
6.233400 73.169800 -739.688721
6.191800 73.145500 -740.635315
5.664100 71.944397 -748.687622
5.673600 72.529602 -745.569702
5.531900 72.184799 -747.714172
5.383300 71.726303 -749.518127
5.121400 70.697998 -751.676208
5.912800 72.546700 -730.715515
5.899500 72.844299 -732.507874
5.880100 72.917397 -733.390076
5.862800 73.001701 -734.271729
5.820000 73.048500 -735.667908
5.785100 73.047897 -736.622375
5.752000 73.057899 -737.576782
5.568500 72.999199 -742.324219
5.518100 72.907997 -743.266724
5.455900 72.767097 -744.293213
5.308900 72.373001 -746.431396
4.984400 71.307602 -750.209473
5.607700 72.742996 -731.541382
5.403100 72.975304 -738.448303
5.374400 73.004997 -739.403198
5.345700 73.034401 -740.356689
5.314400 73.048897 -741.307800
4.821900 71.766197 -748.848511
4.611000 70.998802 -751.003296
4.533100 70.818298 -752.306274
4.525500 71.049103 -753.656311
5.325500 72.103104 -729.668823
4.896600 72.683403 -744.989685
4.748900 72.261803 -747.129517
4.685400 72.068398 -747.987183
5.091200 72.703102 -732.816528
5.092900 72.903999 -733.804626
5.079500 72.997498 -734.688477
5.043800 73.063797 -736.088806
5.018000 73.101303 -737.048401
4.787400 72.880203 -742.742676
4.752900 72.866203 -743.691711
4.611500 72.469200 -745.828796
4.319300 71.507202 -749.517395
4.045300 70.873497 -754.360718
4.850000 72.006599 -728.238770
4.832800 72.323997 -730.437988
4.838100 72.646301 -731.981018
4.726800 73.124397 -737.884521
4.599200 72.947098 -740.814209
4.553300 72.862999 -741.759521
4.019000 71.426201 -750.355286
3.943900 71.225403 -751.568115
3.900400 71.205902 -752.784180
4.622800 72.158897 -729.137695
4.490800 73.170097 -738.726624
4.449600 73.108398 -739.674011
4.220100 72.663498 -744.400330
4.080100 72.255402 -746.541992
3.937200 71.783897 -748.429993
3.689300 71.321098 -753.628479
4.457600 71.776199 -727.400024
4.643900 73.484200 -730.906677
4.412200 72.948898 -735.291870
3.863900 71.992500 -747.381104
4.337000 72.513199 -731.200684
4.319100 72.779099 -733.260315
4.306300 72.880302 -734.236877
4.266300 73.060402 -736.527771
4.012900 72.793297 -743.185303
3.901100 72.518097 -745.245117
3.356900 71.101700 -754.844971
4.213600 71.520103 -725.912720
3.558100 71.858803 -749.241577
3.881700 72.946198 -742.333496
3.354300 71.372002 -750.920898
4.060200 72.314499 -729.872192
4.051300 72.694603 -732.400330
3.976100 73.101097 -737.347229
3.254200 71.403900 -752.071716
4.005300 72.131599 -728.481873
3.823200 73.089500 -740.353821
3.793800 73.079498 -741.304688
3.917500 71.473701 -725.020874
3.819900 71.820198 -726.663086
3.719600 73.160698 -738.220825
3.693400 73.165100 -739.174683
3.488800 72.742599 -743.892090
3.349400 72.258301 -745.932129
3.273900 72.157303 -748.001282
3.131100 71.655197 -750.055298
2.991500 71.305199 -752.904419
3.632100 72.957802 -734.815918
3.614500 72.998199 -735.694092
3.183300 72.276398 -746.812927
2.836900 71.386497 -753.871826
3.459000 71.906303 -727.512024
3.475700 72.279503 -729.182373
3.458900 72.400703 -730.531921
3.471200 72.624802 -731.451782
3.453100 72.780800 -733.059082
3.458100 72.958504 -733.962097
3.083200 72.488403 -744.687378
3.141400 71.125397 -723.840271
3.177700 71.611397 -725.515076
3.126500 73.071503 -736.457703
3.112400 73.158302 -737.512817
3.052000 73.163200 -739.768921
3.005900 73.040497 -740.708313
2.974400 73.005798 -741.656616
2.931800 72.904503 -742.598206
2.634700 72.104797 -748.591309
2.509600 71.706703 -750.736084
2.481800 71.695099 -751.687622
2.330800 71.270699 -754.622192
2.761500 70.847801 -723.002319
2.818200 71.441299 -724.623901
2.818400 71.721298 -726.390076
2.841800 72.141701 -728.169312
2.847200 72.435204 -729.821716
2.845900 72.786003 -732.088318
2.799300 72.985802 -735.099670
2.760500 73.270699 -738.358276
2.519300 72.635902 -743.405029
2.452700 72.540398 -745.300415
2.415700 72.469803 -746.246216
2.378100 72.396599 -747.191895
2.246400 71.965698 -749.416321
2.090800 71.532204 -752.516174
2.040500 71.369598 -753.378784
2.295600 70.599998 -722.188110
2.401400 71.976898 -727.156677
2.416100 72.343803 -729.008728
2.424600 72.629303 -730.565979
2.420600 72.958900 -732.910889
2.391200 72.916100 -733.781799
2.354000 73.014503 -735.895691
2.342900 73.094498 -736.865723
2.307900 73.230499 -739.142273
2.261800 73.112000 -740.169495
2.212600 72.961601 -741.106873
2.157600 72.776604 -742.041870
2.069900 72.580399 -744.189697
1.923600 72.283302 -747.974976
1.802100 71.899399 -750.204895
1.554800 71.161003 -755.037415
1.856800 70.905098 -722.953674
1.870900 71.112701 -723.816772
1.882500 71.304802 -724.672791
1.907600 71.578796 -725.541870
1.964300 72.256203 -727.916321
1.976600 72.593903 -729.756714
1.967100 72.770897 -731.379211
1.932100 73.025200 -734.583130
1.872600 73.113899 -737.650513
1.671400 72.665802 -742.813171
1.599300 72.548599 -744.968994
1.580800 72.576500 -745.922729
1.539800 72.469498 -746.866577
1.444700 72.178001 -748.752197
1.355400 71.971497 -750.991882
1.308000 71.814400 -751.851685
1.229300 71.471802 -752.708191
1.189400 71.372200 -753.659729
1.411500 70.739502 -721.021912
1.378800 70.669800 -721.921326
1.480500 71.876701 -726.348511
1.524000 72.455200 -728.694885
1.529300 72.736198 -730.520081
1.511400 72.850098 -732.128723
1.490300 72.845802 -733.008484
1.474000 73.066101 -735.322083
1.459500 73.100800 -736.200928
1.390900 73.003403 -738.455200
1.355900 72.926300 -739.403320
1.328200 72.892998 -740.355774
1.301400 72.864799 -741.307983
1.208300 72.631401 -743.627930
1.071600 72.377197 -747.678772
0.967300 72.006599 -749.476501
0.712000 71.169296 -754.392883
0.928900 70.871101 -722.720398
0.948100 71.096901 -723.590027
0.939000 71.162201 -724.511902
0.960200 71.399200 -725.375977
1.043400 72.118599 -727.140076
1.075500 72.608398 -729.462219
1.083400 72.890800 -731.283020
1.017000 72.816399 -733.738220
0.965900 72.924500 -736.908691
0.817100 72.707298 -742.022522
0.755200 72.655502 -744.446716
0.726300 72.607697 -745.395813
0.691200 72.522400 -746.341919
0.600600 72.253899 -748.402771
0.545500 72.174599 -750.302612
0.501700 72.027199 -751.161926
0.452500 71.847603 -752.021484
0.380100 71.542603 -752.966187
0.227900 70.926399 -755.151978
0.466900 70.531998 -719.931580
0.424500 70.392700 -720.819214
0.463300 70.735001 -721.725281
0.524300 71.640503 -726.100220
0.593100 72.274498 -727.930115
0.606100 72.637604 -730.222778
0.603500 72.847603 -732.028320
0.588600 72.870598 -732.913696
0.551200 72.847298 -734.493530
0.538700 72.884399 -735.376404
0.498900 72.934799 -737.658020
0.480100 72.933197 -738.530273
0.470300 72.984901 -739.407715
0.446100 72.961601 -740.362000
0.364300 72.781097 -742.775879
0.221900 72.481201 -747.085693
0.130400 72.199699 -749.147583
-0.107500 71.369003 -753.713684
0.002000 70.712799 -722.474426
0.011500 70.880501 -723.424988
0.029700 71.100800 -724.382813
0.022300 71.165298 -725.303528
0.099200 71.803299 -726.876709
0.163800 72.397301 -728.692200
0.159000 72.646202 -731.047913
0.118000 72.719101 -733.709717
0.090700 72.850700 -736.188416
-0.018500 72.793900 -741.156799
-0.080600 72.714203 -743.581787
-0.113400 72.633003 -744.529175
-0.138100 72.610100 -745.567810
-0.232800 72.326302 -747.888184
-0.279300 72.297997 -749.964783
-0.324000 72.146004 -750.910278
-0.375000 71.947502 -751.768982
-0.435900 71.690201 -752.627991
-0.571400 71.107101 -754.439270
-0.521700 70.031197 -719.624207
-0.497500 70.268402 -720.513184
-0.476900 70.483704 -721.392578
-0.401700 71.425697 -726.062378
-0.327700 72.027397 -727.621582
-0.291900 72.437202 -729.485596
-0.293100 72.681900 -731.835876
-0.337000 72.515503 -732.693115
-0.321900 72.797699 -734.500183
-0.332800 72.828300 -735.383301
-0.361400 72.829300 -736.961426
-0.367900 72.885399 -737.843323
-0.389100 72.854500 -738.712891
-0.408900 72.831200 -739.582520
-0.456200 72.804802 -741.930176
-0.576100 72.572098 -746.336121
-0.659600 72.330597 -748.659973
-0.894500 70.602997 -722.226624
-0.878600 70.779701 -723.090271
-0.882700 70.845497 -724.017273
-0.865300 71.031403 -724.875977
-0.792800 71.653198 -726.902588
-0.746500 72.071899 -728.420105
-0.710700 72.462303 -730.275696
-0.735500 72.628502 -733.491882
-0.822100 72.786003 -740.350525
-0.864000 72.768402 -742.698120
-0.900700 72.669800 -743.905090
-0.923000 72.631302 -744.856628
-0.983600 72.493797 -747.100830
-1.035200 72.426201 -749.521423
-1.073700 72.291603 -750.466980
-1.115500 72.129898 -751.326172
-1.181200 71.827797 -752.182312
-1.237500 71.581100 -753.042786
-1.314700 71.211700 -753.903320
-0.987000 72.473602 -731.153687
-1.025600 72.698303 -735.955017
-1.093200 72.795303 -741.211304
-1.195500 72.617996 -745.712097
-1.258800 72.457901 -747.954285
-1.431100 70.164398 -720.426208
-1.406700 70.388802 -721.309082
-1.337400 71.198196 -725.686829
-1.269900 71.778503 -727.696899
-1.229100 72.156700 -729.201294
-1.230500 72.406303 -732.002808
-1.223700 72.652901 -734.250916
-1.240800 72.789101 -736.818298
-1.261500 72.748001 -737.688599
-1.284100 72.695702 -738.556885
-1.283300 72.781700 -739.440613
-1.435500 72.449600 -732.861023
-1.439400 72.628700 -735.093628
-1.516700 72.802803 -742.022217
-1.546900 72.743202 -743.320007
-1.623500 72.583702 -746.516785
-1.685200 72.425201 -748.758972
-1.775800 70.533600 -722.165527
-1.763500 70.681900 -723.023315
-1.759900 70.785400 -723.959412
-1.744000 70.954102 -724.814819
-1.696600 71.384201 -726.533875
-1.589800 72.318398 -730.028076
-1.685300 72.659599 -740.206787
-1.746800 72.653801 -744.209229
-1.877800 72.383202 -749.824280
-1.906400 72.299797 -750.772583
-1.965100 72.032097 -751.628174
-2.027400 71.742699 -752.485901
-2.088400 71.461800 -753.346619
-1.867000 71.827904 -728.350586
-1.851000 72.136200 -730.907410
-1.855300 72.554703 -736.188416
-1.970700 72.627998 -745.096985
-2.000100 72.645203 -747.351501
-2.193900 71.032997 -725.637085
-2.138000 71.496498 -727.356384
-2.083900 71.962700 -729.239075
-2.079500 72.190102 -731.773987
-2.071000 72.375801 -733.487427
-2.072300 72.439201 -734.380188
-2.077100 72.623299 -737.044922
-2.090900 72.618896 -738.008484
-2.090900 72.689400 -738.892029
-2.094900 72.833702 -741.002075
-2.129800 72.760399 -742.647888
-2.296300 72.235397 -732.617004
-2.289900 72.481499 -735.304382
-2.409000 72.606201 -745.884827
-2.433800 72.636803 -748.139526
-2.479800 72.447701 -749.168213
-2.653700 70.248001 -721.994812
-2.617000 70.532303 -722.883972
-2.615400 70.615097 -723.816528
-2.597500 70.786598 -724.673279
-2.550000 71.206497 -726.482178
-2.476700 71.912804 -730.027405
-2.478900 72.663498 -739.753723
-2.527300 72.675003 -743.500671
-2.668100 72.381302 -750.245911
-2.720400 72.142799 -751.102722
-2.779700 71.870796 -752.047607
-2.841500 71.576599 -752.908020
-2.570600 72.759697 -741.780701
-2.627300 72.627296 -744.377014
-2.645200 72.702904 -746.723877
-2.744300 71.533096 -728.033813
-2.698700 72.010201 -731.068115
-2.687400 72.445099 -736.435974
-3.051500 70.855103 -725.445984
-2.967300 71.579300 -728.921326
-2.926200 72.018700 -731.940125
-2.919600 72.146301 -733.289917
-2.905500 72.317802 -734.640198
-2.906100 72.487900 -737.300781
-2.907300 72.549797 -738.359497
-2.896700 72.757004 -740.565308
-3.218700 71.247002 -727.065491
-3.122300 72.359001 -735.617981
-3.150200 72.629204 -742.469788
-3.186800 72.578598 -745.070984
-3.171800 72.816498 -747.424683
-3.217500 72.617104 -748.537415
-3.255300 72.459702 -749.567383
-3.538600 70.111298 -722.686707
-3.501100 70.387604 -723.570984
-3.484900 70.542198 -724.516174
-3.356700 71.626297 -729.777283
-3.305100 72.515503 -739.181213
-3.343800 72.574303 -743.803528
-3.335800 72.757103 -745.984924
-3.473900 72.224701 -750.542908
-3.525500 71.978104 -751.486572
-3.582100 71.697502 -752.345276
-3.641600 70.817703 -726.091614
-3.593000 71.213303 -727.883484
-3.522000 71.801399 -730.674988
-3.519100 71.937302 -732.653015
-3.480600 72.683701 -741.266724
-3.812300 71.305397 -728.754028
-3.767800 71.729103 -731.508728
-3.747800 71.968597 -733.587708
-3.723500 72.191597 -734.945313
-3.710400 72.347397 -736.286926
-3.701100 72.485001 -737.708313
-3.693400 72.664200 -740.001099
-4.153600 70.558403 -725.116577
-4.102800 70.953903 -726.827271
-3.961700 72.440598 -738.608276
-3.988600 72.470001 -742.015198
-4.004400 72.429298 -742.968811
-3.991700 72.586998 -744.458984
-3.939500 73.012398 -746.567200
-3.986700 72.799301 -747.763184
-4.032500 72.589897 -748.875183
-4.077100 72.382797 -749.903015
-4.288100 71.360001 -729.490479
-4.268600 71.626404 -732.212891
-4.184200 72.852402 -745.324890
-4.353500 72.151001 -750.738281
-4.394600 71.954903 -751.597473
-4.585300 70.696899 -725.888916
-4.547600 71.014297 -727.578186
-4.501000 71.444504 -730.348572
-4.487300 71.677200 -733.058289
-4.444600 71.991898 -734.168518
-4.425200 72.181900 -735.518982
-4.416700 72.306999 -736.854919
-4.404900 72.519897 -739.420227
-4.419400 72.492104 -740.464722
-4.779200 71.065804 -728.422424
-4.761900 71.319801 -731.244873
-4.649300 72.337402 -737.759705
-4.696900 72.246696 -741.336182
-4.731100 72.098999 -742.369385
-4.721600 72.211899 -743.425476
-4.600400 73.130096 -747.132629
-5.091900 70.532799 -726.640991
-4.884100 71.877098 -728.873474
-4.862700 72.474297 -738.599121
-4.848800 72.823402 -744.119385
-4.787100 73.271400 -745.796387
-4.870000 72.880798 -747.930115
-4.916600 72.645103 -748.781677
-4.951300 72.483597 -749.725220
-5.241000 71.036400 -729.197083
-5.254500 71.016701 -730.539612
-5.255200 71.078300 -731.981018
-5.186600 71.559196 -733.568726
-5.123300 71.991699 -734.782593
-5.121300 72.059998 -736.026978
-5.399000 71.016296 -727.766602
-5.278300 72.139099 -736.929688
-5.249100 72.433701 -739.681824
-5.286300 72.249001 -740.536072
-5.156300 73.216400 -744.880310
-5.314600 72.517799 -750.543579
-5.506100 71.250298 -732.802917
-5.448700 71.981697 -741.711975
-5.245800 73.411301 -746.597595
-5.330300 71.984802 -731.013672
-5.493100 72.394600 -737.964722
-5.780900 70.903999 -731.280884
-5.559800 73.157997 -747.411621
-5.849000 70.807602 -729.889587
-5.624500 72.964500 -743.739319
-5.611200 73.575996 -745.589478
-5.918100 70.965202 -728.501221
-5.893900 71.646500 -734.094910
-5.853500 72.021599 -735.283875
-5.839800 72.441498 -738.819397
-6.094500 71.643898 -732.103088
-6.058800 72.239998 -736.130920
-6.058400 72.346298 -737.276611
-6.100700 72.302696 -739.879822
-5.986600 73.462601 -744.458618
-6.236100 73.712303 -746.200684
-6.652400 71.931602 -734.729187
-6.619400 72.436699 -738.018188
-6.645300 72.364998 -739.139587
-6.511100 73.770103 -745.111328
-6.896000 72.250397 -735.558594
-6.905200 72.264801 -736.432922
-6.806000 73.567398 -744.072876
-7.176900 72.447197 -737.266724
-7.059600 73.926399 -745.836426
-7.545700 72.402496 -738.058472
-7.405100 73.861000 -744.826599
-7.893500 72.265099 -735.162781
-7.883100 72.404602 -736.054810
-8.129600 72.477898 -736.921814
-5.759000 72.384903 -749.411621
-6.300000 72.436699 -740.739319
-1.958600 71.850403 -754.402588
-6.403400 71.363998 -733.390381
-4.388500 73.290703 -740.964905
-4.376900 72.283699 -730.644775
12.705600 71.219803 -752.710388
11.846600 72.096901 -752.603210
9.264400 74.522400 -732.874084
-6.103500 70.697197 -732.295715
-4.138600 69.982697 -724.387390
-2.120900 69.781898 -721.328796
-0.595200 69.117798 -719.509888
0.159000 69.419403 -719.906677
0.820400 69.615601 -720.488770
1.555900 69.786102 -721.299194
3.439400 70.792397 -724.632996
5.694800 71.981796 -732.270386
103.385498 45.783901 -797.521484
102.823700 45.118000 -797.527527
102.218597 44.404202 -797.537720
101.514603 43.702099 -797.696899
107.059303 46.123501 -792.388489
105.899200 46.222401 -794.090881
105.695702 46.627399 -794.834473
105.289398 46.948799 -795.759705
104.953697 47.297798 -796.619873
104.258598 46.926300 -797.145630
103.461998 46.769199 -797.500000
102.019302 45.380798 -797.884827
101.290298 44.783199 -797.969421
105.540398 47.498100 -795.060303
105.233200 47.819500 -795.845825
102.592697 46.205601 -797.611084
107.171402 46.850601 -791.900391
104.637299 48.106400 -796.781799
105.867798 46.894402 -793.395325
105.641197 47.310001 -794.175415
103.632202 47.615799 -797.257019
101.150803 45.617802 -798.365784
107.548103 47.629002 -791.477295
106.514801 47.187099 -792.381226
102.599297 47.088600 -797.594482
101.678001 46.202000 -797.841370
105.590698 48.187401 -794.231628
105.292999 48.529999 -795.024170
104.987602 48.856602 -795.809326
103.815201 48.452702 -796.943787
102.764099 47.929100 -797.777588
105.906898 47.726101 -792.732971
101.733101 47.133999 -797.724121
100.922401 46.546501 -798.158081
107.428596 48.290100 -790.908630
106.788101 48.075802 -791.533386
104.502998 49.506100 -796.245911
103.056396 48.756001 -797.356018
105.637497 48.437599 -793.283813
105.413101 49.071201 -794.302185
100.064903 46.304100 -798.406128
105.069000 49.507900 -795.079773
103.747299 49.359299 -796.695496
106.144203 48.375500 -792.124695
102.007599 48.090401 -797.378723
100.916496 47.527699 -797.886719
105.597198 49.339500 -793.232483
104.655197 50.218601 -795.485779
100.105797 47.254601 -798.278687
99.514397 47.175400 -798.985413
107.385201 49.115799 -790.272888
106.799400 48.993999 -790.923584
105.333397 49.874001 -793.880127
104.032898 50.334801 -796.144592
102.961502 49.693001 -796.864929
102.280701 49.025600 -797.031677
105.720497 49.108299 -792.385986
105.003304 50.284401 -794.663330
101.155701 48.319099 -797.580811
106.140602 49.523201 -791.285278
105.362503 50.243099 -793.060974
104.546799 51.004101 -794.929077
104.046303 51.059299 -795.640625
103.201202 50.603500 -796.262512
101.420898 49.209499 -797.114197
100.304703 48.493999 -797.815613
99.643600 48.148800 -798.314026
107.315804 49.984402 -789.417908
106.745499 49.936798 -790.111206
105.636497 50.098400 -791.727783
105.100899 51.043701 -793.424011
102.350197 50.703899 -796.651672
98.845398 48.277599 -798.659912
106.135300 50.360001 -790.631287
105.196503 50.720100 -792.233521
104.745499 51.711800 -793.866882
104.253799 51.842999 -794.645630
103.694901 51.879398 -795.411682
103.052803 51.547600 -795.897888
101.519798 50.380100 -796.662720
100.648300 49.607201 -796.982117
99.644501 49.050900 -797.702393
98.846001 49.100498 -798.192078
98.069603 48.736099 -798.817688
106.943398 50.707401 -788.949402
106.386597 50.739799 -789.706177
105.607498 51.019199 -791.011292
104.923302 51.542500 -792.449585
102.216103 51.737801 -796.169128
104.269203 52.460300 -793.947815
103.718903 52.536598 -794.741089
103.006699 52.437698 -795.560730
101.429298 51.276798 -796.388184
100.644897 50.447701 -796.535583
99.727798 49.699600 -796.939880
105.193604 51.568901 -791.551819
104.599701 52.241501 -793.024719
99.051102 49.702400 -797.552612
98.103104 49.581200 -798.419495
105.743698 51.209202 -790.077515
106.457901 51.434601 -788.967224
104.755203 52.302601 -792.050781
102.171204 52.638599 -795.714478
105.261002 51.796398 -790.629578
103.763397 53.172798 -793.974182
103.216003 53.255402 -794.761902
101.398300 52.285702 -796.090881
100.572098 51.473999 -796.311279
99.739799 50.520699 -796.393127
97.246902 49.730801 -798.774292
104.096298 52.963200 -793.036316
99.032600 50.428299 -796.905701
98.405800 50.314999 -797.591675
106.756104 51.812302 -788.195618
104.848099 52.337299 -791.179993
102.470200 53.339401 -795.258179
105.670403 51.675900 -789.275330
97.678596 50.363300 -798.148926
104.519699 53.057201 -791.686890
101.516098 53.227600 -795.694519
100.523201 52.382401 -796.096802
99.728104 51.375500 -796.081116
106.010399 52.165401 -788.608215
105.230301 52.282200 -789.721985
103.633400 53.709400 -793.216980
103.204201 53.960800 -794.021118
102.621597 54.036499 -794.753479
96.855301 50.476299 -798.467285
104.013199 53.491001 -792.333984
104.819397 52.708900 -790.369690
98.901001 51.210201 -796.399414
98.251404 51.041199 -797.056519
101.801804 53.885799 -795.127991
106.417397 52.718102 -787.781311
100.615700 53.296799 -795.796875
97.535103 51.141602 -797.548218
104.393303 53.396099 -790.870605
99.595802 52.260201 -795.857300
105.213898 52.565701 -788.836182
103.975403 53.851601 -791.515015
103.479202 54.178101 -792.480774
103.100403 54.431301 -793.221985
102.619400 54.652500 -794.061707
105.685097 52.983501 -788.182129
104.806396 53.114300 -789.440674
101.966599 54.716801 -794.703125
101.000504 54.213699 -795.432007
96.781700 51.385502 -797.975586
96.140503 51.102001 -798.510376
98.732399 52.233601 -796.083801
98.030098 51.772099 -796.518494
104.333199 53.670300 -790.032715
99.754501 53.410599 -795.657898
105.957397 53.475800 -787.369324
103.941498 54.195000 -790.688110
103.467903 54.560200 -791.666199
97.269699 51.938801 -796.986572
104.892303 53.419998 -788.365417
103.032501 54.962299 -792.309570
102.577400 55.171299 -793.105225
102.123497 55.387402 -793.906006
101.102402 55.011299 -794.838318
100.077499 54.338902 -795.476685
98.903503 53.128201 -795.763489
104.517403 53.852001 -789.047974
96.179298 52.021599 -797.904785
97.975502 52.695900 -796.054871
95.425903 51.901402 -798.524780
105.346100 54.054100 -787.712830
104.033302 54.477402 -789.544983
103.443901 54.922401 -790.743225
101.365402 55.760899 -794.239014
100.309898 55.281502 -795.110413
99.156197 54.245499 -795.551514
97.189400 52.608799 -796.432800
96.532700 52.411301 -797.075500
102.986198 55.312599 -791.423218
102.521500 55.691898 -792.390320
102.054398 55.884399 -793.175415
98.237000 53.688499 -795.855896
105.677399 54.381001 -786.923889
104.577400 54.201099 -788.143982
99.444298 55.097500 -795.270386
95.681702 52.714699 -797.698425
94.749298 52.444099 -798.615601
104.058296 54.735802 -788.617188
103.490700 55.132702 -789.729126
101.418503 56.399601 -793.609070
100.527901 56.083900 -794.428894
97.365997 53.527599 -795.924927
105.134903 55.060600 -787.035217
104.542603 54.938900 -787.667297
103.008698 55.672501 -790.337830
102.472198 56.020000 -791.361511
102.026100 56.410000 -792.312195
99.700798 56.027500 -794.887878
98.555603 55.150799 -795.478516
96.515099 53.290298 -796.236694
95.847298 53.057899 -796.855774
103.557503 55.410801 -788.873413
100.678802 56.775600 -793.875000
97.752701 54.691002 -795.539185
95.031303 53.301800 -797.628296
105.372803 55.525398 -786.236877
103.137703 55.933498 -789.481873
101.482803 57.010601 -792.647888
98.806297 56.044201 -795.100708
96.970398 54.276901 -795.695374
94.243301 53.231602 -798.134827
104.520302 55.699200 -787.027527
103.925003 55.569000 -787.657471
102.490501 56.373699 -790.277283
101.951797 56.782600 -791.366089
99.861801 56.922901 -794.166504
96.186600 54.080299 -796.047485
103.488403 56.067101 -788.304077
100.780502 57.378799 -793.045593
99.083298 56.818298 -794.656311
97.913300 55.857800 -795.201172
95.390404 53.952702 -796.540283
96.987099 55.122898 -795.402222
94.735100 53.983200 -797.151123
93.500298 53.634102 -798.381226
104.851501 56.238098 -786.271423
101.351402 57.332802 -791.818176
102.961700 56.538799 -788.817688
100.029404 57.528599 -793.550720
94.057098 54.009800 -797.743896
101.921898 57.032799 -790.509583
98.244202 56.705601 -794.919983
103.832703 56.258801 -787.125122
102.427101 56.810902 -789.469604
99.256798 57.608601 -794.012878
96.089500 55.005001 -795.537476
104.969200 56.842800 -785.604126
103.223000 56.665501 -787.670898
101.330101 57.549000 -790.960327
100.692497 57.883900 -792.104675
98.532097 57.491699 -794.493408
97.087502 56.130402 -795.019104
95.312302 54.772701 -795.972412
104.249802 56.866001 -786.318420
100.137299 58.078400 -792.770325
94.553299 54.508598 -796.451904
92.833298 54.196602 -798.352783
101.849800 57.419800 -789.723389
93.980797 54.704899 -797.130127
102.673798 57.195801 -788.137329
99.393402 58.217701 -793.304016
97.644302 57.324299 -794.672119
96.228302 55.918900 -795.121826
93.252502 54.622002 -797.664429
107.913101 58.875099 -782.731873
103.441200 57.099300 -786.721375
102.173302 57.546799 -788.769470
100.737099 58.146999 -791.179504
98.697304 58.275002 -793.903687
95.468300 55.656799 -795.496216
107.210197 58.802399 -783.294312
106.534103 58.461300 -783.827820
101.256500 57.963799 -790.078796
94.642502 55.345100 -795.989685
108.496002 59.351101 -781.946594
104.710899 57.453499 -784.948608
104.191002 57.549400 -785.704285
100.140900 58.490002 -791.779297
97.906197 58.161499 -794.314514
96.754601 57.047001 -794.710327
102.727402 57.405800 -787.239075
99.552200 58.689400 -792.530396
93.821198 55.261600 -796.400391
105.701302 58.585098 -784.208008
101.498901 58.046799 -789.058777
95.952400 56.728100 -794.876099
93.237396 55.388000 -797.055725
92.482697 55.037498 -797.682800
103.421204 57.731899 -786.084473
102.260498 57.988998 -787.812195
98.805397 58.816502 -793.015320
97.059097 57.919601 -794.381470
104.886101 58.303600 -784.623230
100.614304 58.546101 -790.293274
94.694199 56.084301 -795.468323
107.670700 59.591499 -782.243896
98.056297 58.827400 -793.663086
96.126297 57.687099 -794.927979
108.326698 59.888500 -781.166687
106.839500 59.462200 -782.641479
106.207802 59.223499 -783.213684
104.055298 58.233002 -784.996582
102.708099 58.040100 -786.514404
101.642700 58.487801 -788.279907
100.845497 58.553699 -789.347595
99.997200 59.004101 -790.841675
99.514999 59.163200 -791.599670
95.060501 56.840401 -795.032471
93.860199 56.084499 -795.835022
98.889397 59.433399 -792.179626
97.189003 58.988098 -793.903687
93.074997 55.905300 -796.187622
92.525299 55.989300 -796.959412
91.855202 55.728500 -797.558411
107.607903 60.288300 -781.473572
105.349098 59.357899 -783.444275
104.715202 59.125500 -784.024475
103.290901 58.572102 -785.298401
102.047203 58.583401 -786.876282
100.187103 59.100201 -789.706970
98.132004 59.489399 -792.663208
96.362198 58.674500 -794.126404
95.304199 57.679600 -794.523071
94.136200 56.854198 -795.218079
106.756599 60.130699 -781.738281
106.067497 59.879200 -782.371094
103.881798 59.126400 -784.420410
102.541397 58.742802 -785.750671
101.442398 59.027699 -787.406677
100.934898 59.149300 -788.162109
99.615196 59.593899 -790.247375
99.160301 59.786900 -791.003723
97.414902 59.692101 -793.117676
93.326500 56.801201 -795.552429
107.557701 60.626701 -780.508423
105.269203 59.936401 -782.750488
100.268997 59.467602 -788.631470
98.475098 60.093300 -791.491577
96.603996 59.753300 -793.536682
95.503502 58.769402 -793.998779
94.473297 58.024200 -794.597473
92.504097 56.705799 -795.842224
91.937897 56.735901 -796.586670
91.302803 56.569500 -797.232727
106.874702 60.864101 -781.038208
104.493896 59.998199 -783.232483
103.855904 59.757900 -783.812927
103.124001 59.540901 -784.533875
101.872398 59.327801 -785.916504
99.645798 59.826599 -789.206482
97.751701 60.238400 -791.993530
93.644798 57.717400 -794.807129
106.102798 60.659901 -781.467407
102.375198 59.414001 -785.005920
101.239304 59.526699 -786.549377
100.705101 59.597500 -787.292419
99.179703 60.248600 -789.837830
98.705002 60.400700 -790.582092
97.051903 60.260601 -792.541077
95.695602 59.593800 -793.626770
92.871399 57.550800 -795.268921
105.356499 60.442699 -781.960693
94.580803 58.771500 -794.005920
100.094002 59.896301 -787.836670
91.820198 57.278301 -795.826721
91.253098 57.302299 -796.566284
106.974998 61.363602 -780.197815
104.572304 60.547100 -782.466492
97.978401 60.729900 -790.977600
96.314697 60.544399 -792.906677
93.709099 58.473099 -794.248779
88.816498 57.869099 -799.866699
88.370796 58.044701 -800.595886
103.766602 60.506001 -783.126221
103.161903 60.330601 -783.726624
102.517303 60.181599 -784.402222
101.662102 59.930199 -785.247925
99.509399 60.366501 -788.384888
94.784302 59.516499 -793.565979
92.955803 58.255001 -794.691711
87.727402 58.113300 -801.177917
106.190903 61.378899 -780.740173
97.272903 60.875401 -791.555176
101.065002 60.102901 -785.889709
100.505203 60.121101 -786.614380
98.991600 60.671799 -789.043518
98.520302 60.829102 -789.786621
95.489899 60.381401 -793.198303
92.120697 58.043598 -795.268616
89.411400 58.188400 -798.829224
105.408203 61.265598 -781.245422
96.563004 60.845100 -792.062683
104.685799 61.197300 -781.826172
93.943703 59.325100 -793.728699
91.191299 57.907799 -795.899414
90.460602 57.695099 -796.629028
99.758202 60.426601 -787.098083
89.757698 58.337002 -797.887024
86.930397 58.337200 -801.491699
103.925499 61.136002 -782.366089
97.806198 61.199799 -790.233704
106.162598 61.864101 -779.873413
103.076500 61.077099 -783.059998
102.424698 60.902401 -783.725220
101.819298 60.721901 -784.326294
101.063904 60.553200 -785.128418
98.955200 61.039200 -788.247925
97.159203 61.373901 -790.831787
95.848503 61.253700 -792.382202
94.604797 60.397800 -793.170471
93.058701 59.127399 -793.960815
88.586098 58.474998 -799.028381
88.024902 58.472401 -799.737183
105.476601 62.004200 -780.467407
100.403603 60.712601 -785.702820
98.354897 61.318802 -788.853271
96.441299 61.419800 -791.368530
95.060600 61.081699 -792.805603
92.245499 58.916500 -794.380310
91.469498 58.601799 -795.073608
89.970200 58.425201 -796.809387
87.321800 58.582401 -800.306396
104.718102 61.945499 -780.959717
104.080902 61.790798 -781.623779
99.756897 60.920601 -786.295471
99.107101 61.005699 -787.195374
93.687500 60.125500 -793.244019
90.631203 58.532200 -795.648926
88.950996 58.706501 -797.934021
103.366203 61.824799 -782.127380
97.634499 61.674301 -789.247009
97.100098 61.767399 -790.008972
86.535301 58.865601 -800.727417
105.364601 62.432499 -779.684021
102.625900 61.844101 -782.617310
101.995399 61.612099 -783.204102
101.329102 61.414501 -783.867920
100.666496 61.129200 -784.446716
98.407898 61.454102 -787.607422
96.393898 61.912701 -790.580322
95.641403 61.786301 -791.418579
95.086197 61.798401 -792.133423
94.184303 61.211399 -792.739380
92.828499 60.044899 -793.390320
92.170502 59.612400 -793.828430
91.426903 59.237202 -794.427673
89.925903 58.904202 -796.025574
89.300400 59.015900 -796.920776
88.177200 59.015400 -798.344177
87.598801 58.967098 -799.033081
104.661102 62.613899 -780.211487
103.963402 62.437199 -780.935181
99.968903 61.375500 -785.032776
99.055397 61.449501 -786.259705
97.827103 61.835098 -788.171204
90.700203 59.306099 -794.901184
86.874802 59.038200 -799.510376
103.195702 62.530102 -781.430420
96.977097 62.204899 -789.029419
93.256599 61.102600 -792.745911
88.526604 59.377998 -797.175415
85.702103 59.277901 -800.670471
102.431396 62.522202 -781.932800
101.777802 62.343700 -782.600220
101.162598 62.144001 -783.199402
100.483200 61.823799 -783.770203
99.178398 61.751099 -785.361816
98.327499 61.856800 -786.539307
96.273697 62.378101 -789.624878
95.657799 62.366100 -790.396484
95.001099 62.381599 -791.244995
94.358498 62.278400 -791.967224
92.474297 60.730701 -792.947693
91.810402 60.278301 -793.378113
91.130302 59.936798 -793.930298
89.846397 59.488201 -795.151978
89.317398 59.586102 -795.913574
87.442001 59.485401 -798.204285
86.085098 59.398499 -799.849121
104.560097 62.959999 -779.372314
97.745499 62.092400 -787.246094
93.576302 61.862400 -792.337585
103.868202 63.043900 -780.135498
99.792503 61.916401 -784.291626
97.119003 62.348900 -788.082825
86.722298 59.570400 -798.773071
90.343102 59.919399 -794.373108
87.769501 59.734200 -797.430481
103.106697 63.005901 -780.705688
88.531097 59.918400 -796.182678
85.236000 59.663799 -800.043518
98.407097 62.220100 -785.474792
96.372597 62.742802 -788.408997
95.476402 62.810600 -789.569824
94.880096 62.787899 -790.286682
94.326103 62.912998 -791.071777
93.538597 62.583900 -791.775818
92.631401 61.847599 -792.296570
91.606400 60.915501 -792.803589
90.950500 60.522900 -793.293579
89.269699 60.139198 -795.055176
85.903603 59.868198 -798.987183
102.327599 63.091000 -781.143311
101.676498 62.963699 -781.842407
100.988998 62.761002 -782.525391
100.358299 62.568600 -783.146790
99.040703 62.291401 -784.545715
97.640701 62.373600 -786.336487
87.822998 60.198299 -796.671387
86.982903 60.096802 -797.624329
96.996300 62.560200 -787.209229
103.681099 63.512100 -779.204590
103.074097 63.478699 -779.926575
99.559097 62.529800 -783.505920
90.122200 60.654701 -793.651123
88.547699 60.462898 -795.440186
86.174698 60.133499 -798.104614
102.303001 63.554798 -780.384827
98.253403 62.672699 -784.701416
97.744003 62.832298 -785.459717
96.267403 63.027802 -787.445313
95.613297 63.225498 -788.413330
94.702904 63.252102 -789.562683
94.089500 63.171299 -790.258728
93.514198 63.229900 -791.018188
92.682701 62.741901 -791.660278
91.779602 61.819500 -792.045288
89.305000 60.553600 -794.104309
85.088898 60.191002 -799.040771
101.538200 63.682800 -780.869080
100.914101 63.488701 -781.491211
100.293602 63.306599 -782.118530
99.690697 63.167599 -782.758118
98.783798 62.959301 -783.720886
97.036201 63.072102 -785.984924
90.978600 61.476299 -792.252991
90.347702 61.159401 -792.785889
87.762299 60.814201 -795.728271
87.147202 60.740501 -796.434875
103.012604 64.036697 -778.883118
102.411598 63.958199 -779.570129
96.369003 63.243801 -786.535889
94.810699 63.504700 -788.685425
88.624496 61.006199 -794.415588
86.375099 60.696701 -796.974182
85.420097 60.567402 -798.062073
95.491203 63.467899 -787.530029
92.628403 63.439400 -791.075623
91.778900 62.680901 -791.535522
89.535698 61.216599 -793.175415
101.655197 64.113503 -780.111084
97.945297 63.165100 -783.994019
97.458702 63.306499 -784.712280
93.969597 63.672001 -789.352478
93.373802 63.654400 -790.081970
98.841797 63.488400 -782.851807
90.973701 62.262001 -791.734497
87.831001 61.236198 -794.862488
100.869400 64.220497 -780.597229
100.277496 64.088203 -781.236816
99.687599 63.963600 -781.879822
96.777603 63.614899 -785.260010
90.150398 61.767399 -792.134827
88.728302 61.302700 -793.556824
86.978600 61.201000 -795.673523
85.533798 60.855000 -797.216614
84.566101 60.671799 -798.288086
102.339203 64.592796 -778.823975
95.581398 63.670601 -786.601624
94.704597 63.836700 -787.833130
86.270599 61.145599 -796.225525
96.119797 63.720501 -785.848877
91.723900 63.410301 -791.041687
94.033699 63.931000 -788.489685
92.523804 63.928200 -790.342529
98.001503 63.614101 -783.203003
89.354599 61.819801 -792.487488
88.009102 61.642200 -794.006775
101.575897 64.628700 -779.260376
97.271698 63.735699 -783.892273
93.166397 63.973000 -789.108521
90.883904 62.983101 -791.186279
84.650101 61.005199 -797.392883
100.857803 64.657600 -779.784729
98.883904 64.290298 -781.950317
94.803802 64.062202 -786.815918
90.114998 62.463799 -791.427429
87.234901 61.732399 -794.443726
85.379402 61.236801 -796.369080
100.158997 64.735100 -780.368774
99.524597 64.621300 -781.070923
98.124199 64.217903 -782.509399
96.526199 64.044296 -784.361206
96.001099 64.132698 -785.076294
95.355499 64.153000 -785.890808
92.484001 64.298798 -789.554016
91.624802 64.051804 -790.436890
88.474297 61.923401 -792.777527
86.522202 61.648102 -794.992981
101.706902 64.999100 -778.374817
94.132500 64.353302 -787.310425
85.839600 61.545399 -795.554077
97.322998 64.203400 -783.000916
93.469803 64.438499 -787.968628
89.238297 62.377899 -791.726929
100.998299 65.194199 -778.893982
90.772400 63.699902 -790.547180
87.736198 62.210800 -793.243591
100.166801 65.130203 -779.514526
98.706596 64.935402 -781.194214
98.123596 64.812401 -781.831726
96.529800 64.392799 -783.514221
94.551498 64.498497 -786.059326
92.686501 64.551300 -788.424622
90.036598 63.246399 -790.778870
84.418198 61.343498 -796.400574
99.463699 65.259399 -780.027893
97.359200 64.792397 -782.315979
95.837601 64.631798 -784.099182
95.234398 64.587601 -784.820374
91.978401 64.665802 -788.943787
91.377403 64.598602 -789.645325
88.383003 62.541698 -791.886902
86.888199 62.339100 -793.606323
86.253098 62.153999 -794.264526
84.948700 61.663101 -795.536072
100.869400 65.598099 -778.078918
93.751900 64.816399 -786.412781
93.229698 64.882301 -787.113892
89.131104 63.068901 -790.921326
87.722603 62.771999 -792.467224
85.507599 62.039600 -794.704895
100.175102 65.822502 -778.632080
98.645401 65.559097 -780.357788
98.026604 65.467697 -781.067017
96.506699 64.866798 -782.535278
94.454399 64.878998 -785.116211
92.497101 65.004898 -787.660828
90.466301 64.492897 -789.833923
89.861702 63.945301 -790.193726
99.429398 65.958397 -779.067688
97.272301 65.577499 -781.501770
95.808701 65.111801 -783.002930
95.112999 65.044098 -783.827881
91.668602 64.974403 -788.105896
91.155800 65.062302 -788.814087
88.280403 63.199799 -791.074707
86.893700 62.977901 -792.656128
86.082497 62.713799 -793.483826
100.082802 66.074799 -777.744324
98.654602 66.054001 -779.526794
96.452904 65.564796 -781.943115
94.330597 65.101402 -784.277893
93.655602 65.220497 -785.213989
93.130096 65.271004 -785.911987
92.612701 65.353302 -786.622986
88.991600 63.907799 -790.131714
87.533798 63.370899 -791.577026
85.265297 62.591801 -793.866882
84.626503 62.383301 -794.519714
99.513802 66.486397 -778.304077
97.927902 66.193604 -780.089294
91.933998 65.519798 -787.150024
90.243698 65.071899 -788.954529
89.615303 64.635399 -789.429810
97.184700 66.250298 -780.604980
96.586098 66.073402 -781.231079
95.549400 65.606400 -782.199219
94.922798 65.502403 -782.913086
90.944801 65.396202 -787.845215
88.105202 63.877102 -790.323914
86.696800 63.545502 -791.857910
86.064301 63.348701 -792.512207
98.657799 66.760498 -778.501587
98.070000 66.734100 -779.222900
94.146103 65.689003 -783.411987
93.544998 65.634102 -784.129700
92.944603 65.578697 -784.845886
92.433296 65.694702 -785.573608
91.919899 65.791199 -786.289795
88.714996 64.503197 -789.398376
87.299698 63.902802 -790.748230
85.203300 63.150799 -792.846802
84.499397 62.888802 -793.544495
99.127602 67.090500 -777.490295
97.271698 66.901901 -779.694824
95.778999 66.460503 -781.259277
91.101303 65.891403 -786.748291
90.100304 65.674896 -787.854675
89.447899 65.358398 -788.449402
98.412102 67.457703 -777.969116
97.794800 67.350197 -778.670715
96.445396 66.989304 -780.113281
94.977097 66.486198 -781.603699
94.316299 66.165802 -782.206909
93.341202 66.060799 -783.361572
92.751198 66.054802 -784.101624
91.627403 66.037399 -785.507019
88.602600 65.069901 -788.627014
87.808701 64.614403 -789.300781
87.187698 64.455101 -789.969482
86.518303 64.315903 -790.713928
85.886101 64.111900 -791.364624
85.278000 63.793900 -791.903015
84.330597 63.398499 -792.813782
83.761002 63.450199 -793.569580
98.673103 67.766098 -777.153320
97.059601 67.650902 -779.106079
95.627800 67.090599 -780.509399
91.947800 66.171204 -784.491028
90.847900 66.258797 -785.941589
90.224899 66.073700 -786.594482
89.273903 65.844398 -787.629272
98.024498 68.213799 -777.616089
97.427597 68.155197 -778.327393
96.272003 67.748497 -779.493286
94.792503 67.081802 -780.881226
94.180000 66.876404 -781.506592
93.530296 66.571098 -782.107117
92.548500 66.476601 -783.278320
88.442299 65.675003 -787.884521
87.765297 65.261497 -788.441528
87.005402 64.956802 -789.181519
86.382797 64.789101 -789.846680
85.705399 64.615097 -790.576721
85.032402 64.246803 -791.161072
84.397102 64.036102 -791.811523
83.525299 63.732899 -792.693726
91.112000 66.507500 -784.593628
89.356003 66.237198 -786.616699
98.265198 68.557503 -776.601318
96.614098 68.470200 -778.626099
95.398598 67.921501 -779.768677
92.672699 66.719101 -782.351379
91.699898 66.657204 -783.536682
90.411499 66.595299 -785.121277
89.813301 66.523300 -785.825928
88.564598 66.137703 -787.127625
97.622902 68.855400 -777.138794
97.060204 68.879097 -777.869019
95.872002 68.514198 -779.112427
94.569603 67.760101 -780.220581
93.950104 67.492104 -780.813171
93.320396 67.265999 -781.448486
87.599998 65.807098 -787.648621
86.933098 65.438400 -788.228699
86.227203 65.356598 -789.064392
85.592400 65.131203 -789.706787
84.874298 64.786102 -790.368774
84.172401 64.513100 -791.061890
83.561798 64.394501 -791.750427
91.841797 66.988602 -782.656677
90.860397 66.862900 -783.812378
92.489502 67.378502 -781.747192
88.947403 66.644302 -785.720215
97.499001 69.141502 -776.302124
96.244202 69.249802 -777.976013
95.018402 68.791100 -779.205322
90.081703 67.000397 -784.196411
89.488899 66.944901 -784.910400
88.204102 66.615402 -786.307617
87.537003 66.228897 -786.878113
96.873199 69.397301 -776.925415
95.474403 69.141800 -778.523804
94.222801 68.499802 -779.656616
93.564102 68.165199 -780.255005
92.917000 67.831497 -780.839417
90.988998 67.198196 -782.840088
86.767998 66.001701 -787.357117
86.155899 65.859703 -788.034912
85.419296 65.638298 -788.814026
84.830399 65.592300 -789.531189
84.197998 65.370499 -790.177429
83.548401 65.084702 -790.799377
91.620003 67.499802 -781.933472
90.216400 67.288399 -783.303711
92.070999 67.884697 -781.130188
88.588303 67.069298 -785.004822
96.896896 69.707199 -776.009216
96.096298 69.763496 -777.078491
95.492798 69.670502 -777.786621
94.247498 69.146202 -779.007874
89.207802 67.225601 -784.095886
87.367203 66.711502 -786.089600
92.704597 68.415298 -780.229370
86.688698 66.429901 -786.556213
94.725304 69.607498 -778.234802
93.462898 68.896599 -779.356323
90.775200 67.715500 -781.984680
86.013397 66.416298 -787.216797
85.335098 66.181099 -787.925720
84.704201 66.141998 -788.715515
84.025002 65.906403 -789.425171
83.423698 65.777397 -790.111328
87.745399 67.065804 -785.253418
91.193604 68.077797 -781.289917
89.996101 67.545502 -782.471924
89.364899 67.499702 -783.265686
96.088699 70.128304 -776.137573
95.331100 70.157204 -776.931519
91.838203 68.561501 -780.400391
88.313698 67.391998 -784.222778
94.609398 70.129898 -777.465881
93.878899 69.808899 -778.205078
92.616302 69.115097 -779.380676
93.090500 69.634697 -778.570496
90.340302 68.340401 -781.306030
88.472099 67.684998 -783.328613
87.448799 67.419800 -784.505371
86.827103 67.136200 -785.130371
86.228203 66.956802 -785.801270
85.641098 66.828697 -786.494202
85.042702 66.652702 -787.166870
84.470802 66.587700 -787.885620
83.904198 66.541199 -788.611023
83.324303 66.439003 -789.313171
95.357300 70.513397 -775.632385
91.745399 69.176804 -779.514526
91.009598 68.791298 -780.221985
89.581398 68.258202 -781.753723
88.955704 67.934097 -782.357971
82.528397 68.265900 -791.262085
82.124603 68.608498 -792.058472
94.636597 70.703300 -776.207581
94.038399 70.565498 -776.915405
93.458603 70.353600 -777.543396
92.210503 69.674301 -778.731018
87.623802 67.753700 -783.519775
82.678596 67.959999 -790.363281
81.543900 68.951202 -792.630127
92.686096 70.165199 -777.966919
90.159897 68.844902 -780.420715
86.619797 67.594498 -784.302124
85.965401 67.366898 -785.022217
85.393097 67.279503 -785.734375
84.793701 67.074600 -786.396729
84.228500 67.014603 -787.119629
83.680397 67.022598 -787.869385
83.101898 66.902397 -788.565918
82.581398 67.012802 -789.353882
90.898598 69.401604 -779.481628
89.456596 68.732803 -780.950684
88.065598 68.091599 -782.370605
88.795700 68.526001 -781.483887
81.844704 68.815598 -791.193115
