118.174500 59.160599 -842.169922
116.007301 56.949100 -843.956726
115.143898 56.221802 -844.750000
114.268700 55.453999 -845.538025
112.284500 53.835499 -847.389282
111.405899 53.133801 -848.216980
109.399101 51.575001 -850.130615
108.539803 51.384102 -851.202515
107.089302 50.984200 -852.970825
131.094101 72.357498 -830.172729
128.781693 69.364601 -831.742493
127.878403 68.621597 -832.582581
126.973396 67.893303 -833.432800
124.200302 65.464699 -835.933228
119.403702 61.228699 -840.239380
116.831497 58.797699 -842.463684
112.935402 55.243900 -845.901428
110.070900 52.965500 -848.606689
107.277603 51.602501 -851.701904
129.922302 71.477097 -830.167114
129.139206 70.430901 -830.681885
125.699203 67.419601 -833.789429
124.798203 66.748497 -834.666016
122.991898 64.851402 -836.129089
122.104401 64.091003 -836.939575
121.232101 63.475201 -837.806396
120.344101 62.775299 -838.650024
118.129700 60.761501 -840.610107
117.212303 59.982601 -841.451721
115.565598 58.447498 -842.889221
114.683502 57.572800 -843.631287
113.807701 56.766602 -844.401489
111.682297 55.042500 -846.394226
110.802597 54.308201 -847.207886
108.825401 52.841900 -849.135315
107.931297 52.449100 -850.151123
127.447701 69.241501 -831.381897
126.521004 68.646301 -832.337280
119.135597 62.142799 -839.010925
112.536598 56.309799 -844.961975
109.607597 53.944801 -847.723389
123.512299 66.305901 -834.312317
117.906502 61.712101 -839.577026
115.849998 59.957401 -841.471313
111.334198 56.146900 -845.653503
108.436699 53.972599 -848.482117
107.558403 53.623798 -849.505920
128.813202 71.960297 -829.153503
128.044296 70.956902 -829.676880
125.109596 68.325500 -832.318787
124.234200 67.491997 -833.080811
122.295097 65.974297 -834.945129
121.413498 65.202698 -835.748779
120.537598 64.507500 -836.585876
119.651497 63.771801 -837.415222
116.711403 61.206501 -840.099915
114.652802 59.487499 -842.021179
113.798698 58.740501 -842.800110
112.879204 58.025700 -843.686890
110.157997 55.879601 -846.294373
109.244904 55.299198 -847.244324
126.795303 70.337997 -829.985291
125.947197 69.546501 -830.732788
118.385101 63.387001 -837.880676
111.626297 57.881901 -844.269470
127.361702 71.691299 -828.644775
124.687302 69.057800 -830.930603
123.846703 68.328697 -831.702576
122.945602 67.789902 -832.661377
122.029999 67.180801 -833.602478
121.086098 66.388298 -834.483398
120.230301 65.803398 -835.354492
119.349701 65.068398 -836.178711
117.044502 63.114101 -838.319885
116.140999 62.343102 -839.156372
115.294098 61.548401 -839.901611
114.397598 60.880699 -840.784180
113.549797 60.138302 -841.558899
112.695000 59.381699 -842.335693
111.805000 58.825699 -843.269775
110.313400 57.895599 -844.836487
109.435898 57.454399 -845.815491
108.804703 57.956100 -846.963318
108.186096 58.496399 -848.114624
126.164902 70.941200 -828.837830
125.322304 70.160698 -829.586609
118.059601 64.681602 -836.718689
116.889503 64.145897 -837.351074
110.484398 59.044300 -843.514709
109.157898 58.630600 -845.141724
108.143600 59.151402 -846.841980
107.469299 59.702301 -848.083618
123.989502 69.665199 -829.824829
123.123199 69.054703 -830.704712
122.219803 68.633003 -831.739624
121.313400 68.056801 -832.694214
120.463501 67.448700 -833.552429
119.598099 66.754601 -834.385315
118.722397 66.018097 -835.209717
115.789497 63.692001 -838.046692
114.933701 62.800499 -838.758484
114.092400 62.031502 -839.516785
113.090698 61.115299 -840.419312
112.196602 60.478802 -841.323975
111.284103 59.762699 -842.210815
106.520302 60.540199 -848.662720
125.133400 71.373596 -827.663513
124.232498 70.592903 -828.504395
117.414703 65.919502 -835.544800
116.528198 65.148903 -836.370911
113.511398 70.010399 -843.282776
113.090698 71.029900 -844.433899
112.783997 72.061897 -845.431213
109.268997 59.770500 -843.646423
108.503403 59.859600 -844.773499
107.794502 60.230000 -845.974609
107.178596 60.721001 -847.111023
122.636299 69.916100 -829.676819
121.781097 69.559898 -830.686523
120.916496 69.092201 -831.648315
119.996201 68.393700 -832.562073
119.082901 67.778397 -833.511719
118.212502 67.042603 -834.334778
115.356903 64.685898 -837.066711
114.427200 63.704700 -837.838806
112.750999 62.178902 -839.364319
111.781601 61.615101 -840.421082
113.265198 63.144402 -838.376587
113.228500 68.259804 -841.230896
113.043404 69.374199 -842.102112
112.331703 73.374496 -845.296204
123.813004 71.539398 -827.283325
122.956299 71.147202 -828.275513
116.819397 67.010399 -834.655090
115.940697 66.271896 -835.488403
113.259003 67.425102 -839.898071
112.623001 71.022598 -842.764526
112.369904 72.036400 -843.676392
107.962997 61.096600 -843.892517
107.267502 61.522999 -845.105774
121.771797 71.019798 -829.124512
120.903702 70.611000 -830.123413
120.037804 70.008202 -831.013123
119.179497 69.321198 -831.846191
118.264000 68.676201 -832.782776
117.396797 67.952301 -833.608215
114.821503 65.715897 -836.011902
113.990501 64.932999 -836.754089
111.515404 74.520798 -845.482788
112.814003 64.354698 -837.402222
112.801697 68.859497 -839.875305
112.566902 70.054298 -840.856812
112.027496 73.325104 -843.398071
124.289001 72.616600 -824.955505
123.446404 72.491501 -826.069824
122.537399 72.134300 -827.151489
116.049103 68.012001 -834.015320
115.166496 67.248901 -834.838928
112.470497 71.551804 -840.962830
112.141800 72.499199 -841.939270
111.599701 74.596802 -843.840881
121.256500 72.150398 -827.808228
120.404503 71.801201 -828.812378
119.512299 71.393898 -829.841614
118.607903 70.792099 -830.781921
117.712601 70.279999 -831.758423
116.846703 69.555199 -832.577820
115.602303 69.299202 -834.182800
114.794899 69.403801 -835.371277
114.176003 69.878098 -836.496704
113.294899 66.636803 -835.969177
113.477097 70.218803 -837.661377
112.990997 71.053596 -838.796570
111.680397 73.812897 -842.133911
123.560501 73.560204 -823.945679
122.729103 73.474098 -825.063782
121.860298 73.042397 -826.045898
115.847702 70.362602 -833.010376
115.142601 70.702904 -834.183777
114.361504 70.933899 -835.403870
113.752701 71.429703 -836.526611
112.601402 72.357498 -838.644897
111.962799 72.952599 -839.863586
111.189003 75.124001 -842.130127
120.526299 73.016899 -826.415771
119.663399 72.631798 -827.415588
118.809601 72.203201 -828.378723
117.893997 71.522499 -829.291016
117.016701 71.138901 -830.311584
116.157303 70.886002 -831.378601
112.903099 72.492203 -836.817688
111.482101 74.252098 -839.770630
122.533096 74.395699 -822.989685
121.641403 74.095703 -824.077393
120.769798 73.660301 -825.062805
115.033401 71.432999 -831.897400
114.250702 71.653198 -833.116516
113.652397 72.214302 -834.262878
113.064102 72.801300 -835.409729
112.010101 73.520699 -837.282471
119.481400 73.702202 -825.572693
118.578796 73.206902 -826.569580
117.707199 72.829201 -827.587219
116.824203 72.384399 -828.583923
115.964302 72.110497 -829.641785
112.240799 73.804802 -835.798889
111.420197 74.749298 -837.468384
122.075203 76.016998 -821.838684
121.163902 75.419800 -822.792175
120.280197 74.934998 -823.768677
114.680298 72.300400 -830.196106
113.860397 72.286598 -831.340881
113.072800 72.460197 -832.543030
112.626602 73.536499 -833.759827
111.579597 75.006699 -836.036926
119.006897 75.112396 -824.223877
118.095703 74.603798 -825.224426
117.209503 74.111900 -826.198914
116.325798 73.655899 -827.189819
115.436996 73.182297 -828.178101
111.845398 74.938599 -834.183716
120.658302 77.459702 -821.659424
119.749298 76.664101 -822.497681
114.135597 73.337997 -828.545288
113.269402 73.045700 -829.599915
112.398102 72.728699 -830.647827
118.443100 76.651497 -822.924500
117.559303 75.979599 -823.794678
116.683899 75.560402 -824.792297
115.808899 75.066399 -825.748230
114.922897 74.610802 -826.740417
111.113297 72.863403 -831.123413
119.623703 78.511597 -821.311584
118.749496 77.837799 -822.167480
113.700996 74.592796 -827.465515
112.819801 74.205704 -828.488525
111.925697 73.749397 -829.491699
117.566803 77.792999 -823.436279
110.020302 73.524300 -831.654785
110.799797 73.970398 -830.211426
118.468803 79.168602 -821.782227
116.332397 77.172096 -823.625427
115.433601 76.348198 -824.408813
114.518600 75.937599 -825.414490
113.642502 75.669998 -826.438416
111.642502 74.902000 -828.699890
108.982903 74.384300 -831.952087
117.202103 79.187401 -822.444824
112.433701 75.789497 -827.063904
110.426498 75.193199 -829.411682
109.549698 75.087601 -830.512390
115.935402 79.171303 -822.994690
115.093697 78.313797 -823.684570
114.188904 77.486397 -824.471802
113.292801 76.929398 -825.377991
111.271400 76.287300 -827.718201
108.577797 75.949402 -831.086121
113.943398 78.878304 -824.291199
112.023300 77.037697 -825.922607
110.244301 77.056702 -828.263916
109.370796 76.942703 -829.354004
110.739098 77.010002 -826.574707
112.926804 78.273399 -825.162170
107.855698 76.374298 -832.166199
114.628098 68.378098 -837.584595
106.319901 50.591301 -854.158325
112.949203 42.042198 -862.182617
130.294495 58.889702 -848.239319
111.730003 73.644096 -832.529907
111.041100 75.880798 -835.060120
112.782402 67.607597 -838.405884
110.790604 75.092102 -838.674011
110.688797 75.408096 -840.614075
116.117500 51.136101 -852.129578
106.719101 52.676800 -850.828918
117.600899 52.335899 -850.802124
110.106796 60.658600 -842.266724
111.361801 62.972198 -839.255981
108.190102 77.073502 -830.364624
113.910500 67.940697 -836.061829
131.990097 63.222099 -847.232727
174.852295 53.826401 -799.438171
173.879700 53.973701 -800.921326
172.832794 54.259602 -801.799072
172.151901 54.563301 -802.950012
171.160507 54.987202 -803.798584
170.496201 55.353600 -804.961426
169.760101 55.644100 -806.185181
174.158600 54.372101 -798.322327
173.365494 54.387402 -799.473877
168.941193 56.385201 -806.969971
168.299896 56.817501 -808.136475
172.364395 54.705601 -800.473816
171.608200 54.962002 -801.706970
167.442505 57.487999 -809.124573
163.462006 61.043499 -816.852112
166.627808 58.040298 -810.110413
166.005402 58.506500 -811.268005
162.516602 61.409199 -817.919312
170.564499 55.420700 -802.469116
169.887894 55.731499 -803.617676
169.213303 56.029900 -804.755981
172.910797 54.914501 -798.275574
168.325607 56.482399 -805.744873
167.677002 56.912201 -806.917114
165.020706 59.114601 -811.963379
163.138199 60.857601 -815.280518
161.253601 61.764999 -818.493591
171.778000 55.139599 -799.125977
171.010406 55.358398 -800.351013
166.838898 57.717499 -807.656982
166.427200 58.791599 -808.844116
164.051804 59.678001 -812.751221
162.242096 61.279202 -816.240784
165.448898 58.967800 -809.860474
169.927902 55.721199 -801.260986
169.254196 56.103298 -802.440430
168.578506 56.438000 -803.596313
163.195496 60.415699 -813.528381
161.203201 61.703800 -817.102783
164.511993 59.429901 -810.748718
160.010101 62.375801 -818.836914
172.116104 55.423599 -797.201782
167.531693 56.804501 -804.535583
166.882095 57.280800 -805.728882
165.835602 58.615002 -807.498230
163.560501 60.042000 -811.539429
162.057297 60.892799 -814.159119
170.997299 55.755699 -798.067322
170.211807 55.883598 -799.261780
164.966293 59.151299 -808.559082
161.191406 61.332100 -815.156311
159.964600 62.172100 -817.372070
158.856705 62.896301 -819.354370
168.701706 56.235699 -800.996521
168.030701 56.673801 -802.195984
165.806305 58.117298 -806.168030
162.536804 60.647400 -812.228882
160.277603 61.817101 -816.101196
167.022903 57.169899 -803.150208
166.275101 57.466499 -804.381104
163.831100 59.817299 -809.156799
158.811295 62.664600 -817.886230
170.488998 56.174301 -796.750916
169.699707 56.309898 -797.952271
168.917099 56.472198 -799.158997
165.063095 59.594200 -806.365295
162.780502 60.259602 -809.988586
161.271194 61.173199 -812.642517
160.646500 61.598801 -813.766785
157.660294 63.449402 -819.040894
167.815399 56.799198 -799.972717
167.042603 56.995998 -801.182617
165.082703 58.109501 -804.584900
163.874496 59.653301 -807.149292
161.743500 60.840698 -810.835876
159.690201 62.218800 -814.515686
158.891006 62.331402 -815.717285
156.728607 64.124397 -819.778625
166.018600 57.519600 -801.963379
165.351395 57.963200 -803.154419
164.095703 58.838501 -805.417480
162.885605 60.312099 -807.941223
157.833603 62.852200 -816.513123
157.233795 63.338001 -817.630981
169.271103 57.511002 -796.424072
168.376297 57.222000 -797.538330
167.573898 57.243401 -798.689880
161.899506 60.843399 -808.707581
160.431396 61.309299 -811.046387
159.730194 61.705002 -812.257507
156.226898 63.980900 -818.471313
155.507599 64.767403 -819.920471
166.578903 57.663101 -799.641296
164.180893 58.612900 -803.556396
163.031097 59.753899 -805.805115
160.939301 61.338001 -809.629578
158.966507 62.558102 -813.088074
158.268600 62.924301 -814.276184
165.604004 57.983299 -800.522095
164.832901 58.197800 -801.730408
162.115799 60.380798 -806.759521
157.265701 63.264900 -815.189087
156.566498 63.586899 -816.353577
154.302994 65.283699 -820.477417
167.175293 57.876499 -797.486328
163.015106 59.187500 -804.078613
159.197998 61.888699 -810.935730
155.666199 64.208504 -817.183289
155.000900 64.671303 -818.374084
166.111893 58.259602 -798.382080
163.647797 58.842999 -802.174988
160.935699 61.026600 -807.180115
160.372192 61.585701 -808.276978
159.639694 61.862999 -809.460388
158.281906 62.603901 -811.776306
157.749405 63.231201 -812.866089
165.081100 58.649799 -799.242371
164.297607 58.804100 -800.429810
161.865005 59.942699 -804.471313
161.298996 60.570900 -805.607178
156.770203 63.719299 -813.685181
156.042297 63.913101 -814.815491
153.779099 65.294701 -818.749329
153.195007 65.823402 -819.856873
166.614304 58.354301 -796.348083
162.537094 59.489101 -802.698486
155.086395 64.328796 -815.789001
154.418304 64.813202 -816.989929
151.906494 70.862000 -823.776184
158.378403 62.425499 -809.737000
152.204697 66.498497 -820.603821
165.573196 58.747101 -797.176270
163.098602 59.362400 -800.984070
159.798798 61.708599 -806.877380
159.152100 62.163101 -808.029602
157.137405 63.287601 -811.463074
161.397507 60.201599 -803.231079
160.095596 61.248798 -805.617188
156.316406 63.980499 -812.379028
153.266907 65.385002 -817.408020
150.570496 71.079399 -824.233093
164.460693 59.233398 -797.802979
163.669495 59.369900 -798.984680
160.447296 60.692501 -804.206909
157.132706 62.952000 -810.058777
155.400803 64.488602 -813.306580
154.595505 64.617897 -814.504211
153.821503 64.903702 -815.741577
152.406998 66.107597 -818.366882
161.894302 60.047600 -801.357605
157.948303 62.808498 -808.353027
151.540100 66.598297 -819.343384
150.875900 67.031403 -820.504089
150.674500 68.796700 -821.727905
164.913803 59.284599 -796.058289
162.537796 59.759399 -799.626892
158.921097 61.977299 -805.854614
158.275696 62.481098 -807.023376
156.082993 63.809399 -810.790222
149.194702 71.134499 -824.301270
160.778107 60.637699 -802.015320
159.280807 61.324902 -804.471375
155.177002 64.638100 -811.964478
152.669205 65.607903 -815.981812
163.293304 59.896702 -797.634827
159.903397 61.131599 -803.024292
156.681702 63.321899 -808.687927
154.205200 65.098000 -813.091125
153.495895 65.419998 -814.252380
151.867599 66.229500 -816.956604
149.227295 69.308296 -822.282288
151.195694 66.959503 -818.000305
149.650604 67.708397 -820.555725
148.829407 70.347702 -823.107422
161.462097 60.461399 -800.097473
150.306900 67.243301 -819.257080
163.838806 60.165901 -796.378906
157.112503 63.131001 -807.325378
162.209595 60.375702 -798.296021
157.626999 62.467400 -805.789185
155.555801 63.871300 -809.419617
160.406693 61.106602 -800.746826
158.144608 62.076599 -804.412292
154.795502 64.526001 -810.377930
152.298599 66.047600 -814.663574
148.690903 68.589897 -821.038574
158.687805 61.853001 -803.190613
154.048096 65.244202 -811.450989
162.564407 60.586300 -796.722290
159.394897 61.576698 -801.657227
153.033600 65.691803 -812.692017
151.332794 66.528900 -815.502380
150.640701 66.899696 -816.662170
149.936096 67.511002 -817.967102
147.923706 69.639198 -821.897217
161.023605 61.085701 -798.692383
155.877304 63.673698 -807.218689
149.061905 67.913803 -818.942627
147.182205 70.308502 -822.827271
156.465698 63.275398 -805.776917
161.382202 61.155800 -797.297424
159.956696 61.610600 -799.516724
156.994995 62.846199 -804.282288
154.858505 64.335098 -808.038025
154.105698 64.509903 -809.175293
152.001999 66.542198 -813.174072
148.076797 68.539597 -819.681274
158.982697 61.991901 -800.426819
158.222397 62.293999 -801.642822
157.469101 62.614498 -802.858826
153.373901 65.361900 -810.004578
152.750900 65.873901 -811.141724
151.023102 66.967201 -814.121521
149.427795 67.600098 -816.672424
147.143204 69.070999 -820.625977
145.976898 70.906303 -823.221313
155.264603 63.914902 -805.967224
150.042694 67.352203 -815.047485
148.490494 68.165100 -817.635315
146.326996 69.838997 -821.530518
160.141998 61.810398 -797.531677
155.850494 63.560799 -804.421326
151.712799 66.510803 -811.736572
154.271301 64.506401 -806.687195
153.554001 64.918503 -807.901123
147.453995 68.682602 -818.361084
144.685501 71.228104 -823.554321
159.106003 62.365200 -798.300720
157.731506 62.618099 -800.338318
157.041107 62.936501 -801.463684
156.371597 63.373001 -802.623230
152.203003 66.021698 -809.805481
150.747498 67.265503 -812.483215
148.824600 67.889801 -815.477783
146.556198 69.183502 -819.307495
145.141998 70.481598 -821.956909
142.819199 72.518402 -826.257813
142.227493 73.127998 -827.401672
154.701706 64.311996 -804.734619
149.764008 67.702904 -813.374817
147.890396 68.539803 -816.413330
145.588699 69.601997 -820.164185
157.960297 62.827099 -798.942078
152.441193 65.697899 -808.099304
151.108307 66.626701 -810.436279
140.953400 73.206497 -827.977295
159.346497 62.775799 -796.789185
155.236298 64.028503 -803.124512
143.959396 71.067299 -822.421326
143.313599 71.515701 -823.550476
153.694794 64.913300 -805.513672
153.034698 65.306602 -806.631409
148.658707 68.041702 -814.109619
146.802200 68.961197 -817.154175
144.464493 70.274498 -820.720520
141.476593 72.765297 -826.147278
158.216095 63.140800 -797.454773
156.759293 63.321602 -799.552185
155.990402 63.580299 -800.745605
151.332397 66.343201 -808.607727
150.025604 67.415298 -810.970276
147.579605 68.413696 -814.859497
145.766907 69.528801 -817.940125
142.113800 71.766602 -824.143372
154.999405 63.981098 -801.638977
154.037292 64.680397 -803.330322
149.186996 68.123199 -811.812012
146.664597 68.980797 -815.729797
144.766098 69.931801 -818.839783
140.338104 73.274300 -826.688782
157.083603 63.728401 -797.972412
153.095993 65.211899 -804.235901
152.448898 65.712898 -805.389893
151.800293 66.169998 -806.522888
150.244598 67.003601 -809.101318
148.206406 68.595802 -812.744019
143.209503 70.829903 -820.791016
142.580200 71.388702 -821.951172
140.913605 72.271599 -824.708130
139.230698 73.258698 -827.542419
155.662003 64.141701 -799.533386
147.212906 68.890602 -813.643372
145.575806 69.639397 -816.286926
143.558197 70.276604 -819.393616
141.628601 71.778297 -822.836609
153.892899 64.846603 -801.756775
150.696899 66.767403 -807.155518
149.155502 67.645699 -809.733826
144.611496 70.018600 -817.220276
139.796097 72.893501 -825.344177
155.992096 64.509300 -798.205505
154.609802 64.692101 -800.195313
153.053802 65.447403 -802.724792
148.367294 68.383400 -810.691406
146.012100 69.177002 -814.335876
152.199005 66.075897 -803.629272
151.555298 66.605797 -804.789124
149.646103 67.344704 -807.791199
147.455994 68.892700 -811.603516
143.497498 70.501900 -817.868530
142.306503 70.840599 -819.676880
141.682999 71.452003 -820.852112
140.328598 72.115700 -823.055176
138.753006 73.628700 -826.007874
154.767105 64.906403 -798.745972
150.569702 67.042099 -805.607483
146.406998 69.233704 -812.451111
144.928894 69.870300 -814.806580
144.230392 70.203003 -815.936523
140.683594 71.935997 -821.696777
139.237305 72.446602 -823.942688
137.751694 74.044998 -826.814270
153.479095 65.380096 -799.815979
152.738693 65.808296 -801.052612
152.071106 66.244797 -802.193787
149.594406 67.678398 -806.330994
148.565994 68.160004 -807.989014
147.848007 68.515099 -809.156616
145.267105 69.558098 -813.230408
142.234299 70.950897 -818.105408
138.278397 73.190102 -824.686584
153.757294 65.780098 -798.475220
151.079300 67.049599 -802.799683
150.441498 67.617401 -803.969727
146.699097 69.011597 -809.812622
145.908096 69.276901 -811.031982
143.692993 70.437897 -814.667603
142.922104 70.721199 -815.869202
141.015594 71.303398 -818.778198
140.371399 71.827499 -819.933777
139.363205 72.380798 -821.601685
138.594101 72.577202 -822.754822
137.237198 73.969101 -825.341125
136.385696 74.287201 -826.670898
152.553802 66.286400 -799.012695
151.886703 66.750099 -800.169128
151.161407 67.233803 -801.415405
149.344894 68.260002 -804.439026
148.615005 68.595596 -805.613220
147.979996 69.084702 -806.739197
147.244995 69.337700 -807.876526
144.748596 69.795998 -811.527283
144.035400 70.094597 -812.659180
141.784195 71.270897 -816.355713
137.428299 73.185997 -823.316711
155.112396 68.268997 -795.143921
154.225998 67.682098 -796.043823
153.333893 67.478897 -797.155884
150.022598 67.918297 -801.919128
149.465500 68.563698 -803.024597
146.124893 69.953201 -808.333496
145.304993 70.045601 -809.504211
142.839493 70.552902 -813.146484
142.152298 70.943100 -814.294189
140.611801 71.773499 -816.843323
139.789398 71.761200 -817.961609
139.122192 72.169403 -819.091370
138.452499 72.547203 -820.208679
137.696793 72.804298 -821.379211
136.297302 73.755096 -823.799500
135.697296 74.358002 -824.940979
134.956894 74.590797 -826.077576
155.593002 68.955399 -793.634094
152.320297 68.181297 -797.706787
151.452896 68.121803 -798.864075
150.577499 67.997597 -799.997620
148.339294 69.206596 -803.710876
147.716507 69.770699 -804.865784
146.997696 70.113403 -806.033997
144.092300 70.399498 -810.169128
143.276001 70.479599 -811.330811
141.076797 71.579201 -814.932190
136.518005 73.125397 -822.006287
154.474503 69.398598 -794.307190
153.586807 69.167900 -795.404175
152.713806 69.048500 -796.540527
149.576508 68.692802 -800.663574
148.827301 68.924202 -801.817505
145.827896 70.378403 -806.719482
144.962997 70.566597 -808.009521
141.545105 71.034500 -812.958984
139.967896 71.983704 -815.635620
139.200806 72.222298 -816.817871
138.400604 72.293999 -817.956482
137.163803 72.922501 -819.993530
135.064697 74.308502 -823.621216
134.409897 74.916000 -824.846619
155.413193 70.350098 -792.502014
151.620407 69.467003 -797.257080
150.745499 69.298103 -798.372803
143.807495 70.732101 -808.706482
142.000504 70.941101 -811.309692
135.260406 73.717598 -822.090515
154.291397 70.708504 -793.273071
153.411194 70.480598 -794.367188
152.535202 70.285599 -795.472900
149.641205 69.653900 -799.132690
147.623596 69.628799 -801.907288
146.888702 69.887497 -803.061829
146.183197 70.300697 -804.258728
145.462204 70.593597 -805.412415
142.757996 71.168503 -809.458130
140.301605 71.556297 -813.060974
139.626907 71.955200 -814.207520
137.125000 72.844597 -818.142578
135.850494 73.263496 -820.128723
151.333298 70.550400 -796.136108
150.455704 70.327003 -797.230286
148.553101 70.195198 -799.792908
144.272797 70.778603 -806.031677
143.542496 70.979301 -807.150574
141.608902 71.510597 -810.113220
140.804794 71.602798 -811.275879
138.531906 72.485497 -814.897522
137.749496 72.629898 -816.058289
134.781998 73.811302 -820.802185
133.957794 74.243698 -822.176025
133.438904 74.899696 -823.247681
153.138397 71.723701 -792.883789
152.289307 71.697403 -794.048096
149.327194 70.909401 -797.732788
147.360001 70.715797 -800.358582
146.503006 70.593399 -801.481812
145.655899 70.527199 -802.621582
144.844101 70.662201 -803.821472
142.254593 71.171898 -807.691895
139.550903 71.906403 -811.842529
138.760803 72.041100 -813.012024
136.504501 72.901299 -816.609802
135.843094 73.284302 -817.735413
135.095703 73.545502 -818.914124
151.124298 72.137001 -794.737122
150.236404 71.787697 -795.783325
148.274704 71.595802 -798.410278
143.716599 71.133904 -804.505371
142.916702 71.292000 -805.705017
141.158401 71.725800 -808.389099
140.384293 71.967201 -809.598022
137.665298 72.489899 -813.668030
136.987305 72.824997 -814.794312
133.931900 73.864700 -819.613770
133.339798 74.489601 -820.777771
132.619003 74.812500 -821.957214
149.143005 72.112701 -796.654114
147.181702 71.868599 -799.259827
145.368500 71.334000 -801.500488
139.334595 72.279198 -810.441528
150.196701 73.101799 -795.002930
148.224197 72.732399 -797.563293
146.042892 71.841003 -800.131104
144.331406 71.516701 -802.350830
141.742294 71.939400 -806.206970
138.351303 72.596001 -811.313904
135.705399 73.048103 -815.265625
135.058304 73.484398 -816.409973
134.333603 73.832703 -817.614929
149.185196 73.575699 -795.849670
147.123703 72.974297 -798.417114
143.237198 71.727600 -803.195496
142.517899 71.958000 -804.332214
140.697906 72.343498 -807.100098
139.912003 72.499901 -808.289978
137.315094 72.940697 -812.179626
136.408005 73.061600 -813.520081
132.725296 74.514297 -819.489075
132.013397 74.865997 -820.681824
148.163406 74.012398 -796.678223
145.958206 72.850502 -799.146912
144.774399 72.197601 -800.456177
138.867401 72.925697 -809.173584
133.051895 74.088203 -817.999878
143.689301 72.291298 -801.317383
141.356995 72.659401 -804.804871
137.835999 73.205101 -810.064514
135.184402 73.571098 -814.000977
134.400894 73.660698 -815.153870
133.647797 73.876602 -816.333130
142.614197 72.525299 -802.179688
141.831207 72.733902 -803.396790
140.308304 72.993202 -805.683716
139.518005 73.115799 -806.864014
136.787506 73.478798 -810.908813
136.009995 73.615898 -812.078796
131.469803 75.031898 -819.249329
144.257401 73.049301 -799.309021
138.509094 73.534500 -807.672791
132.360901 74.284599 -816.745117
131.745499 74.801903 -817.895386
140.645401 73.344101 -803.816284
137.536102 74.038902 -808.575012
134.856796 74.246300 -812.461487
134.061798 74.277199 -813.598083
133.295395 74.430801 -814.761414
141.394196 73.132004 -802.008118
139.699005 73.810402 -804.760986
138.927597 74.019699 -805.959717
136.501099 74.312798 -809.530579
135.714096 74.396698 -810.682922
143.265396 74.581596 -799.392029
142.429398 74.462799 -800.500793
137.934402 74.460297 -806.807922
132.091400 74.885201 -815.239075
131.085495 74.792900 -816.600586
130.201004 74.441002 -817.650513
144.413406 75.723000 -797.294312
141.209396 74.607803 -801.178589
140.378693 74.515701 -802.292786
139.572495 74.551498 -803.442200
138.741104 74.771400 -804.726990
136.854706 74.973396 -807.480774
134.524307 75.074203 -810.801880
133.729507 75.109398 -811.934875
132.946594 75.192497 -813.077393
144.552002 76.855103 -796.330078
143.164597 76.021103 -797.819702
142.295303 75.692398 -798.858826
141.447006 75.490700 -799.937378
137.627808 75.389099 -805.232788
135.658295 75.456497 -808.028870
134.872192 75.539902 -809.175598
131.746902 75.623901 -813.600098
130.959305 75.675003 -814.731201
130.136200 75.575302 -815.830200
129.266296 75.288200 -816.892578
143.231506 77.032600 -796.773499
140.238098 75.958702 -800.384399
139.423904 75.934502 -801.512573
138.602203 75.865700 -802.627075
137.789001 75.837303 -803.751770
136.430695 75.865501 -805.671814
133.696503 76.078903 -809.621582
132.917206 76.173599 -810.765930
132.107193 76.128197 -811.877014
142.005096 77.351196 -797.272522
141.135300 77.002098 -798.302612
140.310501 76.909103 -799.409485
136.788498 76.634102 -804.203125
135.349594 76.543900 -806.173584
134.528000 76.451500 -807.276184
130.927597 76.578499 -812.399597
130.148300 76.654800 -813.535217
129.330704 76.570702 -814.636780
128.505997 76.459297 -815.733582
142.245499 78.100601 -796.005615
139.138901 77.377998 -799.973694
138.319901 77.303902 -801.083374
137.506500 77.255302 -802.199280
135.653503 77.245697 -804.796875
133.486298 77.182404 -807.806274
132.727005 77.356903 -808.968079
131.918701 77.308197 -810.076721
131.117798 77.290100 -811.191772
127.396500 77.094902 -816.311829
140.992294 78.482903 -796.601013
140.158600 78.322403 -797.684998
139.323502 78.155602 -798.767273
136.365997 77.866600 -802.765808
134.493805 77.743599 -805.329773
133.707306 77.800598 -806.466492
130.001297 77.933899 -811.748474
129.189896 77.864899 -812.851013
128.400299 77.883499 -813.971191
127.610603 77.900497 -815.090271
126.276497 77.700203 -816.855774
138.162094 78.660599 -799.274109
137.350906 78.616501 -800.388916
136.527603 78.508202 -801.485413
135.228302 78.479698 -803.294189
132.560898 78.361702 -806.974670
131.789505 78.475700 -808.120178
130.999802 78.503601 -809.244080
130.195801 78.467003 -810.353088
126.364700 78.302299 -815.641907
125.000198 78.057098 -817.423279
138.367203 79.188698 -797.772278
135.388306 79.111504 -801.907715
134.201401 79.319298 -803.686218
133.371704 79.171700 -804.768921
129.169800 79.272598 -810.717285
128.372803 79.260399 -811.828308
127.564201 79.200500 -812.929626
126.720802 79.004700 -814.005005
125.165901 78.900002 -816.128174
136.516403 79.911102 -799.368896
135.719498 79.931702 -800.497803
134.460297 80.087898 -802.349426
132.248703 79.785301 -805.284790
131.442703 79.743599 -806.392090
130.648804 79.753700 -807.510925
129.897095 79.941101 -808.667908
125.521896 79.536400 -814.581421
133.380798 80.507698 -803.125977
128.847000 80.484703 -809.466919
128.031296 80.392998 -810.559814
127.197601 80.230103 -811.638794
126.378403 80.129601 -812.731812
124.428703 79.915100 -815.346497
132.512802 80.718201 -804.158203
130.589996 80.780296 -806.596680
125.281898 80.558502 -813.482178
133.487198 82.054901 -802.442017
131.521194 81.522598 -804.766785
129.584396 81.457001 -807.278992
128.739594 81.403198 -808.362671
127.063698 81.359200 -810.542725
126.207901 81.263496 -811.620300
124.120598 80.894699 -814.183472
133.375900 83.653801 -802.293579
132.478699 82.992500 -803.151123
130.726395 82.549103 -805.234070
129.854202 82.356903 -806.284912
127.666801 82.016403 -808.988098
125.131302 81.857697 -812.235229
132.502701 84.619400 -802.724487
131.627396 84.060303 -803.603027
128.708405 82.915901 -806.878723
126.630203 82.761200 -809.528503
125.781601 82.683899 -810.603821
130.392105 84.289101 -804.273071
129.486099 83.911697 -805.281128
127.592003 83.401199 -807.522217
123.595100 82.267303 -812.172424
131.613998 82.831398 -804.244812
150.638397 69.874298 -822.931519
167.781006 57.613201 -796.271484
126.000298 77.151604 -818.061829
128.101105 75.947098 -817.096985
151.991104 69.701599 -822.581116
161.691895 61.021099 -795.778015
124.385696 80.734100 -786.328430
123.538002 80.653801 -787.439270
122.423302 80.740196 -788.349915
120.485497 81.514702 -791.202087
124.669403 80.570396 -784.638000
121.275902 80.680099 -789.220581
119.473701 81.889603 -792.030518
123.366096 80.403000 -784.964172
122.541702 80.486603 -786.096924
120.012604 81.183197 -789.715088
121.289299 80.580002 -786.776917
120.497299 80.867500 -787.934875
118.793900 81.437897 -790.410278
118.112900 81.977097 -791.501221
115.915802 85.121803 -795.479919
115.098801 85.090401 -796.567627
127.652298 76.535797 -775.452820
126.808197 76.644997 -776.625000
125.972397 76.815697 -777.806519
125.226097 77.188202 -778.933594
124.484299 77.566498 -780.056580
122.628197 79.936501 -783.334290
121.813904 80.097801 -784.483582
119.169998 80.884903 -788.301819
116.816299 82.139297 -791.882813
113.770798 84.621201 -796.798584
112.877998 84.181602 -797.856079
127.794701 76.340302 -773.822510
123.263000 78.043602 -780.499512
122.622902 78.662300 -781.567810
120.490097 80.125603 -784.928894
119.689003 80.353897 -786.085205
117.900902 81.231903 -788.787781
117.138000 81.650299 -789.955505
115.543900 82.290001 -792.317627
115.011200 84.506302 -793.768799
114.213303 84.585701 -794.871521
111.653099 83.560699 -797.987000
126.570396 76.495201 -774.556885
125.807098 76.748802 -775.671509
124.971397 76.905701 -776.851807
124.221397 77.233498 -777.973022
123.484802 77.652298 -779.106079
121.525703 79.177200 -782.256104
120.899200 79.828201 -783.317322
118.530701 80.767097 -786.826172
116.003700 82.137802 -790.691772
113.078201 83.865601 -795.213623
112.234596 83.697998 -796.297180
114.236702 82.650398 -792.473877
113.814697 83.913300 -793.461487
110.309402 83.419098 -798.028687
126.735397 76.540001 -772.910583
122.253304 78.128197 -779.486511
121.531197 78.616798 -780.622925
119.614899 80.318497 -783.773010
118.817001 80.572304 -784.934082
117.222603 81.033096 -787.238770
116.442299 81.355598 -788.398682
114.703201 82.417801 -791.098022
110.906502 83.429497 -796.557678
125.209503 76.456596 -774.347412
124.445602 76.710800 -775.463623
123.633202 77.104500 -776.691406
122.889297 77.487801 -777.823425
120.221199 79.652496 -782.144409
115.497597 81.968300 -789.292175
112.604698 83.213799 -793.612915
111.767899 83.094398 -794.703674
117.619698 80.956001 -785.561218
108.903900 83.354301 -798.144714
125.405197 76.113098 -772.903015
120.308701 79.210098 -780.828674
113.418900 82.834198 -791.356689
109.536400 83.281502 -796.761230
121.550201 77.895897 -778.083923
120.894302 78.434700 -779.152405
118.970497 80.185097 -782.343018
118.263100 80.668503 -783.463013
116.446198 81.368500 -786.159973
115.647003 81.547798 -787.303589
114.194298 82.429901 -789.566772
112.323502 82.941200 -792.274475
110.407303 83.118500 -794.932678
107.691101 83.704002 -798.811584
124.136597 76.217499 -773.380981
123.377502 76.539703 -774.519775
122.707497 77.076302 -775.609009
121.959396 77.431999 -776.744080
114.696297 82.042000 -788.148987
111.261299 83.028397 -793.145813
118.998703 79.699501 -781.025208
117.136597 81.206398 -784.061279
108.180603 83.228500 -796.924622
119.700500 79.017799 -779.480408
112.955002 82.926102 -789.976929
109.088501 83.041603 -795.285828
125.064499 74.048103 -769.748230
124.459000 74.854103 -770.844421
123.780197 75.485001 -771.982727
120.809700 78.153603 -776.932312
120.069000 78.517799 -778.065674
117.728699 80.622200 -781.965881
115.947899 81.652802 -784.743225
115.166397 81.964401 -785.914978
113.486603 82.580101 -788.416077
111.879700 83.175003 -790.810425
109.905899 82.954300 -793.434204
106.988197 83.459297 -797.589722
106.227798 83.748299 -798.725220
125.669601 72.864700 -767.833313
122.842499 76.112000 -772.793030
122.187798 76.898201 -773.953125
121.529701 77.571800 -775.080078
114.132401 82.338997 -786.807983
110.825104 83.312401 -791.663818
126.192902 72.236198 -766.266418
118.455200 79.546501 -779.344604
117.812500 80.115898 -780.418091
116.538902 81.231201 -782.541077
107.688400 83.093597 -795.315674
124.578003 73.525101 -768.430176
118.975601 79.309998 -778.080811
112.199203 83.009598 -788.643372
108.518501 83.044098 -793.715820
126.325996 71.500298 -764.957886
123.837502 74.516800 -769.398987
123.157799 75.187401 -770.560181
120.322899 78.089699 -775.439514
119.688599 78.914200 -776.590088
115.527496 81.751999 -783.272827
114.690300 82.125900 -784.551025
109.481903 83.401802 -792.149475
106.596901 83.296097 -796.084412
122.369797 75.885300 -771.444275
116.687897 80.787598 -780.924316
112.843399 82.888702 -786.928894
111.097801 83.371399 -789.496582
105.630997 83.481003 -797.065430
104.899101 83.922897 -798.222595
126.529198 70.947502 -763.347595
124.863800 72.553802 -766.187988
121.502403 76.601402 -772.193176
120.834900 77.220596 -773.323425
117.396400 80.406898 -779.143982
113.533501 82.553101 -785.198914
110.051804 83.598900 -790.355896
125.059402 71.964500 -764.862427
123.781403 73.032303 -766.990173
123.156502 73.677498 -768.072388
119.867699 77.883904 -774.042480
119.174301 78.806900 -775.313477
118.472298 79.550903 -776.535889
117.828499 80.169502 -777.635071
115.475899 81.363998 -781.290222
114.251801 82.229103 -783.274780
111.566101 83.273201 -787.338989
108.110199 83.506699 -792.192078
107.193100 83.221199 -793.362122
106.395302 83.297897 -794.490173
126.499199 70.149002 -761.602905
122.323402 74.534103 -768.864807
121.787903 75.349800 -769.882324
116.233704 81.137497 -779.525818
112.309601 83.095596 -785.614380
110.481598 83.427597 -788.253418
108.727402 83.779900 -790.797302
105.329903 83.540001 -795.410400
104.306602 83.741096 -796.892883
125.147797 71.171600 -763.276917
121.008904 76.162697 -770.693115
120.233200 77.098297 -772.083008
114.374100 82.025101 -781.852478
113.083099 82.793503 -783.897095
126.658501 69.658897 -760.075500
123.756699 72.528397 -765.060486
116.661102 80.940903 -777.727112
109.261902 83.729103 -788.890076
103.081596 84.014999 -797.515930
125.127403 70.490997 -761.760925
122.786697 73.158203 -765.907227
122.161697 73.799202 -766.989929
119.190300 77.884300 -772.493774
118.532402 78.508102 -773.616089
117.868301 79.011101 -774.705322
117.218803 80.259300 -776.030273
115.099297 81.886597 -779.514526
113.230202 82.628502 -782.348877
111.031502 83.565598 -785.705078
110.241501 83.722702 -786.849487
107.327499 83.830704 -790.908325
106.507500 83.767700 -792.018311
105.636703 83.400597 -793.094116
103.914001 83.547600 -795.522278
123.925102 71.716400 -763.079529
121.302200 74.598900 -767.695129
120.622498 75.245003 -768.856323
119.679802 76.611504 -770.629272
115.515297 81.586197 -778.095215
114.087502 82.389000 -780.343018
111.811096 83.293900 -783.797729
107.977097 83.999603 -789.333496
104.551598 83.625397 -793.932678
126.340202 69.167099 -758.094971
125.598099 69.460503 -759.222290
124.875000 70.051399 -760.426270
122.982498 72.472198 -763.881470
116.186501 81.177399 -776.292725
108.934799 84.059196 -787.312195
102.610603 83.833900 -795.971680
123.781601 71.058502 -761.688293
121.538696 73.817703 -765.750122
119.522598 76.012199 -769.301697
118.602997 77.497398 -771.090393
117.911499 78.463997 -772.383179
117.332802 79.175102 -773.430908
116.672203 79.655098 -774.511230
112.903702 82.882698 -780.844971
111.917198 83.023598 -782.257813
110.563004 83.664497 -784.353088
109.713699 83.837898 -785.587402
105.984200 83.882896 -790.758423
105.163696 83.813797 -791.868530
121.966499 73.112801 -764.573792
114.281502 82.203903 -778.376709
106.647797 84.055801 -789.581726
103.179001 83.765900 -794.278320
107.729897 84.294197 -787.946228
122.698700 71.996101 -762.549927
120.540199 74.562202 -766.441101
120.007004 75.355797 -767.458130
114.928497 81.738998 -776.734192
113.356499 82.859001 -779.305786
103.983398 83.608299 -792.562805
125.555099 68.719101 -756.879028
124.974998 69.471397 -757.949585
124.251099 69.987396 -759.137329
123.599701 70.500504 -760.223022
118.397202 76.752403 -769.651489
115.532204 80.461098 -774.937317
110.676498 83.549400 -782.771423
101.205299 83.734001 -795.998779
121.695000 72.798401 -763.042908
118.895203 76.010803 -768.081726
117.310699 77.952301 -770.977112
111.627602 83.371696 -780.815918
108.386002 84.166199 -785.616516
101.808899 83.665497 -794.609985
122.488197 71.219398 -760.770386
120.755203 73.342697 -763.946594
120.153702 74.184502 -765.086182
116.512802 78.834396 -771.825989
115.950203 79.624298 -772.892822
113.628998 82.184601 -777.046387
109.479401 83.868797 -783.444885
107.393600 84.396004 -786.547974
106.351303 84.430496 -788.017212
105.310997 84.089401 -789.350525
104.492996 83.992699 -790.459717
102.630203 83.579102 -792.916992
121.627296 72.025597 -761.663879
119.316299 74.963898 -765.946472
114.368599 81.302597 -775.132324
112.630898 82.592400 -778.024719
111.948402 83.140999 -779.175720
103.441704 83.856598 -791.340088
124.051498 69.487099 -756.697815
123.401604 70.059502 -757.812927
122.753799 70.587898 -758.909485
118.453003 75.674004 -766.754211
117.624397 76.673599 -768.272583
117.037201 77.366600 -769.343079
114.821701 80.294098 -773.494324
110.332802 83.738197 -781.014526
108.286797 84.158401 -784.030396
100.462997 83.543198 -794.767517
120.444901 72.682098 -762.231506
116.181000 78.201500 -770.193970
113.177299 81.747704 -775.680176
109.268402 83.918098 -781.940125
107.171997 84.376701 -785.043701
106.019203 84.493599 -786.701599
101.275299 83.440102 -792.972229
121.734200 71.269997 -759.503296
119.490997 73.627701 -763.499817
118.887802 74.386902 -764.619507
115.293297 79.242203 -771.411987
112.337097 82.319901 -776.668213
110.604500 83.449402 -779.505676
104.988197 84.384201 -787.720215
103.964996 84.155098 -789.072571
102.076599 83.582100 -791.514587
103.019302 83.891899 -790.038818
120.842300 71.873199 -760.424927
113.627602 81.022797 -773.801086
111.317802 82.807800 -777.671204
108.062798 84.081802 -782.677490
123.593201 69.534798 -755.353821
117.953903 75.289803 -765.310730
117.259697 76.362503 -766.667786
114.325401 80.046997 -772.097778
99.970200 83.291199 -793.326721
122.798599 70.104698 -756.601990
116.422096 77.440201 -768.102722
106.972000 84.297897 -783.702271
105.813499 84.418404 -785.355591
121.817398 70.849800 -757.367920
119.200996 73.018303 -761.785828
115.579597 78.366096 -768.752075
114.913101 78.813103 -769.839417
112.561501 81.881699 -774.216614
111.850197 82.276100 -775.346680
110.187698 83.542603 -778.113708
109.278397 83.745796 -779.449402
108.493103 83.925102 -780.604370
104.644699 84.347801 -786.099121
103.638397 84.257004 -787.462830
101.636101 83.797302 -790.075317
100.770203 83.476501 -791.160706
120.615303 71.233398 -757.899780
119.973801 71.743599 -758.978821
119.342697 72.339996 -760.075012
118.206497 74.107903 -762.303406
117.604500 74.865402 -763.418274
116.773300 75.946098 -764.970581
116.075996 76.936897 -766.303589
113.965500 79.827499 -770.298523
113.232697 80.744301 -771.653870
112.678398 81.478996 -772.694092
110.851997 83.097603 -775.827087
107.371498 84.563797 -781.203186
106.608597 84.850197 -782.368713
105.830002 85.013298 -783.510803
102.443901 84.694397 -788.100220
99.510002 83.202301 -791.630188
98.668198 82.707397 -792.618713
120.655098 71.216904 -756.330688
118.382103 73.308197 -760.283325
116.821198 76.116798 -763.508789
115.018501 77.812401 -766.657288
114.354301 78.299301 -767.766113
113.929298 79.199600 -768.694824
111.521301 82.190697 -773.171021
110.897697 82.761597 -774.254272
109.699997 83.687698 -776.271606
108.924500 83.944397 -777.450012
108.169800 84.332199 -778.648193
107.413101 84.676697 -779.833313
104.635696 85.468201 -784.006226
103.849701 85.544098 -785.131775
103.028297 85.400299 -786.225220
101.139297 84.780502 -788.632080
100.316704 84.658600 -789.735413
97.414398 83.050797 -793.189270
119.561096 72.013603 -756.708923
118.927696 72.561699 -757.803589
118.302299 73.158997 -758.905701
117.458099 74.298103 -760.518799
116.925797 75.080200 -761.559814
115.611504 76.586502 -763.970520
115.017700 77.219101 -765.041382
112.918198 80.080399 -769.063721
112.433197 80.902802 -770.053711
111.793404 81.417099 -771.144714
109.765602 83.381897 -774.728516
106.229500 85.166298 -780.358582
105.472900 85.450500 -781.526489
101.789101 85.772797 -786.812500
99.064201 84.919701 -790.310791
98.174896 84.439400 -791.376526
96.477303 83.957603 -793.574585
115.852203 75.889297 -762.091492
113.844704 78.158401 -765.772888
113.637100 79.338699 -766.513672
112.898903 79.642403 -767.665527
110.695000 82.128304 -771.705078
110.011703 82.724602 -772.891113
108.570702 83.689102 -775.280823
107.893402 84.209702 -776.429504
107.215599 84.690300 -777.563904
106.530502 85.087799 -778.676575
104.336800 86.025597 -782.112610
103.570198 86.203300 -783.255981
102.788300 86.274902 -784.380676
101.996597 86.282898 -785.494690
100.509804 85.798302 -787.396973
99.700500 85.716904 -788.501587
96.930199 84.675697 -791.993103
95.234703 84.206497 -794.194092
116.995598 74.655098 -758.660522
116.316299 75.274300 -759.851624
114.788002 76.626900 -762.515808
114.206497 77.412804 -763.633789
111.799400 80.427696 -768.169922
111.233902 81.084099 -769.215515
110.612297 81.758797 -770.346985
108.840401 83.247299 -773.405273
105.374397 85.593300 -779.170227
104.635101 85.992302 -780.360779
100.689903 86.185402 -785.970886
98.459000 86.010201 -789.033875
97.638100 85.544701 -790.007019
95.671097 84.900497 -792.519287
115.401299 76.647499 -759.940125
114.715797 77.063797 -761.063416
113.129402 78.246399 -763.747681
112.628998 79.096703 -764.779785
112.053497 79.781799 -765.853027
109.341400 82.332397 -770.647827
108.639603 82.781303 -771.806519
107.586601 83.879303 -773.709900
106.974800 84.442497 -774.786682
106.288597 84.878304 -775.918518
105.610901 85.345497 -777.050415
103.402397 86.627403 -780.645813
102.644096 86.859299 -781.799500
101.840500 86.795799 -782.901978
101.012398 86.586700 -783.982178
99.359200 86.561897 -786.291382
98.562897 86.548599 -787.403015
96.299599 85.892601 -790.322571
95.463898 85.695900 -791.418213
94.310898 85.155701 -792.825684
93.461502 84.921700 -793.926025
113.744797 77.905998 -760.638000
113.077904 78.448898 -761.788391
112.234596 79.123398 -763.238525
111.465202 79.818901 -764.592773
110.818802 80.397400 -765.728577
110.182999 81.028198 -766.869873
109.539902 81.544601 -767.976379
108.838699 82.065300 -769.166321
108.034599 82.736099 -770.559814
107.434799 83.478897 -771.694885
105.778000 85.116699 -774.666382
104.347099 85.929199 -776.996216
103.595200 86.255402 -778.180725
102.859299 86.664200 -779.375122
99.744598 87.053200 -783.902588
98.944901 87.012703 -785.010010
98.104897 87.089104 -786.219727
97.305199 87.048698 -787.327026
96.459702 86.766701 -788.403381
94.973099 86.347099 -790.325989
94.082703 85.875801 -791.390991
112.625603 78.864799 -760.464172
111.952797 79.294502 -761.582214
111.034897 79.811501 -763.079773
110.269302 80.496696 -764.430176
108.993599 81.690903 -766.701477
108.352097 82.188400 -767.802490
107.655899 82.719597 -768.993774
106.932999 83.501701 -770.322876
106.335602 84.227303 -771.453125
105.661102 84.793503 -772.627808
104.466698 85.590103 -774.625977
103.794296 86.074402 -775.765320
103.043198 86.409897 -776.955872
102.290604 86.712898 -778.135376
101.522697 86.896103 -779.289001
100.740997 86.980499 -780.422424
99.995796 87.279602 -781.590027
97.647202 87.442398 -784.959229
95.131401 87.022400 -788.330688
93.632103 86.543900 -790.249084
92.742599 86.085503 -791.317627
91.876701 85.760498 -792.406311
109.183998 81.333000 -764.367615
107.277000 83.004097 -767.727112
106.524300 83.551804 -769.007874
104.365402 85.216599 -772.719421
98.641701 87.606003 -781.742798
97.867798 87.710899 -782.874878
96.256798 87.556000 -785.080688
95.459396 87.526802 -786.191589
93.757896 87.238297 -788.470886
109.086197 81.309303 -762.950012
108.022400 82.095703 -764.768982
107.378799 82.582603 -765.874084
105.370903 84.221901 -769.370483
104.677803 84.666298 -770.528320
103.148201 85.767799 -773.132019
102.484596 86.318398 -774.291016
101.803001 86.711304 -775.411621
101.046799 86.992996 -776.591675
100.301003 87.320503 -777.776123
99.530502 87.474098 -778.924316
98.773697 87.699303 -780.082397
96.541199 87.826698 -783.280273
94.161102 87.793098 -786.620728
92.398598 87.200897 -788.863525
91.517998 86.779701 -789.933228
106.389702 83.407997 -766.492676
105.691704 83.887802 -767.673401
103.618797 85.274002 -771.163879
97.565201 87.939102 -780.791687
96.790001 88.032303 -781.923218
95.342796 88.100304 -783.992126
94.544998 88.058701 -785.100281
92.892899 87.691803 -787.280396
107.934502 82.083603 -762.974182
107.020302 83.020897 -764.648376
90.170898 86.672302 -789.919800
108.362999 81.839401 -761.663513
104.485901 84.471298 -768.211426
103.792603 84.921204 -769.373779
102.364601 85.874802 -771.778870
101.783203 86.585999 -772.890930
101.187798 87.158600 -773.965698
100.423897 87.387604 -775.136780
99.658302 87.588097 -776.298523
98.890602 87.760101 -777.451477
98.139503 88.021896 -778.618103
95.532600 88.427803 -782.460083
93.245201 88.203697 -785.593018
91.583900 87.482697 -787.638672
90.737900 87.220703 -788.723816
105.842300 83.555901 -765.173279
105.157204 84.176498 -766.389282
97.016296 88.277000 -779.494019
94.096603 88.609596 -783.725525
106.765198 82.869904 -762.857788
91.865700 88.086800 -785.945923
107.273399 82.333000 -760.805786
105.678101 83.428101 -763.508606
102.209900 86.728798 -769.767822
101.449203 87.025101 -770.962280
100.770302 87.443199 -772.092529
100.020599 87.765999 -773.282471
99.250702 87.928703 -774.434387
98.485497 88.108299 -775.586609
97.731796 88.347298 -776.747375
96.969101 88.514603 -777.890930
95.085999 89.193001 -780.825073
94.284698 89.099403 -781.914124
92.707703 88.734497 -783.982178
90.589996 87.809601 -786.578125
89.779297 87.707603 -787.677002
106.158401 83.094902 -761.399414
93.041901 89.182098 -782.489624
91.421097 88.581001 -784.526184
101.690598 87.533699 -768.341919
100.936600 87.840797 -769.541809
100.166199 88.004799 -770.704224
99.414001 88.279701 -771.887817
98.651497 88.463699 -773.047485
