17.705700 50.777199 -752.012817
17.660500 50.280399 -752.414185
17.298700 52.104198 -750.081726
17.254000 51.380600 -750.357422
17.206301 51.259201 -751.034180
17.166000 51.340900 -751.717224
17.117300 51.027100 -752.296387
17.063999 50.046200 -752.555725
17.111099 53.294701 -749.778503
17.004801 51.912399 -750.639587
16.862600 52.720699 -749.939819
16.618401 50.650101 -752.583618
16.600201 52.476398 -750.541321
16.538000 51.715801 -751.078491
16.490700 51.498501 -751.705322
16.444300 51.380100 -752.379578
16.446699 53.688000 -749.533081
16.110100 53.101101 -749.733582
16.061899 52.586300 -750.206909
16.012899 51.998199 -750.645813
15.927500 51.739700 -751.895203
15.862900 51.308601 -752.690491
15.879300 53.793999 -748.996521
15.671300 51.738098 -751.169373
15.362400 52.075802 -751.702820
15.318600 52.022800 -752.408997
15.264100 51.375000 -752.913818
15.087600 52.201698 -750.984985
14.684300 52.267399 -751.541626
14.648200 52.369202 -752.233826
14.604000 52.175400 -752.868286
14.569100 51.336700 -752.913574
14.032400 52.652699 -751.278687
13.992300 52.638599 -751.974121
13.950000 52.571800 -752.670898
13.443900 52.849899 -751.515381
13.408600 52.871300 -752.165771
13.048000 52.845001 -752.747986
12.777800 53.226898 -751.452820
12.735200 53.077301 -752.139221
12.386500 53.159000 -752.734924
12.319400 54.613602 -755.004822
12.172100 53.259899 -751.696411
12.003300 54.309700 -755.536499
11.843700 53.441898 -752.287720
11.809700 53.481300 -752.940125
11.752000 53.995300 -754.359497
11.518400 53.534500 -751.531128
11.409400 53.387199 -753.432983
11.130200 53.606098 -752.078613
11.090400 53.553799 -752.775024
10.764500 53.406601 -753.344788
10.649700 53.720600 -751.563293
10.416800 53.832100 -752.205627
10.376200 53.745899 -752.882324
10.109700 53.501400 -753.448975
10.031800 54.142700 -751.783813
9.859000 53.963501 -752.504089
9.763200 52.945900 -753.528870
9.720100 52.673801 -754.114197
9.644300 53.901199 -753.169617
9.453200 54.254501 -752.081726
9.334500 53.484200 -753.672791
9.111800 54.165298 -752.633606
8.910700 54.388199 -751.767883
8.755200 53.246899 -753.825989
8.417000 53.787498 -753.673218
8.133000 54.595402 -752.069885
7.653700 54.064400 -753.823120
7.451100 55.125198 -752.120300
7.299300 53.530399 -753.939087
6.809200 54.733799 -752.087219
6.696200 54.166698 -753.875671
6.235900 55.123901 -752.429871
6.115500 53.909401 -753.975830
5.592600 54.586498 -754.132813
5.366000 54.787800 -751.963379
5.237000 54.022800 -753.983215
4.998100 54.977100 -752.464172
4.610800 54.549599 -754.188904
4.479700 54.499802 -751.974915
4.223600 55.069500 -752.362488
4.101200 54.036098 -754.103210
3.890800 54.778702 -754.196777
3.643800 55.310200 -752.560425
3.520300 54.240700 -754.289001
3.083000 54.847099 -754.156799
2.986000 55.137798 -752.299927
2.651400 54.468899 -754.508179
2.538700 55.429600 -752.663879
2.475500 55.261200 -753.725708
2.000200 55.092701 -754.195923
1.956100 55.720200 -752.284790
1.574000 54.541401 -754.260376
1.452100 55.918301 -752.638672
1.336900 55.134300 -754.418823
1.137400 54.480999 -754.787720
0.756600 56.036999 -752.272705
0.614000 55.079899 -754.556580
0.082600 55.356602 -754.187012
0.046600 55.411598 -754.836121
0.398700 55.772202 -753.109680
10.563900 52.792198 -753.497375
11.214800 52.727200 -753.450989
11.905200 53.885700 -753.734985
12.330100 53.781101 -753.180115
12.273500 54.507801 -753.891174
18.611099 49.044498 -752.346680
21.111601 47.214199 -751.734009
22.995501 47.895699 -748.306580
23.007799 47.790298 -748.946777
23.203600 47.845901 -749.594421
23.592100 45.798901 -751.532104
24.286301 45.093300 -751.218811
24.525000 47.075802 -749.586914
25.207199 44.386002 -751.164612
25.239300 45.471600 -751.151611
25.647301 44.976101 -751.140686
25.756001 45.862499 -747.942871
25.934700 44.252899 -751.048279
26.607300 45.805199 -747.908813
27.689400 44.858601 -749.073975
28.719200 43.143398 -748.911621
28.837000 49.580101 -755.714172
28.791201 50.016800 -756.311523
28.773100 50.212399 -759.559082
29.322100 49.215900 -754.379578
29.344700 49.002300 -755.021973
29.195601 50.422199 -758.789490
29.496799 49.488098 -755.603027
29.448601 49.942600 -756.132996
29.413200 50.276501 -756.785400
29.531401 50.377399 -757.480774
29.910101 49.195499 -754.669922
38.921600 43.207401 -736.327026
39.095001 44.536701 -736.106506
39.971401 42.691299 -736.497009
40.159801 42.282001 -736.988220
40.363701 41.725601 -737.315979
40.795502 40.861301 -737.569885
41.072399 42.133202 -736.461487
40.056400 55.411098 -753.383118
41.295200 57.240799 -756.477478
41.498199 56.915501 -757.046814
41.913700 57.589699 -757.221497
47.083099 62.579700 -758.863525
44.832199 60.320000 -759.317017
30.420500 49.368900 -758.458374
29.922100 49.742802 -758.666626
30.698200 49.153400 -757.857422
30.346300 49.710499 -757.907471
29.845301 50.165901 -758.140076
29.927200 50.022900 -757.123901
30.052601 49.774101 -756.411987
28.244200 42.332401 -750.782776
27.823500 42.797699 -751.003113
28.807899 42.596199 -750.603027
27.370800 43.287300 -751.078674
28.342699 43.106701 -750.692383
26.791401 43.625702 -751.135986
29.404499 43.081501 -750.115417
28.029600 43.664200 -750.545227
27.446199 43.875401 -750.716370
28.732401 43.211601 -750.131714
26.934401 44.343102 -750.808105
26.386400 44.704700 -750.950378
27.472601 44.379200 -750.174927
11.657200 54.079498 -755.004272
9.891200 52.271702 -754.595215
12.727000 54.497398 -754.440613
12.678900 53.972301 -753.982117
13.064900 53.488602 -752.779419
9.019200 53.986401 -753.371582
-0.395600 55.178902 -755.330322
8.078000 54.268002 -753.368103
6.160600 54.583302 -753.788025
7.175300 54.410599 -753.518005
5.159200 54.803001 -753.701416
8.437300 54.235001 -752.814697
6.613300 54.660599 -753.247803
4.536800 54.996899 -753.695190
7.768600 54.470200 -752.830383
5.859300 54.750702 -753.232117
3.878700 55.203300 -753.698608
7.091200 54.554001 -752.790405
3.206600 55.256100 -753.646118
4.879800 55.016701 -753.103088
1.693700 55.452202 -753.760681
1.004200 55.501598 -753.889221
4.206500 55.133900 -753.118774
5.583100 55.130699 -752.776123
3.121300 55.468300 -752.968323
2.080200 55.407200 -753.118408
1.199300 55.553001 -753.147522
15.539700 52.780800 -749.851807
15.487200 53.614399 -749.494812
38.678699 43.638000 -735.833679
39.470299 42.264198 -736.790222
39.201199 41.743999 -737.052185
39.734798 41.362202 -737.192810
39.192001 40.495201 -737.484985
39.967300 40.481300 -737.546326
38.998600 40.001900 -737.900391
39.255001 39.383900 -737.936707
40.293400 39.912498 -738.026978
40.175999 39.275600 -738.153625
39.228401 38.776501 -738.288818
39.372898 38.143002 -738.450623
39.193600 37.306702 -738.961121
39.532501 36.760201 -739.212891
39.481098 36.037399 -739.072815
39.775799 37.426201 -739.380798
40.324902 36.777302 -739.550476
38.875000 35.219898 -739.761108
39.511799 35.668999 -739.827881
40.005501 36.380001 -739.974121
17.728500 51.742599 -750.727478
11.734400 53.317600 -754.379578
11.484600 53.845100 -755.687927
28.147800 43.347801 -748.649780
29.616699 42.308899 -748.470276
29.362600 42.701900 -748.961670
30.256201 42.111500 -749.206726
29.768600 42.478298 -749.445618
31.352699 48.386101 -750.888428
30.191999 43.000900 -750.042786
29.583000 42.426998 -750.108582
29.471901 41.867599 -750.587219
28.831600 41.755299 -750.768616
31.910801 49.008900 -751.684387
30.964600 46.705799 -751.646118
31.681101 48.488998 -752.015991
32.340401 48.515202 -751.954285
32.556999 39.304600 -749.798584
31.840300 39.043201 -749.973816
31.560400 47.870800 -752.226990
31.649500 47.220200 -752.050720
31.653900 46.536301 -751.894470
32.557400 47.911301 -752.098083
32.933102 47.365101 -752.055725
32.397701 47.268700 -752.406677
30.440201 47.800598 -753.168274
31.836000 47.117901 -752.729919
31.214600 47.360298 -752.988220
30.056299 48.251099 -753.568176
32.953899 46.785801 -752.399414
29.895800 48.884201 -753.874329
32.343700 46.699699 -752.739380
31.028999 47.806499 -753.510681
30.676001 48.259998 -753.889526
31.734200 46.872200 -753.316406
29.662500 48.604698 -754.404480
30.331699 48.710098 -754.353882
31.559299 47.408901 -753.868591
31.334299 47.888000 -754.281311
31.004499 48.482300 -754.526611
32.226700 47.560902 -754.118286
30.559299 48.918800 -754.984985
30.270901 49.395802 -755.400085
31.679100 47.995098 -754.827698
28.497200 49.324902 -756.196472
31.133200 48.833099 -755.425476
30.742201 49.156799 -755.842102
37.718700 55.608700 -755.229919
31.427000 49.061798 -756.018982
30.742800 49.429100 -756.444275
38.128300 56.099300 -755.637878
37.619099 56.258801 -756.068420
30.496700 49.721802 -757.003906
31.554899 49.231499 -756.738403
31.070900 49.409599 -757.210083
31.878599 48.704300 -757.014526
31.472401 49.271301 -757.901611
29.498699 50.132301 -759.343018
42.972698 59.644199 -757.650696
42.901001 28.546200 -754.931396
42.296001 28.182800 -755.059814
43.690399 29.048000 -755.075989
43.131500 28.971800 -755.393311
42.806301 28.526501 -755.733582
48.541401 33.954899 -767.158630
48.271000 33.731800 -766.603271
47.663502 33.389000 -766.637817
46.989799 33.174301 -766.698425
46.283501 33.025299 -766.772095
48.061401 33.545799 -765.909790
47.434799 33.237400 -765.951172
46.755501 33.031502 -766.013672
46.067402 32.844799 -766.079773
47.674198 33.276001 -765.262573
47.007198 33.043400 -765.319580
46.352200 32.788300 -765.372070
47.424301 33.066101 -764.710083
46.626701 32.867100 -764.789490
46.009399 32.535900 -764.826477
47.152802 32.891102 -764.067505
46.492401 32.640400 -764.120117
45.875401 32.304501 -764.155273
45.796001 31.782801 -763.777283
46.921001 32.781898 -763.475098
46.300701 32.449402 -763.509888
45.219700 31.460600 -763.513611
45.789600 32.177399 -763.231812
46.583302 32.469398 -762.900391
44.832600 31.620001 -763.008179
46.048901 32.227901 -762.640076
45.416801 31.909599 -762.676514
45.084702 31.404900 -762.430176
45.812000 31.925501 -762.121582
45.198700 31.589701 -761.651917
45.476501 31.659300 -761.072205
44.837002 31.063400 -760.996704
44.461700 30.721600 -760.489685
45.409599 31.274300 -759.912903
44.758202 30.971001 -759.943176
42.478298 27.791599 -754.310120
44.352501 29.448299 -755.203979
42.208500 27.362499 -753.524475
41.689499 26.776600 -753.066223
41.617901 26.802000 -751.919983
28.656900 48.572899 -756.468994
32.476501 48.705299 -755.859375
34.596901 47.700699 -755.193176
34.100399 47.237000 -755.167114
32.985001 48.005402 -755.403076
31.857000 48.612400 -755.614075
34.780602 47.208302 -754.351318
32.994999 47.731400 -754.616028
32.363098 47.865200 -754.701172
34.570099 46.709000 -753.955688
33.928799 46.522900 -753.989380
33.292000 47.196999 -753.853516
33.892899 48.526699 -753.752625
33.364101 48.136902 -753.740417
32.531700 47.105499 -753.651611
33.129700 47.585701 -753.368225
33.088799 46.839901 -753.247620
33.667599 48.484501 -753.128784
33.044601 46.277802 -752.937317
29.599400 47.849800 -753.332275
36.156200 47.014801 -752.282898
36.114300 46.284000 -752.164124
36.235199 45.644501 -752.044373
36.044201 44.983101 -751.952087
34.977100 45.603699 -752.162903
34.094700 38.731602 -751.094177
35.582901 44.707199 -751.552917
35.869202 46.812099 -751.726624
35.776501 46.176498 -751.628418
35.697701 45.508598 -751.523315
33.232101 48.030102 -752.192505
35.880100 46.088699 -750.996521
32.100399 46.853199 -751.501282
32.197601 46.002800 -751.347229
31.740999 42.657501 -750.824280
35.664001 35.736401 -749.259583
35.020802 35.680500 -749.313904
35.910500 45.500999 -750.494019
31.797501 48.279202 -751.377502
31.729799 40.013699 -749.976013
30.938101 40.544899 -750.145508
30.465500 41.089802 -750.285522
29.747801 41.027199 -750.346375
34.943199 47.006100 -750.515076
34.390202 46.641800 -750.508179
34.318001 45.959999 -750.398926
31.587601 40.696301 -749.772827
30.980600 41.290901 -749.935120
11.971000 53.178799 -753.728394
42.288799 18.836201 -744.918030
41.627800 18.673700 -744.955383
30.301300 42.175900 -750.075684
34.639801 47.709599 -750.381470
32.061100 40.473598 -749.395020
32.218102 42.201099 -749.410095
31.650600 41.875099 -749.409607
31.770201 41.183102 -749.278992
34.450100 45.833199 -749.650391
28.463600 44.068100 -749.932007
34.227001 47.903500 -749.918030
31.499201 44.695400 -749.632202
30.945601 44.328499 -749.623108
30.892799 41.571301 -749.153503
29.135700 43.490200 -749.655701
32.561501 39.826099 -748.480774
31.973000 40.481201 -748.466614
31.538200 40.937698 -748.587524
25.600100 46.461498 -750.116211
14.047100 53.181900 -752.398621
33.865501 42.218498 -748.356873
30.578300 41.699001 -748.588623
28.749701 43.966301 -748.336426
41.433498 15.956000 -741.908386
41.306599 15.266100 -741.800903
41.261600 14.555200 -741.681885
41.460999 13.852700 -741.540405
41.698502 12.791900 -741.332886
41.872299 12.139500 -741.202698
42.002399 11.303700 -741.044800
42.085999 10.565200 -740.908386
42.146801 9.872800 -740.782227
42.203602 9.185400 -740.657288
42.462200 8.332300 -740.483826
42.725899 7.179700 -740.257874
42.921299 6.172100 -740.063782
42.997601 5.133800 -739.875977
43.181801 4.430800 -739.736023
43.137199 3.650900 -739.604919
43.562599 1.804200 -739.242615
43.833099 -0.009800 -738.901184
43.799099 -0.843400 -738.759705
7.375000 54.404301 -751.912170
43.530201 3.050300 -739.154724
44.121899 -1.284700 -738.342712
44.143299 -1.945300 -738.225708
41.880199 13.795400 -740.882324
41.881500 12.978800 -740.740112
42.129200 11.895900 -740.527283
42.365101 10.832700 -740.319214
42.535400 9.906600 -740.141174
42.655899 9.084100 -739.986328
42.831200 8.136900 -739.804321
43.447102 5.063600 -739.208984
43.550598 4.253300 -739.057922
43.777699 2.574900 -738.743530
43.993401 1.499400 -738.535217
44.029499 0.821700 -738.413818
44.112701 -0.267500 -738.216003
43.117699 9.419500 -739.625916
43.181000 7.646700 -739.310913
43.324902 6.764100 -739.142883
43.300098 6.097400 -739.029175
44.494999 -1.124100 -737.653687
44.481800 -2.006200 -737.501404
44.165199 5.119500 -738.433228
44.013000 3.851800 -738.248718
44.095501 3.093600 -738.125305
44.224602 2.226800 -737.981506
44.696602 -2.689600 -737.185730
44.103001 -3.124500 -738.533081
44.023300 -3.866400 -738.426514
43.819401 1.129400 -739.464172
44.009800 -1.711400 -739.019714
40.775501 15.044600 -742.137085
42.279598 8.595000 -741.049988
43.844601 2.580900 -740.023926
43.855400 0.413500 -739.695984
44.076698 -0.692000 -739.512390
44.210201 -2.513700 -739.227417
44.157101 -3.617500 -739.064819
40.655602 17.402100 -742.967285
40.991001 15.624700 -742.675171
41.208801 14.619500 -742.507813
41.132198 13.984800 -742.418274
44.244099 -0.228400 -740.049500
44.879799 -3.801900 -739.465027
35.914200 36.087299 -746.599915
42.475800 10.223400 -742.244873
41.839500 10.528500 -742.338379
44.777699 1.422100 -740.757813
46.197201 -2.963100 -739.996277
45.998199 -3.718100 -739.898621
44.474098 -3.571600 -740.035217
46.867802 -3.713800 -740.245117
46.433201 -4.239700 -740.199585
33.537601 38.873600 -748.078491
33.089901 41.059799 -748.622009
28.073900 44.723598 -749.781128
24.282200 47.448898 -750.472107
25.886101 45.539501 -750.791687
36.923801 36.086399 -749.614197
36.400101 35.146500 -749.516907
40.254299 24.919901 -747.726685
30.863501 44.545700 -752.054626
30.849400 40.389000 -751.766174
32.393101 40.882999 -753.169983
32.337299 48.193199 -755.413086
43.134499 28.045401 -752.508911
42.473099 27.771700 -752.521912
41.857101 27.401800 -752.517822
32.437698 48.655300 -756.654785
43.889198 28.184000 -753.326416
43.199001 28.334299 -753.400574
42.498600 28.147400 -753.428711
42.834202 28.561001 -754.262024
44.276798 30.488400 -759.684509
45.441200 32.160400 -764.829773
46.643902 -5.214300 -737.536926
46.661499 -5.079600 -738.169312
46.703098 -4.925200 -738.813782
46.440800 -4.985700 -739.472229
46.837101 -4.438500 -740.836426
46.947201 -4.611600 -737.721375
46.523899 -4.396500 -739.148376
46.109100 -4.389400 -740.734619
46.523998 -4.572900 -737.203674
46.540501 -4.361200 -738.249084
46.514000 -3.741700 -738.781799
45.482101 -4.186500 -740.304993
46.519001 -3.597400 -735.864685
46.137299 -3.679600 -736.872986
45.903400 -3.717500 -737.557312
46.487598 -3.197100 -738.130127
46.609600 -2.981500 -738.823120
44.934502 -3.860500 -740.468506
45.387402 -3.457500 -740.126404
46.327599 -3.449800 -739.371094
45.882999 -4.659000 -736.837280
44.718899 -4.237600 -736.703918
46.367199 -2.662000 -739.341125
44.350101 -3.885200 -740.788574
46.625198 -2.760700 -736.770508
46.342701 -2.866000 -737.420593
46.384399 -2.560600 -738.329712
46.557899 -2.258000 -737.707825
45.932098 -2.397600 -739.822693
45.443600 -2.700300 -740.140686
44.695400 -3.180800 -740.512024
44.180901 -3.443900 -741.230530
46.304401 -1.989800 -738.609070
46.254200 -1.927100 -739.293274
43.718899 -3.556700 -740.539612
45.562302 -2.011600 -740.212830
46.123100 -1.721900 -736.848694
45.991501 -1.726200 -737.497803
46.236401 -1.459900 -738.163086
46.319500 -1.308900 -738.827515
46.092800 -1.363200 -739.605530
46.282700 -0.924600 -737.517029
46.237499 -0.729800 -739.206787
45.759102 -0.959000 -740.033875
45.201000 -1.319200 -740.309082
44.610699 -1.731100 -740.369385
46.105400 -0.368800 -737.876770
46.119598 -0.262100 -738.614929
46.099701 -0.158000 -739.516785
44.684101 -1.021400 -740.595276
46.148998 0.340900 -739.059814
45.841999 0.241200 -739.986328
45.473000 0.041500 -740.471680
46.684799 1.025000 -737.914185
46.022301 0.627500 -738.499573
46.000999 0.747700 -739.600830
45.121700 0.307400 -741.089172
44.658199 0.044300 -741.621277
46.007301 0.891100 -737.808594
46.106201 1.101200 -738.987122
45.705101 0.955900 -740.155823
44.563801 0.209800 -740.683777
43.983700 -0.193900 -740.745728
45.217499 0.871400 -740.578186
45.851700 1.239300 -738.411926
45.996601 1.467300 -739.514099
45.054501 1.003400 -741.314209
45.768501 1.614000 -740.098083
45.898701 1.853900 -738.115479
45.977402 1.982200 -738.774414
45.334499 1.727800 -740.599792
45.853298 2.297800 -739.377686
45.792301 2.326800 -740.045898
44.139400 1.288100 -741.260925
43.828800 1.135300 -741.882385
44.671501 1.904500 -741.218506
45.368000 2.499600 -740.573975
45.647900 2.582500 -738.295227
45.780499 2.751700 -737.670288
45.729198 2.851000 -738.961670
45.944099 3.080700 -739.703430
45.072201 2.619500 -741.180603
45.959499 2.922300 -737.072021
44.622898 2.454300 -741.616272
45.598701 3.077400 -740.296326
45.160000 2.503600 -737.838074
45.330101 2.690900 -737.181091
45.635201 3.435500 -738.399170
45.639702 3.505100 -739.114685
45.684200 3.614500 -739.953308
45.345699 3.449700 -740.753174
44.836498 3.173300 -741.650879
45.322300 3.414100 -737.559021
45.488800 3.999100 -740.434570
44.798302 3.574600 -741.119812
45.763000 4.157000 -737.880371
45.445000 4.006000 -738.696777
45.530399 4.134800 -739.460876
44.562901 3.706600 -742.291077
43.271198 2.790200 -742.228088
45.116100 3.957300 -737.945984
45.263699 4.328700 -740.974976
44.247601 3.655900 -741.464478
43.956100 3.541500 -742.495117
43.653000 3.382800 -743.117310
45.461700 4.635800 -738.823975
45.472000 4.723200 -739.740295
45.467499 4.781400 -740.441772
44.695099 4.310700 -741.275330
44.942200 4.838000 -737.452881
45.373501 5.228400 -738.482117
45.422798 5.317400 -739.119690
45.429100 5.382400 -739.828491
45.430801 5.443600 -740.531372
45.054100 5.228000 -741.101807
44.574501 4.926500 -741.512329
43.905399 4.721700 -741.394775
44.036400 5.049600 -742.047913
45.455200 5.921400 -738.897583
43.370998 4.702500 -742.375610
44.933498 5.914000 -739.315002
45.200699 6.146400 -739.973877
45.185902 6.182500 -740.659119
44.900398 6.024300 -741.281372
44.418301 5.707100 -741.592529
45.004299 6.310300 -738.344421
45.471298 6.724200 -739.664429
44.328602 6.138900 -742.939087
45.104500 6.883600 -740.201782
45.065800 6.899300 -740.869995
44.676300 6.662800 -741.430725
44.205502 6.354100 -741.749817
43.637299 5.967500 -741.917419
43.377800 5.827100 -742.559082
44.865299 7.067300 -739.288513
44.892899 7.554400 -739.989624
44.974800 7.650800 -740.629578
44.810398 7.578900 -741.320313
44.411301 7.329200 -741.777588
43.782200 6.965800 -742.989014
43.545399 6.840900 -743.638916
44.429501 7.598600 -739.403503
43.760899 7.291200 -741.979675
43.241199 6.966100 -742.571472
42.955002 6.808400 -743.245117
44.613400 8.035700 -741.727478
44.806198 8.192800 -741.020508
43.045601 7.010500 -741.692871
44.897598 8.454000 -739.406494
44.596298 8.281100 -740.021118
44.002701 7.993600 -742.141174
44.374901 8.419500 -738.908997
44.659901 8.711700 -740.561401
44.696899 8.783800 -741.368774
44.405102 8.617600 -741.986511
42.879700 7.610500 -742.811401
42.972698 7.711100 -743.440918
44.564701 8.962100 -739.730225
43.828800 8.602000 -742.369812
44.482498 9.317700 -740.273621
44.618401 9.447300 -740.943420
44.450100 9.368500 -741.632324
44.104099 9.161800 -742.220093
43.613300 8.866900 -743.021973
44.307098 9.560500 -739.462830
43.442600 9.113300 -742.371399
42.994801 8.827500 -742.809875
42.948898 8.829400 -743.470825
44.862801 10.054600 -739.662720
44.375301 9.952300 -741.898682
43.592602 9.476700 -743.220886
41.891499 8.300100 -743.072876
44.275002 9.922400 -740.034973
44.395599 10.035100 -740.697388
43.889599 9.762700 -742.374023
44.297600 10.343100 -741.295288
44.089699 10.449600 -742.278809
43.228298 9.875500 -742.681030
42.637299 9.501300 -743.436523
44.006901 10.135600 -743.120117
43.341000 10.140500 -739.387024
43.620899 10.349500 -739.960876
43.997002 10.628500 -740.675598
44.420799 11.167500 -740.044189
44.546101 11.280300 -741.011230
43.575298 10.659900 -742.647583
42.783001 10.129100 -743.105774
43.859402 11.009800 -739.316223
43.976398 11.174100 -742.469604
43.183800 10.652600 -743.285583
43.232399 10.809500 -739.721802
43.973000 11.340600 -740.643982
44.042000 11.599700 -741.344604
43.556400 11.308800 -742.957275
43.901100 11.893000 -739.985596
42.745201 11.176200 -743.038818
43.245602 11.533200 -743.696289
41.834702 10.578500 -744.040283
43.756401 11.917700 -742.647522
43.738201 11.912100 -740.858215
42.515999 11.285400 -743.743713
42.151901 11.048100 -744.348694
43.749001 12.317800 -741.526917
43.261002 12.012300 -743.118530
42.727001 11.882200 -743.496826
43.919800 12.819400 -740.165710
43.568699 12.588900 -740.718994
43.553200 12.610400 -742.909424
42.535999 11.937700 -744.160217
43.716900 12.972200 -741.276184
42.973499 12.496000 -743.472412
41.908298 11.908200 -744.332825
42.241199 12.321400 -743.572876
43.569801 13.467400 -740.376892
43.146099 13.205600 -743.300415
42.543400 12.802100 -743.877625
43.248501 13.617300 -740.993286
43.474800 13.775100 -741.622070
43.189201 13.974000 -743.323730
42.704498 13.647900 -743.662109
42.851002 14.065800 -740.578308
43.117500 14.249200 -741.350586
43.413700 14.452100 -742.017883
42.195202 13.637800 -744.160828
42.760899 14.312900 -743.710815
43.459999 15.043700 -741.201782
43.024899 14.944900 -741.735596
43.041100 14.953600 -743.449219
42.246700 14.416300 -744.118225
42.856602 14.970500 -740.756226
43.250801 15.350700 -742.225220
42.654499 14.941800 -743.999329
42.453098 14.875000 -744.621826
43.212502 15.387800 -742.881470
41.592098 14.572900 -744.253479
42.802799 15.484900 -741.328003
42.999802 15.789400 -743.354797
42.049099 15.140800 -744.136475
42.815498 16.146700 -741.425720
42.876499 16.180500 -742.064270
43.061798 16.298100 -742.669128
42.727200 16.059401 -743.884216
42.217800 15.709900 -744.506287
42.951500 16.826500 -741.923401
42.392399 16.423100 -744.314880
42.240200 16.942600 -741.317017
42.641201 17.194401 -742.618713
42.510399 17.086700 -744.264771
41.986301 16.730301 -744.780579
40.718899 15.873600 -745.610596
42.668201 17.614201 -741.812500
42.308701 17.332600 -745.002686
42.184898 17.711100 -742.361084
42.693001 18.042299 -742.838074
42.367699 17.799601 -744.450378
41.487598 17.205900 -744.879028
41.828201 17.730000 -741.749023
42.578899 18.548100 -742.130920
42.656399 18.573200 -743.351624
42.092999 18.163099 -744.930420
41.591000 17.821100 -745.259888
41.884300 18.379801 -741.713379
42.380600 18.685101 -742.780212
41.008099 17.691000 -744.890930
41.993999 19.046700 -742.071899
42.357601 19.258200 -743.147095
41.111099 18.374800 -745.189087
42.179001 19.677999 -742.588318
41.760201 19.327400 -745.139587
42.324699 20.418400 -742.650818
42.316200 20.392599 -743.317993
41.817501 20.002899 -745.323914
41.285702 19.642599 -745.642517
41.799999 20.795200 -742.582520
41.971500 20.873100 -743.671204
41.821701 20.723400 -745.271179
41.327202 20.387501 -745.608521
40.781200 20.021500 -745.824829
40.798000 19.985300 -747.302002
42.149700 21.066099 -743.059814
41.184898 20.458200 -746.250488
41.486698 21.226400 -742.949402
41.617500 21.216000 -745.768799
41.949299 21.532700 -743.622620
41.077202 21.210600 -746.135681
41.246101 22.000000 -742.885681
41.635899 22.212200 -743.953186
41.460400 22.020000 -745.926086
40.890900 21.622000 -746.599792
41.302200 22.523199 -743.280518
41.169800 22.309200 -746.456421
41.566898 22.958300 -744.126770
40.366699 22.080900 -746.471619
41.487598 23.294500 -743.391785
40.864601 22.685600 -746.877075
41.614498 23.341299 -744.641602
41.210999 23.077999 -746.314209
41.567699 23.470100 -745.582886
41.235001 23.677401 -743.903870
40.964901 23.369600 -746.902893
40.931900 23.318701 -747.567383
40.831402 23.570700 -743.291687
41.459801 23.903601 -744.924316
41.346001 23.775801 -746.136719
41.215900 23.600599 -748.171875
41.435799 24.204100 -745.549927
41.197800 23.980400 -747.084412
41.192799 24.356001 -743.433105
41.040501 24.222401 -744.208130
41.133301 24.119699 -747.755371
41.402802 24.243401 -748.843994
41.212502 24.524599 -744.759583
41.271000 24.498600 -746.151428
41.389801 24.479601 -748.236023
41.546398 24.524401 -749.458374
41.220299 24.871201 -745.388428
40.953300 24.638800 -746.714478
40.858200 24.548700 -747.346313
41.594898 24.952900 -748.848572
41.930801 25.135201 -749.577515
41.271702 24.690800 -750.035583
40.875999 25.003700 -743.364014
40.954399 25.020599 -744.090881
40.898300 25.216499 -744.730530
41.080002 25.279100 -745.891296
41.062698 25.165300 -748.104126
41.679401 25.467199 -750.111084
41.328300 25.218901 -750.615173
41.172401 25.596701 -743.091125
41.591499 25.581699 -749.081787
40.864700 25.241301 -746.494995
40.493698 25.025801 -747.067871
41.773998 25.663900 -750.821594
42.452900 26.075300 -751.319519
42.576000 26.119499 -752.030823
40.513401 25.417400 -742.568604
40.968601 25.649799 -743.776978
42.007599 26.029600 -749.577576
42.442200 26.275101 -750.252625
41.922600 25.869600 -751.707214
40.538502 25.607800 -744.367188
40.673698 25.652399 -745.214722
40.868301 25.609800 -748.588074
40.788200 26.057100 -742.504517
40.794201 25.896099 -745.824280
40.483501 25.646999 -746.831909
40.422901 25.552200 -747.958679
42.274799 26.596701 -750.822876
42.564499 26.738501 -751.704773
42.964001 26.925600 -753.093384
40.817600 26.083200 -743.320313
39.978802 25.349800 -747.276794
41.380199 26.229900 -749.233215
42.942200 27.074699 -752.396912
40.558300 26.198700 -743.923706
40.121498 25.876600 -744.774902
39.316002 25.230600 -747.390076
40.778400 26.084900 -749.048584
41.791901 26.677401 -750.189026
40.761002 26.730400 -742.683777
40.818802 26.732901 -743.367676
40.319099 26.318100 -745.254822
40.560902 26.427700 -746.150513
40.171799 26.130100 -747.116821
39.688400 25.789200 -747.743774
42.431000 27.371201 -751.174011
42.748299 27.545401 -751.745972
43.254200 27.745899 -754.191406
44.265598 28.361300 -754.820618
43.708199 27.984900 -755.213501
44.165699 28.249300 -755.775513
44.197800 28.237200 -756.422913
39.990101 26.443800 -744.120789
41.423500 27.030600 -750.575623
43.663300 28.273300 -754.284485
39.722500 26.400900 -744.724182
40.299198 26.664499 -746.757202
44.375099 28.825300 -755.377014
44.700699 28.923800 -757.497620
40.374401 26.824900 -745.670288
41.796501 27.460699 -750.927917
44.610199 28.979601 -756.323303
41.166500 27.646700 -742.086182
40.745602 27.355101 -742.509521
40.812000 27.359800 -743.228699
40.310799 27.016899 -743.649902
39.594501 26.358101 -747.459473
42.115501 27.749300 -751.687317
40.149399 27.090500 -744.874023
40.256500 27.084999 -746.260620
39.977200 26.852200 -747.277771
39.062099 26.233999 -747.891479
41.184700 27.416500 -751.179199
43.432701 28.710699 -753.875488
44.399899 29.166599 -756.929626
44.979401 29.481199 -757.981323
40.539299 27.818501 -741.902527
40.848499 27.965099 -742.851013
39.878399 27.278099 -744.098877
39.465199 26.988800 -744.569214
42.304501 28.361700 -752.783203
44.205502 29.412901 -755.827515
44.675598 29.629900 -757.378479
45.125099 29.806601 -759.434326
45.466999 29.979700 -760.279602
40.362499 27.968100 -743.364624
39.706501 27.542400 -743.494324
39.483700 27.310499 -745.150391
39.908501 27.554199 -745.656921
40.067799 27.604401 -746.605591
39.545799 27.217600 -747.598389
39.942699 27.336100 -750.086609
42.759602 28.937401 -753.713623
43.128799 29.139200 -754.337585
44.337299 29.802999 -756.322327
45.041100 30.153400 -758.144287
45.191799 30.212601 -758.828613
45.234001 30.128799 -760.873108
40.625702 28.471300 -742.116882
39.803299 27.667700 -747.221985
38.885201 27.048800 -747.830688
42.040600 28.763599 -753.274170
44.359001 30.041800 -756.939270
44.828800 30.315599 -757.409973
45.449902 30.600500 -759.445129
45.607498 30.663799 -760.125610
45.823700 30.768101 -760.739380
46.502300 31.162100 -761.449280
45.779900 30.693399 -761.594604
41.185398 28.969999 -741.895081
40.842400 28.705900 -742.721985
39.969601 28.077200 -744.034607
38.576302 26.949600 -748.390625
46.040699 30.942101 -762.395508
46.254601 31.045401 -762.998718
47.234600 31.624001 -763.845825
42.972900 29.447701 -754.964905
43.362000 29.651600 -755.773315
38.713200 27.378099 -744.291504
42.458000 29.217600 -754.334900
46.535400 31.393200 -762.121277
47.206501 31.661400 -765.042725
39.817200 28.082600 -746.062927
45.083698 30.763500 -758.418884
40.216499 28.563700 -743.043823
39.729099 28.234400 -743.370422
39.412998 27.917700 -745.446716
39.278000 27.691000 -747.985474
43.635601 30.014700 -756.255981
39.386002 27.938700 -744.403320
39.950001 28.233801 -746.677124
46.778702 31.584801 -764.321594
40.836601 29.271799 -742.405029
44.212700 30.559099 -757.401123
45.205898 31.102501 -758.986084
45.790600 31.390800 -760.461914
46.448200 31.679899 -762.725281
46.994598 31.991899 -763.374023
47.210499 32.001202 -765.585571
40.789799 29.437300 -741.633911
40.369499 29.048500 -743.677917
39.586201 28.339300 -747.225830
43.670601 30.394699 -756.770508
44.298599 30.723000 -758.028992
46.081001 31.670401 -761.332520
47.103802 32.150002 -764.321777
48.040298 32.639099 -766.205383
40.375198 29.210501 -742.911621
38.639702 27.801901 -747.907776
47.389000 32.393200 -764.938782
48.073299 32.800499 -765.457703
39.060699 28.392500 -745.190613
39.359001 28.546301 -745.804871
39.195499 28.323700 -747.740173
39.292198 28.318899 -748.838501
39.562500 28.455099 -749.445984
40.793301 29.945101 -741.198120
40.771702 29.872700 -742.139282
39.574001 28.844101 -746.334412
44.000099 30.920700 -758.560425
44.833698 31.399900 -759.446106
38.663101 28.246099 -748.421814
37.958599 27.698000 -749.950684
39.717300 29.312300 -742.848022
39.489399 28.935801 -746.971680
40.291302 29.816601 -742.638489
39.110001 28.949699 -744.358826
44.228802 31.299601 -759.038818
46.011299 32.279301 -761.611023
39.210602 28.965401 -747.562805
38.098801 28.220200 -748.063416
45.474098 32.144199 -760.524170
40.744499 30.478001 -741.606689
38.582401 28.856899 -745.198181
38.960701 29.061501 -745.777893
38.881500 28.856800 -748.129822
44.047298 31.606400 -756.721008
39.617199 29.631500 -744.684875
40.686100 30.517000 -742.281372
39.666100 29.974899 -742.569824
39.244801 29.454300 -746.265930
44.888100 32.085999 -760.926819
40.861500 31.095699 -740.672180
39.278198 29.654600 -746.904114
38.097000 28.793501 -748.415283
37.525398 28.328699 -749.852478
37.233501 28.099001 -750.474609
45.124401 32.411400 -761.486328
40.641102 31.185699 -741.316772
40.633701 31.134600 -741.989014
40.105202 30.782301 -742.184692
39.875900 30.590599 -742.833801
38.812698 29.702200 -745.835205
39.118301 29.782600 -747.512390
38.779701 29.531200 -748.009521
37.529099 28.679501 -748.734619
45.592999 32.875401 -762.877930
46.480202 33.366100 -764.012024
37.438301 28.874100 -748.127991
40.902302 31.763901 -740.902405
38.395599 29.852501 -745.255127
38.876202 30.078699 -746.418274
38.079201 29.442200 -748.212708
37.017300 28.570999 -750.931580
45.804901 33.276299 -764.101624
46.323898 33.559399 -764.805725
47.228699 34.021301 -766.481873
40.683998 31.732000 -741.651184
39.017799 30.275999 -747.088318
38.662601 29.863400 -749.676086
38.403400 29.640600 -750.469116
36.584301 28.487700 -750.294312
39.470001 30.978001 -742.244385
38.862000 30.376101 -745.195313
38.000599 29.533300 -749.237488
37.562099 29.219601 -749.691772
40.035301 31.398199 -742.003113
38.531200 30.243000 -744.613770
38.763302 30.205200 -747.858276
38.670399 30.086500 -748.663330
40.904099 32.191002 -740.422913
37.211800 29.087400 -750.300415
40.692001 32.333000 -741.178284
38.395199 30.507299 -745.853699
38.152500 30.168100 -748.291870
36.659401 29.034500 -750.622986
40.761002 32.713001 -739.861023
40.085899 32.147598 -741.612671
38.067600 30.641800 -744.411499
38.562901 30.794901 -746.584290
38.773499 30.878700 -747.260681
37.654800 30.051701 -748.711670
40.643398 32.778000 -740.570313
37.689400 30.547501 -744.998474
38.552200 30.877800 -747.918823
40.770500 33.520100 -740.084229
40.751999 33.457802 -740.731079
40.357899 33.169701 -741.191284
39.893200 32.846600 -741.518188
38.042000 31.293699 -746.236328
38.432701 31.498899 -746.813110
38.535999 31.509100 -747.530396
38.116199 31.174801 -748.370422
37.552399 30.797899 -748.574402
36.774300 30.313900 -748.393005
40.859001 34.033001 -739.480713
39.378799 32.894901 -741.928284
38.694099 32.267399 -744.348511
38.529202 32.108398 -745.032471
41.000099 34.370201 -740.081116
40.661999 34.108002 -740.666687
40.161400 33.764301 -740.970886
39.709202 33.449200 -741.304504
37.943401 31.906700 -746.544373
38.222301 32.028500 -747.254395
38.241501 31.987301 -747.928711
37.747898 31.608400 -748.733582
37.575802 31.445000 -749.409485
37.453899 31.131100 -750.060608
36.778801 31.328699 -749.100525
40.423698 34.820999 -738.960876
40.483501 34.802502 -739.629578
40.594398 34.811001 -740.364685
40.037899 34.433800 -740.640015
37.704300 32.472900 -746.279480
37.835999 32.498798 -746.965698
38.076500 32.602001 -747.553894
37.964001 32.471199 -748.254883
37.468899 32.075699 -749.209717
39.369099 34.319599 -740.856689
36.718300 32.255600 -745.370789
37.242001 32.158100 -750.452698
40.780102 35.382801 -739.553589
37.496700 32.533600 -748.701416
36.916199 32.093102 -749.565674
40.033401 34.515800 -741.279785
40.041801 35.140800 -738.422974
36.849499 32.187901 -748.911316
40.430599 35.434898 -740.167603
39.938202 35.095600 -740.485596
36.984901 32.864300 -744.582092
37.779701 33.144402 -747.057312
37.876598 33.133801 -747.858521
36.500500 32.066700 -750.073914
36.155602 31.791100 -750.719788
40.773800 36.019901 -739.007324
37.602100 33.161800 -748.502014
35.858799 32.030499 -748.856323
36.157299 31.984800 -751.445374
37.446201 33.598202 -747.432983
37.176498 33.284199 -749.010925
40.792599 37.166801 -738.308472
40.688301 37.040798 -738.966003
36.826401 33.889400 -746.890503
37.400600 34.163700 -747.818604
37.414101 34.110699 -748.485291
36.617298 33.539799 -749.260071
40.815701 37.763901 -737.901428
36.893200 34.448399 -747.274170
37.052200 34.392601 -748.954407
36.815102 34.184601 -749.602112
36.239601 33.709499 -750.855713
35.668499 33.340599 -750.987000
40.630100 37.815498 -738.548523
40.576000 37.722099 -739.194092
37.067299 34.733799 -747.846375
35.975201 33.923100 -749.248230
36.832298 34.117802 -750.263306
35.967098 33.835300 -746.086609
35.748299 33.439899 -748.851624
35.340199 33.104000 -749.716614
36.273602 33.517200 -751.534424
40.277699 37.225498 -737.650574
35.921299 33.375000 -749.645325
35.837502 33.264000 -750.270508
36.342098 33.400299 -752.177185
36.186401 33.234402 -752.905884
39.385502 37.095798 -739.777710
36.704498 34.257999 -751.868713
40.866798 38.487000 -737.707214
36.021999 34.641998 -746.289795
36.317299 34.757301 -746.997620
37.040199 35.065701 -748.460876
35.611500 34.045898 -749.812927
40.691502 38.462200 -738.384216
36.110600 34.546902 -749.381287
36.659500 35.095600 -747.471680
40.307899 38.247398 -738.933716
36.106098 35.004799 -745.373230
39.646801 38.041599 -739.142029
39.414799 37.841000 -739.717773
35.395100 34.402199 -749.315674
35.265701 34.215900 -750.394226
35.395199 34.226200 -751.108215
40.941399 39.395699 -736.354614
40.675900 39.150501 -737.175598
36.653999 35.597500 -747.963318
36.805698 35.619999 -748.690002
35.743698 34.850101 -749.827271
40.154999 38.864300 -738.673828
36.326900 35.657501 -747.198303
36.446602 35.792301 -749.232483
40.661800 39.785000 -737.298218
36.387699 36.124001 -747.682129
36.624100 36.203499 -748.352478
36.091499 35.730801 -749.813110
39.341702 38.984501 -738.911682
36.009499 36.394798 -744.370728
35.848499 35.694901 -750.460083
35.828800 35.600498 -751.294312
40.524899 40.112999 -736.340210
36.535599 36.422699 -749.000916
36.319099 36.161499 -750.309692
36.914398 37.068401 -745.950378
36.605400 36.827400 -746.565308
36.257599 36.351200 -749.614685
39.667599 39.634499 -738.410889
36.844799 37.308800 -745.360291
36.221901 36.704700 -747.922913
36.582500 36.876999 -748.449097
35.580002 36.147900 -749.819214
35.065102 35.804100 -750.176086
40.547199 40.646301 -736.732971
36.645699 37.281200 -747.872375
36.577499 37.132000 -749.071411
39.596100 40.234402 -738.103516
35.799301 37.085602 -747.473816
36.243000 37.151402 -749.706116
36.352299 37.494099 -748.419983
35.635300 36.900002 -750.182129
40.646801 41.348598 -736.253296
40.699200 41.320900 -736.903198
36.091999 37.761398 -747.408386
36.484001 37.851898 -749.008179
35.016899 36.823601 -750.568909
34.822701 36.643398 -751.257385
40.417702 41.677601 -735.666626
39.581100 40.983200 -737.744629
36.303101 37.917999 -749.649170
35.814701 37.581902 -750.105713
36.068298 38.223000 -746.630676
36.014099 38.062901 -748.017517
35.719299 37.587502 -751.256775
36.322701 38.286201 -748.551086
40.540901 42.247799 -735.937622
35.991299 38.554901 -746.034119
36.886501 38.879799 -748.282776
36.489799 38.559601 -749.143188
35.157299 37.658699 -750.195313
35.949200 38.273800 -750.064209
40.740299 42.638100 -735.468201
36.174198 38.706600 -748.007324
36.065102 38.986401 -745.203186
35.142899 38.352501 -746.047607
36.391499 38.747700 -749.769226
35.711899 38.247700 -750.736877
40.781700 42.771999 -736.245728
36.120201 38.908798 -747.383972
37.005199 39.758801 -745.429871
36.824600 39.590099 -746.059387
36.601700 39.393700 -746.713623
36.123199 38.919701 -748.662720
36.546299 39.238701 -749.137024
36.070400 38.825199 -750.645874
35.859699 36.841000 -745.838196
35.817799 35.546700 -746.116211
35.764099 35.287601 -746.797913
36.133499 35.238300 -744.455994
36.709202 34.125301 -752.581116
37.321899 34.247898 -743.801880
36.511101 33.497601 -746.438782
37.119099 33.873501 -744.767822
36.879200 33.664398 -745.410583
37.275799 33.611500 -745.936218
40.693298 35.964001 -739.834717
37.181599 33.130798 -746.797607
37.064701 32.914001 -743.891724
37.533100 31.642799 -746.020874
37.671600 30.829399 -751.034180
47.665199 34.242001 -767.062622
40.202000 30.214199 -745.791687
38.059700 28.585300 -744.761230
41.298901 30.454100 -741.281372
37.760300 27.401899 -750.578674
39.000801 27.116899 -748.906677
40.212799 26.129700 -748.347290
41.105202 26.586800 -749.844971
43.255402 27.718800 -753.080383
40.250599 26.372900 -742.357422
40.576900 23.439699 -748.230286
40.441002 21.298700 -746.202881
42.000099 21.635900 -744.831604
41.010399 19.552700 -746.258301
42.203098 16.696800 -741.945618
42.204102 15.935700 -741.563782
43.464699 12.872600 -739.664124
44.640900 12.906800 -741.396606
42.982399 11.712200 -739.751526
43.295898 11.694300 -740.359192
43.838600 10.929600 -743.458130
43.766800 9.228900 -739.690796
44.318802 9.239900 -742.835815
45.094299 9.558900 -740.480774
44.152000 8.522700 -742.933777
43.642101 8.144900 -743.281372
43.938099 8.213800 -739.540894
43.539799 7.041700 -738.530029
43.897999 7.278100 -739.136230
44.319401 7.356000 -737.980591
44.216400 6.311700 -738.778198
44.731098 6.185900 -742.096619
42.958500 4.911400 -741.895996
44.619499 5.614200 -738.459595
44.595699 4.589200 -738.008118
43.620701 3.774200 -741.603210
45.881100 4.677300 -735.385071
45.724400 4.545900 -736.005371
45.501301 4.367000 -736.592896
45.419800 4.149500 -737.207886
45.236698 3.902200 -741.566284
43.947800 2.773300 -741.151917
45.273701 3.701200 -735.291382
45.040001 3.516100 -735.875671
44.895802 3.209700 -736.529297
44.847401 3.140500 -737.924011
43.639702 2.062200 -741.270813
44.184101 2.227700 -742.024170
44.418701 1.390700 -742.760071
43.747101 0.900400 -742.770874
46.405701 2.465900 -736.077087
44.690399 0.808900 -741.813782
45.494099 0.542400 -737.989014
45.471802 0.427900 -737.256470
45.058601 -0.323300 -740.869507
45.072399 -0.663100 -740.184570
45.433899 -0.547400 -737.499695
45.449799 -1.264500 -737.322083
45.063099 -1.589100 -740.874878
45.070000 -1.591600 -741.591309
45.734001 -2.562400 -736.788391
45.716000 -2.580500 -737.458923
46.559299 -1.582800 -740.009216
45.347099 -2.232400 -741.749573
44.380299 -3.766200 -736.361511
45.319801 -3.669300 -741.053894
46.097000 -4.441500 -737.674316
46.533798 -5.002900 -740.140076
44.001499 -4.057900 -736.810913
43.969398 -4.175100 -737.562927
45.375099 -4.226100 -737.141479
44.520401 -4.876700 -738.239319
44.703400 -4.157400 -737.435181
45.071201 -4.586400 -738.063293
44.681400 -4.306800 -738.507385
45.531399 -4.106700 -738.020203
44.957100 -3.663400 -738.381714
47.425999 -3.571900 -737.484680
45.396599 -3.203400 -738.165710
47.108002 -3.627000 -738.054871
43.734501 -3.902800 -739.778809
44.819302 -3.041100 -738.533081
44.296600 -4.226300 -740.150879
45.198299 -2.565800 -738.255615
47.187000 -2.205500 -737.249817
47.867500 -2.027700 -736.848572
44.406300 -3.109200 -739.493286
44.617001 -2.424400 -738.711121
45.713200 -2.131300 -738.062073
47.151299 -2.430900 -737.926697
44.905201 -1.916800 -738.412903
46.942600 -1.628200 -737.481628
45.433899 -1.529100 -738.181885
43.896400 -2.737900 -740.374573
44.444599 -2.507900 -739.968018
44.570702 -1.432100 -738.798584
42.186298 -1.375500 -739.764526
45.151402 -0.864600 -738.339783
43.800098 -1.730700 -740.022583
44.524300 -0.779000 -738.804321
46.840599 -0.463800 -737.783020
44.192402 -1.276200 -739.781311
44.852501 -0.244700 -738.497986
46.743000 -0.849700 -738.576172
45.494900 -0.068800 -738.376282
47.266998 -0.423300 -738.415222
43.487598 -1.582500 -740.890015
46.461300 0.259300 -738.114014
44.064701 -1.445700 -740.577515
45.002800 0.406000 -738.519470
47.094601 0.209000 -738.194275
44.297199 0.390800 -739.091187
46.697899 0.061000 -738.747009
44.710300 0.884600 -738.875610
44.818802 1.491600 -738.661072
46.769901 1.009500 -738.615906
43.240002 0.216600 -740.989380
43.744099 0.486400 -740.558594
44.204498 1.645400 -739.192322
45.118198 2.051600 -738.499573
46.512901 1.698900 -738.478882
43.338501 1.660500 -740.028809
44.508598 2.266400 -739.052002
46.633999 1.493100 -739.277283
44.956902 2.728300 -738.971680
42.747398 1.577200 -741.081787
43.829300 1.975600 -740.348572
43.314499 1.747100 -740.780212
44.152699 2.787800 -739.425720
46.400902 2.708600 -739.077698
44.755199 3.328500 -739.112671
43.563702 2.509500 -740.612915
43.834400 3.515500 -739.751282
46.355000 3.398400 -739.174927
46.805801 3.737200 -738.685181
44.230598 3.904800 -739.419128
44.855701 4.011800 -739.130188
43.040199 2.178100 -741.702881
43.607300 3.213400 -740.431824
46.156799 4.086300 -739.197083
41.963600 3.051400 -741.995911
42.730400 3.282800 -741.531982
43.725101 3.841100 -740.650879
43.883999 4.702400 -739.674377
44.762199 4.866100 -739.252930
43.476398 4.805600 -740.192688
43.081100 4.290600 -741.310303
44.327801 5.575700 -739.567017
42.708401 5.050400 -740.956726
43.417599 5.441400 -740.334778
42.212399 5.038100 -741.407471
43.626301 5.959300 -740.011780
44.144100 6.302500 -739.772827
46.117500 6.201900 -739.333374
43.101799 5.567600 -741.107300
43.146099 6.106500 -740.740723
42.598301 4.879300 -742.474915
46.766499 5.935000 -740.164673
42.804901 5.844100 -741.634399
43.147400 6.725600 -740.576172
43.610600 7.033600 -740.111084
45.486301 7.306900 -739.292175
42.496899 6.565400 -741.231323
44.050301 7.509500 -740.054321
45.777100 6.932400 -740.207825
42.785099 7.150900 -741.064575
43.184200 7.679100 -740.375305
46.258900 7.284300 -739.957520
43.659801 8.189800 -740.289795
45.523399 7.719300 -740.292175
42.508301 7.357900 -741.831177
42.838402 7.848600 -741.200500
43.134800 8.246600 -740.681030
44.027100 8.741300 -740.131287
45.712601 8.345800 -740.101624
43.327000 8.861700 -740.427673
46.336800 8.546600 -739.944702
42.170300 8.183000 -741.749084
42.698299 7.950900 -742.150574
42.835701 8.964200 -740.993774
45.361198 8.760500 -740.523315
42.435200 8.779000 -741.644775
43.083900 9.492300 -740.677917
43.627102 9.684700 -740.315918
42.367100 9.368100 -741.390930
41.797699 9.238100 -742.031799
45.315102 10.581500 -739.581970
42.696602 9.955400 -741.133972
43.230000 10.161500 -740.759705
42.373100 9.599100 -742.047729
44.755299 10.505600 -740.387573
42.783001 10.594200 -741.101013
42.349098 10.475700 -741.604980
43.328400 10.876600 -740.890381
45.257999 10.317600 -740.986816
42.304298 9.715000 -742.701172
42.744499 11.237500 -741.049927
41.471901 11.116200 -741.920715
42.238201 11.108700 -741.734680
45.396599 9.938600 -741.908020
42.303600 11.743500 -741.617126
42.855801 11.923700 -741.264587
41.732101 11.235700 -742.875000
41.917301 11.635700 -742.376282
44.358601 12.198300 -741.082581
41.945499 12.351000 -742.096375
42.281300 12.679000 -741.637573
42.897800 12.776100 -741.362122
41.544399 11.837800 -743.156006
41.931599 13.032100 -742.045776
42.496101 13.319400 -741.571411
41.868801 12.477500 -742.728577
44.480801 13.012100 -740.473328
41.294201 12.428700 -743.722900
41.553799 12.813100 -743.219727
41.663502 13.310200 -742.628784
42.253399 13.949400 -741.750122
44.122799 13.611500 -741.636108
44.946800 13.464100 -741.584106
41.130402 13.344600 -743.161194
43.834202 14.320500 -741.340088
41.250099 13.450700 -743.821716
41.505199 13.854500 -743.296387
42.111198 14.850800 -742.006409
40.945000 14.341000 -743.243103
43.892502 15.013700 -741.703918
41.681599 15.139700 -742.403503
42.453602 15.414700 -741.888306
41.450401 14.818600 -743.358276
43.870701 15.346900 -742.402771
40.519901 15.561900 -743.558411
43.667099 16.202900 -742.004822
40.872002 16.100100 -743.395020
40.689098 15.587300 -744.392029
43.743000 16.389700 -742.684509
41.074100 16.133400 -744.077271
44.097401 16.928699 -742.386475
40.578400 16.715200 -743.979614
43.132099 17.584000 -742.327087
43.467602 17.330200 -742.956177
40.331299 17.483700 -743.936218
40.769798 17.872000 -743.642273
40.520901 16.978001 -744.613220
41.721600 18.243000 -742.855774
41.703800 18.884701 -742.869080
43.308601 18.594801 -742.793274
39.927299 18.427000 -744.680603
40.437801 18.686199 -744.254211
42.621201 19.845301 -743.096680
43.013401 19.276699 -743.370483
40.263401 19.015499 -744.898926
41.674999 20.102800 -743.298523
40.028000 19.666300 -745.412598
39.952202 20.347900 -744.643188
39.597301 21.228500 -745.344421
39.943298 21.540701 -744.899414
40.925900 22.164101 -743.940796
42.564899 21.733101 -744.047913
43.224701 21.737400 -743.884705
39.552898 21.711599 -745.854980
39.861500 22.446199 -744.928284
40.659401 22.928200 -744.179321
42.088001 22.509300 -744.327698
42.592701 22.064699 -744.724792
39.571098 24.140499 -744.172791
40.200298 23.967600 -744.226929
39.214401 22.989500 -746.755310
39.208801 23.720600 -745.902527
39.488701 24.482300 -744.947876
39.513401 24.941200 -744.406128
39.607399 25.431700 -743.811218
39.912300 25.778400 -743.335571
38.654499 24.295099 -746.505005
39.500702 26.544300 -743.676270
39.716702 26.996000 -743.097717
40.102798 27.354900 -742.588928
38.345402 24.948601 -746.833923
40.063900 28.349001 -742.451172
38.246399 25.618500 -746.802124
38.483700 26.063499 -746.225525
39.913601 29.219801 -742.193176
38.542099 26.685400 -746.021912
39.041500 26.919800 -745.635376
39.518902 30.022400 -741.880920
