37.621399 43.767502 -768.806580
37.455502 43.520802 -769.308289
36.984901 42.870602 -770.784119
36.820599 42.636501 -771.291687
36.685902 42.517200 -771.785278
36.022099 41.664799 -773.935974
35.254501 40.487000 -776.218323
35.085400 40.205898 -776.697998
34.837898 39.838100 -777.446228
41.268501 49.122101 -757.069580
40.966202 48.751099 -758.063416
40.598400 48.464901 -759.447571
40.007702 47.182999 -760.795715
39.386902 47.002201 -763.454407
37.044498 43.147701 -770.109009
36.239799 42.154999 -772.747681
36.077599 41.940701 -773.264404
35.545502 41.192799 -774.912109
40.808899 49.018700 -758.515625
39.610500 47.109402 -761.958923
39.504101 47.140800 -762.477417
36.280499 42.439701 -772.200623
35.614399 41.451801 -774.191895
35.247101 40.959499 -775.345581
34.684299 40.113701 -777.016785
34.436401 39.757198 -777.769775
34.275398 39.413200 -778.139587
41.286999 49.649502 -756.248718
41.187698 49.729801 -756.784119
40.897202 49.153900 -757.494629
40.504700 48.833599 -758.938477
40.187500 48.117298 -759.621399
40.022499 47.725601 -759.956787
39.706001 47.483002 -761.137390
38.429501 45.452000 -764.787109
38.256699 45.158100 -765.261108
37.943901 44.730099 -766.229187
37.776600 44.495602 -766.740784
37.434299 44.130798 -767.909424
37.271099 43.932499 -768.440979
37.108101 43.734798 -768.972229
36.944901 43.533798 -769.500488
36.634201 43.104500 -770.457886
36.474300 42.930901 -771.000427
35.645802 41.766499 -773.531677
34.920101 40.730000 -775.731323
34.733601 40.463902 -776.296692
40.625500 49.220699 -757.937073
39.693699 47.565701 -760.411621
39.403301 47.473801 -761.629578
39.100601 47.308800 -762.826782
38.902699 47.189400 -763.597473
38.526100 45.577499 -763.602295
38.395500 45.565498 -764.181396
37.914600 44.913399 -765.671570
37.464802 44.387501 -767.154114
36.631901 43.418499 -769.904419
36.164398 42.850201 -771.422119
35.809601 42.334202 -772.484924
35.644600 42.109200 -772.994873
35.136200 41.308701 -774.453308
34.202599 39.982201 -777.282471
33.862999 39.589001 -778.405518
40.736698 49.721600 -757.134827
40.297100 49.132198 -758.497375
40.045898 48.611801 -759.083313
39.087200 47.386600 -762.118225
35.844898 42.720501 -771.833801
35.162399 41.627602 -773.762817
34.808300 41.125198 -774.831421
34.258701 40.284599 -776.426086
33.868301 39.766998 -777.642212
33.532299 39.411201 -778.783386
33.355499 39.088600 -779.241882
40.877899 50.071400 -756.207092
40.771900 50.117599 -756.730530
39.752499 48.337002 -759.434570
39.587502 48.137600 -759.964783
39.326199 47.760799 -760.741577
39.218800 47.796902 -761.260498
37.973400 45.617100 -764.559570
37.798199 45.312302 -765.025330
37.489101 44.956402 -766.038086
37.346199 44.802399 -766.517273
37.025398 44.310200 -767.439392
36.858501 44.090599 -767.957581
36.723598 44.014599 -768.482178
36.585499 43.900700 -768.981873
36.420399 43.693600 -769.504883
36.193298 43.405800 -770.221130
36.055801 43.289799 -770.716125
35.195400 42.054600 -773.278625
34.483002 40.877300 -775.238281
34.310799 40.597500 -775.717285
33.933102 40.055199 -776.841980
40.318901 49.613300 -757.452087
40.133099 49.384998 -758.041626
38.689602 47.471100 -762.478394
38.551201 47.425301 -763.047424
38.377102 47.274200 -763.665405
37.998600 45.677502 -763.687805
37.487499 45.173901 -765.439880
37.038799 44.714901 -766.960815
35.739601 43.149300 -771.117310
35.401100 42.652500 -772.107910
35.231800 42.403500 -772.602722
34.717701 41.598202 -774.053772
33.592499 39.766899 -777.158325
33.396500 39.589901 -777.847107
32.884102 38.952400 -779.465515
40.640701 50.488400 -755.838074
40.512199 50.426701 -756.343994
40.298199 50.125301 -756.980591
39.754002 49.137501 -758.368530
39.585899 48.826801 -758.791382
39.332802 48.595100 -759.673523
39.113602 48.183498 -760.218384
38.744900 47.856400 -761.514404
37.660801 45.714100 -764.097473
35.919998 43.681599 -769.709717
35.362099 42.999199 -771.475708
34.676498 41.941299 -773.418396
34.324200 41.326401 -774.342590
34.146099 41.004101 -774.797424
33.976002 40.753300 -775.291809
33.796200 40.417702 -775.740723
33.619099 40.107399 -776.203918
33.014000 39.450298 -778.206116
32.857300 39.311199 -778.756592
39.916302 49.945301 -757.301025
39.736301 49.560001 -757.697815
38.730499 48.106499 -760.640625
38.386101 47.918701 -761.969971
38.190701 47.649300 -762.554993
38.046299 47.573101 -763.115173
37.852001 47.353600 -763.747620
37.279900 45.612202 -764.471313
37.109299 45.376801 -764.981812
36.968201 45.263401 -765.488525
36.825100 45.123100 -765.976624
36.683201 44.995300 -766.471619
36.517101 44.800701 -767.005127
36.345100 44.540699 -767.496399
36.171700 44.266102 -767.978577
35.997601 43.983898 -768.456116
35.858799 43.876999 -768.959778
35.541100 43.619499 -770.098389
35.376400 43.425800 -770.626587
34.970699 42.819199 -771.792480
34.799702 42.561901 -772.282227
34.625702 42.275902 -772.755371
34.278702 41.715199 -773.708923
33.213299 39.834202 -776.471375
33.042500 39.583302 -776.966980
32.879299 39.397900 -777.496582
32.468498 39.194801 -779.104187
32.289501 38.872501 -779.562012
40.282600 50.820099 -755.557312
40.141602 50.763699 -756.121216
39.970699 50.524799 -756.628296
39.377998 49.347198 -758.024597
39.209599 49.131001 -758.544312
39.058800 49.018002 -759.093079
38.828602 48.731400 -759.812317
38.401199 48.164398 -761.111816
37.216202 45.690498 -763.780029
35.508099 43.792702 -769.354980
35.017300 43.261101 -770.970886
34.258900 42.048302 -773.062805
33.906399 41.442799 -773.991699
33.727299 41.115898 -774.443481
33.551601 40.821098 -774.913818
33.372799 40.499599 -775.370117
33.196701 40.203201 -775.840515
32.520000 39.263199 -777.854187
32.387501 39.187801 -778.361023
38.533001 48.525200 -760.202026
38.176601 48.368401 -761.606812
38.023300 48.243900 -762.152222
37.613998 47.696899 -763.387573
34.709599 43.027401 -771.341309
32.565899 39.368301 -776.992310
31.808300 38.656898 -779.589172
39.553600 50.334000 -756.953796
39.372700 49.943901 -757.345215
37.733700 48.006599 -762.527222
36.874802 45.898998 -764.124023
36.714199 45.700600 -764.623230
36.541599 45.452599 -765.123901
36.396702 45.307899 -765.609070
36.253502 45.179298 -766.103699
36.109699 45.041500 -766.591309
35.939301 44.812500 -767.101685
35.794701 44.661301 -767.578979
35.623901 44.424198 -768.083130
35.438801 44.031399 -768.490173
35.092899 43.706799 -769.670227
34.928902 43.536800 -770.213074
34.392899 42.754700 -771.755676
34.220100 42.491199 -772.241272
33.824699 41.835400 -773.298401
32.748001 39.905800 -776.030029
32.570301 39.605701 -776.499329
31.949200 39.023399 -778.618896
31.821800 38.996300 -779.148193
39.948601 51.471901 -755.333679
39.788799 51.285702 -755.838318
39.617699 50.951199 -756.240601
38.995098 49.706699 -757.677429
38.820801 49.462898 -758.186401
38.663101 49.318401 -758.724182
38.503399 49.162201 -759.258972
38.348499 48.937599 -759.703186
38.063301 48.442200 -760.437805
37.973202 48.592602 -760.982788
37.786400 48.660801 -761.864197
37.399101 48.062302 -762.937073
37.180599 47.858002 -763.678284
35.055599 43.850101 -768.826782
34.544201 43.360600 -770.550476
33.828999 42.280499 -772.557373
33.427399 41.582600 -773.590820
33.244400 41.231098 -774.027893
33.067101 40.935001 -774.496582
32.903702 40.601700 -774.866577
32.725498 40.300098 -775.333618
32.059200 39.197201 -777.104980
31.920601 39.088600 -777.596313
31.783300 38.988701 -778.091187
39.603901 51.749901 -755.613525
39.159599 50.771599 -756.537781
38.975498 50.367298 -756.921997
37.904301 48.784100 -759.940918
37.618500 48.865898 -761.259827
37.398701 48.843899 -762.187378
37.220699 48.588902 -762.697205
37.011398 48.253601 -763.260376
36.838402 48.186001 -763.939697
36.316002 45.976501 -763.948120
36.186798 45.949001 -764.478699
36.010201 45.669498 -764.957581
35.864300 45.528000 -765.444214
35.717999 45.379299 -765.925110
35.545502 45.144402 -766.431702
35.400600 45.007500 -766.918579
35.233398 44.828800 -767.459717
35.059502 44.574299 -767.952026
34.881302 44.271099 -768.413818
34.586399 43.724800 -769.132080
34.442902 43.593700 -769.619019
34.083302 43.151299 -770.723083
33.911900 42.918301 -771.227112
33.735001 42.630199 -771.698303
33.362000 42.048100 -772.718079
32.248001 40.027599 -775.476624
32.070202 39.740898 -775.953003
31.887501 39.410599 -776.406677
31.308300 38.784000 -778.272522
31.129499 38.592899 -778.850830
39.480000 52.111900 -755.029297
39.147598 51.597301 -755.935120
38.974800 51.159199 -756.232422
38.522301 50.156399 -757.158081
38.352100 49.844601 -757.572876
38.183701 49.644699 -758.093689
38.019600 49.471001 -758.622375
37.849800 49.264500 -759.142517
37.501400 48.900902 -760.270325
37.433899 49.089500 -760.752319
37.223099 49.030701 -761.598816
36.679600 48.598701 -763.496094
34.427299 44.158199 -768.663574
33.984200 43.452301 -769.850891
33.268398 42.445000 -771.903687
32.886200 41.792999 -772.883972
32.708801 41.511200 -773.360229
32.545200 41.186501 -773.733398
32.380001 40.849400 -774.100586
32.195702 40.507599 -774.545471
32.011902 40.173100 -774.995422
31.414101 39.253502 -776.630493
31.233299 38.950699 -777.099792
31.062500 38.734798 -777.614624
30.865601 38.512402 -778.234924
39.110600 52.187599 -755.389526
38.554600 50.858299 -756.418091
38.386700 50.459301 -756.731201
37.426601 49.087101 -759.443481
37.108398 49.384602 -761.105408
36.848000 49.143700 -761.974182
36.690899 49.013199 -762.513672
36.535702 48.893902 -763.055908
36.306000 48.731499 -763.873230
35.735199 46.171902 -763.716980
35.602901 46.129501 -764.239502
35.428501 45.895000 -764.747498
35.256302 45.686699 -765.272278
35.107899 45.529400 -765.747070
34.937302 45.335701 -766.279724
34.792702 45.216999 -766.777588
34.617001 44.959999 -767.268005
34.442699 44.717899 -767.767578
34.265900 44.447498 -768.249329
33.992599 43.956200 -768.919128
33.818699 43.717800 -769.420715
33.548901 43.265999 -770.115906
33.374199 43.018902 -770.612122
33.193199 42.708000 -771.070374
32.823502 42.196800 -772.132507
31.560101 39.923500 -775.227478
31.380899 39.640400 -775.706421
39.052502 52.472698 -754.837524
38.715099 51.930500 -755.720093
38.541000 51.492298 -756.015686
37.995399 50.262100 -757.086121
37.827999 49.977001 -757.507874
37.660198 49.791698 -758.031982
37.488899 49.586899 -758.551086
37.322800 49.313999 -758.979980
37.079601 49.187199 -759.882385
36.947300 49.207001 -760.463074
36.792702 49.576099 -761.491089
35.989700 48.944599 -764.256897
32.767899 42.473301 -771.379028
32.408600 41.904900 -772.328125
32.223499 41.569000 -772.773621
32.058399 41.246899 -773.148193
31.873501 40.916698 -773.598572
31.706100 40.577499 -773.965576
31.541201 40.263500 -774.347412
30.961800 39.406502 -775.937927
30.781500 39.125301 -776.418518
30.600100 38.835899 -776.895203
30.435301 38.532001 -777.286621
36.737999 49.609402 -760.816772
36.456799 49.560902 -761.946411
36.236198 49.278301 -762.588013
36.086102 49.199799 -763.138306
35.922901 49.048698 -763.670898
35.074001 46.230301 -764.403625
34.896999 45.992401 -764.907227
34.715302 45.697701 -765.373291
34.569500 45.597198 -765.883484
34.395000 45.384701 -766.401978
34.218700 45.150501 -766.906006
34.041401 44.903500 -767.401428
33.864899 44.665298 -767.902222
33.683201 44.367500 -768.365601
33.476101 44.006302 -768.871216
33.304199 43.815102 -769.400330
33.128101 43.578499 -769.901123
32.959499 43.221199 -770.249329
32.771900 42.866501 -770.680420
32.382000 42.210400 -771.656616
31.151899 40.063801 -774.660522
30.977600 39.848900 -775.175598
30.032801 38.297501 -777.580017
38.594601 52.525101 -755.147278
38.064499 51.306801 -756.130127
37.894199 50.910999 -756.441406
37.728500 50.442001 -756.660889
36.889999 49.503601 -759.198486
35.566502 49.231499 -764.406311
32.384701 42.620399 -771.002075
31.992001 41.971298 -771.981628
31.809500 41.688702 -772.456421
31.528601 41.199799 -773.132507
31.361200 40.881500 -773.509277
31.171600 40.537601 -773.951904
30.591600 39.588402 -775.408691
30.406099 39.287998 -775.877930
30.221800 38.999401 -776.353821
30.043699 38.766399 -776.859009
29.641199 38.225101 -777.987000
38.220001 52.173100 -755.437622
38.047600 51.764999 -755.739929
37.376701 50.273201 -757.012085
37.205002 50.090099 -757.533875
37.040298 49.846001 -757.967102
36.855598 49.589298 -758.469727
36.585300 49.647800 -759.633728
36.416100 49.480801 -760.161316
36.319099 49.918400 -760.990417
36.180199 49.918400 -761.558899
35.979000 49.667000 -762.133728
35.762299 49.426800 -762.783630
35.616001 49.384300 -763.340515
35.469101 49.337601 -763.895630
35.247101 49.421600 -764.887024
34.563400 46.267899 -764.570129
34.379799 45.983200 -765.040588
34.196701 45.706299 -765.516174
34.048000 45.601101 -766.021179
33.867599 45.354198 -766.515381
33.687302 45.106300 -767.008789
33.506802 44.856300 -767.500610
33.326801 44.611301 -767.995178
33.140999 44.301701 -768.449829
32.955002 43.990898 -768.903992
32.785000 43.853100 -769.463623
32.605701 43.612801 -769.960327
32.414200 43.245300 -770.380920
31.985399 42.449100 -771.349426
30.773300 40.283298 -774.171082
30.580200 39.924400 -774.606812
29.619900 38.541698 -777.171570
32.023701 42.927101 -770.676575
31.596001 42.184299 -771.676086
31.425800 41.858898 -772.044922
31.238001 41.555698 -772.506470
31.066799 41.225498 -772.874329
30.836100 40.889702 -773.477173
30.179100 39.673901 -774.939575
29.992100 39.388199 -775.415405
29.810200 39.150002 -775.916626
29.620701 38.844299 -776.382385
29.220900 38.390400 -777.552612
29.044300 38.196301 -778.075928
38.236198 52.595299 -754.773682
37.537998 51.202801 -756.191772
36.528801 49.831001 -758.861023
35.130798 49.615299 -764.185730
30.501499 40.534100 -773.734375
29.263800 38.621899 -776.785522
28.685400 38.028400 -778.501282
37.356701 50.671001 -756.338684
36.090900 49.838100 -760.436279
32.997002 44.821201 -767.618103
32.807499 44.549099 -768.091309
32.614899 44.240398 -768.541992
32.423901 43.952000 -769.005615
32.252399 43.881100 -769.600708
32.060200 43.578300 -770.054993
31.607000 42.680302 -770.951904
30.202101 40.253101 -774.071472
35.526299 49.744900 -762.418396
34.845600 49.767101 -765.007874
34.041199 46.214001 -764.716980
33.848999 45.947201 -765.192383
33.659000 45.708199 -765.685791
33.474098 45.533699 -766.220276
33.283798 45.288601 -766.708801
30.566200 41.057899 -773.003418
29.917601 39.988602 -774.450012
29.661200 39.518600 -774.977417
29.469101 39.266998 -775.466797
29.271000 38.960701 -775.927612
28.848900 38.488098 -777.077881
28.662901 38.291100 -777.595398
28.191601 37.714901 -778.558472
28.420200 38.168701 -778.061890
28.950800 38.681301 -776.321777
30.921600 41.735100 -772.078003
30.704300 41.460098 -772.537109
27.726801 37.734798 -778.864319
31.670099 43.344898 -770.329102
31.155500 42.465401 -771.205200
30.929300 42.113400 -771.618713
30.080299 40.822498 -773.195129
29.855801 40.507999 -773.633911
29.403999 39.858299 -774.503113
29.145000 39.448200 -774.970581
28.919001 39.130402 -775.411499
28.695000 38.835800 -775.865112
28.449200 38.567600 -776.407776
28.235100 38.372002 -776.911377
28.021000 38.175900 -777.414673
27.844700 38.105701 -777.903870
32.883999 45.109901 -767.086914
31.893801 43.997299 -769.194214
31.682400 43.862301 -769.727112
31.231001 43.221401 -770.579407
31.028500 42.883900 -770.921204
30.469900 41.884300 -771.808716
30.239901 41.534698 -772.224426
30.012699 41.220402 -772.660095
29.379299 40.279900 -773.822693
27.368200 37.954899 -778.049500
27.151100 37.759602 -778.551025
26.928600 37.516201 -779.029785
35.711899 50.024101 -761.762390
35.233601 49.670799 -762.904175
35.023602 49.528900 -763.415771
32.961399 45.518902 -766.343323
32.462700 45.013199 -767.423584
32.238201 44.745899 -767.878113
32.008400 44.405300 -768.289490
31.237000 43.668598 -769.996704
30.568300 42.626999 -771.153687
29.540501 41.004200 -772.914124
29.334600 40.687302 -773.273376
28.921801 40.054100 -773.995422
28.690001 39.740799 -774.434570
28.483801 39.435200 -774.803772
28.248301 39.090900 -775.229187
28.014799 38.771000 -775.668213
27.787701 38.514900 -776.139587
27.568100 38.332298 -776.647278
27.345699 38.122501 -777.141479
26.440300 37.360001 -779.227600
35.819698 50.116199 -761.016907
34.753300 49.751301 -763.849915
34.583698 49.834499 -764.412598
34.301498 49.762600 -765.181885
33.518299 46.181400 -764.632324
33.329300 46.117699 -765.135071
33.099400 45.806099 -765.560913
32.601398 45.413601 -766.707581
31.627001 44.155998 -768.562317
31.401400 43.915600 -769.031982
30.853600 43.517300 -770.320007
30.619801 43.169601 -770.728577
30.167801 42.367699 -771.415710
29.955700 41.990501 -771.737000
29.746401 41.649700 -772.079529
29.512800 41.329800 -772.509521
28.917801 40.425900 -773.534180
26.904200 37.877300 -777.407227
26.683599 37.710999 -777.921082
26.465700 37.567501 -778.445190
36.200901 49.901600 -759.322693
35.996498 49.822399 -759.848999
35.289799 50.081799 -762.087524
31.047300 43.935799 -769.475525
28.388100 39.950802 -774.002197
28.148300 39.612801 -774.427124
27.910200 39.296001 -774.863770
27.699100 38.993198 -775.234009
27.459499 38.668598 -775.668823
27.220600 38.353802 -776.109497
26.987499 38.097801 -776.579529
26.042000 37.425098 -778.773621
25.818899 37.257801 -779.284485
36.900799 50.371899 -757.199707
36.683399 50.105202 -757.606506
36.448200 49.876801 -758.093079
35.413101 50.266602 -761.318420
34.936001 50.024899 -762.477478
34.713001 49.861599 -762.980286
34.158199 50.024700 -764.673279
32.609402 45.852402 -765.804321
32.383301 45.690701 -766.317078
32.094501 45.386200 -766.895874
31.863400 45.141998 -767.358582
31.626801 44.817001 -767.773987
31.388800 44.475300 -768.180725
30.619499 43.803299 -769.830322
30.328699 43.472801 -770.394775
30.089300 43.126801 -770.801880
29.875999 42.781601 -771.135803
29.627701 42.339500 -771.493286
29.408701 41.938900 -771.800415
29.194300 41.598900 -772.141479
28.978600 41.248798 -772.478516
28.737900 40.918701 -772.901672
28.401899 40.417999 -773.461304
26.523199 37.904999 -776.812805
26.287399 37.656799 -777.285889
26.060699 37.493099 -777.798706
25.343300 37.120300 -779.534607
37.517799 51.725601 -755.901917
36.930401 50.494301 -756.578979
36.115799 50.078300 -758.511780
35.539200 50.013901 -760.057007
35.398701 50.176300 -760.570313
35.039700 50.338001 -761.687683
34.299198 49.877701 -763.381470
34.138500 49.957600 -763.887512
33.701698 49.910900 -765.059387
32.673401 46.110298 -764.979370
30.939199 44.281700 -768.368591
30.697901 43.950199 -768.780884
27.903700 40.199799 -773.623413
27.658501 39.873699 -774.050720
27.413500 39.553398 -774.481873
27.190800 39.193199 -774.820496
26.972500 38.880798 -775.184082
26.732300 38.619701 -775.647278
26.505301 38.231098 -775.976196
25.557699 37.335499 -777.907776
25.333099 37.221600 -778.441528
25.143700 37.182701 -778.935120
24.837999 37.044601 -779.674377
37.853699 52.673000 -755.173401
37.632099 52.256599 -755.457825
35.757702 50.154499 -758.946228
35.567299 50.201801 -759.499329
34.645802 50.307701 -762.082825
34.418598 50.157398 -762.585083
33.778500 50.095001 -764.276184
32.260799 46.097099 -765.350403
32.029301 45.953999 -765.869995
31.797199 45.793800 -766.378174
31.559900 45.548000 -766.835388
31.321699 45.288200 -767.284302
31.076799 44.931499 -767.677490
30.256001 43.847000 -769.080078
30.068800 43.908699 -769.635620
29.835400 43.716999 -770.123230
29.594200 43.425499 -770.556091
29.374901 43.071999 -770.882080
29.151899 42.679001 -771.188293
28.933399 42.346298 -771.528198
28.715200 42.023201 -771.874329
28.491100 41.637100 -772.188721
28.261400 41.195301 -772.475708
28.013800 40.863701 -772.895386
26.027399 38.043201 -776.140320
25.783899 37.788601 -776.607483
25.541100 37.541401 -777.078613
24.656000 37.076599 -779.128174
24.348801 36.961601 -779.874878
36.506599 50.592701 -756.941528
36.272301 50.419300 -757.437317
36.052502 50.188599 -757.851074
34.985802 50.411201 -760.871521
30.694201 44.691898 -768.031677
30.411400 44.235901 -768.443909
27.626101 40.625900 -773.167786
27.376600 40.307598 -773.594788
27.147900 39.924400 -773.917114
26.925400 39.611000 -774.275513
26.704300 39.315399 -774.643677
26.481501 39.006802 -775.006592
26.258801 38.702999 -775.372925
26.037701 38.418499 -775.749329
25.130100 37.346500 -777.367615
24.888800 37.138802 -777.856079
24.659599 37.037601 -778.392517
24.131001 36.944599 -779.263672
23.820700 36.861301 -780.019470
33.995800 50.138901 -762.933472
33.756100 49.910702 -763.386719
27.961300 41.585499 -772.269104
27.723900 41.123901 -772.544128
25.519501 38.068199 -776.005127
25.264601 37.775799 -776.450378
24.194799 36.931499 -778.601379
23.441299 36.648602 -780.346619
35.065899 50.224602 -760.127686
34.670799 50.472000 -761.316223
30.806200 45.279499 -767.387207
29.945801 44.048401 -768.684082
29.695200 43.759300 -769.112488
29.530899 43.867500 -769.610718
29.292200 43.733700 -770.121887
29.040600 43.428299 -770.541016
28.783899 43.061100 -770.928223
28.554701 42.689499 -771.241699
28.298100 42.338501 -771.640198
24.886900 37.514400 -776.823303
24.628300 37.219200 -777.267578
24.354200 37.041100 -777.836975
23.662100 36.894001 -779.495178
31.279699 45.819000 -766.460083
31.032200 45.594002 -766.919373
27.084200 40.530499 -773.181580
26.855400 40.230301 -773.539673
26.626400 39.932201 -773.899719
26.394400 39.606201 -774.247314
26.164200 39.304901 -774.607910
25.931601 38.982700 -774.959717
25.694599 38.621700 -775.294495
23.751200 36.770500 -778.839600
27.956100 42.008202 -771.947876
27.279100 40.887199 -772.825012
23.257700 36.807899 -779.874512
22.964899 36.747700 -780.556580
23.889900 36.925800 -778.106384
22.616501 36.567200 -780.911621
31.510099 45.979198 -765.926392
30.184601 44.557499 -768.096924
25.277599 38.404499 -775.519104
24.975800 38.071602 -776.006897
24.736000 37.766701 -776.366821
23.289400 36.751499 -779.104126
31.675800 46.127102 -765.407288
30.391199 45.011501 -767.668213
27.427799 41.592602 -772.305786
24.348700 37.538200 -776.781677
24.110500 37.268799 -777.158325
23.429100 36.782700 -778.429626
22.742701 36.766800 -780.034119
25.416700 38.908901 -774.911377
23.752100 37.075199 -777.551270
22.841999 36.720299 -779.434387
22.127100 36.722401 -781.104492
29.749300 44.362499 -768.313782
29.010401 43.819901 -769.661682
28.757000 43.679600 -770.154907
28.490299 43.348598 -770.549988
28.220501 42.980598 -770.927612
27.952000 42.638302 -771.319519
27.054100 41.264900 -772.475525
26.747000 40.860298 -772.914612
26.505100 40.515301 -773.242981
26.261999 40.164600 -773.570313
26.020800 39.841999 -773.911987
25.780899 39.540001 -774.264587
22.323900 36.713402 -780.376526
34.143002 50.462399 -762.135681
29.419901 44.017899 -768.688721
29.158501 43.782101 -769.132507
27.648001 42.352001 -771.651184
27.406401 41.989601 -771.964478
23.346901 36.952599 -777.933472
22.957001 36.716702 -778.673218
24.978300 38.732899 -775.177185
24.702000 38.414200 -775.594788
24.428699 38.131100 -776.029175
30.504299 45.557499 -767.025513
25.355801 39.286900 -774.499878
24.105600 37.855000 -776.374695
23.822500 37.499599 -776.778809
22.320101 36.687099 -779.632080
21.586100 36.670200 -781.277222
35.658501 50.322102 -758.450378
30.734699 45.805000 -766.503418
29.867100 44.891800 -767.845398
23.491100 37.324200 -777.145386
22.488899 36.644199 -778.941772
21.789101 36.714802 -780.554382
30.966999 45.975601 -765.964783
26.931801 41.756802 -772.165710
22.828899 36.866501 -778.078613
21.904900 36.655399 -779.990784
33.795502 50.407101 -762.522400
30.123800 45.331402 -767.314819
26.525200 41.114399 -772.502625
24.903799 39.072701 -774.748291
23.080601 37.131500 -777.503174
35.330299 50.442699 -759.049011
35.091702 50.424000 -759.558472
34.190399 50.554298 -761.612976
33.472198 50.235001 -762.977417
28.237200 43.629700 -770.169983
27.960501 43.270802 -770.543884
27.684700 42.935101 -770.930786
26.204700 40.884499 -772.846375
25.924900 40.550999 -773.243408
25.671700 40.165100 -773.548523
25.422800 39.839401 -773.882813
21.075701 36.790001 -781.423523
37.037201 51.547600 -755.789978
36.632999 50.777802 -756.175476
34.636398 50.517300 -760.348877
34.473000 50.767899 -760.864502
33.129002 50.124001 -763.373596
29.385900 44.713200 -768.044128
29.109800 44.348499 -768.410583
28.834801 44.013401 -768.793823
28.564501 43.765999 -769.223022
27.316200 42.681000 -771.241272
27.038099 42.335800 -771.624817
24.476500 38.902100 -774.993408
24.227800 38.610100 -775.346985
23.945200 38.299400 -775.762512
23.588900 37.889099 -776.273987
23.307301 37.602402 -776.702515
22.340401 36.810902 -778.297302
21.943300 36.637600 -779.049622
21.264999 36.742802 -780.591492
37.174999 52.000198 -755.483582
35.597301 50.485802 -757.928894
30.211300 45.729301 -766.539978
29.607700 45.238499 -767.531982
28.212700 43.786098 -769.621887
26.413900 41.708099 -772.185913
24.945200 39.662102 -774.056396
22.890400 37.399200 -777.055725
22.538000 37.057201 -777.599487
21.538799 36.590698 -779.462280
21.321899 36.623199 -779.952026
37.618999 52.516998 -754.597717
33.714100 50.673100 -761.816528
29.848900 45.600601 -766.901672
26.560801 42.165100 -771.785706
26.055000 41.372101 -772.369080
25.661100 40.823799 -772.867371
25.380501 40.510101 -773.271301
24.551201 39.385101 -774.338989
21.843399 36.762901 -778.492371
20.777599 36.840900 -780.831482
20.564199 36.895401 -781.324402
36.176102 50.911201 -756.430725
35.928501 50.864498 -756.930603
35.650501 50.653400 -757.391479
35.233700 50.660500 -758.286926
34.845699 50.657200 -759.114319
34.592098 50.576698 -759.605530
33.966599 50.860001 -761.121277
33.372002 50.633598 -762.249207
32.976398 50.432301 -762.967773
29.154499 45.089001 -767.764221
27.755800 43.707500 -769.881775
27.480700 43.416599 -770.286072
27.208401 43.172600 -770.714172
26.789700 42.663300 -771.287598
24.996300 40.124699 -773.518494
23.958599 38.865299 -774.941528
23.707399 38.568401 -775.291077
23.426500 38.303001 -775.723816
23.067600 37.895100 -776.233582
22.050501 36.996700 -777.840576
20.841499 36.693298 -780.233276
37.111301 52.165699 -754.928772
34.174500 50.781300 -760.306213
28.758301 44.794601 -768.066223
28.480200 44.434502 -768.431702
28.201900 44.085098 -768.804016
24.084299 39.249199 -774.524475
22.652000 37.651199 -776.567505
22.369900 37.394901 -777.006409
21.381599 36.813599 -778.743713
21.021099 36.724098 -779.454224
20.100800 36.983898 -781.575073
35.206600 50.785099 -757.733887
34.823299 50.820099 -758.567871
33.515301 50.940300 -761.414429
32.521900 50.475700 -763.228210
29.329901 45.623901 -766.953796
27.777901 43.881802 -769.151428
26.724100 43.037899 -770.855896
26.270000 42.511600 -771.488525
26.017599 42.125198 -771.781311
25.733900 41.761799 -772.154907
25.505600 41.288300 -772.342224
25.114100 40.804298 -772.868530
24.500500 39.983002 -773.654480
21.967800 37.278000 -777.327026
21.560900 37.066200 -778.056580
20.361000 36.888401 -780.487427
20.149500 36.978699 -780.992126
33.702099 51.133801 -760.700012
33.102699 50.901798 -761.819580
32.837101 50.783199 -762.306030
28.906401 45.533901 -767.322205
28.631901 45.246601 -767.722107
27.347300 43.736401 -769.489502
27.079700 43.600899 -769.969421
26.804199 43.334400 -770.384277
24.702101 40.593800 -773.108582
24.084801 39.759399 -773.890076
23.551201 39.187599 -774.659119
23.296101 38.860001 -774.992798
23.040800 38.537399 -775.330078
22.755501 38.247299 -775.750793
22.466200 37.919201 -776.156494
20.886700 36.941002 -778.878113
20.520700 36.815498 -779.571777
19.597900 37.091202 -781.690308
35.744801 51.266602 -755.986816
35.490601 51.197899 -756.478088
35.234001 51.115799 -756.966187
34.767300 51.039299 -757.899292
34.330601 50.960201 -758.767578
34.091400 50.967899 -759.275085
33.846100 50.942699 -759.774780
32.411499 50.791901 -762.695496
28.187599 45.047199 -767.994873
27.908300 44.692699 -768.361084
27.627300 44.318199 -768.718384
26.179300 42.947300 -770.907776
25.216400 41.679199 -772.141907
24.952400 41.179100 -772.385315
24.273001 40.365101 -773.306091
23.622200 39.550098 -774.166321
22.007700 37.822701 -776.483582
21.754200 37.547501 -776.844910
21.448500 37.399799 -777.395325
21.038700 37.178799 -778.118896
20.112900 36.932899 -779.911194
19.832899 36.999699 -780.541077
19.626900 37.146702 -781.065613
35.945202 52.014999 -755.592773
34.855000 51.128899 -757.323975
34.400501 51.123699 -758.271912
33.479900 51.040401 -760.146484
33.175098 51.209202 -760.889221
32.907200 51.084400 -761.372314
32.008598 50.773102 -763.059387
27.205200 44.165699 -769.009216
26.275000 43.330101 -770.436829
25.747601 42.722000 -771.163025
25.466200 42.408199 -771.556885
24.508699 40.873299 -772.607788
23.834900 40.168301 -773.580200
22.492599 38.555599 -775.387878
22.213301 38.345699 -775.841980
20.605400 37.153599 -778.466675
20.335400 37.042500 -778.962524
19.159201 37.390701 -781.640076
32.548401 51.145599 -761.748413
32.280602 51.006699 -762.220215
31.603399 50.564301 -763.357117
28.402500 45.656502 -766.987915
28.149000 45.513699 -767.427612
26.790501 44.005299 -769.324280
26.513700 43.749298 -769.742493
25.036501 42.123402 -771.813599
24.078899 40.656200 -772.900513
23.071199 39.508202 -774.289185
22.781500 39.175301 -774.686829
21.781601 38.217098 -776.176697
21.493700 37.930302 -776.599121
20.921900 37.413101 -777.470215
19.916800 37.092201 -779.365479
19.588600 37.038300 -780.015808
19.349300 37.193298 -780.610291
18.775900 37.477600 -781.980774
27.730499 45.388500 -767.803772
27.451700 45.073399 -768.188171
27.169600 44.706600 -768.547180
25.740499 43.250702 -770.615479
24.632900 41.869099 -772.062012
24.369301 41.397202 -772.317993
23.680099 40.517601 -773.205811
23.318600 40.092300 -773.693604
22.374100 38.990898 -774.974487
21.088900 37.817902 -776.918579
20.522699 37.371101 -777.818176
19.012300 37.430199 -780.990173
35.100498 51.502499 -755.936279
34.869202 51.573101 -756.458923
34.600700 51.439098 -756.932678
34.352100 51.412998 -757.431702
34.103100 51.383499 -757.929626
33.852299 51.344501 -758.424988
33.606499 51.330101 -758.925476
33.362301 51.323101 -759.427185
32.987598 51.208801 -760.133118
32.651402 51.305401 -760.889221
31.813400 51.055801 -762.471680
26.760401 44.495499 -768.901184
26.026899 43.730999 -769.950195
25.359699 43.020100 -770.894775
25.073200 42.650200 -771.260681
23.978201 41.086700 -772.566528
21.983999 38.768398 -775.270691
21.702101 38.547100 -775.718628
20.152100 37.379398 -778.210815
19.883200 37.293499 -778.715088
18.699499 37.650600 -781.387573
32.257900 51.371201 -761.323975
31.989700 51.297798 -761.833679
31.420401 51.043098 -762.854614
26.353100 44.305401 -769.193726
24.660101 42.429401 -771.542175
22.803600 40.000702 -773.888977
22.544399 39.648499 -774.208618
22.287001 39.324299 -774.541809
21.287201 38.410400 -776.047913
21.005899 38.203098 -776.502319
20.580200 37.858501 -777.171021
19.483700 37.323898 -779.110474
19.217400 37.258999 -779.621277
18.999100 37.328400 -780.115723
18.396299 37.939602 -781.738281
18.170700 37.972198 -782.224915
32.865101 51.410301 -759.664185
32.538601 51.491100 -760.385803
30.990700 50.906700 -763.213318
27.292801 45.481701 -767.496704
27.021799 45.351299 -767.974487
26.742001 45.047798 -768.364319
25.927601 44.048901 -769.427917
25.511299 43.698898 -770.069885
25.229799 43.407101 -770.470398
24.231501 42.252102 -771.816711
23.978701 41.935600 -772.142883
23.723200 41.592602 -772.458313
23.456301 41.111599 -772.712708
23.196600 40.736599 -773.017090
22.941500 40.426998 -773.352173
21.847000 39.161301 -774.828613
20.143999 37.807999 -777.503723
18.619101 37.525799 -780.469177
34.370998 51.774502 -756.533325
34.104401 51.664700 -757.011230
33.858501 51.665199 -757.514282
33.607399 51.636700 -758.010498
33.349201 51.570400 -758.497986
33.100399 51.552502 -758.995911
31.498400 51.310501 -762.124023
26.349600 44.877300 -768.722778
24.821800 43.114498 -770.770325
24.536800 42.803299 -771.162781
21.430500 39.018600 -775.202881
21.143700 38.769501 -775.637329
20.496201 38.201302 -776.614197
19.729900 37.770199 -777.917786
19.454500 37.643700 -778.403687
18.301800 37.804199 -780.858887
34.502201 51.586399 -756.030884
32.180698 51.587002 -760.750977
22.476400 40.323799 -773.637329
22.187099 40.033798 -774.049072
21.921600 39.643700 -774.352112
20.760900 38.532200 -776.036377
19.114901 37.571899 -778.799377
18.886000 37.575500 -779.267029
18.658199 37.585800 -779.736328
18.069000 38.109100 -781.252319
17.860901 38.259102 -781.766479
31.733400 51.496700 -761.410889
25.946100 44.673000 -769.012878
25.436501 43.912998 -769.586121
20.071100 38.130402 -776.962524
32.364899 51.536499 -759.789612
31.005800 51.332802 -762.415283
26.492201 45.372601 -767.950500
25.539600 44.387402 -769.283325
24.967501 43.719700 -770.037598
24.036699 42.691601 -771.300415
23.753401 42.434799 -771.718506
23.466400 42.132999 -772.116882
23.207800 41.776600 -772.424988
22.916100 41.429501 -772.805786
22.651300 41.015400 -773.091614
21.466000 39.546101 -774.603027
19.677299 38.142101 -777.374023
18.302099 37.874500 -779.993896
32.506699 51.776501 -759.104797
31.991899 51.751900 -760.127197
31.685301 51.811199 -760.780579
31.242300 51.611000 -761.552612
30.564100 51.349701 -762.761719
26.033300 45.262299 -768.227600
25.756300 45.073399 -768.671997
24.501499 43.575298 -770.298706
24.209999 43.188400 -770.653320
22.176399 40.872898 -773.357117
21.910900 40.476101 -773.653381
21.649200 40.135300 -773.975586
20.995600 39.507301 -774.914673
20.704700 39.233398 -775.335815
20.417700 39.004299 -775.776306
20.125601 38.727001 -776.197876
19.838301 38.502102 -776.641479
19.248400 38.232498 -777.667725
18.974001 38.133801 -778.161072
18.695101 37.991901 -778.637573
18.431601 37.988899 -779.166687
17.963301 38.192799 -780.232910
17.755501 38.368999 -780.757629
17.485600 38.287601 -781.252319
33.772301 52.003201 -756.064209
33.549500 52.094200 -756.565979
33.303699 52.111000 -757.069580
33.042000 52.042801 -757.553772
32.785801 52.003201 -758.044312
32.523701 51.933201 -758.528076
32.053200 51.792301 -759.387878
31.232401 51.855099 -761.073120
30.788900 51.631401 -761.828674
30.082100 51.258999 -763.023621
26.011700 45.479000 -767.718872
25.279499 44.931099 -768.859070
24.994600 44.622799 -769.245483
24.735001 44.191299 -769.507202
21.162701 40.087898 -774.210693
19.397301 38.637901 -776.882385
18.042801 38.312401 -779.405396
32.061798 51.995701 -758.873779
31.613400 51.871601 -759.696716
31.408300 52.006802 -760.188721
30.316000 51.648102 -762.159485
25.518801 45.300999 -767.948730
24.239599 44.036301 -769.749573
23.954901 43.764301 -770.156128
23.697901 43.415501 -770.460876
21.239901 40.907902 -773.874573
20.709400 40.175701 -774.496521
20.417299 39.891998 -774.910889
20.128099 39.644600 -775.341187
19.866800 39.347099 -775.685425
19.585800 39.191200 -776.154419
18.992599 38.899899 -777.166626
18.719900 38.822201 -777.665894
18.443501 38.708199 -778.150574
18.173500 38.651501 -778.656921
17.638500 38.570599 -779.679321
17.363400 38.460300 -780.163696
33.387100 52.311401 -755.839722
33.103699 52.133999 -756.299072
32.914299 52.289902 -756.770996
32.674400 52.340900 -757.280701
32.411598 52.271099 -757.763489
32.149502 52.204601 -758.247192
31.619499 51.988400 -759.176025
30.968000 52.127399 -760.560608
30.694000 51.997700 -761.029907
30.420601 51.875999 -761.502808
29.875601 51.650600 -762.456116
25.064699 45.202801 -768.193970
24.790400 45.093399 -768.676086
24.509701 44.869801 -769.102600
24.221500 44.529499 -769.473816
20.783001 40.893700 -774.158813
19.761999 39.908798 -775.606812
19.177900 39.369099 -776.449280
17.722500 38.733501 -778.974670
31.694500 52.228802 -758.577087
31.210699 52.146702 -759.491699
29.978300 51.883301 -761.789185
29.380899 51.546398 -762.777527
23.756701 44.334801 -769.658020
23.469000 44.025902 -770.046021
23.205500 43.591599 -770.310486
20.333599 40.996601 -774.476318
20.073200 40.691898 -774.812317
19.780199 40.400002 -775.221130
19.351000 40.078602 -775.883423
19.064600 39.863998 -776.325378
18.772900 39.601200 -776.749023
18.494699 39.471901 -777.225586
18.214199 39.320400 -777.693604
17.923500 39.075500 -778.125977
17.653200 38.721500 -778.452271
30.782301 52.221298 -759.830505
30.439600 52.239399 -760.521973
30.165501 52.151798 -761.013916
29.515699 51.867599 -762.133972
24.517200 45.234200 -768.086792
24.234200 45.106098 -768.572327
23.957600 44.969200 -769.039429
19.337700 40.496201 -775.534424
31.552500 52.488701 -758.037781
31.169701 52.300800 -758.682129
29.757299 52.138100 -761.375671
23.523001 44.814899 -769.320679
23.229500 44.429901 -769.670776
22.930901 43.983700 -769.994324
22.689501 43.590599 -770.236572
19.804001 41.265598 -774.549377
19.512400 40.995399 -774.964172
18.888000 40.390202 -775.836792
18.588499 40.059601 -776.231018
18.298401 39.826801 -776.665222
30.816099 52.457500 -759.049194
30.296600 52.374401 -760.020996
28.989401 51.919498 -762.319580
31.041500 52.553101 -758.188782
30.414400 52.512199 -759.392700
29.895399 52.450401 -760.372314
29.619600 52.389099 -760.875916
29.240400 52.222099 -761.519287
31.138700 52.813400 -757.694214
30.613400 52.580101 -758.580688
28.813101 52.219299 -761.878174
30.217899 52.715698 -758.951599
29.904100 52.642700 -759.517822
29.107000 52.479900 -760.969421
28.379499 52.057598 -762.132629
30.608299 52.877998 -757.833130
29.488100 52.658199 -759.867981
29.245399 52.660599 -760.338379
28.691299 52.509300 -761.319824
30.811300 53.023499 -757.156494
30.211100 52.835899 -758.200073
28.293900 52.466301 -761.668213
29.842899 52.967701 -758.549988
29.597300 52.955002 -759.012817
28.724400 52.735100 -760.555420
30.272200 53.123199 -757.299622
30.024500 53.108601 -757.763794
29.145700 52.972198 -759.361511
28.865900 52.887199 -759.845886
28.274500 52.766602 -760.904480
27.751200 52.451099 -761.718811
28.443899 52.954498 -760.172119
27.817699 52.764301 -761.252686
28.012199 52.989498 -760.469910
28.739901 53.352299 -758.741028
28.458700 53.218399 -759.195618
28.178101 53.098499 -759.657104
27.551901 53.009499 -760.791016
27.272200 52.839600 -761.221619
29.063499 53.463200 -757.754883
28.816601 53.450699 -758.213379
27.763700 53.171501 -760.037476
28.353600 53.547401 -758.442871
28.070400 53.466000 -758.924011
27.787100 53.331902 -759.374573
27.295200 53.258099 -760.249023
27.014200 53.159199 -760.715820
28.547199 53.558899 -757.779114
26.611401 52.827202 -760.885681
27.340000 53.327400 -759.707092
28.059900 53.713100 -757.987183
27.770800 53.638500 -758.465088
27.483101 53.611900 -758.967529
26.872499 53.440300 -759.968872
26.586000 53.347000 -760.431824
27.068300 53.630600 -759.318481
27.250700 53.724998 -758.512329
26.095800 53.196701 -760.287415
26.804199 53.762901 -758.784790
26.516001 53.683201 -759.255920
26.229401 53.641399 -759.745728
29.396400 53.304600 -757.195374
19.640900 41.538601 -774.106323
19.010099 40.788200 -775.031799
20.620501 41.785400 -773.413513
20.369900 41.658501 -773.906799
21.130400 41.909698 -773.074097
21.173500 41.739899 -773.586670
20.933599 41.395901 -773.904480
21.785601 41.891201 -772.963074
21.819201 41.427200 -773.301025
22.569700 41.984200 -772.573303
22.333000 41.640800 -772.890503
23.786699 42.842201 -770.777588
35.839600 47.698002 -763.950012
43.817600 47.512299 -757.314880
44.111801 47.962200 -758.785278
43.308300 46.144901 -759.528870
40.036900 44.414398 -768.765381
39.805599 44.110001 -769.150574
40.534000 44.290501 -767.819824
40.919601 44.628201 -767.709717
39.421700 43.655602 -770.993774
40.445000 44.716599 -769.319092
44.192001 44.504299 -763.806213
45.553799 44.920502 -764.180786
47.667301 45.411701 -760.784485
46.793098 45.782501 -764.017578
49.386600 44.338600 -773.690796
48.859600 43.042599 -775.834778
48.635799 42.813999 -776.294922
48.409599 42.556301 -776.740295
48.452400 42.284500 -777.190430
48.224499 42.007999 -777.626770
49.011902 42.433498 -777.039673
48.987701 42.141701 -777.547302
48.763100 41.896198 -777.997986
48.688301 41.612000 -778.481079
48.659599 41.381100 -778.980713
48.304401 40.978401 -779.680481
48.764801 41.168098 -779.443481
48.771400 40.654099 -780.067871
48.550201 40.450901 -780.538696
48.206902 40.177799 -781.300476
17.724701 39.388199 -777.487976
18.581400 40.336899 -775.390320
48.905399 43.238998 -775.122375
40.022598 43.410000 -774.337708
22.940300 42.175800 -772.092224
50.804100 44.743401 -772.176575
39.682098 43.118900 -770.535828
22.453501 43.834999 -769.764709
50.319099 44.971901 -771.590271
39.804699 44.198200 -770.653687
22.675699 44.299000 -769.659912
22.100700 44.246201 -769.604614
39.617500 43.221500 -770.016113
22.897301 44.669102 -769.300903
22.405500 44.449200 -769.186218
50.178299 44.915100 -770.869873
39.722900 43.377701 -769.482727
23.350201 44.954102 -768.840271
39.879200 43.563801 -768.898376
40.528599 44.332600 -768.394470
48.344501 44.707901 -767.169128
47.991699 45.212002 -766.758911
47.976601 45.525799 -765.787476
44.239799 45.026100 -765.447083
48.509102 46.362000 -765.828430
35.889599 47.267200 -764.486511
44.526402 44.042702 -762.666382
39.686100 44.924000 -762.889526
44.413898 43.156898 -760.565186
46.551601 45.377800 -759.535095
25.775101 53.337898 -759.835083
41.935200 49.007702 -758.208801
29.324100 53.125599 -758.530579
29.512800 53.178101 -758.041626
31.998100 52.508801 -757.528381
31.627800 52.671799 -757.147278
32.403000 52.361698 -756.551025
31.828899 52.468899 -756.588074
31.335899 52.681599 -756.670288
30.099100 53.028999 -756.798889
41.747898 50.053902 -756.230713
44.057201 47.985600 -757.047913
47.396198 45.442699 -761.381897
47.557800 46.055099 -761.754211
30.555599 51.206699 -763.273621
45.575298 43.914398 -761.949097
40.931198 46.245499 -762.856079
41.756001 44.302200 -766.583313
41.361500 44.249901 -766.951477
48.412998 44.968601 -767.638184
41.055801 44.073502 -767.445618
40.412800 43.831699 -768.484375
22.187099 44.107101 -770.122620
39.652802 43.030602 -771.328613
40.275799 43.789200 -772.474426
21.746000 41.016300 -773.671997
18.741800 36.813801 -780.341125
19.775000 38.506199 -775.359375
18.435699 38.410099 -781.510986
18.389400 38.625301 -780.877319
18.626200 39.226398 -778.073730
19.880699 39.029499 -775.229187
19.035101 39.506500 -777.389771
23.950100 39.357399 -772.608887
22.126900 40.104099 -773.312317
22.042500 42.018101 -772.520081
22.722300 44.701500 -768.763977
23.729401 45.087399 -768.431274
26.648600 43.830502 -770.241577
31.607100 38.458599 -779.118103
30.474899 44.302700 -769.692078
22.851000 39.876099 -773.177490
18.538000 36.996700 -781.396301
18.374599 37.182301 -780.851685
69.577003 38.823399 -768.831604
69.314697 39.128899 -768.028870
69.069504 38.790100 -769.064392
68.047897 36.429001 -772.436829
67.925903 36.195499 -772.887573
67.487801 35.188000 -774.338928
69.286400 39.648300 -767.003906
69.154900 39.414101 -767.503113
68.913696 39.005100 -768.438782
68.671600 38.650200 -769.433472
68.538300 38.345200 -769.872375
68.128998 37.434200 -771.245728
67.986099 37.093700 -771.702271
67.525803 36.021900 -773.199280
67.388901 35.673000 -773.614685
67.079102 34.928200 -774.599182
69.177803 39.895699 -766.178528
68.761002 39.263100 -767.853210
68.511398 38.804298 -768.776672
68.127502 38.019901 -770.119202
68.000298 37.829399 -770.633118
67.580803 36.914501 -772.043213
67.444504 36.582500 -772.466797
66.976601 35.450500 -773.928284
66.663101 34.683498 -774.899719
66.528000 34.379398 -775.344482
66.393402 34.084400 -775.795105
68.783401 39.891201 -766.581116
68.652397 39.672401 -767.082825
68.337997 39.063999 -768.204529
68.097603 38.686501 -769.148682
67.975403 38.486198 -769.620728
67.575302 37.651798 -770.988892
67.442299 37.380699 -771.449707
67.030602 36.378201 -772.714722
66.897499 36.109600 -773.178284
66.556999 35.210300 -774.154785
65.972000 33.875801 -776.041321
65.834503 33.554298 -776.476990
69.356598 41.796101 -763.325012
69.220100 41.535999 -763.808228
68.756500 40.352100 -765.151123
68.643303 40.276100 -765.690430
68.198196 39.478802 -767.315979
67.891998 39.064098 -768.567383
67.522598 38.341801 -769.856689
67.389198 38.083698 -770.325195
66.981796 37.200802 -771.661377
66.841103 36.834499 -772.062073
66.426804 35.864300 -773.349487
66.288002 35.534302 -773.775818
66.086502 35.021301 -774.361023
65.948402 34.705601 -774.797791
65.812302 34.418900 -775.252319
65.361504 33.432701 -776.721924
69.221802 42.037399 -762.726501
68.251900 40.151402 -766.057678
68.117302 39.926701 -766.556274
67.796898 39.322300 -767.675476
67.510300 39.078098 -768.969116
67.365898 38.705898 -769.374512
66.975197 37.886600 -770.657471
66.838203 37.596100 -771.104614
66.420998 36.642200 -772.395996
66.283096 36.343399 -772.839478
65.394501 34.198898 -775.479126
65.259300 33.945000 -775.952820
64.920303 33.194698 -777.026917
68.853996 41.756699 -763.465576
68.702698 41.406399 -763.922180
68.422798 40.657501 -764.667480
68.257202 40.433201 -765.324219
67.807999 39.672699 -766.955688
67.525398 39.366199 -768.151917
66.996002 38.356400 -769.962708
66.462700 37.234402 -771.683716
65.954903 36.006001 -773.164673
65.814102 35.686699 -773.596191
65.674103 35.379101 -774.035522
65.527100 34.978100 -774.419189
65.385300 34.650501 -774.848022
64.931000 33.736500 -776.355225
69.057602 42.293301 -762.210876
68.697899 42.033798 -762.852478
68.285301 41.113098 -764.100220
67.838402 40.294498 -765.627319
67.701897 40.078300 -766.127075
67.402702 39.680599 -767.296875
67.121696 39.415401 -768.501221
66.955399 39.072701 -769.032410
66.814598 38.765701 -769.465515
66.553703 38.210201 -770.280579
66.414803 37.935299 -770.735413
66.277100 37.680599 -771.203308
66.009499 37.031502 -771.961670
65.867104 36.709499 -772.388489
65.720901 36.336300 -772.784424
64.917198 34.449402 -775.123718
64.772301 34.109100 -775.545227
64.476898 33.577400 -776.564087
64.337502 33.310001 -777.028687
68.723099 42.479801 -761.770081
68.323502 41.785599 -763.157288
68.171204 41.452702 -763.618774
67.910004 40.885399 -764.414490
67.771004 40.655998 -764.908813
67.320000 39.950199 -766.550781
67.059601 39.733898 -767.687317
66.433403 38.541698 -769.758606
65.890701 37.434101 -771.481018
65.331299 36.104099 -773.071472
65.189598 35.811298 -773.517395
65.042999 35.452301 -773.923889
64.894402 35.069599 -774.317322
64.379898 33.932701 -775.865173
68.383003 42.290699 -762.196716
67.435402 40.444302 -765.255310
67.293800 40.205200 -765.748474
66.994904 39.947498 -767.032593
66.720901 39.646702 -768.146423
66.580803 39.391899 -768.616577
66.418503 39.051701 -769.116821
66.034302 38.266399 -770.320923
65.892097 37.969002 -770.759888
65.544403 37.216499 -771.808716
65.400902 36.904202 -772.239929
65.252296 36.523800 -772.629883
64.536697 34.795300 -774.611511
64.392097 34.481701 -775.046875
64.031303 33.818600 -776.251099
63.890701 33.557999 -776.717896
68.156700 41.964298 -762.618286
67.763496 41.248600 -763.924927
64.153297 34.244801 -775.499878
68.487701 42.643501 -761.328125
67.066498 40.261799 -766.217224
67.795799 41.642799 -763.219910
67.385101 40.838600 -764.504272
66.626099 39.921398 -767.432983
66.011200 38.785301 -769.422302
65.871597 38.557499 -769.903076
65.479103 37.737701 -771.080200
64.845802 36.274300 -772.843018
64.699402 35.957901 -773.271423
64.550697 35.611198 -773.682495
64.401901 35.266602 -774.095703
68.110100 42.504200 -761.720398
66.966400 40.550499 -765.529907
66.685997 40.249599 -766.637817
66.066597 39.280800 -768.788086
65.175102 37.459301 -771.466675
65.027199 37.127201 -771.882202
64.880402 36.812199 -772.308777
64.032799 34.930901 -774.710327
63.880501 34.557800 -775.107727
63.674900 34.178600 -775.765076
63.509800 33.867100 -776.286621
68.210403 42.673901 -760.875977
67.868301 42.180199 -762.091309
67.426697 41.414700 -763.535706
67.013802 40.639301 -764.828125
66.248497 39.826099 -767.829285
66.108902 39.626801 -768.327026
65.488701 38.424500 -770.231812
65.341599 38.110600 -770.655823
67.634399 41.992298 -762.580627
67.195801 41.150902 -763.925720
66.662003 40.554100 -765.976501
66.239197 40.226299 -766.936707
65.599800 39.104099 -768.981873
65.456497 38.864601 -769.451416
64.953598 37.868401 -770.950378
64.395203 36.617699 -772.474915
64.250702 36.364799 -772.937500
64.095497 35.969700 -773.315430
63.949100 35.693001 -773.764587
63.798698 35.366100 -774.184692
63.389702 34.477600 -775.327820
67.728104 42.692299 -761.148499
67.580101 42.442699 -761.627075
67.197098 41.790501 -762.858887
66.753899 40.952599 -764.204712
66.562401 40.861000 -765.046570
