51.236801 25.346500 -748.558228
43.085800 4.971300 -737.307617
41.625801 6.887700 -738.316101
41.415699 6.912600 -738.151489
41.401600 4.123800 -737.695984
41.141602 4.235800 -737.507690
50.046799 24.871500 -748.660278
51.532200 26.799400 -750.377930
51.292400 26.856300 -750.196594
49.712101 24.807199 -748.581604
49.490799 24.922600 -748.425171
50.754902 26.521099 -749.872498
49.401199 24.750799 -748.775879
42.718102 6.979100 -740.663879
42.691898 7.620800 -740.752686
49.911999 24.158800 -749.194275
49.649899 24.205200 -748.995422
48.488400 20.559700 -749.205627
47.936401 24.613300 -749.444519
51.114498 22.588200 -752.015015
48.344299 20.683300 -749.528198
50.790001 22.493099 -752.066223
49.805302 21.910601 -751.200378
49.552399 21.690201 -750.966370
49.007301 21.350700 -750.484375
48.764500 21.177500 -750.266113
48.501202 20.934200 -750.020081
48.233799 20.708900 -749.773987
48.316799 25.040899 -750.550720
44.493198 25.934700 -747.707397
52.221600 23.559799 -753.505981
51.853802 23.581100 -753.222290
49.610500 26.322901 -751.920715
45.459801 23.564199 -748.226074
45.262100 23.769699 -748.105530
45.245499 24.131300 -748.151917
45.081600 24.439199 -748.074524
49.283901 21.725599 -751.018005
49.026299 21.500799 -750.779724
52.275600 23.844400 -753.872375
48.183201 25.561800 -750.950073
47.592300 24.228500 -750.269592
47.289700 24.485701 -750.074829
49.601799 22.023300 -751.642700
49.358700 21.837500 -751.422424
48.074501 25.801600 -751.064880
44.622799 24.825500 -748.206909
44.565800 25.255100 -748.232422
44.333401 25.941999 -748.162781
48.555302 26.254801 -751.688293
44.641102 24.152201 -748.290222
44.445801 24.564800 -748.204895
44.228500 24.905701 -748.090698
44.235100 25.527901 -748.197083
49.458801 21.865801 -751.847412
47.329300 24.917700 -750.680603
44.074699 26.054199 -748.325012
50.958000 23.361601 -753.363403
46.676800 26.506300 -750.551819
53.703400 24.266800 -755.720703
50.104900 22.419300 -752.641479
46.793400 26.186800 -750.695313
44.291698 25.001600 -748.570679
44.075901 25.386101 -748.466370
53.865501 24.309700 -755.932922
50.377800 22.635500 -752.972290
49.943100 22.209700 -752.568115
49.730701 22.135300 -752.392273
43.379601 26.392799 -748.185120
53.621300 24.416000 -755.964172
43.605598 26.020300 -748.503906
50.692200 22.581400 -753.701172
42.913601 26.910900 -748.396179
51.870201 23.966499 -755.226379
50.929199 23.739901 -754.467529
42.120098 28.096701 -748.577820
43.079102 1.330100 -736.590881
43.273102 1.178100 -736.771606
43.564800 1.126300 -736.867371
43.797401 0.999900 -737.028320
42.455799 1.052800 -736.932190
42.876301 1.264600 -736.785095
44.147701 1.004600 -737.236084
43.422199 1.356300 -736.908997
43.721500 1.247900 -737.058289
44.379799 1.174800 -737.047913
43.214298 1.517400 -736.732117
43.875198 1.127700 -737.255127
42.126999 1.561700 -736.756226
42.449699 1.518800 -736.845825
42.721500 1.544800 -736.859680
44.068401 1.146600 -737.450623
44.311798 1.034300 -737.597412
44.590302 0.966700 -737.705017
44.793900 0.803100 -737.896729
44.921600 0.647600 -738.069275
42.555302 1.817900 -736.902405
42.932301 1.845100 -736.930176
43.186798 1.954100 -736.859070
43.462502 1.883700 -736.968872
43.686401 1.748700 -737.135315
43.801601 1.580800 -737.318420
43.926601 1.424600 -737.491394
43.801601 1.162000 -737.733582
44.128101 1.259500 -737.684326
42.764900 2.201200 -736.898376
43.142700 2.282600 -736.872192
43.372200 2.155200 -737.031616
43.625801 2.057500 -737.164978
43.784801 1.841200 -737.402527
43.978500 1.667400 -737.602783
44.271400 1.618300 -737.693726
44.483601 1.225300 -738.114075
40.788200 2.745300 -736.293396
41.901100 2.406600 -736.787292
42.165100 2.320100 -736.910583
42.433300 2.238700 -737.029419
43.976898 1.566100 -737.915588
44.310398 1.567500 -737.961609
44.702999 1.645300 -737.940308
44.464901 0.917700 -738.627930
40.876099 2.600300 -736.578125
41.138599 2.510500 -736.703674
42.918701 2.432100 -737.030518
43.287800 2.476400 -737.038208
43.537102 2.373300 -737.175171
43.755699 2.231900 -737.345886
43.726101 1.779000 -737.790283
44.843601 1.507200 -738.215881
41.620300 2.351500 -737.050110
41.880600 2.258800 -737.177612
42.175900 2.208700 -737.267822
43.116299 2.745100 -736.866089
43.880402 2.145700 -737.564209
44.209202 2.141300 -737.613708
43.446301 2.657100 -737.140320
43.711601 2.573800 -737.258728
43.953300 2.045900 -737.813721
44.294899 2.057000 -737.849121
41.112000 2.760600 -736.886902
41.329601 2.636800 -737.038696
42.562199 2.805100 -737.038330
42.801601 2.892900 -736.983704
43.252399 2.832000 -737.104675
43.839699 2.529300 -737.483398
44.412498 1.904600 -738.178894
41.068401 2.662200 -737.132874
42.288601 2.991900 -736.969971
43.486301 2.940700 -737.181030
43.728802 2.829500 -737.323608
43.838402 2.346100 -737.816772
43.934200 2.049500 -738.123230
41.893700 3.118800 -736.901978
43.049301 3.016900 -737.156372
44.016899 2.579100 -737.718323
42.094200 2.992100 -737.142822
42.360199 2.907400 -737.261780
42.640598 2.942500 -737.264221
43.289299 3.122300 -737.171997
43.899899 2.849200 -737.523071
42.709400 3.209000 -737.179321
43.534100 3.220700 -737.274414
43.772499 3.104000 -737.420715
44.208099 2.715000 -737.861511
42.946602 3.336500 -737.244019
43.230598 3.375700 -737.241516
43.869301 2.826400 -737.866028
44.459301 2.607100 -738.158325
42.783798 3.603000 -737.092896
43.711399 3.405400 -737.404480
43.924500 3.154700 -737.679016
43.991299 2.722200 -738.114685
43.492699 3.532600 -737.325195
44.188301 2.638000 -738.294312
43.056099 3.580800 -737.244019
44.024799 3.050800 -737.898499
42.520401 3.703000 -737.203674
43.874298 3.411800 -737.651672
42.218498 3.515000 -737.598206
42.489700 3.634700 -737.511719
42.741100 3.731600 -737.445374
43.071899 3.823000 -737.393982
43.397499 3.808100 -737.446716
43.692200 3.756600 -737.531921
43.993000 3.406500 -737.912720
44.867199 2.594400 -738.816528
45.102699 2.516900 -738.920471
41.205898 4.445500 -736.866882
42.251701 4.172200 -737.257385
42.517799 4.084800 -737.374329
42.808998 4.027300 -737.464600
43.176300 4.061100 -737.473511
43.443401 4.077200 -737.488403
43.733898 4.020700 -737.577576
43.929501 3.850000 -737.768921
41.883598 4.123200 -737.598694
42.140499 4.023400 -737.726685
42.611599 4.177000 -737.628418
42.966099 4.295100 -737.551880
43.267601 4.351600 -737.530518
43.576698 4.317000 -737.599915
43.858200 4.148100 -737.799011
44.024502 3.941500 -738.022217
44.169498 3.770800 -738.207581
42.848400 4.612500 -737.583008
43.180901 4.604500 -737.628418
43.529598 4.616600 -737.655701
43.791302 4.525500 -737.775391
44.016300 4.390100 -737.934814
44.279598 4.300900 -738.052673
44.654400 4.278800 -738.116821
45.159500 3.438700 -739.005615
45.407299 3.269800 -739.200684
42.652500 4.671800 -737.850220
43.040501 4.828600 -737.737671
43.341702 4.884000 -737.716187
43.628799 4.822600 -737.808777
43.863998 4.699200 -737.957214
44.047699 4.513800 -738.161377
44.112400 4.285700 -738.394592
44.328602 4.137800 -738.565125
44.562599 4.308800 -738.421509
42.989498 5.277500 -737.548523
43.506001 5.085200 -737.795288
44.167900 4.559200 -738.388916
44.432999 4.572900 -738.404114
44.714401 4.504600 -738.502380
44.959000 4.391400 -738.641174
45.172001 4.281000 -738.773926
43.777500 5.160000 -737.902283
43.965302 4.979300 -738.101501
44.143299 4.859600 -738.342224
44.238499 4.565100 -738.644226
44.490799 4.459400 -738.775574
44.738400 4.347900 -738.912292
44.954899 4.255500 -739.026672
43.321499 5.358200 -737.885498
43.582500 5.410100 -737.996277
43.854000 5.328300 -738.105713
44.055099 5.162300 -738.291321
44.311501 4.960100 -738.518616
43.963100 5.603100 -738.190186
44.149200 5.418500 -738.392578
44.221802 5.199000 -738.618408
42.706100 5.759000 -738.137573
43.027302 5.732900 -738.195679
43.321899 5.878200 -738.080383
43.639301 5.849400 -738.140686
43.099300 6.028200 -738.275208
43.340698 6.110800 -738.216797
43.618801 6.136400 -738.218811
43.898998 6.064000 -738.318604
44.093399 5.889400 -738.511902
44.214802 5.728800 -738.684021
44.535702 5.705100 -738.739319
43.085400 6.442900 -738.296021
43.396702 6.412300 -738.357117
43.660500 6.421000 -738.374084
43.999699 6.418700 -738.409729
44.174198 6.220800 -738.624512
44.281601 6.043500 -738.812012
44.776901 5.820100 -739.083496
42.907501 6.645500 -738.462402
43.275902 6.675100 -738.468323
43.588402 6.740900 -738.432617
43.877800 6.679300 -738.522095
44.117199 6.558700 -738.665771
44.304798 6.375900 -738.866577
44.218800 6.068500 -739.165588
44.453999 5.940800 -739.315979
44.983601 5.756600 -739.551086
45.283699 5.707700 -739.629028
43.070499 6.875900 -738.557312
43.348099 6.922200 -738.537415
43.705002 6.939800 -738.553589
44.241501 6.665200 -738.879272
44.474701 6.536600 -739.030029
44.598000 6.377800 -739.200623
42.993198 6.848600 -738.821899
43.918400 7.030900 -738.726318
44.488098 6.308800 -739.502930
44.238602 6.935200 -738.972290
44.350700 6.763800 -739.154480
44.556999 6.602400 -739.335327
43.203602 7.043800 -738.743530
43.539398 7.136900 -738.681519
41.966900 7.870400 -738.310303
42.209801 7.753200 -738.450317
42.429401 7.609100 -738.615173
42.674400 7.494100 -738.753174
42.861599 7.311300 -738.953979
43.173199 7.274100 -739.020020
43.464401 7.415400 -738.904785
43.786598 7.493400 -738.856018
44.094398 7.454300 -738.923523
44.294998 7.287800 -739.109314
44.401001 7.109100 -739.298523
44.490700 6.910200 -739.506470
44.564800 6.691600 -739.732971
43.092999 7.818200 -738.899414
43.309799 7.717000 -739.020386
43.631699 7.793800 -738.972107
43.954399 7.771700 -739.023071
44.201900 7.660900 -739.156677
44.407101 7.499500 -739.337402
44.625099 7.352800 -739.504395
44.854698 7.219800 -739.658691
44.307701 7.925600 -739.348206
44.511002 7.761800 -739.530884
44.730099 7.616400 -739.696472
43.330601 8.346600 -739.182983
43.608601 8.271100 -739.283020
43.877800 8.286300 -739.290771
44.181499 8.242100 -739.361511
44.417900 8.118200 -739.506714
44.633400 7.968900 -739.675720
44.887501 8.069900 -739.595703
45.104099 7.922200 -739.763184
44.811298 7.960600 -739.893677
43.007900 8.559100 -739.286377
43.189602 8.369800 -739.491882
43.723801 8.494700 -739.410217
44.021000 8.543400 -739.385620
44.289001 8.457000 -739.494629
44.544399 8.253800 -739.720093
43.448601 8.515200 -739.504822
44.757301 8.246100 -739.914429
45.503799 8.161100 -740.114197
45.731800 8.028600 -740.267517
44.014400 8.745400 -739.558594
44.284801 8.664500 -739.663025
44.512699 8.532400 -739.815491
44.962601 8.259900 -740.128479
45.207298 8.147200 -740.262817
45.467499 8.053600 -740.379211
45.781601 7.922800 -740.537598
46.098701 7.900200 -740.587219
43.009499 8.701400 -739.734924
43.219101 8.848600 -739.603577
43.497601 8.775600 -739.700195
44.646900 8.529200 -740.043518
44.742001 8.337200 -740.245117
44.927799 8.151900 -740.447327
45.194302 8.064900 -740.557007
45.453098 7.968400 -740.675720
43.299801 8.886300 -739.891113
43.582199 9.012100 -739.786926
43.903301 9.091500 -739.732727
44.232300 9.080200 -739.770691
44.502701 8.999100 -739.874390
44.675201 8.799800 -740.089600
44.777100 8.616300 -740.283203
45.012100 8.491400 -740.428284
45.322601 8.561900 -740.382202
43.582001 9.252700 -739.893127
44.039902 9.292500 -739.889099
44.349800 9.258200 -739.948303
44.589901 9.140500 -740.086304
44.755001 8.931800 -740.310303
44.862598 8.754900 -740.497681
43.711399 9.523700 -739.944092
44.188599 9.485400 -740.019714
44.489498 9.440100 -740.088684
44.714001 9.201500 -740.347412
44.893200 9.009100 -740.555786
43.801998 9.768900 -740.041992
44.081200 9.696700 -740.135986
44.408001 9.681500 -740.176025
44.665600 9.584200 -740.293884
44.789799 9.428300 -740.460876
45.076698 9.366000 -740.545471
43.166302 10.012000 -740.117126
43.408901 9.895100 -740.253113
43.710499 9.847600 -740.323120
43.989601 9.874900 -740.315796
44.289101 9.927100 -740.284790
44.562599 9.848200 -740.384583
44.772400 9.693200 -740.556824
44.949902 9.498800 -740.766602
45.212601 9.406400 -740.879211
45.411598 9.295700 -741.005676
46.389301 9.193100 -741.180786
46.560501 9.036200 -741.352173
43.755100 10.265900 -740.214905
43.869900 10.099700 -740.391174
44.136398 10.111800 -740.397583
44.452999 10.083100 -740.448914
44.700100 9.972300 -740.578430
44.909698 9.816600 -740.750671
45.097198 9.633700 -740.948975
42.587200 10.614600 -740.023621
42.810799 10.493700 -740.161377
43.059101 10.382800 -740.290771
43.333599 10.302500 -740.391113
43.618500 10.234600 -740.479614
45.132000 9.904600 -740.918213
45.391499 9.808100 -741.033691
45.584599 9.631500 -741.226013
45.831501 9.519300 -741.356628
46.046001 9.367600 -741.525085
46.296799 9.259900 -741.651489
42.567001 10.484600 -740.311279
42.831902 10.392200 -740.422913
43.895500 10.330600 -740.557678
44.174198 10.356600 -740.550293
44.496799 10.334600 -740.594482
44.748299 10.228900 -740.718811
44.866699 10.065800 -740.892090
45.332500 9.706200 -741.288391
43.329601 10.172500 -740.745117
45.473598 9.569000 -741.500671
45.703400 9.435000 -741.651917
43.372700 10.455300 -740.627319
43.645100 10.371900 -740.729187
45.039001 10.099000 -741.095215
45.132702 9.904000 -741.298523
43.949100 10.520000 -740.780701
44.239498 10.560000 -740.758606
44.569801 10.547000 -740.792786
44.852501 10.477800 -740.880920
45.088902 9.736100 -741.647522
43.705299 10.665500 -740.783630
44.993500 10.395700 -741.137512
45.115700 10.235100 -741.307922
43.519199 10.839400 -740.717529
43.999500 10.754600 -740.907410
44.292999 10.797900 -740.881226
44.938000 10.650600 -741.069824
44.605202 10.782000 -740.921875
45.243301 10.167800 -741.528320
43.589401 10.828300 -740.987305
45.074200 10.551300 -741.355713
45.344501 10.464700 -741.459473
43.733700 10.738500 -741.214783
44.459499 10.984800 -741.002380
44.835999 10.920700 -741.086792
44.048801 11.143400 -741.091370
45.031101 10.979000 -741.307190
45.127499 10.784600 -741.509277
45.400299 10.698900 -741.609924
45.697201 10.645000 -741.679382
44.276600 11.298800 -741.198975
44.610699 11.286000 -741.228210
44.894299 11.213600 -741.315430
45.567699 10.886500 -741.680176
43.921799 11.483600 -741.190430
45.086899 11.227900 -741.505188
45.207401 11.062400 -741.679016
44.126499 11.442400 -741.381775
44.399300 11.458300 -741.378113
44.701099 11.509500 -741.339783
45.432201 11.043500 -741.846191
45.694199 10.953800 -741.949219
43.716400 11.581700 -741.349426
44.921501 11.500300 -741.484802
45.176102 11.467300 -741.675781
45.270699 11.270200 -741.879700
45.403999 11.014800 -742.144287
43.969101 11.828400 -741.437012
44.184200 11.718200 -741.557495
44.457600 11.733700 -741.552917
44.725201 11.742900 -741.554321
43.577599 11.941000 -741.527283
43.785500 11.830200 -741.647827
44.980801 11.806100 -741.718811
45.242298 11.705800 -741.830688
45.332298 11.503400 -742.039612
45.603600 11.414300 -742.140503
44.143902 11.977700 -741.777771
44.393799 12.066600 -741.696777
44.720100 12.042000 -741.733887
45.448299 11.465200 -742.346191
45.675301 11.321800 -742.500122
45.930901 11.212700 -742.620178
44.912601 12.191200 -741.893372
45.162399 12.076400 -742.018677
45.345600 11.882300 -742.222107
45.564400 11.730000 -742.384521
45.814301 11.614600 -742.510376
45.736099 11.311900 -742.815002
43.855499 12.319900 -742.032471
44.056702 12.451600 -741.905273
44.301899 12.330400 -742.036377
44.596199 12.368500 -742.007324
45.074799 12.317900 -742.074280
45.297901 12.171200 -742.230530
45.537201 11.733200 -742.682983
43.999401 12.619400 -742.269104
44.281502 12.545900 -742.351685
44.644901 12.662800 -742.243286
44.938301 12.699500 -742.214172
45.209301 12.609000 -742.313721
45.443699 12.475400 -742.455872
45.669201 12.331100 -742.608704
45.972599 12.382200 -742.565430
44.760201 12.903700 -742.271912
45.981998 11.877700 -743.345276
44.561901 13.087800 -742.392517
44.906700 12.980600 -742.510071
45.215599 12.933400 -742.565613
45.459999 12.811400 -742.695618
45.659901 12.637000 -742.877686
46.985500 13.486800 -742.047729
43.856701 13.516900 -742.806030
44.404900 13.337800 -743.000427
44.708900 13.483600 -742.858887
45.002998 13.518900 -742.829529
45.304901 13.463200 -742.892822
45.732101 13.249700 -743.119629
45.920200 13.062200 -743.314575
46.055199 12.811500 -743.572571
44.102200 13.965600 -742.321106
44.297100 13.490000 -742.808777
45.503799 13.301400 -742.953308
46.186401 12.940100 -743.334595
46.040501 13.176200 -743.085388
44.174000 13.834600 -742.557129
44.957600 14.056300 -742.470215
44.360401 13.980000 -742.743530
44.567501 13.856100 -742.873230
44.794601 13.714900 -743.020874
45.077801 13.736300 -743.004395
45.388100 13.689500 -743.057678
45.610298 13.542800 -743.210815
45.792599 13.350100 -743.409973
46.055401 13.249200 -743.517395
46.348701 13.183700 -743.589417
44.486500 13.785500 -743.249390
45.558300 13.801200 -743.251709
45.765099 13.636600 -743.422607
46.068600 13.280000 -743.790283
46.299801 13.141800 -743.934814
46.944000 13.484200 -743.597595
44.187199 14.208600 -743.153687
44.409698 14.061200 -743.307129
44.687099 13.975200 -743.398987
44.935101 14.055300 -743.321289
45.240200 14.101000 -743.279480
45.694901 13.918600 -743.472229
45.885799 13.735500 -743.661499
46.152599 13.638900 -743.763916
44.581600 14.258500 -743.472107
44.883598 14.299400 -743.434570
45.152699 14.304300 -743.433472
45.465199 14.259300 -743.483826
45.738800 14.170600 -743.578003
45.953999 14.015400 -743.739197
46.070801 13.847400 -743.911926
46.272701 13.978600 -743.781189
44.630798 14.483200 -743.622009
44.891701 14.446600 -743.662720
45.202202 14.497800 -743.614624
45.473999 14.506100 -743.609680
45.720299 14.386400 -743.734985
45.944801 14.241600 -743.885620
46.183201 14.112500 -744.020386
46.306400 13.951500 -744.186218
45.070202 14.620900 -743.814819
45.625900 14.650800 -743.791016
45.866299 14.524200 -743.922974
46.046001 14.328100 -744.125488
46.167500 14.165100 -744.293274
44.581402 14.793500 -743.869690
45.275299 14.763200 -743.908081
46.305500 14.129700 -744.566528
44.921799 14.807600 -744.012329
45.532200 14.897700 -743.926086
45.821098 14.825900 -744.002380
46.028900 14.661900 -744.172119
46.166901 14.417300 -744.423523
44.959000 15.544000 -743.950378
44.971001 15.359200 -744.139709
45.188099 15.204900 -744.299011
45.452999 15.303800 -744.198975
45.781399 15.275700 -744.229614
46.026402 15.153600 -744.356079
46.235001 14.989600 -744.525085
46.323101 14.787800 -744.732300
46.687000 14.801600 -744.720215
46.936600 14.684300 -744.841675
44.841400 15.301000 -744.362427
44.958698 15.133500 -744.534485
46.876202 14.596000 -745.094116
45.145699 15.458500 -744.413879
45.488499 15.544400 -744.327087
45.748798 15.538600 -744.334229
45.999901 15.422800 -744.453979
46.190899 15.238600 -744.643921
46.374100 15.044700 -744.843506
46.470402 14.851400 -745.042175
46.655899 14.658400 -745.241089
44.976002 15.707100 -744.390320
46.683899 14.931000 -745.193787
44.651798 15.885500 -744.445129
44.997898 15.674900 -744.662720
45.308399 15.723300 -744.613892
45.614300 15.767500 -744.569275
45.876801 15.763700 -744.573975
46.130001 15.649800 -744.692017
46.328800 15.473800 -744.873596
46.614700 15.397000 -744.953491
46.716599 15.210300 -745.145874
44.888302 16.226700 -744.551575
45.110901 16.110399 -744.671692
45.489498 16.234400 -744.544189
45.587101 16.045200 -744.739197
46.321999 15.772700 -745.020630
46.541100 15.618900 -745.179321
46.745201 15.447500 -745.356323
45.857498 16.060200 -744.779114
44.646000 16.127199 -744.779419
45.307701 16.365200 -744.955627
45.601898 16.300900 -745.021484
45.902599 16.338900 -744.981812
46.195202 16.268600 -745.054016
46.419601 16.121099 -745.205872
46.607800 15.932100 -745.400818
45.220100 16.779499 -744.819275
46.826199 16.026899 -745.592529
45.053799 16.627001 -745.290405
45.381901 16.581400 -745.336426
45.693401 16.630301 -745.284607
45.990898 16.664499 -745.248230
46.276501 16.585800 -745.328491
46.529499 16.470501 -745.446777
46.700298 16.261400 -745.662415
46.797699 16.068600 -745.861389
45.473400 17.389999 -745.652588
45.754200 17.304100 -745.739624
46.097000 17.287800 -745.753906
46.358101 17.280701 -745.759277
46.616600 17.171000 -745.871277
46.808601 16.985901 -746.062012
46.905602 16.792900 -746.261597
47.164101 16.649500 -746.408508
45.781399 17.579901 -745.540222
46.747002 17.238100 -746.105530
47.016300 16.836100 -746.520813
45.558800 17.739700 -745.642212
45.723000 17.575899 -745.810913
46.007401 17.493200 -745.893982
46.283699 17.501699 -745.882385
46.895000 17.084101 -746.310730
46.583900 17.429399 -745.984619
47.252998 17.016800 -746.459412
46.080799 17.955000 -746.033081
46.330002 17.850201 -746.139526
46.799999 17.673599 -746.317993
46.983398 17.476200 -746.521729
47.353600 17.420700 -746.575073
45.672798 18.134701 -746.050781
45.822201 17.984800 -746.205383
46.582699 17.931601 -746.250916
47.387402 17.322500 -746.876709
46.959099 17.769699 -746.505005
47.144501 17.573999 -746.707214
45.506401 18.102699 -746.276978
46.111599 18.108700 -746.260071
46.414902 18.125601 -746.315918
47.414398 17.627199 -746.818481
46.800701 18.037300 -746.448792
47.628101 17.546900 -746.946228
45.752499 18.323099 -746.261780
47.081799 17.827700 -746.752625
45.894199 18.215599 -746.497925
47.292500 17.647699 -747.062683
45.837200 18.571800 -746.322693
46.112900 18.373501 -746.524475
47.269402 17.942900 -746.950928
45.840000 18.457199 -746.588318
46.394699 18.467300 -746.565796
46.856499 18.375799 -746.651672
47.061100 18.198700 -746.832825
47.624001 17.910700 -747.122498
46.659698 18.563000 -746.634094
46.042801 18.617399 -746.684814
47.251701 18.241600 -747.051819
47.386700 18.086700 -747.211182
47.589199 17.904900 -747.397400
47.053001 18.509199 -746.823914
46.347900 18.686001 -746.703186
47.661400 18.206699 -747.205322
46.832500 18.704000 -746.769409
46.595200 18.820101 -746.742004
47.243999 18.528299 -747.031616
47.804401 18.101299 -747.465393
46.036201 18.812099 -746.903015
47.070900 18.747700 -746.943481
47.428902 18.433901 -747.263489
46.456600 19.055500 -746.753723
47.668800 18.374300 -747.436707
46.071098 19.065001 -746.851685
47.272800 18.777800 -747.113892
47.911499 18.357100 -747.533813
46.010899 19.583700 -746.559998
46.111301 19.367201 -746.783386
46.337299 19.212400 -746.938110
46.709000 19.220200 -746.917908
46.977798 19.113400 -747.020874
47.458099 18.835400 -747.296387
47.653999 18.645500 -747.489014
46.320000 19.505899 -746.915894
46.926800 19.369699 -747.038879
47.199299 19.267500 -747.137085
47.435902 19.125000 -747.278687
47.787800 18.700199 -747.712524
47.994801 18.521999 -747.892517
45.912102 20.000999 -746.644287
46.049900 19.782400 -746.869080
46.043598 19.573900 -747.088074
46.568401 19.649000 -746.992126
47.609402 19.082399 -747.552429
48.183102 18.702900 -747.931824
46.831200 19.747700 -747.004028
47.061600 19.598900 -747.152527
47.302601 19.461700 -747.288513
47.808800 19.008101 -747.747925
46.230598 19.780899 -747.074280
47.490002 19.355700 -747.478516
48.026299 18.935200 -747.901917
45.977798 20.038000 -746.919678
46.534500 19.946199 -746.997498
48.198200 18.748600 -748.199219
47.683899 19.322100 -747.693420
46.071499 20.367599 -746.711670
46.962898 19.841101 -747.234497
47.209000 19.709400 -747.364502
46.165699 20.250500 -746.937927
46.773800 20.013800 -747.165222
47.431000 19.628901 -747.546387
47.858299 19.290600 -747.886719
48.119801 19.174900 -747.999084
48.373299 18.946400 -748.230225
46.462399 20.285999 -747.047119
47.650002 19.577000 -747.749573
45.729401 20.531799 -746.967773
46.066898 20.534401 -746.952820
46.715302 20.341200 -747.132202
46.939301 20.083900 -747.394470
47.206902 19.975401 -747.498901
48.275200 19.229700 -748.244019
48.261902 19.007200 -748.478516
45.717098 20.391100 -747.248413
46.268799 20.490400 -747.123474
47.465000 19.992800 -747.602783
47.699501 19.847300 -747.747192
47.756699 19.604300 -748.000671
47.993198 19.459700 -748.143982
48.526699 19.135000 -748.465881
48.730701 18.952000 -748.650879
46.730202 20.317499 -747.402405
45.532700 20.770399 -747.062988
45.861000 20.650400 -747.176880
46.528702 20.576599 -747.229187
47.120499 20.219700 -747.582520
48.176601 19.459101 -748.343079
48.484798 19.083500 -748.726929
48.325199 19.306299 -748.565491
46.157700 20.827999 -747.128113
46.861099 20.291500 -747.666077
47.389099 20.268700 -747.669922
47.646599 20.148899 -747.786072
47.779800 19.889200 -748.054626
47.990898 19.716101 -748.228821
45.858700 21.019100 -747.031982
46.404099 20.813400 -747.227783
46.653599 20.584499 -747.459412
45.906700 21.357800 -746.776123
48.324299 19.604500 -748.531189
48.471500 19.356800 -748.786621
48.512699 19.090300 -749.065918
46.083801 21.095800 -747.138428
47.007801 20.501499 -747.729187
47.295101 20.516600 -747.702209
47.565300 20.411501 -747.802612
47.762501 19.916201 -748.317078
45.661900 21.294600 -747.007019
46.658699 20.579201 -747.722473
47.763599 20.285000 -747.989929
47.967400 19.795099 -748.498413
48.616501 19.602501 -748.676270
45.592800 21.563900 -746.784302
46.395100 21.077200 -747.266174
46.569698 20.867001 -747.481018
46.839500 20.788900 -747.647705
47.855900 20.192400 -748.237122
48.722599 19.522600 -748.909607
45.501801 21.339300 -747.242371
46.154900 21.350300 -747.205078
47.175098 20.762600 -747.785095
47.436100 20.748899 -747.789124
47.684399 20.619499 -747.916016
47.923698 20.479799 -748.053894
48.167702 19.932100 -748.622375
48.410599 19.794300 -748.758179
48.803299 19.406200 -749.152283
45.528500 21.560200 -747.079712
45.757099 21.409700 -747.229492
45.960300 21.530399 -747.093872
47.888100 20.018600 -748.612976
46.488499 21.164400 -747.494019
46.625500 20.912300 -747.754822
46.909901 20.816799 -747.896912
48.035999 20.341900 -748.353088
48.633202 19.779600 -748.922974
45.450901 21.992500 -746.820618
45.660198 21.822399 -746.991882
46.374001 21.402599 -747.406799
47.603901 20.946501 -747.839111
47.867500 20.834600 -747.946716
48.896000 19.732500 -749.070129
45.889900 21.768299 -747.198120
46.142300 21.644100 -747.319214
46.490398 21.223400 -747.750183
46.817101 21.079201 -747.889587
47.149899 21.043100 -747.914429
48.069500 20.748400 -748.189026
47.974899 20.126499 -748.850708
48.247299 20.125700 -748.840576
48.911800 19.636900 -749.330811
45.213299 22.111401 -747.009521
45.353699 21.903999 -747.223328
47.365200 21.199400 -747.887085
47.709499 21.177500 -747.896179
48.042099 21.041800 -748.026428
48.461498 20.075899 -749.031616
48.693901 19.925600 -749.181213
45.600700 22.046801 -747.206787
46.124699 21.918600 -747.320679
46.292702 21.702900 -747.542175
46.407902 21.528601 -747.721924
46.635101 21.275400 -747.980530
48.301899 21.102900 -748.093872
47.816898 20.143499 -749.129578
46.923100 21.238100 -748.139771
47.922100 21.335699 -747.994507
48.376400 20.928900 -748.406128
48.083099 20.287600 -749.097473
48.981098 20.067200 -749.293274
49.254601 19.964500 -749.390381
45.056301 22.319799 -747.063721
45.893600 22.045799 -747.317688
45.000099 22.292900 -747.356628
45.328899 22.338900 -747.292175
46.159401 22.046200 -747.561401
46.232300 21.827499 -747.788818
46.459099 21.675301 -747.938599
46.729599 21.570601 -748.036316
47.101200 21.476601 -748.117615
47.382999 21.485600 -748.094482
47.656101 21.586300 -747.974976
48.126598 21.504200 -748.039124
48.373798 21.375601 -748.163025
48.470699 21.179501 -748.365417
48.291901 20.361900 -749.237427
48.776100 20.292299 -749.287720
49.169300 19.910299 -749.672119
45.068298 22.813200 -747.146484
45.390099 22.763500 -747.183594
45.753899 22.563499 -747.377502
46.000198 22.433901 -747.502625
46.058800 22.200800 -747.746277
46.116299 21.965401 -747.992371
46.458302 21.938101 -748.004822
46.758999 21.966400 -747.960327
47.055401 21.990900 -747.920227
47.234501 21.787100 -748.127014
47.532200 21.813999 -748.084229
47.799599 21.908800 -747.971130
48.224098 21.877300 -747.983887
48.457001 21.733601 -748.124573
48.863899 21.785400 -748.050171
48.029301 20.717600 -749.219482
48.083401 20.495800 -749.451416
48.897701 20.387199 -749.526978
49.127998 20.235201 -749.676575
44.893600 23.167101 -747.117310
45.236801 23.042801 -747.232422
45.890499 22.760300 -747.499878
46.035900 22.522800 -747.744385
46.165401 22.213800 -748.065308
47.064201 22.049601 -748.195923
47.426498 22.047100 -748.181030
48.053699 22.238800 -747.947815
48.327202 22.141001 -748.038330
48.605499 22.048599 -748.122620
48.744301 21.799601 -748.379578
48.862999 21.604200 -748.580811
49.025299 20.474300 -749.769287
49.269100 20.337700 -749.902222
45.099899 23.318800 -747.187500
45.451698 23.204300 -747.291809
45.971401 22.484200 -748.030029
46.964901 22.364401 -748.109009
47.264099 22.298700 -748.164185
47.586201 22.252800 -748.197327
47.928101 22.229700 -748.205322
48.536900 22.303699 -748.097473
48.822498 22.220301 -748.172180
49.071701 22.115601 -748.271118
49.431099 20.342199 -750.133179
45.848999 22.883900 -747.735474
46.277599 22.357901 -748.272522
47.007702 22.256300 -748.344910
48.166302 22.532900 -747.995728
48.428799 22.524000 -747.992493
49.019299 20.741501 -749.853821
49.243599 20.582899 -750.010986
45.652802 23.203501 -747.466675
48.731800 22.501801 -748.060974
49.236698 22.079300 -748.484314
49.563400 20.576599 -750.061523
47.198700 22.548401 -748.107422
45.922600 22.753099 -747.984497
44.784801 23.563200 -747.280823
45.027500 23.623899 -747.203918
46.022598 22.529200 -748.312378
46.695801 22.164101 -748.664612
47.473598 22.516100 -748.251526
47.751202 22.421700 -748.337219
48.437901 22.781500 -747.920471
49.012600 22.519300 -748.168579
45.442299 23.561600 -747.399719
47.036800 22.588400 -748.348694
48.778900 22.840599 -747.990479
49.309502 22.630501 -748.185730
49.551300 22.701200 -748.098083
49.174999 20.941000 -749.984314
49.391800 20.773701 -750.150391
49.521702 20.609900 -750.317322
45.892502 23.052500 -748.083313
46.015499 22.857000 -748.284424
47.905201 22.559000 -748.502625
49.002300 22.975901 -748.002930
49.457001 22.528999 -748.453796
49.756802 20.759001 -750.317383
45.396099 23.831900 -747.415771
47.478100 22.826099 -748.378479
48.243301 22.770100 -748.398987
48.636299 23.106400 -748.021423
49.253201 22.993299 -748.109985
49.874298 20.633400 -750.586975
44.524399 24.229799 -747.111084
44.746101 24.120899 -747.215820
45.069199 23.976601 -747.352783
45.750401 23.334801 -748.000977
47.630501 22.697300 -748.583679
49.506802 22.980200 -748.187683
49.790901 22.998600 -748.153809
49.441399 21.058901 -750.234680
48.905201 23.238300 -747.990784
45.986900 23.297199 -748.133484
48.487202 21.145599 -750.294373
49.162701 23.274000 -748.004211
49.635601 20.947901 -750.453796
45.717300 23.313499 -748.262390
47.328999 22.902201 -748.621521
49.431400 23.326700 -748.064880
49.716202 20.793501 -750.752075
45.133099 24.267401 -747.401428
45.328098 23.990700 -747.686890
46.974800 23.434700 -748.198608
47.142799 23.289000 -748.345703
47.137901 23.086700 -748.561829
47.825100 22.842899 -748.787781
48.963299 23.724800 -747.791016
49.124802 23.576799 -747.940918
49.728100 23.352400 -748.150391
50.074200 23.440300 -748.039612
46.976601 22.956900 -748.860474
47.566002 23.001499 -748.783691
49.417000 23.645300 -748.005005
50.202999 23.368601 -748.261108
47.772202 23.133101 -748.918579
48.035801 23.122999 -748.916321
48.761200 23.719601 -748.243103
49.041199 23.829599 -748.111816
49.802502 23.879700 -748.020630
50.020199 23.724800 -748.175171
49.669701 21.398500 -750.677307
49.876099 21.219900 -750.857910
49.990200 21.038300 -751.046204
50.284199 21.064501 -751.003601
46.437302 23.080099 -749.421082
46.861900 23.121000 -749.356323
47.110802 23.290600 -749.162476
47.993698 23.357201 -749.047180
48.245800 23.235201 -749.164978
49.140701 24.020100 -748.280884
50.210499 24.314400 -747.912781
50.437698 24.171499 -748.054321
50.694599 24.061701 -748.158997
50.996399 24.002501 -748.207275
51.123600 23.807199 -748.409912
50.091900 21.439600 -750.993774
50.110500 21.147699 -751.305176
46.181801 23.233801 -749.628906
46.466702 23.143101 -749.711609
46.718399 23.215300 -749.621521
46.946499 23.361799 -749.453003
47.282001 23.624599 -749.154480
47.505001 23.470100 -749.308716
47.837200 23.434299 -749.330322
48.934601 24.300200 -748.347229
49.260899 24.200600 -748.437317
50.418701 24.593000 -747.958374
50.710201 24.522499 -748.019104
50.862301 24.096001 -748.468079
50.155102 21.553499 -751.226929
50.276501 21.380100 -751.406372
45.868401 23.681601 -749.449890
46.289001 23.242500 -749.898987
46.956600 23.364700 -749.733521
47.188599 23.515900 -749.559509
48.008900 23.612101 -749.414124
48.296001 23.548901 -749.466980
49.461800 24.313000 -748.587891
50.553699 24.830900 -747.976379
50.850300 24.865499 -747.924072
51.214100 24.579500 -748.211914
51.525902 24.632799 -748.138672
50.446602 21.453899 -751.601929
46.402302 23.580400 -749.726685
46.641499 23.477501 -749.824585
47.473099 23.779100 -749.457825
47.745499 23.678101 -749.552124
49.125999 24.497400 -748.601379
50.482601 25.100599 -747.883911
50.641998 21.628300 -751.600220
50.751801 21.443899 -751.792297
48.133900 23.604401 -749.707092
49.592701 24.539301 -748.627380
50.207001 21.885500 -751.442078
43.645199 25.950100 -747.232971
43.933399 26.051500 -747.109070
44.432400 25.712000 -747.445984
44.657902 25.564501 -747.591980
45.178600 24.959400 -748.212219
48.165100 23.363701 -749.599792
51.056099 24.739300 -748.055725
46.924999 23.606001 -749.868896
48.429001 24.670500 -748.678284
48.807598 24.749901 -748.573120
50.522701 21.596800 -751.868225
46.213402 23.785900 -749.722473
47.657902 23.965099 -749.453979
47.197300 23.661400 -749.784119
49.845501 24.525900 -748.732605
50.657299 21.399799 -752.086609
46.408199 23.636000 -749.984802
50.487499 21.844900 -751.693176
43.374500 26.533001 -747.075500
43.715401 26.519400 -747.071716
43.902599 26.332600 -747.262695
44.141998 26.197901 -747.394775
44.953602 25.410900 -748.198120
49.112202 24.773001 -748.660583
46.679699 23.706301 -749.946899
43.133202 26.523600 -747.236877
43.413700 26.411301 -747.341675
45.813900 24.300501 -749.475281
44.832100 25.692101 -748.115723
46.078400 24.360201 -749.477173
46.381199 24.286900 -749.538574
46.476398 23.889200 -749.961182
46.716301 24.048500 -749.775818
47.594898 23.798201 -749.994629
43.537300 26.760900 -747.114502
48.747200 25.033199 -748.672424
43.834499 26.597099 -747.331421
44.910599 25.496099 -748.453979
48.627998 25.257601 -748.493286
49.075199 25.031799 -748.710388
47.007801 24.053400 -749.866516
47.501202 23.580799 -750.345825
50.378201 21.677900 -751.487671
51.110699 24.237000 -748.304077
49.959400 24.243601 -748.029724
47.345699 23.153999 -749.098694
48.131302 23.406300 -748.783325
49.346500 23.939100 -748.143311
50.327599 23.921200 -748.104919
51.170799 23.959000 -748.015198
50.395901 20.938801 -751.284912
48.122299 22.908199 -749.036926
49.751301 22.980000 -748.412476
47.192501 22.823700 -748.361816
46.732601 22.481300 -748.635376
49.246899 22.393900 -748.357117
46.038200 21.849701 -748.305481
46.750801 21.496000 -748.301880
45.557098 21.736601 -747.305176
48.125500 20.591499 -748.397217
46.283798 20.507000 -746.780823
46.810101 18.956800 -746.886292
45.710201 18.749100 -746.650574
45.626400 18.273701 -746.494812
45.686798 17.997200 -746.440491
45.559601 17.759501 -746.084106
45.860699 17.689199 -746.153015
47.101898 17.243700 -746.599487
46.569099 17.719999 -746.099487
47.160198 16.995100 -746.723389
46.829899 17.407801 -746.291382
46.956001 16.532499 -746.562683
45.206699 16.278799 -745.194885
44.376202 16.141600 -744.940796
45.172699 16.136400 -744.953430
46.833199 15.690300 -745.432129
44.839298 16.005199 -744.907410
45.075001 15.863600 -745.057190
46.122299 16.059000 -744.865723
46.872799 15.350000 -744.939514
46.489601 14.583400 -744.882874
44.529999 15.070900 -744.079529
44.811901 14.984800 -744.172424
45.344101 15.094500 -744.067078
45.911800 15.037200 -744.134399
46.114700 14.856600 -744.323425
46.449100 14.458100 -744.579407
44.782700 14.600900 -743.883118
46.463402 14.190100 -744.335327
46.497002 13.904900 -743.994324
44.802700 13.825000 -742.757874
45.901901 12.477600 -742.829285
47.211300 13.319000 -742.154480
46.056099 12.166000 -742.884277
43.536701 12.149700 -742.152588
45.505600 12.051400 -742.369690
43.756401 12.181100 -741.817383
43.592098 11.803000 -741.835388
43.834202 11.717400 -741.936890
43.685101 11.310300 -741.328491
45.957901 10.511700 -741.622070
46.071800 10.338500 -741.808472
43.590401 8.842400 -739.406616
44.927101 7.750400 -740.149780
41.649799 8.057000 -738.157471
42.592499 7.261400 -739.077881
42.959301 7.204700 -739.180481
44.983101 7.244400 -739.390808
45.230000 7.138700 -739.528198
43.005798 7.382700 -738.711426
42.661598 6.837200 -739.063477
44.098701 7.180300 -738.899780
42.926998 6.987700 -738.362305
44.754398 6.563100 -738.995972
44.579800 5.826400 -739.554321
44.907101 5.846200 -739.307678
45.532600 5.698300 -739.543274
44.275700 5.771900 -738.979675
42.617699 5.977700 -738.267578
42.622601 5.563700 -738.359070
44.275101 5.297500 -738.861877
42.749401 5.469400 -738.060791
43.149799 5.555300 -738.031799
44.128601 4.892100 -738.745117
42.539200 5.322100 -738.005127
43.324402 5.169400 -737.501221
44.251099 4.090600 -738.219177
41.068699 4.331900 -737.223083
44.582001 3.906200 -738.166199
41.379002 4.300500 -737.177917
44.733200 4.006500 -737.966797
44.698601 2.619400 -738.461609
42.502998 4.220200 -737.136475
44.039200 3.664000 -737.977905
44.441299 4.012200 -737.961182
42.086800 2.881500 -737.384216
41.266201 2.391700 -736.971497
42.696098 2.563300 -737.061523
44.543098 2.020400 -737.944214
42.668900 2.252200 -737.173096
43.839298 1.012900 -738.636719
42.708599 1.980000 -737.069519
44.441502 1.061300 -738.322327
44.028301 1.801700 -737.307007
44.305401 1.743000 -737.418884
44.722000 1.155400 -737.958679
44.047001 1.021700 -737.860229
44.287800 0.927000 -737.898376
43.446201 1.624900 -736.928772
42.695499 1.065800 -736.815918
42.373100 0.950500 -736.617676
42.914600 0.915800 -736.757629
44.053398 0.809200 -737.085571
43.177898 0.889200 -736.698425
43.501999 0.890400 -736.760315
43.810600 0.850000 -736.788330
43.934898 3.585500 -738.441711
43.658298 3.756500 -738.388306
43.386501 3.922700 -738.395874
43.168301 4.062100 -738.208679
43.012299 4.166000 -737.935486
43.650902 3.309200 -738.431580
43.430000 3.448800 -738.296021
43.231602 3.577100 -738.080811
43.090801 3.672500 -737.785828
43.277302 3.118800 -738.339722
43.133999 3.215500 -738.050720
43.046001 3.276900 -737.804993
42.556198 3.605200 -736.885620
42.472801 3.664000 -736.630798
43.235100 2.684300 -738.129883
43.090698 2.779600 -737.918518
42.999901 2.843200 -737.678223
43.288300 2.953300 -738.097900
43.047298 3.118900 -737.576904
43.601002 3.092400 -738.238281
43.046101 3.456700 -737.535828
43.941601 3.204800 -738.485779
42.686001 4.588000 -737.331970
43.751499 4.219100 -738.595398
43.506401 4.369800 -738.563782
43.271099 4.514900 -738.519714
43.063801 4.649000 -738.318115
43.062199 4.663800 -737.958191
42.947899 4.755600 -737.382324
44.751099 3.948600 -739.155884
44.573101 4.065500 -738.940002
44.006199 4.423600 -738.616089
43.761200 4.569300 -738.704102
43.519798 4.717700 -738.668030
43.248699 4.887400 -738.552673
43.091702 4.993700 -738.283325
43.439400 4.982400 -738.761292
43.170700 5.155600 -738.523071
43.860600 4.834200 -738.827698
43.730701 5.070600 -738.847290
43.443600 5.249300 -738.754089
43.175999 5.422000 -738.514526
44.267101 4.915800 -738.988586
44.063999 5.121700 -738.894775
43.697899 5.344100 -738.907715
43.413799 5.521100 -738.811096
43.149601 5.697300 -738.446228
43.005199 5.807300 -737.915588
44.147400 5.141700 -739.171875
43.943001 5.429900 -739.003174
43.724300 5.560700 -739.058472
43.486000 5.707300 -739.020630
43.295898 5.832600 -738.796814
43.209202 5.984900 -738.538391
43.905499 5.578800 -739.285095
43.780800 5.801100 -739.198914
43.472801 5.996300 -739.014282
43.278301 6.123900 -738.796021
42.956100 6.355000 -737.978271
44.056599 5.844100 -739.321716
43.661900 6.089600 -739.188477
43.408901 6.249300 -739.050171
43.229198 6.374100 -738.690186
44.105598 6.043700 -739.504089
43.873299 6.191000 -739.351624
43.598301 6.362200 -739.242798
43.348598 6.519500 -739.100220
43.101002 6.707200 -738.224121
43.343300 6.741300 -738.916870
43.476799 6.695200 -738.123291
43.294601 6.815800 -737.885376
43.093399 6.946700 -737.673828
44.372398 6.220000 -739.766602
44.222099 6.319800 -739.565430
43.991699 6.461300 -739.516296
43.730202 6.625100 -739.389526
43.506199 6.768400 -739.211975
44.722599 6.128000 -739.646973
43.377102 6.965700 -739.062500
43.432800 6.967200 -738.255615
43.584599 6.890100 -737.923218
44.596600 6.402300 -740.174622
44.402100 6.527800 -739.998413
44.216599 6.650300 -739.769592
43.975101 6.803100 -739.616516
43.739101 6.947500 -739.576477
43.539398 7.077600 -739.367676
43.275902 7.274200 -738.545776
44.955101 6.351600 -740.144226
44.806499 6.450300 -739.948120
43.436199 7.308200 -739.281799
44.193600 6.986100 -739.713379
43.919899 7.150700 -739.723389
43.653099 7.317100 -739.605591
43.286499 7.576700 -738.782715
45.009602 6.588200 -739.627014
44.773602 6.736100 -739.510376
43.458000 7.530800 -739.487671
45.149300 6.533400 -741.135925
44.140800 7.201000 -739.869995
45.061199 6.701300 -740.903076
44.899399 6.811200 -740.644592
43.952599 7.417700 -739.889221
43.711399 7.570300 -739.737000
43.449001 7.751500 -739.254822
43.298000 7.868300 -738.716675
45.404701 6.570000 -740.942200
44.857300 6.927900 -740.364624
44.598701 7.090100 -740.233582
44.391399 7.224600 -740.034912
43.562698 7.745000 -739.599426
44.319801 7.181900 -740.291809
45.071499 6.987500 -740.191284
44.855999 7.126000 -740.043213
44.633701 7.270200 -739.864990
44.329800 7.451700 -739.914185
43.980099 7.657500 -740.026001
43.748199 7.806700 -739.863281
43.527901 7.962500 -739.447693
43.470402 8.012300 -739.168030
43.145000 8.215700 -739.049927
44.326000 7.699800 -740.046814
43.734699 8.072900 -739.773071
43.809700 8.078600 -738.838623
43.571602 8.232300 -738.664917
44.661499 7.768300 -740.470276
44.486401 7.884900 -740.281921
44.262501 8.023600 -740.226013
43.980701 8.193100 -740.247986
43.770000 8.331300 -740.057922
43.595501 8.450300 -739.819397
43.562302 8.507700 -739.151123
43.414501 8.612700 -738.874084
43.175598 8.765900 -738.720886
44.318100 8.297400 -740.617798
44.072899 8.455000 -740.454224
43.826199 8.612300 -740.312683
43.662601 8.725500 -740.060120
45.354900 7.944400 -741.232910
45.216900 8.044000 -740.946411
45.010101 8.180100 -740.749817
44.740200 8.349600 -740.636475
44.526798 8.482500 -740.566772
44.222599 8.663400 -740.618225
44.002201 8.799900 -740.559326
43.775200 8.946500 -740.392029
43.662800 9.032700 -740.070923
43.941799 8.905600 -739.338989
43.816700 8.998700 -739.031189
43.649101 9.088500 -739.233521
43.777199 9.202800 -740.248474
43.077900 9.699400 -738.938477
44.481899 8.939200 -741.246582
44.460201 8.970800 -740.924377
44.238998 9.114300 -740.749390
44.000900 9.266700 -740.597229
45.226200 8.667000 -742.156616
44.814602 8.952700 -741.511230
44.872700 8.948000 -740.990417
44.178902 9.373800 -740.856873
43.947201 9.529600 -740.578979
43.860802 9.595600 -740.341309
43.966801 9.567600 -739.724487
45.521000 8.637000 -742.051086
45.282299 8.789700 -741.898499
45.044498 8.942000 -741.745178
44.496899 9.297700 -741.301819
44.610100 9.245200 -741.034180
44.724499 9.214800 -741.478394
44.356899 9.462500 -741.030212
44.121601 9.606400 -740.992615
43.950001 9.723900 -740.752319
45.429100 8.882100 -741.642029
45.221001 9.013400 -741.542419
43.816200 9.915800 -740.598999
45.221100 9.200100 -741.300720
44.994499 9.346800 -741.132080
44.727001 9.507800 -741.135986
44.405102 9.697000 -741.213684
44.178101 9.836700 -741.165588
43.999901 9.958100 -740.934570
43.920799 10.116400 -740.743774
44.820999 9.669100 -741.839478
44.910999 9.643800 -741.383118
44.646000 9.803800 -741.384094
44.409302 9.949000 -741.348206
44.146301 10.107800 -741.348389
44.009102 10.208800 -741.063171
44.763199 9.880300 -741.654724
44.383099 10.114800 -741.575928
43.783699 10.549100 -740.449890
44.596901 10.079100 -741.720215
44.169998 10.368400 -741.237122
44.030701 10.572200 -740.310486
44.313499 10.362500 -741.475586
44.958199 10.202300 -741.969910
44.706402 10.368400 -741.840576
44.470501 10.526500 -741.690674
44.247700 10.678000 -741.524170
44.111801 10.786000 -741.244812
45.712399 10.007900 -742.700317
45.565399 10.116600 -742.492371
45.342999 10.268100 -742.324097
45.098301 10.430700 -742.184570
44.859699 10.590200 -742.037720
44.639599 10.740400 -741.867493
44.397301 10.901700 -741.726379
44.223301 11.028900 -741.496887
44.141102 11.140800 -740.804016
43.902901 11.308400 -740.564026
45.264500 10.691700 -742.091675
44.934299 10.897000 -742.062195
44.668400 11.060000 -742.064575
44.417801 11.225500 -741.934875
44.278702 11.335500 -741.660706
44.216099 11.438600 -740.942810
45.381802 10.909700 -742.763489
45.279301 10.997000 -742.493225
44.988300 11.182600 -742.414124
44.767101 11.333400 -742.246277
44.499001 11.507500 -742.139404
44.320202 11.637200 -741.917297
44.419300 11.650400 -741.103516
44.245800 11.773300 -740.921204
45.804798 10.918700 -742.771423
45.592499 11.067000 -742.569824
45.197601 11.314200 -742.510010
44.965401 11.460100 -742.468994
44.752800 11.596200 -742.403503
44.502998 11.771200 -742.159973
44.263500 11.982600 -741.446777
45.358200 11.492000 -742.811829
45.096001 11.663000 -742.696716
44.877300 11.801900 -742.639099
44.643700 11.958600 -742.488281
44.517502 12.062300 -742.198425
44.452801 12.173700 -741.411377
45.366600 11.907700 -742.996826
45.077801 12.091400 -742.916504
44.793499 12.272800 -742.831421
44.624100 12.397700 -742.598083
44.424702 12.592900 -741.798889
45.486401 12.314400 -743.474670
45.313702 12.438700 -743.269470
45.027500 12.620600 -743.187012
44.808601 12.769600 -743.018311
44.669498 12.879600 -742.746216
44.932800 12.836300 -741.489197
44.550701 13.097000 -741.187378
44.287498 13.267800 -741.075012
45.884499 12.442600 -744.030579
45.636398 12.595400 -744.010925
45.428501 12.739000 -743.828186
45.376499 12.796100 -743.557922
45.132900 12.946500 -743.533875
44.939701 13.082900 -743.332581
44.776402 13.204800 -743.092529
44.747601 13.261500 -742.676392
44.785500 13.264600 -742.399292
44.656601 13.402400 -741.768127
44.458099 13.541700 -741.570984
44.235298 13.692700 -741.406311
44.055099 13.819800 -741.219727
45.986500 12.629900 -743.756592
45.709900 12.807300 -743.661072
45.343601 13.028200 -743.682312
45.074299 13.201800 -743.579712
44.866600 13.345500 -743.397827
44.822899 13.455800 -743.147278
44.826698 13.508600 -742.574280
44.557098 13.566400 -742.479797
45.765499 12.827400 -744.572327
45.601501 12.948900 -744.368286
45.499199 13.043700 -744.053284
44.726299 13.699700 -742.271484
45.350399 13.241100 -743.856323
45.007099 13.476300 -743.625916
44.792400 13.638100 -743.341675
46.126999 12.826400 -744.291626
45.919601 12.969500 -744.143127
44.423302 13.389400 -741.941406
45.705898 12.036200 -743.248718
45.492298 12.184700 -743.115417
44.588100 12.821000 -742.483826
44.625999 12.919300 -741.412781
43.958801 13.374100 -741.076111
45.225399 12.157900 -743.152100
44.986900 12.323400 -743.010620
44.698700 12.525400 -742.821472
44.752499 12.590500 -741.963928
44.431599 12.834300 -741.589417
45.493500 11.941500 -743.407898
44.207199 12.985700 -741.503296
44.104000 13.183800 -741.331787
46.269001 11.907600 -743.689514
44.427898 13.257400 -742.207214
45.888302 13.227600 -744.148987
45.685200 13.373900 -744.005676
45.459801 13.521300 -743.956177
45.248600 13.662300 -743.889404
45.021099 13.825700 -743.732483
44.950199 13.964000 -743.040283
45.684502 13.585700 -744.274414
45.443001 13.755500 -744.134521
45.201599 13.925200 -743.995178
44.941299 14.118500 -743.768799
44.849300 14.353700 -742.468384
45.595200 13.857500 -744.380676
45.355000 14.026900 -744.240112
45.114300 14.196500 -744.100586
46.087700 13.795400 -744.557617
45.825100 13.972300 -744.464417
45.594898 14.121900 -744.422119
45.336201 14.299700 -744.305115
45.087399 14.581900 -743.392822
45.978901 14.111100 -744.773804
45.775101 14.264200 -744.586914
45.498699 14.434200 -744.603577
45.313999 14.578700 -744.393311
45.143799 14.716700 -744.164429
45.176300 14.780200 -743.562378
45.241501 14.820200 -742.983398
46.282600 14.203600 -745.063171
46.118500 14.335100 -744.853882
45.857399 14.513800 -744.739319
45.589802 14.679700 -744.744995
45.360802 14.843800 -744.591187
45.243500 15.036500 -743.735413
