63.002800 15.544500 -776.161194
62.126400 15.377900 -776.437622
61.731701 15.334000 -776.579773
61.146900 15.181700 -776.740784
60.768299 15.051200 -776.826782
59.610199 15.023400 -777.301819
59.227100 14.977000 -777.437683
58.714802 14.952200 -777.640686
58.267200 14.927800 -777.816406
57.563301 14.936800 -778.119873
57.179600 14.957500 -778.294312
56.478298 14.981800 -778.605408
56.095600 15.041800 -778.801819
64.452698 16.075300 -775.511475
62.645000 15.742700 -776.086609
61.361599 15.500600 -776.491577
60.419899 15.233200 -776.737427
60.030701 15.271400 -776.923889
58.875900 15.223400 -777.385193
57.979301 15.212000 -777.758118
57.338001 15.275500 -778.065674
56.892502 15.251800 -778.240723
56.316799 15.367000 -778.550110
55.748600 15.238100 -778.716980
65.530296 16.177900 -774.787781
65.208099 16.359900 -775.028076
64.834602 16.370501 -775.192322
64.031197 16.211700 -775.441528
63.625401 16.122801 -775.562500
63.222599 16.046101 -775.689087
62.830399 16.004299 -775.831177
62.308498 15.954400 -776.023621
61.892399 15.843900 -776.136475
60.969799 15.667900 -776.426514
60.589199 15.569200 -776.531128
59.688000 15.554900 -776.904419
59.304501 15.514400 -777.043518
58.537201 15.455400 -777.334473
57.702999 15.503100 -777.714783
57.062698 15.566700 -778.022095
56.679901 15.592600 -778.198914
56.104900 15.721100 -778.515686
65.634300 16.564501 -774.644226
64.467697 16.544399 -775.126404
61.514702 15.994100 -776.061279
60.226799 15.736800 -776.459290
58.939800 15.737000 -777.004028
58.172699 15.690100 -777.301819
57.401402 15.791400 -777.686096
56.442501 15.913900 -778.161926
55.744202 15.938000 -778.471191
65.249901 16.710600 -774.655396
64.889397 16.764200 -774.838379
64.029297 16.623301 -775.121216
63.628700 16.550100 -775.248474
63.215000 16.437500 -775.358887
62.825802 16.404600 -775.504578
62.432899 16.361700 -775.646118
62.027000 16.280600 -775.771118
61.088001 16.124001 -776.078308
60.698502 15.994700 -776.168884
59.862400 15.958500 -776.501526
59.475800 15.964900 -776.668518
58.517200 15.875000 -777.022095
57.809898 15.935700 -777.355591
57.103100 16.057699 -777.723999
56.720200 16.086901 -777.902527
56.144798 16.221600 -778.222595
61.610600 16.291000 -775.791870
59.086700 16.060499 -776.724915
57.418201 16.131399 -777.469177
55.758202 16.358400 -778.299072
64.506401 16.922800 -774.804504
60.323700 16.136400 -776.114685
58.199902 16.145300 -777.013184
56.403500 16.389999 -777.908508
65.340897 16.800699 -774.200806
65.096901 17.037201 -774.438293
64.072098 16.974100 -774.832703
63.675701 16.913799 -774.964722
63.278400 16.852600 -775.096619
62.877201 16.781200 -775.224304
62.480099 16.724300 -775.358582
62.082401 16.667999 -775.493530
61.268299 16.503401 -775.741516
60.865002 16.436199 -775.872375
59.893002 16.248800 -776.173584
59.501202 16.330500 -776.384827
58.732101 16.284000 -776.681213
57.833401 16.301701 -777.068787
57.124500 16.448099 -777.450073
56.741199 16.476299 -777.627197
56.036999 16.643900 -778.018616
55.466900 16.649200 -778.261108
64.686600 17.169800 -774.522888
61.640598 16.708401 -775.537170
59.066200 16.418699 -776.451721
57.458599 16.515600 -777.181396
60.258999 16.467400 -775.882019
58.326500 16.466999 -776.690613
56.460999 16.765100 -777.641418
55.756901 16.969200 -778.052490
64.247002 17.275700 -774.541626
60.987499 16.761299 -775.610229
59.661301 16.561899 -776.050720
57.921501 16.624901 -776.813721
56.891399 16.796400 -777.341919
56.120701 17.016399 -777.789612
65.294800 17.439400 -773.981995
64.871696 17.466101 -774.174011
63.850399 17.414499 -774.571411
63.449299 17.338800 -774.695679
63.039200 17.236900 -774.808899
62.638901 17.168900 -774.937317
62.245300 17.123501 -775.075928
61.843399 17.054300 -775.204285
61.375599 16.979700 -775.357178
60.570499 16.848400 -775.618713
59.309601 16.760401 -776.095215
58.923199 16.763300 -776.258423
58.538898 16.739799 -776.405518
57.571201 16.868401 -776.883301
57.187000 16.887600 -777.054688
55.459999 17.230000 -777.971680
64.494904 17.658100 -774.199585
64.108597 17.627701 -774.343384
60.908199 17.098900 -775.376709
60.099300 16.978201 -775.645325
59.678200 16.863899 -775.755676
58.193199 16.965000 -776.432983
56.842499 17.162800 -777.109375
56.457199 17.264099 -777.328003
56.071999 17.404800 -777.569092
55.688801 17.525900 -777.798096
64.993301 17.623301 -773.780823
63.564602 17.682501 -774.410095
63.164001 17.609600 -774.535522
62.757500 17.520201 -774.653870
62.373798 17.504900 -774.805115
61.956699 17.387100 -774.911621
61.558998 17.332001 -775.046021
60.492901 17.176901 -775.401672
59.063202 17.047701 -775.923889
58.675598 17.081600 -776.104919
57.775799 17.126200 -776.505371
57.387199 17.238501 -776.731506
64.680603 17.906401 -773.892273
61.119999 17.407101 -775.093323
59.382301 17.173201 -775.684998
56.999100 17.445101 -776.834900
56.615101 17.504601 -777.029114
56.229801 17.632401 -777.262878
55.909000 17.766701 -777.473389
55.340801 17.753201 -777.702881
64.280296 18.099600 -773.969971
63.878700 18.016500 -774.090271
63.228802 17.945900 -774.321472
62.489700 17.797100 -774.545227
62.023998 17.721001 -774.696289
59.955700 17.328501 -775.336121
58.410400 17.369499 -776.004883
58.025799 17.377001 -776.169922
57.573502 17.476801 -776.415710
64.979202 18.202299 -773.498718
64.588799 18.302401 -773.718628
62.814400 18.041901 -774.310120
61.598598 17.788099 -774.672424
61.200001 17.728500 -774.804626
60.797001 17.657801 -774.932373
60.399101 17.604200 -775.067688
59.522701 17.423100 -775.330017
59.134899 17.453699 -775.509216
58.747200 17.494101 -775.693970
57.202000 17.725401 -776.470520
56.817101 17.806999 -776.677673
56.434101 17.870100 -776.873474
56.049702 18.004200 -777.110413
55.728001 18.211599 -777.362976
55.350700 18.184099 -777.504700
64.345398 18.629700 -773.661682
63.944801 18.547300 -773.781372
63.538700 18.449699 -773.894714
63.141701 18.383900 -774.022400
62.469200 18.244801 -774.222900
61.881901 18.180901 -774.431030
60.029701 17.822500 -774.997314
58.428600 17.769199 -775.633423
58.041302 17.841299 -775.835876
57.654499 17.924000 -776.044189
56.243900 18.293699 -776.842712
55.923100 18.467600 -777.075623
55.542599 18.576500 -777.296326
64.653198 18.694500 -773.131714
64.419197 18.956800 -773.379089
64.048302 18.970900 -773.541382
63.556198 18.795601 -773.645630
63.164700 18.746599 -773.780273
62.762100 18.664400 -773.900574
62.356300 18.574200 -774.017822
61.958000 18.510300 -774.146790
61.496700 18.448200 -774.302979
61.069099 18.299400 -774.395630
60.673698 18.250799 -774.532227
60.181301 18.178200 -774.695374
59.801701 18.089100 -774.802185
59.422298 17.996000 -774.906677
59.032700 18.075001 -775.113892
58.647999 18.086000 -775.280090
58.262299 18.128099 -775.464600
57.876099 18.198500 -775.665527
57.490501 18.277300 -775.870911
57.106701 18.340000 -776.066284
56.722801 18.433901 -776.279724
56.339001 18.562901 -776.513123
56.018101 18.743000 -776.749573
55.698002 18.958599 -777.006104
55.261002 18.855400 -777.128784
64.665199 19.126699 -773.003479
60.364799 18.496901 -774.427124
58.771000 18.366899 -775.013977
55.446899 19.278799 -776.916016
64.439003 19.461500 -773.001221
64.083801 19.527201 -773.185974
63.465302 19.349501 -773.340515
63.061501 19.262400 -773.457825
62.389000 19.123800 -773.657104
61.976799 19.017099 -773.766785
61.585602 18.977400 -773.906189
60.836201 18.764000 -774.094421
59.948502 18.606400 -774.371887
59.569901 18.508801 -774.472778
59.190201 18.430901 -774.585571
58.415199 18.586500 -774.995972
58.031700 18.613100 -775.170227
57.647301 18.677700 -775.366516
57.262501 18.780399 -775.584778
56.880600 18.835600 -775.774780
56.497299 18.970501 -776.010986
56.177601 19.130699 -776.235291
55.859001 19.306400 -776.468079
60.414101 18.896400 -774.114014
58.828098 18.682800 -774.649719
55.635101 19.665300 -776.537903
55.199100 19.586399 -776.673584
64.198097 19.811300 -772.925171
63.613602 19.741199 -773.127686
61.222000 19.175900 -773.797180
56.645901 19.159401 -775.688171
56.007900 19.519199 -776.159180
63.025700 19.701200 -773.257813
60.771198 19.135599 -773.867798
60.012501 18.989799 -774.098389
59.636600 18.859301 -774.179504
59.257099 18.786900 -774.295227
58.484798 18.932199 -774.697998
58.103100 18.938900 -774.859924
57.720100 18.994600 -775.050415
57.338699 19.029699 -775.228394
56.319199 19.370199 -775.845276
61.653702 19.459000 -773.515686
57.019100 19.272100 -775.318420
55.748402 19.872101 -776.184875
55.434101 20.019199 -776.398621
64.482399 20.311701 -772.657288
63.509899 20.098000 -772.935303
61.197498 19.494499 -773.541870
60.439201 19.349701 -773.771179
58.924500 19.031300 -774.212524
56.689301 19.487400 -775.392822
56.117298 19.761900 -775.784973
59.989498 19.322500 -773.841614
59.613499 19.193899 -773.922607
58.529800 19.204201 -774.373718
58.146900 19.246000 -774.554871
57.763599 19.320200 -774.754700
57.382301 19.365999 -774.937500
55.044998 20.125999 -776.331482
61.948898 19.757200 -773.215088
60.749001 19.520000 -773.571777
59.197102 19.182699 -773.953979
55.882000 20.100300 -775.826416
55.567200 20.271601 -776.052002
64.074600 20.339701 -772.570007
61.549900 19.821800 -773.305176
57.050598 19.591299 -775.008911
56.352501 19.804600 -775.414795
63.032501 20.226801 -772.884888
62.594200 20.200600 -772.928284
62.169399 20.054501 -773.018372
61.113602 19.843100 -773.328613
60.355999 19.708200 -773.560730
58.781601 19.362801 -774.005981
56.678001 19.756701 -775.086975
55.224201 20.523899 -776.115479
63.255100 20.565399 -772.722107
59.901299 19.697100 -773.595276
59.524700 19.594299 -773.690308
58.444000 19.584700 -774.125183
58.061199 19.639099 -774.312073
57.679901 19.675800 -774.488281
57.300098 19.693501 -774.653076
56.154900 20.167200 -775.388977
64.045998 20.645800 -772.274475
63.727901 20.827801 -772.507629
62.824799 20.542299 -772.713318
61.312099 20.111000 -773.084595
60.746700 19.976000 -773.238281
59.114399 19.542299 -773.656982
56.945999 19.892700 -774.739685
56.436401 20.126600 -775.080322
55.865398 20.470200 -775.508301
55.550900 20.635201 -775.730286
63.325401 20.923599 -772.498230
62.404499 20.587299 -772.681885
61.983299 20.450100 -772.775513
60.330299 20.064699 -773.229370
58.694599 19.717400 -773.697998
58.179901 19.872200 -773.995728
64.090202 21.149599 -772.073792
63.672600 21.182199 -772.262329
62.850300 20.950600 -772.465027
61.247601 20.467600 -772.842285
60.870399 20.388100 -772.950500
59.928699 20.169500 -773.209412
59.551201 20.094700 -773.320313
59.177700 19.944000 -773.386597
57.776901 20.071301 -774.028870
57.397499 20.084299 -774.190674
57.016499 20.161400 -774.389526
56.633801 20.343201 -774.648682
56.315800 20.511900 -774.874023
55.998600 20.715500 -775.118896
55.671299 20.878700 -775.344788
62.252399 20.908199 -772.462585
60.431900 20.451500 -772.943970
58.739399 20.017200 -773.385925
58.353901 20.118000 -773.600220
63.775101 21.446501 -771.868530
61.136101 20.800301 -772.575623
60.758900 20.728399 -772.688293
60.007702 20.534000 -772.883728
59.631500 20.443199 -772.985229
59.256100 20.336700 -773.077515
57.986500 20.382799 -773.620972
57.607899 20.372200 -773.769226
57.227001 20.440500 -773.963318
56.847099 20.510300 -774.157776
56.526798 20.731100 -774.414001
56.147598 20.878300 -774.652283
55.729900 21.051800 -774.921326
60.340500 20.838600 -772.621216
58.839600 20.409401 -772.987183
58.458302 20.422001 -773.149475
63.620899 21.855101 -771.617126
62.363899 21.629200 -771.998718
61.185001 21.254801 -772.263916
60.748199 21.128201 -772.369080
59.936600 20.887300 -772.561279
59.496899 20.798401 -772.689209
59.121799 20.689100 -772.779175
58.107601 20.694099 -773.193787
57.727200 20.726000 -773.366577
57.348000 20.743401 -773.530396
56.967899 20.807501 -773.721313
56.649601 20.943100 -773.927917
56.331699 21.111700 -774.153076
56.015598 21.261400 -774.366821
61.902199 21.645901 -771.941772
60.323799 21.222000 -772.340820
58.701000 20.711201 -772.708374
63.563599 22.135599 -771.323303
63.240200 22.265301 -771.528687
62.845798 22.199100 -771.651184
62.416698 22.026600 -771.727173
61.067600 21.570101 -772.014771
60.630199 21.454500 -772.126587
59.881302 21.234600 -772.305420
59.506699 21.121300 -772.392883
59.068401 21.009501 -772.507324
58.313301 20.889799 -772.745789
57.991402 21.015400 -772.948425
57.610600 21.060101 -773.128479
57.233101 21.037500 -773.268982
56.850700 21.180099 -773.505798
56.471500 21.263500 -773.707520
56.152802 21.483601 -773.962585
55.775101 21.624901 -774.196716
62.008499 21.971600 -771.694275
60.223499 21.540001 -772.012695
58.661701 21.068300 -772.377380
63.559601 22.605900 -771.128418
63.182098 22.546200 -771.247620
62.806400 22.538799 -771.395874
62.375301 22.358500 -771.468079
61.582901 22.033899 -771.604675
60.770199 21.808001 -771.805786
59.647400 21.460899 -772.063721
59.269901 21.393999 -772.178772
58.265499 21.179501 -772.464294
57.816700 21.297800 -772.713989
57.435902 21.337099 -772.891113
57.055698 21.382900 -773.071594
56.674702 21.480101 -773.281677
56.356499 21.616899 -773.489075
55.976799 21.762199 -773.726196
55.660099 21.949600 -773.961670
58.843300 21.379999 -772.153015
55.290199 22.197300 -774.062073
61.983200 22.449699 -771.377625
60.384899 21.902300 -771.713623
59.948399 21.759300 -771.809021
63.304401 22.947599 -771.001282
62.485199 22.719900 -771.203186
59.402100 21.730600 -771.887573
58.404099 21.362499 -772.081787
58.018902 21.437000 -772.280212
57.568501 21.581800 -772.544983
57.125099 21.592699 -772.730713
56.742500 21.697599 -772.945374
56.168201 21.945000 -773.318787
55.726200 22.060301 -773.563416
61.487099 22.440701 -771.355286
54.991600 22.532700 -774.037476
60.678001 22.237801 -771.409302
58.988300 21.742399 -771.811584
56.385101 21.893400 -772.951782
55.431000 22.389400 -773.620728
62.972698 23.075899 -770.691895
62.131802 22.984400 -770.980774
61.546299 22.723101 -771.069275
60.231602 22.278299 -771.348877
59.856098 22.171301 -771.440186
59.479900 22.072399 -771.536377
58.544399 21.717300 -771.713318
58.164902 21.671000 -771.840820
57.779499 21.758801 -772.047119
57.395901 21.831301 -772.244019
57.014099 21.886400 -772.430298
56.631199 21.999100 -772.649780
56.059700 22.156200 -772.971008
55.740700 22.357300 -773.215027
55.108601 22.712999 -773.674072
54.739300 22.807100 -773.877380
60.844101 22.679399 -771.038086
60.468899 22.574400 -771.130310
59.095699 22.118700 -771.427124
55.417099 22.653799 -773.223877
54.354401 22.881901 -773.784973
62.855999 23.352600 -770.293884
62.464001 23.462099 -770.515381
62.061401 23.375900 -770.629395
61.691200 23.199600 -770.678772
60.078899 22.660900 -771.024902
59.704102 22.545500 -771.111023
59.330700 22.399700 -771.179077
58.706699 22.175301 -771.304016
58.331501 22.046801 -771.382813
57.951801 22.010799 -771.516174
57.567001 22.102100 -771.724182
57.184200 22.174601 -771.921021
56.803200 22.226999 -772.105408
56.422401 22.299700 -772.301270
56.103600 22.444901 -772.513611
55.722801 22.614300 -772.764709
55.152401 23.031000 -773.234070
61.042500 23.237700 -770.587219
60.669998 23.100100 -770.659607
60.297798 22.953800 -770.726990
58.985298 22.565399 -771.037415
55.442902 22.954100 -772.697510
54.876301 23.320299 -773.137024
62.465900 23.725700 -769.870972
61.178699 23.596300 -770.318787
59.938801 23.114901 -770.545715
59.564301 22.999701 -770.631470
59.189499 22.886499 -770.718628
58.626999 22.713400 -770.847473
58.253799 22.554100 -770.907471
57.878300 22.435699 -770.991882
57.495098 22.509300 -771.189514
57.112301 22.599899 -771.396606
56.732201 22.645201 -771.576721
56.351501 22.740400 -771.785706
55.971802 22.846100 -772.000305
55.592701 22.989401 -772.236084
55.212799 23.283899 -772.559082
62.188599 24.005400 -769.683594
61.283501 23.947201 -770.017395
60.913502 23.785200 -770.074402
60.544102 23.606701 -770.121582
60.171001 23.480700 -770.200684
59.673801 23.298300 -770.297485
59.235199 23.199200 -770.418518
58.860100 23.094200 -770.510376
58.361198 22.921101 -770.613281
57.990002 22.715300 -770.645630
57.612202 22.654900 -770.764221
57.228100 22.774799 -770.988892
56.847301 22.839300 -771.180481
56.466099 22.948200 -771.397705
56.085999 23.070801 -771.622314
55.707600 23.179399 -771.838196
55.391998 23.342300 -772.059814
55.014999 23.554701 -772.334778
61.319302 24.306299 -769.742981
60.951500 24.119400 -769.784973
60.583698 23.923800 -769.822021
60.211800 23.784201 -769.892883
59.841702 23.606899 -769.941284
59.403099 23.514200 -770.066284
58.965698 23.397800 -770.177185
58.592400 23.258900 -770.249084
58.094799 23.060200 -770.337097
57.721699 22.893400 -770.392822
57.340099 22.948999 -770.580017
56.957802 23.055700 -770.796875
56.577599 23.132900 -770.995972
56.197601 23.246401 -771.215881
55.819199 23.351801 -771.430481
55.441700 23.479601 -771.657715
55.127701 23.619200 -771.865784
54.752102 23.844500 -772.148315
59.525501 23.787201 -769.766296
58.218102 23.340401 -770.041321
57.085602 23.231600 -770.439819
61.595798 24.618500 -769.042114
60.968300 24.613001 -769.294373
60.599499 24.437599 -769.343201
60.230202 24.263300 -769.392883
59.860100 24.091600 -769.444397
59.111900 23.882099 -769.627991
58.738098 23.767000 -769.713684
58.365501 23.617399 -769.779114
57.868599 23.401199 -769.856384
57.494999 23.249800 -769.921082
56.731201 23.483200 -770.366821
56.352299 23.564800 -770.568176
55.975201 23.609301 -770.747375
55.598202 23.695801 -770.950684
55.221901 23.822800 -771.177307
54.908699 24.006901 -771.411072
54.163502 24.177401 -771.812927
61.234901 24.810101 -768.886475
59.497799 24.216499 -769.249207
58.004601 23.687401 -769.550171
57.190399 23.503401 -769.774719
56.871201 23.647400 -769.987793
55.675701 23.817200 -770.572083
55.299000 23.951099 -770.802673
54.985901 24.107300 -771.020386
54.674000 24.289301 -771.252380
53.992199 24.146000 -771.446777
60.863499 24.967699 -768.750977
60.487000 24.925600 -768.879700
60.118000 24.747900 -768.926697
59.746399 24.608601 -768.996887
59.127701 24.346800 -769.096619
58.756199 24.181000 -769.151428
58.319099 24.066799 -769.262878
57.637199 23.727900 -769.343628
56.562000 23.894800 -769.877319
56.185600 23.889601 -770.027222
55.808498 23.955000 -770.218384
54.309700 24.432400 -771.104187
57.925999 24.007299 -769.180115
57.178398 23.716499 -769.314575
56.859100 23.871901 -769.534180
55.413200 24.107800 -770.257629
55.037998 24.205999 -770.466675
54.663799 24.385700 -770.722717
53.919201 24.324800 -770.989380
61.077999 25.017099 -768.410889
59.354401 24.616400 -768.827576
60.546001 25.115700 -768.523071
59.802502 24.834499 -768.660828
58.809700 24.435600 -768.831299
58.435902 24.308599 -768.908875
56.242100 24.097000 -769.673584
55.866501 24.098600 -769.826477
60.115398 25.123699 -768.500488
58.004299 24.267900 -768.856018
57.632099 24.044600 -768.876587
57.256901 23.913601 -768.952026
56.561199 24.141199 -769.364929
55.433899 24.246700 -769.880981
55.059601 24.335899 -770.083923
54.686501 24.420500 -770.283508
54.376900 24.569401 -770.494873
53.941700 24.435801 -770.593018
60.613400 25.181400 -768.089722
59.487801 24.956301 -768.412720
59.116501 24.773800 -768.456421
58.493599 24.553900 -768.579712
56.868599 24.056299 -768.945679
55.924999 24.254400 -769.441284
60.170898 25.311300 -768.091980
59.798100 25.183800 -768.167786
58.056198 24.513500 -768.478821
57.682499 24.334700 -768.525085
57.308399 24.151600 -768.569092
56.488499 24.314301 -768.993896
55.486401 24.379900 -769.435486
55.111900 24.472500 -769.640076
54.738400 24.532301 -769.825317
54.366299 24.644300 -770.040405
53.931099 24.573400 -770.174316
59.420101 25.193399 -768.002319
59.047199 25.041700 -768.063416
58.673401 24.905399 -768.133728
58.298901 24.785000 -768.213684
56.925499 24.198799 -768.422485
56.105701 24.463400 -768.905823
55.729900 24.481199 -769.066895
60.154900 25.351299 -767.363708
59.833099 25.504499 -767.581970
57.962601 24.845900 -767.944214
57.587700 24.703699 -768.010803
57.212799 24.535700 -768.062317
56.647598 24.432501 -768.227783
56.331799 24.577000 -768.438721
55.767200 24.617701 -768.688171
55.391602 24.642401 -768.852722
55.016899 24.695801 -769.033813
54.642899 24.748899 -769.214294
54.269798 24.800200 -769.393494
53.832699 24.665001 -769.489075
59.542000 25.554001 -767.306030
59.104900 25.425501 -767.404785
58.730202 25.311001 -767.487000
58.355598 25.180799 -767.559875
57.293999 24.730000 -767.718506
56.918701 24.541599 -767.757629
55.973400 24.727800 -768.243713
55.096802 24.830000 -768.653076
54.285900 24.868900 -768.999207
53.894402 24.730900 -769.074280
59.673000 25.562599 -766.921814
57.980499 25.171499 -767.364624
57.605400 25.028601 -767.429688
56.540501 24.593800 -767.597412
56.161301 24.755199 -767.843018
55.595901 24.844500 -768.120178
54.720001 24.915800 -768.510315
59.279499 25.586399 -766.806213
58.900101 25.605499 -766.968079
58.525902 25.461000 -767.031616
57.212002 24.998199 -767.280701
56.837299 24.762699 -767.290771
55.201900 24.966400 -768.060181
54.326500 24.944201 -768.394775
53.949799 24.771000 -768.442322
58.145199 25.413601 -766.895325
57.769901 25.280399 -766.965698
56.390999 24.758400 -767.205017
56.011700 24.907200 -767.443176
55.634300 24.990000 -767.641785
54.757099 25.020700 -768.007996
58.917900 25.597700 -766.349426
58.537601 25.625401 -766.516479
57.410400 25.247601 -766.740173
57.034401 25.102100 -766.803284
56.659100 24.875099 -766.817871
55.272400 25.065100 -767.480103
54.395302 25.094000 -767.844910
54.018200 24.894600 -767.876587
58.618099 25.609600 -766.023987
58.237499 25.635599 -766.190125
57.797298 25.545700 -766.310974
57.170898 25.289000 -766.406921
56.794498 25.125000 -766.458679
56.417900 24.935801 -766.495728
56.038799 24.933901 -766.644714
55.721901 25.128799 -766.885620
55.344200 25.160900 -767.054077
54.967300 25.206600 -767.230530
54.591000 25.204000 -767.377930
54.151501 25.074200 -767.474976
53.835098 24.774900 -767.422913
58.230701 25.617599 -765.760071
57.535301 25.570101 -766.006714
56.908001 25.298700 -766.093323
56.530998 25.134899 -766.145020
56.153400 24.967800 -766.194824
55.709599 25.112301 -766.456116
55.016102 25.239300 -766.805420
54.639099 25.273399 -766.974670
54.199001 25.153999 -767.077576
57.873100 25.643101 -765.546387
57.210300 25.532101 -765.741821
55.760799 25.080900 -766.044922
55.317699 25.241100 -766.315125
53.994499 25.061501 -766.729980
57.497700 25.672899 -765.382019
56.868000 25.453699 -765.499329
56.490200 25.292500 -765.552124
56.112000 25.118999 -765.597717
54.909199 25.343201 -766.205322
54.531399 25.379000 -766.375488
57.187199 25.606600 -765.110413
55.734402 25.103800 -765.381287
55.353100 25.233801 -765.608887
55.036499 25.371901 -765.815979
54.201199 25.233400 -766.061829
56.794998 25.560600 -764.915100
56.415901 25.424601 -764.982483
56.036701 25.273500 -765.041077
54.642700 25.421900 -765.677429
53.946201 25.079500 -765.745972
55.624699 25.179800 -764.947815
55.243401 25.268499 -765.150574
54.230900 25.294701 -765.564026
56.942402 25.601601 -764.527771
54.830399 25.414600 -765.244385
56.533401 25.555201 -764.566772
56.153999 25.411501 -764.629272
55.789001 25.239300 -764.538879
55.280998 25.239100 -764.736084
54.396000 25.416100 -765.186584
56.713699 25.433599 -763.966125
56.330898 25.539600 -764.178772
55.441700 25.213800 -764.327576
56.355900 25.468700 -763.742798
54.904499 25.391600 -764.650391
54.577702 24.160200 -771.658997
54.345798 24.028299 -772.174927
54.139500 23.783701 -772.479919
54.560600 23.829599 -772.535828
54.305500 23.681101 -772.830688
54.363400 23.482700 -773.202576
54.151100 23.194599 -773.482422
54.717602 23.138800 -773.521179
54.429901 22.838100 -774.187378
61.369499 24.577000 -769.408630
60.358200 25.290600 -767.706787
57.335201 25.471399 -764.418701
58.574402 25.149401 -765.674927
62.871201 22.917900 -771.087830
58.201199 25.389200 -765.233521
58.875198 25.407700 -765.732422
59.229900 25.348200 -766.060730
61.124802 24.628700 -768.195007
61.374401 24.437000 -768.568115
61.869400 24.310801 -769.067078
62.153099 24.238701 -769.352905
57.639500 25.513500 -764.788330
59.526299 25.359600 -766.379822
59.901699 25.396999 -766.631897
57.884399 25.600599 -765.100525
59.935902 25.232800 -767.023071
56.614201 25.114500 -767.165222
57.378399 24.196699 -769.259277
54.851898 23.600500 -772.749878
54.782700 22.325800 -774.416077
54.999100 22.027300 -774.717896
54.910599 21.717400 -774.972229
55.116798 21.442200 -775.309082
55.431999 22.005301 -774.387024
55.386002 21.820000 -774.775330
55.174702 21.056801 -775.598511
55.476002 21.477301 -775.009888
55.481899 21.248501 -775.339172
55.902199 22.793600 -772.431885
55.758301 21.453300 -774.664490
57.855301 16.495501 -777.466675
57.804001 15.311600 -778.180481
61.533600 24.796600 -768.465027
61.073700 22.849001 -770.752075
61.034100 22.323799 -771.213196
61.004398 21.998199 -771.478882
61.911999 24.768700 -768.832886
61.790699 24.281099 -769.570129
61.700500 23.946899 -769.875671
61.604401 23.593100 -770.184326
61.411201 21.677601 -771.749817
62.111401 23.869400 -770.070374
59.285801 13.410300 -778.999573
60.525200 17.918200 -774.749878
61.482700 21.337000 -771.996399
61.481701 20.980301 -772.266724
61.568501 20.547001 -772.571716
61.854000 21.209000 -772.126770
59.991501 14.262600 -778.210571
62.652302 23.883101 -769.531494
61.258701 18.689600 -774.009277
62.570801 23.064600 -770.796326
61.752899 20.073601 -772.945496
62.859200 23.608900 -769.881470
60.652599 12.124900 -779.344421
60.711201 8.727300 -781.312805
61.980000 11.566900 -779.419495
64.443497 20.122900 -772.151184
64.538498 19.778299 -772.523987
64.966904 18.747801 -772.860779
64.998001 18.385900 -773.102173
61.504200 5.322300 -782.562988
62.804001 8.829900 -780.816101
62.376900 7.349100 -781.161987
62.859798 7.344100 -781.108826
63.301300 7.523700 -780.867371
62.566502 4.687400 -782.872925
63.165600 4.705200 -782.804382
63.945301 6.067200 -781.565491
64.322197 6.103700 -781.706970
64.903503 6.319900 -781.590271
67.001503 6.122500 -781.294006
66.940697 5.776200 -781.554321
66.877998 5.424000 -781.815613
66.786400 4.944800 -782.140686
66.686798 4.397100 -782.536377
66.626099 3.958700 -782.944519
66.486702 3.293400 -783.337524
66.034302 3.538900 -783.555786
65.745598 3.240700 -783.662415
65.700600 2.933400 -783.937805
65.283699 3.730800 -783.301697
65.210503 3.164500 -783.853088
65.324997 8.808900 -779.990417
65.025398 7.372000 -780.847778
64.140602 3.948100 -783.305786
64.164597 7.098400 -781.117004
63.760101 4.907100 -782.665771
63.523300 3.810600 -783.279419
62.771599 4.012400 -783.141724
62.799999 5.716300 -782.088806
63.142300 11.767800 -778.539795
61.864899 5.476800 -782.412109
62.707600 12.846200 -777.914978
62.640800 12.457400 -778.211426
62.286598 13.479900 -777.511230
61.344700 17.991400 -774.434326
60.897400 17.922199 -774.582214
59.262402 17.700300 -775.152222
56.931301 18.050699 -776.344604
55.839001 25.361700 -764.154114
57.842098 24.384399 -768.157776
58.492599 24.787001 -767.788086
58.905701 24.975000 -767.689514
59.339802 25.148300 -767.609375
60.261299 25.462700 -766.924988
59.108101 23.484301 -769.783081
55.031601 20.698099 -775.773315
60.072601 24.315001 -768.996521
58.826900 21.800400 -771.441101
60.184502 23.847401 -769.464111
60.529400 24.520399 -768.939880
60.726898 24.045500 -769.399780
60.543800 23.174500 -770.271179
61.116001 24.151400 -769.419983
60.904099 23.377800 -770.094727
61.378399 23.047100 -770.478027
62.024601 23.497801 -770.238770
61.976898 22.601999 -770.968079
62.310001 21.114901 -772.101990
57.320801 11.563700 -779.834778
59.869900 17.260900 -775.848511
62.668900 21.676500 -771.743286
63.423599 22.976101 -770.620178
62.644600 21.331900 -771.966370
62.026199 19.320000 -773.419128
63.021301 21.475901 -771.874207
63.155899 21.800699 -771.660278
62.316502 19.528601 -773.218323
62.601898 19.799101 -772.974915
63.094002 21.152100 -772.168579
62.645802 19.307600 -773.341370
63.984001 22.015800 -771.430481
62.785801 18.954901 -773.533081
64.053802 21.730200 -771.733887
63.843300 19.165600 -773.239929
61.104000 14.307300 -777.791687
62.964100 16.405399 -775.905518
65.292801 18.138599 -773.800293
61.641602 8.828400 -781.033203
63.888401 20.036100 -772.788879
59.510201 22.619200 -770.754272
61.114101 25.076099 -767.982727
61.624199 5.830300 -782.038086
61.430901 6.275500 -781.791077
60.893799 7.554000 -781.127930
60.751701 7.882600 -780.947083
60.268600 9.050300 -780.361023
59.386700 11.295500 -779.356018
59.199902 11.751900 -779.132324
54.668201 22.568100 -773.554871
64.665199 3.614900 -783.327515
64.480499 3.989300 -783.062195
64.313499 4.271100 -782.788574
64.152802 4.520500 -782.512512
63.893501 5.156400 -782.205017
63.721802 5.472600 -781.939514
63.389500 6.209800 -781.499390
63.199200 6.638500 -781.251221
62.675999 7.835900 -780.580200
61.467899 10.779000 -779.135986
61.132198 12.271200 -779.133179
66.205704 4.441400 -782.579224
66.019997 4.824800 -782.317200
65.846603 5.145300 -782.049927
65.696899 5.493400 -781.862305
65.518204 5.847800 -781.601379
65.374100 6.170000 -781.413086
65.189301 6.563100 -781.159424
65.043999 6.896800 -780.974915
64.725700 7.569400 -780.535095
64.544899 7.951900 -780.285828
64.397102 8.309200 -780.108704
64.223396 8.658000 -779.857910
64.050797 9.159500 -779.702087
63.877602 9.511900 -779.454712
63.725899 9.902200 -779.287109
63.429001 10.652200 -778.951294
63.270000 10.935500 -778.699585
63.116699 11.344900 -778.539612
62.396900 13.002900 -777.628113
61.972401 13.919300 -777.053528
61.758099 14.397700 -776.772827
61.554901 14.814500 -776.484619
61.259899 15.469900 -776.096375
60.980801 16.038401 -775.698181
60.818802 16.382900 -775.475830
60.611599 16.847200 -775.205383
60.354301 18.113600 -775.286682
67.069702 6.846000 -780.933472
66.666496 7.663600 -780.359985
66.351601 8.469000 -780.014526
66.153198 8.948600 -779.779602
65.992798 9.223000 -779.520081
65.803802 9.657500 -779.282776
65.611801 10.112400 -779.049988
65.467499 10.457700 -778.877319
65.321503 10.815000 -778.707214
65.147003 11.181800 -778.466797
65.001503 11.541400 -778.299377
64.852097 11.925500 -778.136719
64.638603 12.368900 -777.839478
64.464600 12.745300 -777.606506
64.250298 13.202400 -777.315430
64.088699 13.514300 -777.075989
63.919601 13.873100 -776.844971
63.466000 14.808100 -776.209106
62.572399 16.664801 -774.965515
62.096100 17.648899 -774.299072
61.735100 18.427799 -773.814270
61.497898 18.933800 -773.492371
61.224499 19.512800 -773.118530
61.040001 19.863300 -772.841614
60.812599 20.327801 -772.520081
60.634602 20.645201 -772.240295
60.453800 20.985001 -771.966492
60.196201 21.496401 -771.593201
59.855000 22.063000 -771.031128
59.416100 22.787901 -770.305298
59.248501 23.064100 -770.027771
58.904499 23.512100 -769.385193
58.744598 23.744101 -769.100891
58.566799 23.926600 -768.738586
58.386002 24.132500 -768.382690
58.113701 24.453300 -767.853271
57.935101 24.649000 -767.497009
57.765701 24.780300 -767.125610
57.461498 24.976500 -766.434387
57.300301 25.049400 -766.049011
57.137901 25.130199 -765.665527
56.926498 25.200100 -765.144226
66.598801 12.499300 -777.617615
65.122803 15.434200 -775.495728
64.881500 15.918400 -775.151428
64.653297 16.331100 -774.797791
64.371902 16.910000 -774.405273
63.484100 18.808399 -773.212219
63.268700 19.337000 -772.965088
63.108200 19.691000 -772.756226
62.907799 20.136600 -772.497498
62.715900 20.534201 -772.231628
62.343700 21.269100 -771.693298
62.191101 21.591000 -771.485718
62.008801 21.943701 -771.217529
61.657799 22.573500 -770.669983
61.285500 23.190599 -770.057983
61.088001 23.496700 -769.719788
60.397999 24.589701 -768.553772
60.216702 24.802299 -768.200684
60.038399 24.995800 -767.843872
64.070503 17.681200 -773.880920
62.693600 20.934900 -771.940674
60.976799 24.209900 -769.025574
66.371696 5.465300 -781.815186
66.216003 5.752200 -781.539795
66.066803 6.154800 -781.354370
65.930801 6.483700 -781.161987
65.791199 6.835600 -780.973328
65.637199 7.122400 -780.702576
65.495003 7.494100 -780.518494
65.320396 7.905500 -780.264771
65.136002 8.377800 -780.020203
64.970398 8.743100 -779.764404
64.789803 9.200500 -779.521606
64.577797 9.848400 -779.304688
64.407501 10.252600 -779.059326
64.242599 10.628300 -778.811707
64.080597 10.989900 -778.563782
63.929298 11.442400 -778.403320
63.795601 11.791700 -778.229980
63.634800 12.154800 -777.986572
63.502201 12.501800 -777.815430
63.348598 12.826800 -777.569214
63.214199 13.190100 -777.402588
63.060600 13.519500 -777.159729
62.886600 13.978900 -776.937317
62.573601 14.690400 -776.466370
62.337299 15.241900 -776.119873
62.186401 15.571700 -775.884583
62.036499 15.898000 -775.650085
61.843300 16.347000 -775.365601
61.693901 16.676500 -775.134583
61.391201 17.369699 -774.682373
60.945801 18.375099 -774.008423
60.480801 19.378201 -773.275574
60.189201 20.047300 -772.840576
59.522202 21.341499 -771.700806
59.360802 21.637100 -771.413879
59.178699 21.913500 -771.055420
58.946098 22.384399 -770.669922
58.790001 22.653299 -770.382080
58.611099 22.919001 -770.026123
58.435600 23.162500 -769.666626
58.256802 23.433800 -769.314392
58.080700 23.688101 -768.959717
57.911800 23.891899 -768.594727
57.387699 24.470301 -767.428589
57.223900 24.643499 -767.059570
56.866100 24.861900 -766.154785
56.715698 24.931801 -765.761230
56.485600 25.073799 -765.180176
56.168098 25.156200 -764.309021
63.892899 4.016700 -782.981079
63.459099 5.007200 -782.315674
63.282501 5.427700 -782.055115
63.118401 5.777300 -781.788330
62.934700 6.246800 -781.536377
62.774899 6.577500 -781.270691
62.627701 6.991900 -781.091370
62.176300 8.153300 -780.476624
62.032902 8.555400 -780.301025
61.862598 8.967600 -780.053589
61.683701 9.436200 -779.814880
61.316502 10.444500 -779.352600
61.052299 11.142900 -779.003723
60.870800 11.647300 -778.778687
60.574600 12.404200 -778.372375
59.500401 15.154700 -776.901123
59.437199 7.601800 -781.390930
59.134300 8.379400 -780.961487
63.407700 4.127700 -782.960083
63.068901 4.921400 -782.420471
62.642799 5.944200 -781.757996
62.350101 6.640800 -781.298584
61.973301 7.688200 -780.805481
61.716000 8.339800 -780.427185
61.451500 9.040300 -780.058411
61.268600 9.549700 -779.819580
60.638199 11.307400 -778.997681
60.335098 12.133300 -778.589905
63.745201 10.256300 -779.074280
63.048000 12.096600 -778.122314
62.372299 13.736400 -777.103027
61.975201 14.723800 -776.519897
61.747398 15.263900 -776.167480
61.597401 15.616300 -775.933411
61.187199 16.585400 -775.296814
60.396500 18.404100 -774.036621
60.227299 18.763201 -773.746887
60.048302 19.186899 -773.469727
59.874699 19.581400 -773.189697
59.716301 19.884100 -772.895874
59.543400 20.281200 -772.619873
59.390900 20.552799 -772.323730
59.252998 20.873301 -772.106079
59.088699 21.225599 -771.827087
58.707901 21.856600 -771.055725
58.541000 22.237499 -770.787415
58.392502 22.500401 -770.497986
58.136299 22.906601 -769.966675
66.532799 9.065800 -779.509888
66.245102 9.995300 -779.239685
66.085098 10.235200 -778.898071
65.947197 10.609700 -778.719482
65.805397 11.007800 -778.544922
65.670097 11.372400 -778.367615
65.507896 11.760500 -778.121399
65.353996 12.105300 -777.871582
65.219101 12.474000 -777.698730
65.051697 12.899500 -777.461487
64.894600 13.270000 -777.219299
64.710701 13.666000 -776.909973
64.558296 14.015400 -776.668213
64.415001 14.315600 -776.421326
64.184998 14.856600 -776.065613
64.008400 15.224600 -775.760071
63.814499 15.696600 -775.471313
63.602798 16.146299 -775.110779
63.447399 16.532801 -774.884827
63.305698 16.840900 -774.648621
63.161999 17.164000 -774.415894
62.764900 18.206499 -773.877014
61.956200 20.043800 -772.581970
61.711800 20.607901 -772.197021
60.939701 22.186300 -770.839478
60.797401 22.542700 -770.634521
60.650600 22.794300 -770.342773
60.411800 23.226101 -769.884216
59.806301 24.249701 -768.671997
59.643299 24.482901 -768.316528
59.480801 24.715099 -767.961914
59.093399 25.177799 -767.053894
66.389702 14.649800 -775.776978
65.892303 15.812500 -775.012878
63.747200 21.036600 -771.864929
63.090900 22.545200 -770.838928
61.724701 24.850401 -768.117676
64.033600 14.507600 -776.358582
61.077099 21.484800 -771.613220
59.751598 23.956301 -769.060120
58.732498 25.282600 -766.725525
58.023998 25.527000 -764.663025
64.370796 4.899800 -782.245422
63.789700 6.361600 -781.338318
63.655899 6.737100 -781.153625
63.253700 7.734300 -780.516724
63.024899 8.412300 -780.223389
62.896198 8.769100 -780.043091
62.445599 9.962300 -779.377014
62.284698 10.384400 -779.136719
61.700401 12.025000 -778.331177
60.788898 6.260500 -781.923584
60.105900 8.166500 -780.938171
59.805698 9.029500 -780.520630
59.164101 10.912800 -779.650879
58.578499 12.638900 -778.861572
62.518501 4.988200 -782.478027
62.359001 5.420400 -782.219971
61.978199 6.403900 -781.571228
61.815601 6.866700 -781.322998
61.669300 7.230300 -781.064270
61.536598 7.649800 -780.890015
61.005501 9.216000 -780.116028
59.807201 12.803200 -778.406311
66.020599 3.941500 -782.991577
65.804604 4.410200 -782.575928
65.614502 4.863500 -782.238586
62.146999 14.200200 -776.825195
56.408600 25.094601 -764.705872
67.140701 9.229400 -779.459900
66.963799 9.752500 -779.227417
65.731102 12.970700 -777.302002
65.563400 13.339500 -776.990417
65.412399 13.738900 -776.758423
65.274696 14.060300 -776.515930
64.853401 15.088700 -775.806580
64.695999 15.410900 -775.497192
64.443901 16.065901 -775.101074
64.248299 16.505100 -774.744080
63.913601 17.302601 -774.166382
63.629299 18.057199 -773.731323
67.021202 10.659300 -778.676575
65.832298 13.756900 -776.728394
64.032997 18.168800 -773.600830
63.900600 18.508600 -773.380676
63.342800 20.093599 -772.551880
63.185200 20.483000 -772.279785
62.630100 21.829901 -771.305786
62.476398 22.209200 -771.040283
62.330200 22.538601 -770.767273
62.187000 22.848801 -770.492004
61.850101 23.556999 -769.829895
60.878899 25.173401 -767.645996
65.717903 7.811000 -780.304016
65.587097 8.211800 -780.124390
65.288399 8.977300 -779.620300
64.935402 10.097800 -779.160706
64.797096 10.422600 -778.908508
64.676399 10.775800 -778.732483
64.349899 11.758000 -778.273071
64.200600 12.164600 -778.036499
64.058800 12.526500 -777.796082
63.927898 12.819900 -777.548828
63.772099 13.278900 -777.323425
63.636902 13.606000 -777.083008
63.502998 13.927400 -776.843201
63.089901 14.982800 -776.143921
62.686001 16.002199 -775.452209
61.863098 18.078600 -774.042786
60.551300 21.303301 -771.742615
60.322899 21.791599 -771.295776
60.070301 22.318001 -770.793213
59.926498 22.641001 -770.521729
59.628101 23.225500 -769.904419
59.396198 23.618200 -769.386108
59.241100 23.888300 -769.043823
59.095699 24.084600 -768.687378
58.944302 24.330700 -768.342529
58.484299 24.971901 -767.226685
58.235199 25.210699 -766.554382
58.038898 25.345800 -765.991028
57.417099 25.445499 -763.999817
65.103302 3.974900 -782.991089
64.928001 4.354400 -782.648621
64.787300 4.663300 -782.376221
64.547401 5.310100 -781.985718
63.860500 7.088400 -780.822388
63.734600 7.464000 -780.639282
63.531200 8.052400 -780.333130
63.329700 8.635300 -780.029419
63.192699 8.949900 -779.772705
63.067299 9.333700 -779.596680
62.916302 9.744200 -779.353027
62.794201 10.111900 -779.177917
62.665298 10.526300 -779.009094
62.448299 11.236800 -778.733093
62.314899 11.545900 -778.484619
62.162498 11.982600 -778.252502
62.031601 12.280200 -778.005310
61.897202 12.747000 -777.850830
61.733501 13.126100 -777.546082
61.592602 13.499100 -777.312622
61.364498 14.179000 -776.981201
61.201099 14.569500 -776.684509
60.985298 15.179600 -776.350525
60.218399 17.165199 -775.051575
59.823002 18.206301 -774.392822
61.259899 8.807800 -780.327881
60.583199 10.841800 -779.331970
59.107601 15.109000 -777.060120
59.995300 6.867700 -781.768311
59.840900 7.304300 -781.519775
56.384998 18.858400 -776.985413
66.568901 3.115900 -783.702515
66.354301 2.818400 -783.922485
56.561001 18.894199 -776.409973
60.148602 12.382800 -779.409973
58.906898 17.765200 -775.367676
59.658600 13.348600 -779.131775
62.181198 9.791600 -780.277588
62.376499 11.598700 -779.644226
64.533501 11.882600 -779.003479
66.662399 3.868000 -783.369385
66.041496 8.045300 -780.483826
66.150101 7.343400 -780.839722
66.263802 6.792100 -781.210083
67.081703 4.490400 -782.582520
67.271004 5.352400 -781.990173
67.117798 8.756200 -779.968384
67.192703 8.408700 -780.213318
67.244698 7.967100 -780.384705
67.297096 7.525800 -780.557373
67.366600 6.577800 -781.137878
67.214600 4.917500 -782.262878
65.119698 10.256800 -779.962402
65.656403 3.900200 -783.229614
58.568501 25.612200 -765.338318
56.977001 25.535299 -763.593811
57.460499 24.240400 -768.180115
54.433899 24.979700 -766.718689
55.661999 22.944201 -773.051086
74.936600 31.206900 -754.878479
74.627701 31.392500 -755.115173
74.974098 31.306400 -754.406311
74.627701 31.411600 -754.597778
74.246399 31.363501 -754.717529
87.591499 31.672501 -748.902283
87.243797 31.755899 -749.082214
86.884697 31.847601 -749.271179
86.447998 31.807899 -749.416809
86.011101 31.767799 -749.562195
85.575500 31.737700 -749.712585
85.195702 31.665501 -749.818176
84.760902 31.643000 -749.972717
84.337097 31.696800 -750.165283
83.906998 31.704300 -750.334717
83.551498 31.796900 -750.522827
83.195396 31.881001 -750.706421
82.838402 31.956100 -750.885315
82.416199 32.004002 -751.074097
81.980797 31.969601 -751.222107
81.543999 31.927500 -751.366272
81.116997 31.944700 -751.539917
80.692596 31.975100 -751.719727
80.267899 32.002701 -751.898193
79.851601 32.075600 -752.098694
87.509903 32.249199 -748.581970
87.141197 32.434502 -748.826782
86.704597 32.386902 -748.967712
86.324997 32.304699 -749.067627
85.900597 32.353699 -749.257690
85.463097 32.301102 -749.396179
85.038498 32.342899 -749.582397
84.608002 32.340401 -749.746216
84.180603 32.358200 -749.919983
83.751602 32.363499 -750.087585
83.402298 32.488998 -750.291504
83.055702 32.626499 -750.501221
87.180199 32.781101 -748.361206
86.898499 32.995499 -748.588623
85.846100 34.380100 -748.083679
85.559601 34.536400 -748.350830
60.946602 35.308399 -755.402588
60.558102 35.205898 -755.491089
60.099201 34.942699 -755.521179
62.135899 35.394901 -754.806519
61.759399 35.393799 -754.943115
61.319302 35.462601 -754.910706
60.718102 35.342800 -755.066772
60.297298 35.200500 -755.145630
62.474800 35.472000 -754.385376
62.056400 35.356098 -754.289795
61.639900 35.435902 -754.482422
63.705101 35.624599 -753.568420
63.327400 35.615200 -753.700317
62.835201 35.645100 -753.894104
62.420101 35.506401 -753.971985
61.214100 35.462399 -754.385681
60.832001 35.446899 -754.515991
60.460201 35.257500 -754.551819
62.006699 35.378899 -753.800781
61.627102 35.371201 -753.934082
63.333302 35.595001 -753.201721
62.937401 35.523899 -753.307678
62.533401 35.426998 -753.403076
61.192299 35.359600 -753.852722
60.812599 35.355099 -753.987610
60.365799 35.129501 -754.031311
62.121498 35.299000 -753.195923
61.722198 35.226501 -753.302185
61.333900 35.194099 -753.425415
62.817902 35.504398 -752.767578
62.401001 35.365799 -752.845398
60.909199 35.229198 -753.311584
62.046700 35.272400 -752.662720
61.634800 35.159199 -752.751770
61.193802 34.950802 -752.801575
60.835499 35.025200 -752.969482
63.229698 35.813801 -752.210510
62.848801 35.573601 -752.221924
62.434200 35.442699 -752.302673
60.984699 34.806599 -752.491821
60.610802 34.831501 -752.639526
62.069199 35.315102 -752.106018
61.634499 35.123001 -752.161682
61.227100 35.029301 -752.259216
60.348701 34.639500 -752.370972
59.955502 34.604599 -752.494080
62.704800 35.714100 -751.870117
60.877899 34.855900 -752.077393
62.306000 35.511902 -751.691406
61.816399 35.344002 -751.779480
61.437500 35.126701 -751.802002
60.499298 34.743301 -751.938477
60.069500 34.584999 -752.010193
61.044701 34.874298 -751.671021
59.694500 34.392300 -751.845276
63.588501 36.309898 -751.367981
63.190399 36.116100 -751.408997
62.786400 36.017799 -751.502075
60.276001 34.567600 -751.641296
63.584400 35.858601 -752.516418
63.227100 35.657200 -752.741577
64.191803 35.915100 -752.971924
63.764599 35.737499 -753.031677
64.056801 35.757099 -753.327515
63.565701 35.705898 -754.264771
63.179901 35.678799 -754.387573
62.803299 35.590500 -754.731628
61.549400 35.427898 -755.331970
62.540298 35.339100 -755.114685
62.109299 35.335098 -755.265076
61.316002 35.332802 -755.651184
60.428001 35.132401 -755.862427
62.716099 35.555099 -755.422974
61.827202 35.331699 -755.621887
60.974499 35.239799 -755.875488
62.369499 35.327599 -755.579224
61.605801 35.283401 -755.962585
60.727501 35.111900 -756.184692
62.083900 35.242599 -755.919312
61.239201 35.175201 -756.182312
62.767399 35.290798 -755.839478
85.085403 35.241699 -748.153320
61.851700 35.176998 -756.293274
60.997002 35.078899 -756.543884
84.745598 35.319901 -748.449402
62.531200 35.218399 -756.207397
61.474998 35.075802 -756.505981
85.486603 34.762001 -747.992371
62.216301 35.172699 -756.497314
85.244499 34.884800 -748.392273
61.862598 35.042900 -756.675171
84.931198 34.999599 -748.646729
69.702301 34.792900 -753.881470
69.279099 34.849899 -754.058899
70.197800 34.798901 -753.788330
68.905701 34.875900 -754.280579
61.504398 34.949799 -756.914185
86.092903 34.053299 -747.956177
84.634102 34.925499 -748.909485
85.186501 34.551300 -748.615417
84.236504 34.919899 -749.134583
73.488297 34.771000 -752.939087
73.079201 34.600601 -752.995728
72.725800 34.693699 -753.166321
71.982002 34.707802 -753.433228
71.543404 34.696201 -753.580627
71.154099 34.629398 -753.682678
70.767700 34.577400 -753.791321
70.002998 34.514702 -754.026611
61.921501 35.012199 -757.101624
86.389603 33.816299 -748.096924
86.020302 34.073399 -748.355896
85.657097 34.179600 -748.536377
84.925400 34.325600 -748.865479
84.572701 34.500999 -749.077393
83.987396 34.792801 -749.429321
83.616600 34.803200 -749.610413
74.067398 34.757702 -752.918030
72.411201 34.573502 -753.402405
70.438499 34.408298 -754.006775
85.339203 34.077400 -748.768616
84.260696 34.443699 -749.330017
83.242104 34.735500 -749.832581
73.761703 34.459999 -752.997681
73.406502 34.253101 -753.016785
71.428802 34.347401 -753.753906
86.688400 33.367100 -748.011780
74.483101 34.721802 -752.950378
72.967400 34.321602 -753.276123
71.914803 34.361801 -753.663330
61.723400 34.908901 -757.491516
82.886703 34.776901 -750.097717
71.043602 34.258801 -753.966125
86.494698 33.493099 -748.377014
86.128998 33.596600 -748.556702
85.765602 33.713799 -748.742615
85.148804 33.796001 -748.998901
84.790398 33.939098 -749.196106
84.427902 34.040699 -749.373718
84.064400 34.127998 -749.544373
83.779999 34.342201 -749.751709
82.573898 34.617599 -750.310974
82.149597 34.688099 -750.494385
81.791298 34.782501 -750.666870
74.863297 34.518002 -752.946472
74.333504 34.359402 -753.050903
73.832001 34.045101 -753.066772
72.678802 34.202801 -753.548218
70.725098 33.872601 -754.061829
85.490898 33.480202 -748.960815
83.558800 34.046799 -749.919128
83.197197 34.139999 -750.091980
82.832703 34.206402 -750.252319
82.405899 34.269299 -750.432617
81.924698 34.382099 -750.656921
81.565498 34.473701 -750.828186
81.211098 34.594101 -751.012329
80.778900 34.604401 -751.167908
80.349098 34.630100 -751.330383
73.546600 33.830101 -753.294189
73.187798 33.907902 -753.458313
72.400299 34.025501 -753.791687
72.012001 33.967499 -753.897583
71.625603 33.920601 -754.008423
71.197098 33.692699 -754.042480
86.500702 33.109001 -748.679016
86.128197 33.154701 -748.831604
85.753601 33.177299 -748.973328
85.257797 33.236000 -749.175415
84.819397 33.243900 -749.331909
84.453400 33.330200 -749.502686
84.100502 33.516899 -749.719482
83.739502 33.630001 -749.902100
83.308098 33.676300 -750.075500
82.951302 33.809601 -750.266785
81.025703 34.272598 -751.169983
80.056000 34.422001 -751.582581
79.632401 34.486198 -751.762390
79.190201 34.434601 -751.890320
78.763603 34.478401 -752.060730
78.325104 34.451199 -752.199585
77.937599 34.362701 -752.289795
77.499298 34.340401 -752.431091
77.097397 34.178001 -752.489075
76.663399 34.183998 -752.643188
76.230904 34.198502 -752.801025
75.846001 34.137199 -752.903992
75.460098 34.072899 -753.005920
75.057503 33.926701 -753.072327
74.672302 33.872501 -753.179016
74.257896 33.677799 -753.225220
72.893097 33.733200 -753.727905
86.123497 32.759701 -749.001526
85.679604 32.732601 -749.142029
85.306396 32.773701 -749.292175
84.931801 32.799599 -749.435181
84.567101 32.906101 -749.615417
84.196198 32.955799 -749.769104
83.825699 33.005299 -749.922607
