36.088902 30.803400 -744.399719
35.910900 30.754400 -744.525208
35.738602 30.714500 -744.653870
35.558300 30.662701 -744.778809
35.375000 30.606600 -744.902588
35.182201 30.536301 -745.021973
35.032902 30.533001 -745.163513
34.902901 30.559200 -745.314514
34.764500 30.572800 -745.461426
34.608398 30.559500 -745.599915
34.452400 30.546499 -745.738525
34.285801 30.517700 -745.872314
34.117599 30.486799 -746.005493
33.955002 30.464399 -746.141602
33.786499 30.433500 -746.275085
33.622002 30.408899 -746.410889
33.442699 30.362400 -746.539978
32.867500 30.292999 -747.030579
32.714600 30.271000 -747.157593
32.555698 30.231600 -747.273682
32.398499 30.197399 -747.393127
32.230701 30.132200 -747.493286
32.056400 30.137899 -747.667480
37.040501 30.998800 -744.105774
36.838100 30.909800 -744.216675
36.628700 30.810499 -744.324402
36.439499 30.743099 -744.443176
36.251598 30.678400 -744.563110
36.080399 30.639900 -744.692017
35.906399 30.597300 -744.819702
35.722500 30.539801 -744.942688
35.544399 30.491600 -745.069092
35.372898 30.453899 -745.198975
35.231300 30.462500 -745.344116
35.081699 30.458799 -745.485291
34.938099 30.464199 -745.629517
34.785099 30.455799 -745.769409
34.613602 30.419201 -745.900391
34.462502 30.413900 -746.041504
34.307899 30.403400 -746.181091
34.170200 30.418600 -746.328918
34.013302 30.405001 -746.467712
33.854401 30.314301 -746.534912
33.670799 30.261101 -746.661682
33.066101 30.179600 -747.168884
32.920300 30.178400 -747.308777
32.768700 30.160101 -747.437988
32.608299 30.115900 -747.551025
32.431400 30.024099 -747.634521
37.160301 30.826200 -744.295227
36.961498 30.743299 -744.408203
36.767502 30.668301 -744.524109
36.566101 30.582300 -744.636719
36.382702 30.524900 -744.758972
36.220699 30.500900 -744.892578
36.029400 30.431900 -745.011597
35.852600 30.385599 -745.138306
35.667000 30.326300 -745.260986
35.517899 30.323400 -745.402100
35.387199 30.348700 -745.552429
35.241901 30.351999 -745.695679
35.092602 30.349001 -745.837097
34.931499 30.328300 -745.972900
34.776798 30.317499 -746.112000
34.622002 30.306801 -746.251221
34.499500 30.345301 -746.405884
34.342899 30.332001 -746.544617
34.178101 30.232300 -746.608826
33.998001 30.184299 -746.736877
33.307400 30.084600 -747.308716
33.161499 30.083401 -747.448303
33.002899 30.044399 -747.564392
32.843700 30.004000 -747.679626
32.674099 29.933201 -747.775879
37.276699 30.718700 -744.436218
37.076900 30.634600 -744.548706
36.867199 30.535801 -744.656616
36.666801 30.452000 -744.770020
36.504799 30.428400 -744.903320
36.334900 30.392799 -745.033020
36.148300 30.331600 -745.154419
35.958401 30.265800 -745.274719
35.794998 30.241100 -745.408386
35.651600 30.247499 -745.552429
35.513901 30.262800 -745.699219
35.373600 30.274099 -745.844788
35.225300 30.273199 -745.986572
35.054298 30.237801 -746.117615
34.897499 30.224501 -746.255676
34.732201 30.198400 -746.390015
34.572800 30.181400 -746.527222
34.400799 30.145700 -746.658691
34.225601 30.105499 -746.789124
33.540401 30.042101 -747.387878
33.386398 30.017200 -747.512390
33.233799 29.996599 -747.639587
33.070099 29.943300 -747.746521
32.906399 29.890100 -747.853577
32.734699 29.894699 -748.022888
37.452900 30.694500 -744.494019
33.739300 29.972900 -747.365479
32.924500 29.865299 -748.043518
37.846199 30.724800 -744.417419
37.638302 30.628700 -744.525085
37.428902 30.530899 -744.632629
37.225800 30.443600 -744.743896
37.042900 30.388201 -744.866089
36.841999 30.305300 -744.979492
36.670200 30.268000 -745.108215
36.496700 30.228201 -745.236084
36.312801 30.172899 -745.359314
36.131199 30.121401 -745.484009
35.973099 30.106501 -745.620605
35.843899 30.135799 -745.771484
35.700199 30.143101 -745.915283
35.553799 30.146400 -746.057983
35.396599 30.133400 -746.195679
35.237900 30.118200 -746.332703
35.077202 30.100201 -746.468994
34.904202 30.063900 -746.599670
34.722301 30.014400 -746.726624
34.559601 29.994301 -746.862671
33.924301 29.899799 -747.379395
33.727798 29.895399 -747.562683
33.574799 29.875299 -747.689575
33.418900 29.846399 -747.810974
33.271099 29.841499 -747.947327
33.096100 29.820999 -748.094910
37.884602 30.577299 -744.602112
37.727299 30.484301 -744.664429
37.526600 30.400700 -744.776672
37.333900 30.330000 -744.893677
37.152100 30.276800 -745.016724
36.958000 30.204700 -745.133728
36.775700 30.151501 -745.257202
36.595501 30.101999 -745.382080
36.412899 30.049101 -745.506226
36.225800 29.989700 -745.628418
36.091900 30.012100 -745.776917
35.957401 30.033800 -745.925293
35.816898 30.046200 -746.070679
35.663300 30.038900 -746.210022
35.501701 30.019600 -746.345581
35.337799 29.996901 -746.480286
35.171398 29.970800 -746.614075
35.004398 29.943899 -746.747803
34.834099 29.912399 -746.880188
34.152901 29.830299 -747.451416
34.007702 29.833700 -747.592773
33.854599 29.813801 -747.719727
33.698002 29.783100 -747.840027
33.541401 29.752501 -747.960327
33.378601 29.704100 -748.069580
38.065899 30.437000 -744.715515
37.875000 30.368601 -744.832703
37.717899 30.276699 -744.895691
37.539398 30.228500 -745.020081
37.351299 30.165800 -745.139893
37.154499 30.089899 -745.255676
36.963402 30.023399 -745.374878
36.780499 29.970100 -745.498596
36.579601 29.889400 -745.613770
36.435200 29.896000 -745.757080
36.302502 29.920601 -745.906311
36.168800 29.943800 -746.054993
36.023899 29.949800 -746.198303
35.864399 29.933800 -746.334778
35.706902 29.920900 -746.472412
35.547401 29.905199 -746.609192
35.369099 29.861401 -746.737427
35.194099 29.822800 -746.867493
35.031502 29.803200 -747.003479
34.457699 29.736601 -747.486084
34.309502 29.731300 -747.622009
34.160702 29.724400 -747.756775
34.009800 29.711100 -747.887573
33.859901 29.700500 -748.020081
33.675999 29.589800 -748.091003
33.511299 29.536200 -748.197205
38.300999 30.340401 -744.842224
38.084702 30.232401 -744.946411
37.888100 30.156000 -745.061218
37.699402 30.092300 -745.180481
37.519199 30.042299 -745.304626
37.316700 29.958000 -745.417786
37.117298 29.879101 -745.533081
36.914101 29.794901 -745.646973
36.747898 29.768200 -745.779480
36.604801 29.777000 -745.923523
36.477299 29.810101 -746.075317
36.337200 29.823700 -746.220886
36.180302 29.811800 -746.358582
36.026402 29.804701 -746.497803
35.867199 29.789801 -746.634827
35.687000 29.743200 -746.762024
35.525501 29.725100 -746.898315
35.357101 29.696899 -747.031616
34.794498 29.668600 -747.538574
34.646500 29.664301 -747.674927
34.494099 29.646799 -747.802979
34.341801 29.629299 -747.931030
34.186298 29.602501 -748.053406
34.021400 29.548000 -748.158813
33.870499 29.534700 -748.289429
33.744400 29.594299 -748.464722
38.533401 30.201599 -744.966187
38.376202 30.109200 -745.028870
38.192402 30.052700 -745.150330
38.012402 30.002701 -745.273987
37.806400 29.912399 -745.384827
37.632801 29.872900 -745.512512
37.474800 29.781401 -745.576599
37.269100 29.693001 -745.689026
37.072899 29.620001 -745.806580
36.934502 29.636299 -745.952881
36.806702 29.669001 -746.104370
36.667900 29.684799 -746.250610
36.505901 29.665199 -746.385681
36.345299 29.648001 -746.521790
36.195499 29.647499 -746.663086
36.036701 29.633301 -746.800415
35.869801 29.607100 -746.934021
35.707500 29.588100 -747.069885
35.088100 29.560900 -747.631104
34.935699 29.543200 -747.758972
34.783699 29.527000 -747.887817
34.633999 29.517700 -748.020813
34.479000 29.492399 -748.143982
34.324001 29.467100 -748.267212
34.157299 29.407200 -748.369202
38.854698 30.123899 -745.014893
38.664398 30.056601 -745.132324
38.511799 29.971600 -745.197571
38.329800 29.918100 -745.320007
38.128300 29.834600 -745.432922
37.941898 29.774900 -745.553894
37.738300 29.689100 -745.666687
37.581299 29.599300 -745.731628
37.402100 29.552200 -745.857422
37.251900 29.550400 -745.997681
37.108898 29.559500 -746.141724
36.967602 29.571501 -746.286621
36.822701 29.577999 -746.429871
36.661598 29.559900 -746.565491
36.496601 29.536100 -746.699524
36.339802 29.524799 -746.837524
36.180801 29.510599 -746.974670
36.025501 29.502100 -747.113770
35.864601 29.485300 -747.250488
35.296001 29.468700 -747.773315
35.145100 29.455700 -747.903992
34.995899 29.447701 -748.037781
34.844700 29.433701 -748.167908
34.688599 29.405001 -748.289001
34.524601 29.353100 -748.395874
34.370800 29.331499 -748.521301
39.067200 30.018801 -745.099182
38.875500 29.949301 -745.215820
38.664902 29.850599 -745.323120
38.468102 29.774200 -745.438110
38.281399 29.714100 -745.558716
38.099899 29.662399 -745.682129
37.947899 29.579901 -745.749084
37.738098 29.485201 -745.859375
37.545300 29.417200 -745.978516
37.402000 29.426300 -746.122314
37.272701 29.456900 -746.272888
37.125999 29.460699 -746.415222
36.979099 29.464399 -746.557617
36.829399 29.464001 -746.698608
36.667599 29.445200 -746.833984
36.504700 29.424900 -746.969177
36.351299 29.419399 -747.109070
36.199902 29.416901 -747.249878
36.029900 29.386600 -747.382385
35.461201 29.363300 -747.898315
35.312599 29.357700 -748.033630
35.158401 29.334999 -748.158203
35.006699 29.319901 -748.287476
34.845200 29.275400 -748.398804
34.687401 29.242100 -748.517029
39.296799 29.865000 -745.186523
39.118401 29.816700 -745.309875
38.919498 29.736601 -745.423218
38.734699 29.678900 -745.544189
38.550900 29.623400 -745.666077
38.345001 29.533600 -745.777222
38.143200 29.450899 -745.890808
37.981499 29.353901 -745.953430
37.782799 29.277000 -746.069519
37.647598 29.298800 -746.217285
37.527699 29.344101 -746.372498
37.385700 29.355400 -746.517029
37.229900 29.345501 -746.654785
37.076401 29.339500 -746.794128
36.917999 29.326000 -746.931091
36.758099 29.310499 -747.067627
36.604198 29.304300 -747.207092
36.443600 29.288099 -747.343628
36.289299 29.281700 -747.483276
35.673500 29.274799 -748.058105
35.522900 29.263201 -748.189392
35.365799 29.232201 -748.308899
35.211498 29.209400 -748.433289
35.055302 29.181000 -748.554382
34.892899 29.134300 -748.664307
39.538898 29.737301 -745.313782
39.334702 29.648199 -745.423828
39.153500 29.596001 -745.546204
39.005100 29.518000 -745.613892
38.831100 29.477800 -745.740723
38.638802 29.409100 -745.858521
38.428699 29.313400 -745.967773
38.274899 29.228399 -746.034180
38.080799 29.158501 -746.152405
37.924900 29.148199 -746.289917
37.801800 29.188801 -746.443481
37.670502 29.216700 -746.593201
37.525902 29.224300 -746.736511
37.376099 29.223900 -746.877319
37.210201 29.198900 -747.010620
37.041599 29.170099 -747.142883
36.892601 29.171499 -747.284607
36.742901 29.172001 -747.426086
36.588699 29.165600 -747.565674
36.439899 29.167601 -747.707886
35.869801 29.156000 -748.234375
35.717499 29.139400 -748.362671
35.562801 29.115499 -748.486511
35.406700 29.087400 -748.607605
35.247898 29.051399 -748.723999
39.785900 29.672400 -745.381226
39.627300 29.577299 -745.442627
39.436001 29.508801 -745.559570
39.240700 29.434500 -745.674988
39.048000 29.364700 -745.792175
38.870899 29.319901 -745.917725
38.670101 29.238501 -746.031616
38.443699 29.117599 -746.133179
38.295700 29.041901 -746.202820
38.134602 29.023500 -746.337585
38.010700 29.063101 -746.491028
37.886902 29.102699 -746.644287
37.757099 29.132999 -746.794800
37.597801 29.118000 -746.931030
37.435398 29.098400 -747.065979
37.277100 29.085300 -747.203125
37.119900 29.073999 -747.340881
36.972198 29.077499 -747.483276
36.820301 29.074699 -747.624023
36.669102 29.073099 -747.765015
36.016201 29.089800 -748.395874
35.860001 29.061501 -748.517029
35.701000 29.024700 -748.632813
35.537399 28.974300 -748.740417
40.004601 29.656000 -745.385315
36.658798 29.010201 -747.943420
40.212601 29.669201 -745.359985
39.907299 29.497200 -745.489014
39.696701 29.398300 -745.596130
39.503502 29.327400 -745.712830
39.309898 29.256201 -745.829590
39.126099 29.201099 -745.952026
38.943501 29.148100 -746.075195
38.724800 29.039101 -746.180786
38.509800 28.936600 -746.288818
38.330502 28.890301 -746.414978
38.204201 28.926300 -746.567383
38.077801 28.962200 -746.719788
37.938900 28.978800 -746.866211
37.803902 29.001400 -747.014526
37.640099 28.979799 -747.148987
37.488400 28.976999 -747.289612
37.334801 28.971500 -747.429321
37.186901 28.974800 -747.571899
37.038101 28.976900 -747.714172
36.881802 28.967800 -747.853088
36.233898 29.018801 -748.511414
36.077099 28.988800 -748.631592
35.911900 28.933599 -748.736389
35.758400 28.913900 -748.862915
40.552799 29.749500 -745.310974
40.164101 29.522600 -745.467896
41.179600 29.747299 -744.917725
41.038898 29.781601 -745.081970
40.469002 29.578300 -745.431274
40.101799 29.386999 -745.600830
39.945999 29.296900 -745.664429
39.744099 29.212601 -745.776917
39.550098 29.141399 -745.893921
39.357700 29.073099 -746.012085
39.174198 29.019199 -746.135315
38.961102 28.919500 -746.244080
38.786598 28.802900 -746.300903
38.610802 28.762300 -746.429077
38.476799 28.786699 -746.577881
38.346600 28.817301 -746.728821
38.212601 28.841900 -746.877808
38.075500 28.861700 -747.025330
37.926899 28.864000 -747.167419
37.781898 28.871799 -747.311279
37.641602 28.887100 -747.457581
37.484901 28.877199 -747.596191
37.322399 28.858801 -747.732300
37.170601 28.856899 -747.873474
37.026402 28.866600 -748.018372
36.515202 28.893400 -748.524780
36.365398 28.885401 -748.658691
36.206501 28.849800 -748.775574
36.050098 28.821899 -748.897217
35.849499 28.788601 -749.055420
40.932701 29.726900 -745.234802
40.752602 29.675100 -745.356628
40.348701 29.424999 -745.506226
41.102100 29.558001 -745.002991
36.774799 28.838699 -748.411316
41.095699 29.604900 -745.230713
40.924000 29.566999 -745.357300
40.729801 29.493700 -745.472412
40.339100 29.266600 -745.630493
40.137199 29.182699 -745.743103
39.978401 29.089001 -745.806030
39.787102 29.022800 -745.924927
39.597000 28.958900 -746.044922
39.415798 28.909401 -746.169617
39.223000 28.842199 -746.289001
39.054600 28.735500 -746.349121
38.861000 28.668100 -746.468994
38.707901 28.663700 -746.608887
38.581902 28.701500 -746.762207
38.452301 28.733500 -746.913574
38.312099 28.749300 -747.060120
38.169601 28.761600 -747.205383
38.013000 28.752399 -747.344177
37.866402 28.758699 -747.487915
37.721401 28.767599 -747.632385
37.573399 28.771900 -747.775574
37.420300 28.768700 -747.916626
36.721600 28.795700 -748.598572
36.570999 28.786301 -748.731628
36.411301 28.749300 -748.847717
36.255798 28.725000 -748.971497
41.377499 29.382700 -745.022278
41.264702 29.452101 -745.192078
41.088902 29.486601 -745.388977
40.904400 29.428699 -745.509094
40.680801 29.309200 -745.609070
40.502201 29.182899 -745.660828
40.294998 29.090500 -745.770386
39.965401 28.962799 -745.962524
39.775799 28.899500 -746.082520
39.584301 28.833700 -746.201904
39.387100 28.759600 -746.318909
39.234001 28.676600 -746.386414
39.009899 28.561600 -746.491089
38.857399 28.558300 -746.631287
38.728001 28.590799 -746.782776
38.610500 28.641701 -746.940125
38.475101 28.665001 -747.088806
38.328098 28.670500 -747.231873
38.179401 28.673500 -747.374512
38.036800 28.686001 -747.519897
37.890900 28.693600 -747.663879
37.740101 28.693600 -747.805725
37.595200 28.702900 -747.950378
36.981499 28.703400 -748.527527
36.734501 28.700800 -748.757080
36.584000 28.691799 -748.890320
36.420101 28.642200 -748.998596
41.431301 29.226000 -745.179077
41.336399 29.311399 -745.346619
41.203400 29.335400 -745.493591
41.003399 29.252800 -745.605408
40.789902 29.149099 -745.710571
40.631001 29.054001 -745.772522
40.426498 28.965700 -745.883423
40.228199 28.887899 -745.997986
40.034100 28.817101 -746.115295
39.835800 28.740200 -746.230896
39.644001 28.674101 -746.350220
39.419102 28.556601 -746.453430
39.201900 28.451799 -746.561218
39.058498 28.462601 -746.705688
38.925701 28.489799 -746.855286
38.811001 28.545099 -747.013916
38.675400 28.568100 -747.162292
38.534901 28.583599 -747.308289
38.386799 28.587400 -747.450928
38.246201 28.602800 -747.597107
38.092400 28.598101 -747.737122
37.942101 28.598801 -747.879028
37.794601 28.604000 -748.022217
37.651600 28.616100 -748.167725
37.505100 28.623199 -748.311584
37.013500 28.594200 -748.746521
36.863602 28.587200 -748.880920
36.708302 28.563700 -749.005127
36.509800 28.541100 -749.170776
41.640400 28.811899 -745.112915
41.511299 28.819201 -745.240723
41.444599 28.950701 -745.423401
41.355701 29.046200 -745.593994
41.198101 29.031401 -745.728088
40.990700 28.937201 -745.836182
40.763699 28.812700 -745.934875
40.557999 28.722601 -746.045105
40.358601 28.643200 -746.159119
40.164902 28.573200 -746.276611
39.964298 28.492800 -746.390930
39.742199 28.379299 -746.494995
39.555599 28.321899 -746.617310
39.368198 28.263901 -746.739685
39.234200 28.289499 -746.888611
39.118599 28.343700 -747.046509
38.992599 28.381599 -747.199280
38.859100 28.407900 -747.348389
38.722000 28.428801 -747.495911
38.577400 28.438101 -747.639771
38.430401 28.443701 -747.782715
38.284199 28.450800 -747.926086
38.135300 28.453800 -748.068420
37.990398 28.462999 -748.212524
37.855701 28.488001 -748.361572
37.710300 28.496599 -748.505615
37.117699 28.422400 -748.992798
36.945599 28.347500 -749.085510
41.833900 28.665001 -745.298218
41.722801 28.706400 -745.439819
41.618401 28.777399 -745.602112
41.482201 28.797199 -745.747314
41.310001 28.759300 -745.873596
41.160900 28.679399 -745.940002
40.950802 28.581900 -746.047302
40.741699 28.486401 -746.155579
40.554001 28.425600 -746.275513
40.357300 28.350901 -746.391113
40.154202 28.266701 -746.504028
39.942501 28.169500 -746.613098
39.753300 28.108200 -746.733887
39.601398 28.105801 -746.873596
39.473499 28.141001 -747.025208
39.352901 28.187599 -747.180298
39.226501 28.225000 -747.332581
39.086201 28.240999 -747.478088
38.946201 28.257500 -747.623901
38.811401 28.282000 -747.772217
38.671001 28.298100 -747.917908
38.530499 28.313900 -748.063721
38.388401 28.327499 -748.208679
38.238602 28.329201 -748.350220
38.103699 28.354000 -748.498779
37.958401 28.362900 -748.642578
41.779598 28.466299 -745.394287
40.912701 28.430099 -746.169312
40.324299 28.208500 -746.516174
37.922600 28.297800 -748.835999
37.487099 28.233000 -749.057312
37.320301 28.174299 -749.159119
37.612999 28.333000 -748.903015
40.942402 28.775499 -745.954773
37.632801 28.452900 -748.730774
37.416199 28.392900 -748.877014
37.531300 28.555201 -748.537903
37.378300 28.539700 -748.665283
37.220901 28.510900 -748.784729
36.834999 28.536200 -749.164612
37.320301 28.648199 -748.462402
37.166698 28.631599 -748.588928
40.174000 29.010500 -745.877686
37.333099 28.719700 -748.223816
37.190399 28.736900 -748.370483
37.175201 28.801300 -748.182495
37.024200 28.793600 -748.313721
39.377102 28.419701 -746.602478
37.111198 28.285000 -749.225098
40.172798 28.070000 -746.669800
40.023499 27.995100 -746.738281
39.845798 27.955200 -746.863770
39.715000 27.988300 -747.011780
39.593102 28.035200 -747.164124
39.477699 28.091900 -747.319275
39.342701 28.118500 -747.465271
39.205399 28.141600 -747.610413
39.068699 28.165701 -747.755676
38.923100 28.176100 -747.896912
40.487202 27.948099 -746.660828
40.325802 27.854200 -746.723328
40.128101 27.783001 -746.838928
39.986198 27.799000 -746.981628
39.868198 27.852200 -747.135620
39.750198 27.905199 -747.289612
39.626099 27.948799 -747.440674
39.504002 27.995399 -747.592590
39.358200 28.005501 -747.733582
39.219898 28.027300 -747.878113
40.703400 27.811701 -746.652283
40.541801 27.717400 -746.714600
40.355000 27.663401 -746.835388
40.212898 27.679300 -746.977783
40.081501 27.711901 -747.125427
39.953499 27.749701 -747.274597
39.828300 27.791901 -747.425110
39.719101 27.858700 -747.583130
39.581699 27.881901 -747.727783
39.444199 27.905100 -747.872620
40.899399 27.522800 -746.774109
40.735802 27.425100 -746.835205
40.556000 27.381901 -746.959229
40.445599 27.447599 -747.116699
40.320301 27.489700 -747.267029
40.203999 27.545900 -747.421509
40.079601 27.589399 -747.572083
39.960999 27.642000 -747.725525
39.835800 27.684200 -747.875671
39.694901 27.702101 -748.018616
39.551701 27.716600 -748.160583
39.411800 27.736099 -748.304077
41.095798 27.119200 -746.824890
40.919102 27.080700 -746.949890
40.793900 27.123600 -747.100220
40.686298 27.194000 -747.258911
40.574699 27.257900 -747.415527
40.450298 27.301800 -747.565979
42.296902 26.929300 -746.087280
41.522202 26.906900 -746.760681
41.313599 26.817900 -746.869324
41.164001 26.822800 -747.007385
41.062801 26.904100 -747.169189
40.956501 26.977200 -747.328308
40.847000 27.045300 -747.485779
40.730900 27.102699 -747.640015
39.549000 27.326500 -748.893372
42.326401 26.681801 -746.020203
42.281700 26.936001 -746.281982
40.688202 27.072500 -747.819092
39.748001 27.279699 -748.836609
40.564701 27.148500 -747.938477
41.994202 26.989901 -746.539795
41.798901 26.922300 -746.653870
40.437599 27.192801 -748.095825
40.308498 27.230900 -748.243530
40.155300 27.231701 -748.379883
40.003101 27.234200 -748.517029
39.864498 27.257900 -748.660400
42.143902 27.011900 -746.422974
39.443901 27.294100 -749.070374
42.369400 26.756300 -746.185913
41.949799 26.820999 -746.612976
41.744598 26.738300 -746.722412
41.541199 26.659000 -746.833313
41.393002 26.667999 -746.971985
41.271801 26.719900 -747.124390
41.159401 26.785801 -747.281128
41.037399 26.836399 -747.432922
40.925701 26.903099 -747.589722
42.494499 26.350100 -745.927429
42.437901 26.492901 -746.101685
42.317501 26.711300 -746.397888
42.174900 26.728399 -746.538879
41.909698 26.631201 -746.688721
41.717201 26.569099 -746.804871
40.884899 26.876900 -747.807983
40.777901 26.951099 -747.966980
40.652500 26.996099 -748.117004
40.517899 27.026699 -748.262573
40.370602 27.037600 -748.402222
40.228100 27.056000 -748.544128
40.098301 27.094101 -748.692017
39.958900 27.117500 -748.835510
42.722801 26.358000 -746.044495
42.594002 26.398100 -746.192871
42.484901 26.469900 -746.351624
42.355499 26.508801 -746.499573
42.179901 26.473400 -746.623779
41.978901 26.397499 -746.735413
41.804600 26.364799 -746.860901
41.664700 26.387501 -747.004089
41.542702 26.438700 -747.156311
41.435501 26.513500 -747.315796
41.322300 26.578501 -747.472229
41.199299 26.628000 -747.623718
41.082802 26.687599 -747.778320
40.962601 26.741301 -747.931030
40.838402 26.788601 -748.081726
40.709599 26.828800 -748.230225
40.579102 26.866100 -748.377930
40.464401 26.928200 -748.533020
40.332100 26.962799 -748.679810
42.682800 25.989901 -746.162903
42.659500 26.118601 -746.294922
42.562099 26.209999 -746.459778
42.393902 26.186899 -746.588013
42.217400 26.150600 -746.712097
42.046200 26.123199 -746.839172
41.910000 26.152300 -746.984314
41.801201 26.225100 -747.143188
41.688499 26.291700 -747.300171
41.568501 26.346399 -747.453308
41.448601 26.401199 -747.606384
41.336102 26.467800 -747.763123
41.205200 26.504900 -747.910583
41.073700 26.541300 -748.057983
40.936100 26.567900 -748.202271
40.806599 26.607300 -748.350525
40.631901 26.603901 -748.501526
42.815201 25.073200 -745.737488
42.786400 25.865101 -746.446716
42.628700 25.859400 -746.580322
42.444000 25.810499 -746.700317
42.285599 25.804199 -746.834106
42.153999 25.841200 -746.981689
42.048500 25.920000 -747.142578
41.939602 25.993401 -747.301575
41.827301 26.061100 -747.458679
41.707802 26.117201 -747.612183
41.610298 26.208300 -747.776489
41.484600 26.254200 -747.926575
41.343899 26.276501 -748.069519
41.194401 26.284700 -748.208008
41.075100 26.340900 -748.361328
41.885502 25.877300 -747.847717
42.786800 25.363199 -745.756775
41.362400 29.582701 -745.001099
40.854599 30.067600 -744.673828
41.002201 29.920500 -744.789429
41.577499 29.056400 -745.209778
41.736900 28.852699 -745.330078
40.652901 30.184099 -744.557129
41.934299 28.533400 -745.521729
40.307899 30.513399 -744.345215
40.460300 30.383400 -744.466675
41.980900 28.340000 -745.601318
40.082802 30.599800 -744.225586
41.968201 28.106501 -745.637512
42.359402 26.697500 -745.837891
39.894001 30.657400 -744.141113
40.490898 30.309200 -744.633911
40.636799 30.157499 -744.747498
40.783401 30.007900 -744.861877
41.768398 28.578800 -745.586670
41.967300 27.932899 -745.696106
39.753101 30.765301 -744.090271
40.133900 30.548100 -744.405518
40.288502 30.426600 -744.530029
40.879799 29.845800 -744.994202
41.798000 28.401199 -745.659119
42.060398 27.751801 -745.824585
42.210499 27.605200 -745.942627
42.252899 26.839300 -745.900879
39.420200 30.945801 -743.855103
39.605099 30.923500 -744.016724
41.875301 28.242100 -745.752991
42.215500 27.181200 -745.945129
39.196800 31.181700 -743.787903
39.863300 30.646000 -744.323181
40.320999 30.260000 -744.689026
40.571999 30.033199 -744.887878
41.907299 28.042101 -745.865173
42.187698 27.449600 -746.052429
37.770802 31.840000 -742.822815
37.947201 31.787300 -742.973572
38.100800 31.663601 -743.096924
38.261799 31.562901 -743.229004
38.427502 31.477301 -743.366882
38.585300 31.366501 -743.495178
38.754002 31.290400 -743.636719
38.918301 31.200701 -743.772888
39.073700 31.082199 -743.898376
39.235500 30.984100 -744.031372
39.395199 30.879601 -744.162109
39.550800 30.761499 -744.287720
39.704601 30.636900 -744.411011
39.862400 30.525499 -744.539185
40.008099 30.373800 -744.652588
40.161999 30.249201 -744.776001
40.312000 30.110800 -744.894470
40.512299 29.927000 -745.052917
40.655499 29.764700 -745.163025
41.174599 29.143400 -745.558472
41.532101 28.614500 -745.820496
41.605499 28.424700 -745.865906
41.678101 28.230801 -745.910095
41.749199 28.030800 -745.952515
41.829102 27.861799 -746.005798
41.909401 27.692900 -746.059387
41.994499 27.541100 -746.119080
42.116100 27.289600 -746.200806
42.199001 27.128300 -746.257629
36.236401 32.398602 -741.845520
36.410400 32.335499 -741.992981
36.567799 32.222198 -742.120483
36.724899 32.108101 -742.247620
36.907001 32.070301 -742.404785
37.084801 32.019699 -742.556824
37.252300 31.938101 -742.696472
37.419899 31.856899 -742.836426
37.591202 31.787500 -742.980713
37.757999 31.704500 -743.119690
37.925701 31.624201 -743.259705
38.090500 31.535200 -743.396179
38.252800 31.438299 -743.529785
38.409801 31.324499 -743.656921
38.565701 31.207199 -743.782715
38.727100 31.107401 -743.915222
38.895302 31.029900 -744.056030
39.051601 30.913601 -744.182312
39.209999 30.803900 -744.310974
39.369400 30.697800 -744.440979
39.519501 30.560499 -744.559570
39.667198 30.415199 -744.675415
39.818802 30.282200 -744.795715
39.972900 30.157499 -744.919128
40.121300 30.013201 -745.035522
40.263000 29.845800 -745.143616
40.990601 29.064699 -745.706726
41.350399 28.542400 -745.971191
41.422798 28.348499 -746.015320
41.501900 28.177500 -746.067627
41.585899 28.023600 -746.126099
41.721500 27.825399 -746.225586
41.790901 27.617201 -746.265625
41.876400 27.466299 -746.325684
41.944599 27.252100 -746.364014
35.713001 32.548302 -741.734009
35.861500 32.408100 -741.850830
36.020100 32.298000 -741.979675
36.193501 32.232101 -742.126099
36.375801 32.193699 -742.283203
36.547600 32.124001 -742.427795
36.707199 32.017399 -742.557922
36.879501 31.949800 -742.703125
37.055302 31.893200 -742.852722
37.221699 31.808100 -742.990906
37.500999 31.672701 -743.223816
37.671200 31.599800 -743.366577
37.834801 31.506701 -743.501587
37.997398 31.410400 -743.635376
38.157299 31.305300 -743.765808
38.309502 31.175800 -743.887024
38.465500 31.058399 -744.012878
38.626801 30.957899 -744.145081
38.787300 30.854700 -744.276306
38.946602 30.747601 -744.406006
39.102299 30.628799 -744.531372
39.247002 30.473301 -744.643311
39.398399 30.339500 -744.763428
39.545101 30.189899 -744.877686
39.699402 30.065300 -745.001221
39.849800 29.927200 -745.119873
39.996498 29.776199 -745.234070
41.125702 28.392700 -746.090088
41.211601 28.246099 -746.151001
41.290501 28.074100 -746.203125
41.425701 27.875200 -746.302185
41.506001 27.706699 -746.355896
41.591499 27.556101 -746.416077
41.715599 27.314400 -746.500977
41.790001 27.121700 -746.546875
42.347000 25.626600 -746.886230
34.834499 32.764900 -741.221130
35.006199 32.673100 -741.363403
35.178299 32.602001 -741.508118
35.376499 32.607700 -741.683716
35.544601 32.525902 -741.823792
35.706200 32.424500 -741.956116
35.870899 32.332699 -742.092224
36.042500 32.261902 -742.236511
36.211700 32.183701 -742.377808
36.379700 32.102699 -742.517883
36.541901 32.003799 -742.651123
36.700802 31.895201 -742.780273
36.869400 31.816099 -742.921082
37.039200 31.741100 -743.063416
37.431900 31.556101 -743.391174
37.592800 31.454201 -743.522888
37.760300 31.372801 -743.662476
37.918800 31.263300 -743.791321
38.069801 31.129700 -743.910889
38.225800 31.012100 -744.036804
38.382500 30.896200 -744.163330
38.544701 30.798201 -744.296570
38.701698 30.683201 -744.423401
38.853298 30.550400 -744.543701
39.010700 30.436600 -744.671082
39.160999 30.299000 -744.789795
39.311298 30.161100 -744.908386
39.459499 30.016001 -745.024597
39.607601 29.869900 -745.140381
40.603500 28.913900 -745.922424
41.046299 28.233900 -746.244080
41.128201 28.073099 -746.300110
41.259998 27.861900 -746.394897
41.338001 27.685400 -746.445801
41.421299 27.527399 -746.503418
41.560200 27.338900 -746.606812
41.638100 27.159700 -746.657288
42.192101 25.632900 -746.991089
41.981300 25.916500 -746.959412
34.518002 32.934200 -741.174683
34.677101 32.812199 -741.302612
34.846401 32.732498 -741.443787
35.022400 32.672501 -741.592773
35.196800 32.608601 -741.740173
35.374001 32.553001 -741.890808
35.539902 32.464699 -742.028198
35.697498 32.351700 -742.155701
35.860001 32.253399 -742.289124
36.026299 32.166500 -742.426880
36.189499 32.070202 -742.560974
36.359699 31.995399 -742.703491
36.525501 31.907600 -742.840820
36.689499 31.814501 -742.976013
36.848900 31.707100 -743.105713
37.289600 31.469700 -743.470215
37.510502 31.353001 -743.653076
37.673698 31.257799 -743.787415
37.830601 31.143000 -743.914185
37.987499 31.027901 -744.040771
38.142502 30.906401 -744.165222
38.301800 30.798700 -744.294678
38.459599 30.685900 -744.422424
38.614700 30.564501 -744.546814
38.768501 30.438601 -744.669678
38.921600 30.310101 -744.791626
39.069000 30.162399 -744.906616
40.823200 28.301901 -746.264282
40.903599 28.136101 -746.318298
41.036598 27.930099 -746.414673
41.168598 27.719101 -746.509583
41.327801 27.375700 -746.614990
41.455101 27.144899 -746.703796
42.077099 25.733299 -747.108521
33.801201 33.099800 -740.688599
33.969799 33.016399 -740.828674
34.162800 33.003201 -740.997620
34.321098 32.890800 -741.125671
37.331402 31.365900 -743.624573
41.184700 27.512100 -746.629578
33.286301 33.114700 -740.464417
33.450901 33.018501 -740.599609
33.638199 32.986698 -740.761414
33.777599 33.007301 -740.886292
33.959801 32.962200 -741.042114
34.144299 32.924599 -741.200928
34.315701 32.849800 -741.344177
34.487999 32.777901 -741.488708
34.659599 32.704300 -741.632385
34.833698 32.638100 -741.778992
35.004299 32.562500 -741.921570
35.169300 32.470501 -742.057617
35.332802 32.374001 -742.191772
35.491199 32.262699 -742.320007
36.034698 31.937799 -742.765686
36.191799 31.822399 -742.892395
36.354900 31.725401 -743.026306
36.522800 31.643000 -743.165771
36.682800 31.536501 -743.295898
37.129299 31.313999 -743.666626
37.284401 31.192400 -743.790771
37.440300 31.073299 -743.916077
37.595798 30.952700 -744.040771
37.761600 30.864401 -744.177917
38.034901 30.708099 -744.402710
38.191200 30.589500 -744.528320
38.350700 30.481400 -744.657776
38.502998 30.349899 -744.778687
40.201199 28.738800 -746.110779
40.570499 28.245899 -746.386108
40.703701 28.040800 -746.482605
40.887199 27.786699 -746.618408
41.095798 27.392200 -746.762085
32.829399 33.160900 -740.300903
33.022701 33.143902 -740.469421
33.206299 33.100498 -740.626587
33.388401 33.053600 -740.782227
33.565102 32.991798 -740.931519
33.749401 32.952301 -741.089783
33.931599 32.907398 -741.245728
34.103600 32.833698 -741.389709
34.274601 32.757500 -741.532593
34.455502 32.710499 -741.687195
34.627701 32.638599 -741.831482
34.790401 32.539200 -741.964722
34.955200 32.446098 -742.100403
35.128700 32.378601 -742.246277
35.287498 32.268299 -742.375122
36.359200 31.570400 -743.248230
36.527802 31.489599 -743.388428
37.176102 31.087999 -743.918579
37.332298 30.969101 -744.044128
37.489498 30.853300 -744.170776
37.655998 30.767000 -744.308777
40.922298 27.269600 -746.831177
41.356201 26.527700 -747.138306
41.884800 25.837500 -747.533875
32.411201 33.304298 -740.117981
32.589901 33.245800 -740.269470
32.839802 33.200802 -740.484985
34.904800 32.313400 -742.214294
35.299099 32.124699 -742.542480
40.938400 26.896400 -746.982483
32.178600 33.289501 -740.061523
32.876202 33.192799 -740.666321
33.043701 33.104599 -740.804871
33.221802 33.046299 -740.955872
33.394699 32.973801 -741.101013
33.561298 32.883999 -741.238770
33.754601 32.870201 -741.407715
33.921501 32.781799 -741.545776
34.087601 32.691200 -741.682983
34.257000 32.610500 -741.824097
34.421501 32.515598 -741.959473
34.588501 32.428200 -742.097778
34.970200 32.201599 -742.411316
35.615299 31.786301 -742.937805
35.880901 31.603901 -743.153503
36.871300 31.052200 -743.970520
40.516602 27.548599 -746.829712
41.677399 25.917200 -747.688416
41.713501 25.729500 -747.701416
31.661100 33.303902 -739.765198
31.852100 33.276402 -739.930725
32.250702 33.269901 -740.281311
32.430599 33.214401 -740.434082
32.616402 33.175900 -740.593994
34.621700 32.300499 -742.273010
34.781799 32.192799 -742.403320
39.926701 28.361000 -746.551819
40.622898 27.207899 -747.049500
30.978399 33.372299 -739.362488
31.123699 33.400501 -739.493286
31.305000 33.345200 -739.647522
31.673599 33.252499 -739.963074
31.884600 33.279900 -740.151611
32.620701 33.102501 -740.782471
32.804298 33.058498 -740.939819
32.979900 32.992500 -741.087891
33.149700 32.910599 -741.229309
33.318600 32.826401 -741.369629
33.494099 32.761200 -741.517700
33.660999 32.671902 -741.655823
33.823898 32.571400 -741.789307
33.992401 32.486900 -741.929321
34.172901 32.437698 -742.083374
34.335602 32.336899 -742.216614
34.771999 32.076099 -742.575012
35.098400 31.878401 -742.842773
35.367599 31.705400 -743.062622
35.639000 31.539101 -743.285095
39.618000 28.523899 -746.488770
40.289398 27.514000 -746.979187
41.349701 26.289301 -747.790771
41.451199 26.079599 -747.859314
30.626499 33.449100 -739.289429
30.818899 33.421700 -739.456116
30.962601 33.445301 -739.585022
31.149700 33.405300 -739.745789
31.333500 33.356899 -739.902771
31.513599 33.299198 -740.055786
31.701401 33.262798 -740.217529
31.883400 33.211300 -740.372681
32.067600 33.166599 -740.530518
32.249901 33.117001 -740.685974
32.424198 33.046001 -740.832520
32.604099 32.990799 -740.985474
32.782902 32.932899 -741.137085
32.961498 32.875099 -741.288574
33.129398 32.787498 -741.427795
33.307201 32.728298 -741.578430
33.476601 32.645500 -741.719421
33.647598 32.567600 -741.862183
33.810001 32.465199 -741.995117
33.974899 32.369999 -742.130676
34.140900 32.278198 -742.267822
34.314701 32.209301 -742.414001
34.476101 32.104500 -742.545715
35.237598 31.640200 -743.169983
35.501400 31.450100 -743.383423
41.289001 26.143499 -747.950989
29.982401 33.626499 -738.987427
30.126400 33.647999 -739.116211
30.306000 33.585499 -739.268127
30.477301 33.501301 -739.410400
30.657499 33.441200 -739.562988
30.850500 33.415798 -739.730408
31.039700 33.380798 -739.893372
31.218300 33.318100 -740.044312
31.403200 33.272999 -740.202576
31.583500 33.215900 -740.355591
31.759199 33.146599 -740.503296
31.947901 33.113499 -740.666077
32.127499 33.056099 -740.818420
32.316502 33.025200 -740.981689
32.486301 32.941299 -741.122681
32.647499 32.833801 -741.253784
32.821301 32.761902 -741.399719
33.006302 32.721699 -741.558472
33.178398 32.645699 -741.702393
33.352501 32.575600 -741.848572
33.673000 32.357399 -742.109009
33.854801 32.310200 -742.264282
34.021099 32.218700 -742.401611
34.187500 32.127602 -742.538879
34.354801 32.039501 -742.677429
35.328499 31.423401 -743.473022
40.306900 27.387699 -747.452576
29.260401 33.715302 -738.551514
29.455700 33.690800 -738.721008
29.596800 33.703098 -738.846375
29.775101 33.635700 -738.996582
31.237900 33.209599 -740.241821
31.537201 33.110600 -740.495422
32.146500 32.946098 -741.015381
32.958599 32.610600 -741.696899
33.127800 32.526001 -741.837402
33.807999 32.199902 -742.403687
33.974800 32.109699 -742.541626
34.367802 31.910700 -742.867798
40.440498 27.216600 -747.747375
40.992901 26.348400 -748.147827
41.031601 26.165199 -748.163574
29.876900 33.601101 -739.175171
30.055700 33.535801 -739.326172
30.235001 33.472500 -739.478027
30.421400 33.428398 -739.637817
30.611000 33.393398 -739.801392
30.791000 33.333500 -739.953979
30.976200 33.287998 -740.112671
31.332701 33.161098 -740.414185
31.640900 33.087200 -740.678406
31.812099 33.005798 -740.821106
32.234600 32.881199 -741.181030
32.403702 32.795399 -741.321472
32.583801 32.740700 -741.474792
32.758598 32.671398 -741.621887
33.484901 32.286301 -742.223816
34.050201 32.011600 -742.694580
35.140800 31.350100 -743.590210
40.213902 27.411400 -747.671204
29.051201 33.779598 -738.525024
31.917101 32.952099 -740.969116
33.579399 32.205502 -742.360596
34.149502 31.945299 -742.837402
34.846699 31.480700 -743.406189
40.309101 27.332199 -747.812683
40.786301 26.462000 -748.147888
29.217600 33.657299 -738.735229
29.427900 33.672199 -738.921875
29.613899 33.624699 -739.081177
31.011299 33.203899 -740.271179
31.384600 33.123100 -740.592224
32.782501 32.557800 -741.768677
32.963001 32.505001 -741.922607
33.122601 32.393299 -742.052307
33.690601 32.125000 -742.526611
33.863602 32.052601 -742.671997
39.893299 27.656200 -747.555725
31.141399 33.119499 -740.398499
31.994499 32.887199 -741.127197
35.356400 31.167000 -743.823730
40.037102 27.615900 -747.361816
35.085201 31.559299 -743.291992
40.549999 27.140699 -747.625122
30.488300 33.661400 -739.303528
34.543201 31.987301 -742.710388
40.156898 27.564501 -747.221619
41.133701 26.344700 -747.962524
28.626301 33.857201 -738.425415
28.795300 33.763599 -738.564697
28.934999 33.770100 -738.687927
29.227699 33.643799 -738.932617
29.418600 33.607498 -739.096497
29.611700 33.577801 -739.263123
29.799000 33.534000 -739.423218
29.978800 33.470901 -739.574890
30.150700 33.387699 -739.717773
30.335501 33.338902 -739.875183
30.509199 33.261200 -740.020203
30.692900 33.210499 -740.176514
31.177500 33.063702 -740.587585
31.365000 33.025101 -740.748413
31.541901 32.958599 -740.897217
31.727100 32.915001 -741.055481
32.020401 32.801701 -741.302002
32.191200 32.719700 -741.443970
32.363098 32.641399 -741.587280
32.534000 32.560501 -741.729492
32.764000 32.458801 -741.921570
32.941700 32.397701 -742.071594
33.327202 32.173901 -742.388428
33.908100 31.942400 -742.875916
34.726101 31.445299 -743.546021
34.940701 31.302299 -743.720520
40.051399 27.496300 -747.840393
40.201401 27.347601 -747.957825
28.998501 33.727699 -738.913330
29.238300 33.640900 -739.115173
29.428200 33.602501 -739.278015
30.755400 33.166302 -740.399597
30.933100 33.100101 -740.549011
31.769699 32.816898 -741.255188
32.583698 32.480801 -741.936584
34.314301 31.554800 -743.365112
28.055500 33.827301 -738.242188
28.193501 33.827099 -738.362976
28.341801 33.853298 -738.495300
28.527599 33.801300 -738.653076
28.713200 33.749199 -738.810608
29.466400 33.574699 -739.453491
29.636999 33.486698 -739.594482
29.811899 33.410400 -739.740417
29.989000 33.340000 -739.888672
30.180700 33.308300 -740.053528
30.355900 33.233799 -740.199829
30.528400 33.152802 -740.343323
31.016500 33.013000 -740.757324
31.196800 32.954102 -740.909485
31.375500 32.891602 -741.060120
31.558201 32.840401 -741.215210
31.842899 32.701801 -741.451172
32.019001 32.633701 -741.598999
32.195702 32.567299 -741.747375
32.375301 32.509602 -741.899109
32.658199 32.368599 -742.133484
33.178200 32.146900 -742.567688
34.486000 31.337700 -743.635681
34.776402 31.223101 -743.879211
39.667198 27.735701 -747.829773
39.869202 27.544500 -747.988403
40.020000 27.398199 -748.106506
28.815300 33.716999 -738.968079
29.007099 33.681499 -739.132629
29.247700 33.596600 -739.335083
30.749901 33.081001 -740.601013
32.749298 32.310902 -742.277893
27.825800 33.921902 -738.186279
30.584900 33.098099 -740.522583
31.601101 32.747799 -741.378601
32.424099 32.431999 -742.068787
27.461800 34.019901 -738.024109
27.618999 33.893600 -738.149475
27.881100 33.856300 -738.375000
28.078199 33.830399 -738.544678
28.214701 33.826500 -738.663574
28.405500 33.786201 -738.826477
28.596701 33.747601 -738.989929
28.761400 33.642300 -739.124023
28.954700 33.610001 -739.289673
29.262300 33.520500 -739.549988
29.440800 33.451900 -739.699524
29.627399 33.404800 -739.858093
29.816099 33.363800 -740.019104
29.985201 33.272099 -740.158203
30.169901 33.221600 -740.314819
30.341400 33.136600 -740.456604
30.697701 33.003201 -740.755310
30.866600 32.912498 -740.894287
31.007900 32.929298 -741.019409
31.184999 32.861301 -741.167725
31.349701 32.759800 -741.302002
31.643499 32.644100 -741.547791
31.821600 32.580002 -741.697327
32.003201 32.526100 -741.850891
32.187901 32.481499 -742.008118
32.476299 32.353901 -742.247986
33.028301 32.031101 -742.699829
34.593300 31.191299 -743.987915
39.511200 27.759501 -747.960693
39.766701 27.529400 -748.162170
39.921001 27.394300 -748.284180
29.100100 33.554401 -739.461670
32.598202 32.236500 -742.391174
34.467201 31.614799 -743.272278
34.337002 31.315399 -743.752380
27.360399 33.861599 -738.094299
27.653000 33.894199 -738.351074
28.414400 33.715401 -738.994995
29.639099 33.327099 -740.021423
30.360001 33.069000 -740.622925
31.433500 32.674000 -741.517517
32.197701 32.368099 -742.152100
27.145599 33.920898 -738.038574
27.755501 33.875401 -738.562988
27.953899 33.849899 -738.732727
28.148199 33.815102 -738.897827
28.503599 33.664501 -739.192017
28.695101 33.624699 -739.354370
28.880100 33.568802 -739.509521
29.056400 33.491600 -739.655212
29.230200 33.408501 -739.798218
29.419399 33.364700 -739.958130
29.720200 33.256302 -740.208923
29.908300 33.211300 -740.367798
30.092300 33.156300 -740.522217
30.440599 32.996700 -740.809387
30.627800 32.951500 -740.967529
30.805500 32.881802 -741.115112
30.978001 32.799000 -741.257019
31.153799 32.724899 -741.402527
31.512100 32.596298 -741.701172
31.685801 32.517700 -741.844482
31.867201 32.460499 -741.996521
32.284901 32.313702 -742.344971
32.849300 32.017899 -742.806885
34.195999 31.294399 -743.907471
39.274300 27.900801 -747.996216
39.628601 27.564699 -748.272217
27.201900 33.906101 -738.214722
27.349100 33.923698 -738.343689
27.539700 33.877399 -738.504517
28.247900 33.736099 -739.104675
29.533199 33.321400 -740.179382
30.189699 33.070999 -740.724915
31.243999 32.619301 -741.596313
31.974899 32.401600 -742.208984
32.367599 32.185699 -742.529175
33.842400 31.438700 -743.737488
39.717899 27.430099 -748.455627
26.695999 33.884201 -737.895081
26.853901 33.925800 -738.035583
27.004000 33.949100 -738.167480
27.658600 33.839500 -738.723572
27.855200 33.808701 -738.890808
28.042601 33.755699 -739.047974
28.353300 33.665001 -739.308289
28.538099 33.607101 -739.462830
28.713600 33.526501 -739.607178
28.894501 33.459599 -739.757385
29.080900 33.407398 -739.913879
29.275000 33.375301 -740.078796
29.638901 33.250900 -740.382080
29.813200 33.169498 -740.525330
29.988100 33.090199 -740.669312
30.282499 32.966099 -740.912476
30.478399 32.942600 -741.079712
30.651100 32.858799 -741.221375
30.825300 32.779202 -741.364685
30.991800 32.679600 -741.499573
31.347200 32.540699 -741.794128
31.517000 32.450401 -741.932617
31.699301 32.394501 -742.085205
32.064499 32.285400 -742.390991
32.689400 31.966600 -742.901978
34.056198 31.291000 -744.021912
39.047001 28.004900 -748.035400
39.253700 27.826401 -748.197693
34.307201 31.103701 -744.235779
39.499802 27.615499 -748.408325
26.418501 34.086899 -737.838013
26.561701 34.092499 -737.962402
27.057199 33.931900 -738.376404
27.259100 33.911999 -738.549316
27.463900 33.899899 -738.725403
28.081301 33.704498 -739.241821
29.315100 33.328400 -740.274780
30.006001 32.985901 -740.841370
31.034201 32.639599 -741.699280
31.739500 32.348701 -742.282898
32.090500 32.201000 -742.573120
38.868301 28.093700 -748.061218
39.078201 27.925900 -748.227417
39.541801 27.517401 -748.591125
26.256300 33.948601 -737.804016
26.608400 33.947601 -738.108521
26.808399 33.921398 -738.279114
27.552601 33.858002 -738.916870
27.737499 33.798500 -739.071472
28.167900 33.658501 -739.431030
28.360300 33.619400 -739.593811
28.534599 33.535400 -739.736877
28.717600 33.473499 -739.889526
28.906799 33.427799 -740.049011
29.089300 33.365799 -740.201172
29.383600 33.238300 -740.443970
29.563400 33.170700 -740.593384
29.739300 33.093102 -740.738525
30.097200 32.955399 -741.035522
30.274300 32.882000 -741.181885
30.447001 32.797600 -741.323608
30.616199 32.704201 -741.461426
30.806101 32.666000 -741.622070
31.101400 32.547001 -741.866699
31.282301 32.486198 -742.017578
31.451900 32.395302 -742.156006
31.813900 32.276100 -742.458191
32.387402 31.999300 -742.929016
32.556301 31.908001 -743.066711
33.870998 31.271400 -744.145691
39.145100 27.832399 -748.392883
39.296101 27.684500 -748.510071
26.399099 33.917400 -738.024109
27.042400 33.943298 -738.582825
27.249701 33.936699 -738.761475
27.856800 33.714600 -739.266296
31.575701 32.331200 -742.356323
32.042599 32.130901 -742.741882
34.081299 31.077700 -744.408997
38.672901 28.181299 -748.115784
38.829102 28.051800 -748.239014
39.483601 27.411800 -748.746582
29.809700 33.020100 -740.892212
30.876801 32.596100 -741.776978
31.889400 32.221600 -742.619080
39.354401 27.593100 -748.657715
26.886900 33.936001 -738.443420
35.671299 30.139200 -745.700684
29.118200 33.322498 -740.375488
38.948101 27.931200 -748.390503
26.109600 33.952400 -737.925171
26.444901 33.937698 -738.213928
26.647499 33.917099 -738.387207
27.316200 33.838799 -738.958496
27.504999 33.788200 -739.117188
27.939199 33.656601 -739.480774
28.136400 33.629002 -739.648926
28.317200 33.560902 -739.799072
28.495399 33.486900 -739.946472
28.677401 33.422699 -740.098083
28.866600 33.377201 -740.257629
29.229601 33.249001 -740.559875
29.406500 33.173801 -740.706116
29.581600 33.094200 -740.850281
29.877800 32.973701 -741.095581
30.052900 32.895100 -741.239929
30.221901 32.800900 -741.377502
30.395300 32.718399 -741.520020
30.578300 32.661400 -741.673096
30.945900 32.553501 -741.981201
31.120501 32.475601 -742.125122
31.288500 32.380402 -742.261780
31.656401 32.276901 -742.570618
32.279701 31.951799 -743.080200
32.448002 31.859100 -743.217285
33.694302 31.217501 -744.237122
39.050301 27.831900 -748.561829
39.205399 27.698400 -748.683777
27.019199 33.911800 -738.765198
27.647900 33.741402 -739.294006
35.200600 30.323099 -745.522827
38.630901 28.116501 -748.292480
39.301201 27.532700 -748.819885
26.186501 33.931999 -738.112000
26.751699 33.938000 -738.602173
28.942801 33.338699 -740.445984
29.648199 33.033199 -741.029419
30.651100 32.619801 -741.860779
31.361700 32.342300 -742.451172
31.722300 32.220299 -742.752502
31.886801 32.117001 -742.885681
33.915600 31.038200 -744.545715
38.733700 28.036200 -748.447998
25.877600 33.974899 -737.946228
26.381300 33.998798 -738.384583
26.576200 33.960400 -738.549988
27.098000 33.866402 -738.993530
27.291500 33.827202 -739.157593
27.715500 33.670300 -739.510681
27.911699 33.639702 -739.677917
28.101101 33.592899 -739.837585
28.286100 33.535900 -739.992676
28.467501 33.470299 -740.143982
28.649300 33.406300 -740.295715
29.063900 33.233799 -740.639221
29.246901 33.174198 -740.792419
29.417999 33.084400 -740.932373
29.728399 33.000702 -741.193726
29.895100 32.900501 -741.329102
30.080000 32.847900 -741.484619
30.247400 32.749901 -741.620728
30.425699 32.680698 -741.768799
30.784500 32.549500 -742.067688
30.951900 32.452702 -742.204102
31.125799 32.373402 -742.347473
31.496500 32.277500 -742.659973
32.238499 31.908800 -743.269409
38.846500 27.909000 -748.632324
39.001499 27.775499 -748.754517
39.266899 27.355900 -748.946472
25.711800 33.903000 -737.878784
26.776800 33.921700 -738.802429
27.407400 33.754101 -739.333191
33.243198 31.322100 -744.165283
33.527901 31.180901 -744.398926
38.422100 28.201599 -748.366516
39.090801 27.613100 -748.892212
25.886700 33.969501 -738.175720
26.093000 33.956299 -738.353088
26.231400 33.949902 -738.472290
26.370501 33.945801 -738.592285
26.567900 33.913200 -738.760193
26.831100 33.870899 -738.984070
27.087099 33.812302 -739.200317
27.467699 33.718498 -739.521179
27.712900 33.636002 -739.726013
27.903601 33.591702 -739.887024
28.087900 33.532200 -740.041077
28.278200 33.488098 -740.201782
28.461201 33.426300 -740.354614
28.632900 33.336399 -740.495117
28.813101 33.268398 -740.644775
