117.669098 58.144501 -780.480103
117.258102 57.894600 -781.568726
116.824600 57.603600 -782.639221
114.261497 56.280701 -790.089783
107.185204 50.083302 -802.932373
124.815201 66.563202 -769.815918
123.975601 66.087196 -770.429321
123.329903 65.212799 -770.989990
122.683098 64.371696 -771.646423
120.529297 61.797401 -774.452209
114.961304 57.531898 -788.234009
112.818802 55.250401 -791.787720
121.695801 63.927700 -772.218872
121.081100 63.145000 -772.902283
119.637802 61.558998 -775.204285
119.074402 60.931999 -776.081116
118.592102 60.474998 -777.052124
118.058701 59.914398 -777.973511
117.523697 59.352600 -778.899109
117.078201 58.975101 -779.919800
116.202698 58.216000 -781.877930
115.739502 57.841999 -782.990723
115.384697 57.648800 -784.101013
114.088600 57.218800 -788.920776
113.112000 56.089100 -790.321899
111.961998 54.951099 -792.504211
111.259399 54.333698 -794.052917
110.191200 53.299702 -796.143677
122.947701 66.592796 -770.452026
122.270401 65.682297 -771.085693
120.146004 63.005299 -773.573120
116.158302 58.838699 -780.654785
112.184502 55.879398 -791.062927
110.331703 54.105499 -794.807983
109.300003 53.096901 -796.835083
108.846001 52.679199 -797.800476
108.295502 52.080502 -798.712524
107.767899 51.528099 -799.646179
107.358597 51.234798 -800.750183
106.921997 50.857300 -801.746704
106.182999 50.255402 -803.537903
105.786797 49.990799 -804.660889
105.283798 49.697102 -806.205505
121.232903 65.219803 -771.504272
120.644699 64.469902 -772.184326
119.224197 62.840500 -774.344482
118.651100 62.176300 -775.197021
118.140999 61.645100 -776.126770
117.624001 61.101799 -777.054626
117.085297 60.515800 -777.965088
116.469704 59.812199 -778.908875
115.103500 58.579498 -781.940186
114.623497 58.157101 -783.035889
114.322197 58.056702 -784.193176
113.327904 57.638302 -787.765076
112.867798 57.220798 -788.779297
112.323799 56.605801 -789.632202
111.282799 55.613098 -791.789673
110.776497 55.112900 -792.789490
119.725098 64.031998 -772.752380
115.644402 59.548901 -779.724976
110.020599 54.868401 -793.683716
109.235298 54.059601 -795.182373
105.926300 50.958801 -802.388428
118.950996 63.704800 -773.567871
115.009598 59.402699 -780.669006
111.400101 56.528000 -790.336670
108.567398 53.661999 -796.111328
108.100601 53.190102 -797.063782
107.585297 52.627399 -797.991577
107.164497 52.247002 -798.984070
104.738297 50.209202 -805.168884
120.221397 65.667603 -771.207520
118.237503 63.391800 -774.624390
117.693604 62.747299 -775.498413
117.109001 62.055801 -776.441406
116.535103 61.354500 -777.299072
115.968903 60.672100 -778.173828
106.665398 51.907902 -800.015503
106.246597 51.550301 -801.111572
119.433701 65.003799 -771.812378
114.010803 58.936401 -782.132202
113.552002 58.497601 -783.237915
113.166298 58.429699 -784.335815
112.171700 57.808899 -787.883301
111.675903 57.220699 -788.763123
105.110603 50.504902 -803.833679
118.612099 64.526497 -772.486877
115.124603 60.414902 -778.996216
110.167099 55.752499 -792.059875
110.533302 56.225800 -791.076782
117.966797 64.327599 -773.487976
114.471298 60.055801 -779.892822
113.991699 59.594501 -781.176025
108.995598 54.687500 -794.210510
117.291397 64.023102 -774.807983
116.728600 63.303902 -775.758789
116.058998 62.424301 -776.812683
115.524803 61.739601 -777.708618
109.407600 55.422298 -792.877319
112.923599 59.130699 -782.499817
110.668098 57.166901 -789.308289
108.127701 54.307201 -794.905518
117.537498 65.046501 -772.624390
114.610901 61.506901 -778.364929
112.339798 58.967300 -783.476318
111.263100 58.146999 -787.115295
110.840897 57.693100 -788.123108
110.006401 56.834499 -790.237427
107.498199 54.033600 -795.894104
107.000900 53.513302 -797.126770
106.492996 52.943001 -798.263123
105.140999 51.530499 -801.620300
104.503304 50.740601 -802.812317
117.128899 65.135201 -773.695984
113.963799 61.036900 -779.187622
113.387604 60.284901 -780.168823
112.889397 59.768902 -781.440186
109.380798 56.399601 -791.226318
105.990700 52.698898 -799.279602
105.608398 52.320099 -800.308777
116.413902 64.710800 -775.057495
115.733200 63.767700 -776.084473
114.995102 62.735802 -777.169373
108.303101 55.371601 -793.264221
108.640404 56.067699 -792.032227
114.069504 62.495499 -777.839600
111.907303 59.732700 -782.074829
109.760696 57.718601 -788.557129
107.475998 55.148998 -794.125122
115.919296 65.642899 -774.331726
115.333504 64.877296 -775.458496
114.677399 63.950500 -776.504089
113.348396 62.072201 -778.619385
112.863403 61.411301 -779.467285
112.350899 60.723900 -780.398071
111.272400 59.500702 -783.051514
110.133102 58.345501 -786.280090
109.858002 58.191200 -787.447693
109.091797 57.346199 -789.407471
108.698402 56.934700 -790.483276
106.870903 54.912102 -795.134705
106.439499 54.426498 -796.207275
105.968300 53.919998 -797.453613
104.635002 52.458801 -800.892517
113.903603 63.515701 -777.238403
107.571098 56.098701 -792.472412
105.335602 53.672798 -798.448486
104.955704 53.262402 -799.469910
115.462303 66.860603 -774.724121
114.907501 65.957802 -775.307312
114.285301 64.942703 -775.952515
113.037598 63.119701 -777.907898
111.303398 60.697899 -780.974121
110.809502 60.067101 -782.030823
108.631897 57.855301 -788.458984
107.655403 56.769001 -791.047913
106.824699 55.884899 -793.374207
115.660599 68.953300 -776.193481
113.373398 64.564102 -776.650818
112.179199 62.848099 -778.672729
111.699402 62.167900 -779.513428
110.042000 59.972000 -782.894287
109.017700 58.828300 -785.643921
108.714203 58.581402 -786.743530
107.825798 57.641201 -789.289612
106.064400 55.748199 -794.246582
105.706100 55.396801 -795.359375
105.347298 55.013802 -796.377930
104.986198 54.627102 -797.398376
115.218803 69.356903 -777.225098
112.584999 64.140297 -777.421814
110.908401 61.712898 -780.294373
107.151703 57.400299 -790.197327
106.650803 56.878300 -791.680298
104.348198 54.428398 -798.344727
110.281700 61.074501 -781.322388
107.964203 58.440800 -787.669922
113.842102 66.942101 -774.592224
114.010399 69.246399 -777.697998
114.320999 67.328499 -777.563110
112.408501 65.785599 -776.626709
111.630798 63.835098 -778.067871
112.696999 67.977402 -776.258423
112.339500 67.106003 -776.960388
111.757103 65.107300 -777.304688
110.969200 63.197800 -778.867676
110.350304 62.670898 -779.677673
109.401703 60.658798 -781.962219
109.779900 62.084801 -780.492126
108.855797 60.308399 -782.969788
107.944397 58.994900 -786.003479
106.074699 56.602001 -792.632813
111.394997 66.377800 -776.832520
110.806900 64.891098 -777.939026
107.105598 58.185001 -788.411804
111.539597 67.469002 -776.179016
110.227997 64.051903 -778.547485
109.077499 61.607700 -781.333984
107.804703 59.266701 -784.882385
107.070900 58.895000 -786.779602
106.374802 58.062099 -789.288513
106.047501 57.667500 -790.464722
105.190804 56.530602 -793.410278
104.876999 56.125801 -794.503784
104.573502 55.776901 -795.615173
104.264297 55.399101 -796.720276
110.384903 66.230400 -777.429504
109.380302 63.656700 -779.316772
109.026398 62.875401 -780.138977
108.241699 61.189602 -782.020813
107.761497 60.301800 -783.353027
105.458603 57.383400 -791.424683
103.718498 55.360298 -797.753174
106.915298 59.290100 -785.596313
106.356796 58.658600 -787.648193
109.732803 65.084000 -778.318481
110.397903 67.450104 -776.155212
108.265900 62.449001 -780.888489
104.741600 57.204201 -792.308411
107.238998 60.954102 -782.566528
106.566299 59.588402 -784.307983
105.277100 58.424599 -789.370605
104.977600 58.099998 -790.482483
104.074699 56.815701 -793.471375
103.776703 56.505600 -794.593079
103.471703 56.158199 -795.705078
103.177696 55.872101 -796.835022
109.581596 67.495796 -777.026489
109.229202 66.544701 -777.660522
108.638496 64.963600 -778.739807
108.287697 64.054802 -779.416321
107.381699 62.089298 -781.616821
106.613503 60.377800 -783.429016
105.833000 59.265701 -786.013428
108.639099 66.249702 -778.599609
107.661400 63.417599 -780.144226
105.250702 59.024399 -787.035583
104.168198 58.027802 -791.291687
105.515099 59.626801 -784.860413
103.607803 57.752998 -792.257385
107.678299 65.342598 -779.230225
106.813698 63.009399 -780.822388
106.299400 61.843300 -782.035278
103.027802 57.312099 -793.204285
102.722702 56.938999 -794.305420
107.009003 64.640999 -779.946777
105.638901 61.113800 -782.681824
105.309402 60.469601 -783.584229
107.375603 66.406403 -778.250916
106.139801 64.194504 -780.546326
105.761803 63.219601 -781.294678
106.626999 65.702698 -779.533997
105.172203 62.387901 -781.854309
113.561401 67.330902 -775.692322
115.374100 65.895401 -773.280396
121.361099 66.241997 -770.402527
104.516602 51.889500 -802.712219
129.889496 62.144699 -767.336182
126.414902 48.691502 -795.106628
135.576096 53.702499 -793.287170
135.684006 52.355202 -792.845520
136.587494 50.724499 -792.485291
136.842896 51.635502 -793.554688
137.179398 52.744900 -795.235596
138.183395 51.407001 -794.070374
138.539093 49.203201 -793.775024
143.694504 41.411701 -791.786621
143.840195 39.893700 -789.874878
141.761505 60.431499 -766.814087
142.996002 59.537800 -767.841309
135.857803 59.737701 -767.159485
131.217102 61.818501 -766.053284
136.453903 61.716999 -765.340271
138.641693 60.876202 -765.401611
126.936203 66.516602 -767.906616
123.618896 66.744102 -769.534912
145.850296 41.076000 -791.017273
144.283600 42.524101 -791.168701
141.026306 40.935902 -790.065125
142.524094 45.347698 -791.775024
118.339302 65.059303 -771.415588
120.974197 62.094501 -773.442383
141.212601 46.511002 -792.236572
139.488693 47.494202 -792.037720
138.524597 48.881001 -792.539001
139.373795 51.361599 -793.881287
138.812805 52.612999 -793.941284
115.657700 68.455498 -774.932678
133.096893 52.318802 -789.859985
134.598297 52.840900 -791.141113
130.720306 53.395302 -788.594788
128.048492 56.021599 -787.915771
112.014999 68.440399 -775.393005
132.800507 52.596401 -792.618713
124.122398 57.940601 -788.097778
122.480202 58.369301 -788.478271
128.123306 49.456299 -793.992676
120.291702 58.493198 -788.705017
119.120201 58.401600 -788.693970
112.406403 58.468399 -786.849976
116.819000 57.826900 -788.015503
118.040901 57.990200 -788.933716
121.679398 57.079399 -789.332397
131.630997 50.828400 -793.625610
139.019608 40.999802 -790.077698
139.927795 41.378300 -790.765381
143.802307 44.035999 -791.276672
126.694199 59.109001 -772.246887
127.338303 59.485100 -771.255676
124.452003 66.719803 -768.707581
127.858902 60.027802 -770.064026
128.235794 61.712502 -768.821716
127.867699 65.521698 -768.150330
128.734604 64.355301 -768.055115
128.696701 66.724602 -767.682678
132.925400 61.878601 -765.634521
134.108200 61.766102 -765.503418
136.926407 60.260101 -766.245972
139.433304 59.290798 -766.789673
141.579697 58.235298 -768.239502
139.908096 60.797699 -765.730225
129.946396 57.740398 -770.936218
128.530594 57.334900 -771.748718
126.944397 56.419998 -774.460327
126.934998 56.993801 -773.158691
123.437103 55.074799 -779.513794
123.762901 57.912701 -774.408081
122.500504 57.801601 -775.268188
129.606705 63.568100 -767.611877
130.734406 63.943501 -767.547119
126.244698 62.529900 -769.866577
129.763794 64.941902 -767.554199
126.834503 64.275299 -768.826599
123.888496 63.537998 -770.251892
122.022102 63.202599 -771.383606
119.514702 63.897099 -771.343872
111.115402 59.517700 -780.768616
109.877098 59.816200 -780.840088
107.983101 59.699600 -781.735779
105.421799 58.836300 -783.552612
106.474197 60.485001 -781.858582
113.199799 66.057701 -775.459229
112.320999 66.970100 -775.467712
114.636803 67.693703 -775.268311
113.929497 68.225800 -776.377075
112.295197 64.601097 -776.220093
119.368797 65.177902 -770.550781
125.182404 65.633698 -768.940430
106.334099 58.226398 -785.024475
125.322197 63.229301 -769.986816
109.800201 56.906300 -787.385925
127.121300 62.293701 -769.173828
116.919800 58.264500 -779.001282
112.559303 55.065201 -790.066528
117.858200 57.479401 -779.549927
113.819000 54.928101 -790.064514
146.935699 38.044998 -791.439026
146.554092 39.113400 -791.228210
146.835800 40.259300 -791.043274
145.783295 37.497501 -791.163086
145.253601 38.399200 -790.632385
144.489700 37.161800 -790.626282
143.854202 38.055000 -790.179871
143.282898 36.999100 -790.470825
143.891403 40.956100 -790.319824
143.157303 38.908401 -789.822327
143.163101 42.151199 -791.059875
142.109695 36.820301 -790.170227
142.730606 40.096901 -790.078430
142.563293 41.128399 -790.846191
142.583298 43.026199 -791.538818
141.905594 38.011002 -789.956299
141.968002 41.962299 -791.359619
142.220901 44.131001 -791.648315
141.815002 39.170601 -789.695984
140.783600 36.933201 -790.318970
141.148804 42.797001 -791.813416
141.446198 44.905399 -791.984070
140.766907 38.077999 -789.968079
140.847107 43.936699 -792.100708
140.591507 39.213200 -789.945923
140.320908 42.025101 -791.660889
139.744003 37.433701 -790.349487
139.878204 42.988400 -792.264893
140.120193 44.819801 -792.458008
140.366302 50.530201 -794.187378
139.979904 40.232700 -789.907410
139.461502 38.556301 -789.942505
139.131302 43.780499 -792.761780
139.745300 49.464001 -793.665588
138.508606 36.896999 -790.712585
139.053604 41.809299 -791.465210
139.154099 45.435799 -792.693115
138.956100 39.601898 -789.938599
138.459396 42.691002 -792.285278
138.284897 38.570900 -790.161621
137.987305 43.789700 -792.921387
138.571396 46.480900 -792.694214
138.999298 50.289902 -793.264771
137.906403 44.940300 -792.919922
138.056793 41.352100 -790.703186
137.048096 37.356998 -790.908875
137.805405 39.676102 -790.140381
137.674698 42.244301 -791.465271
137.154495 38.780102 -790.523315
137.130600 42.958801 -792.258179
137.458496 46.011700 -792.749329
137.642395 47.213699 -792.819580
137.039902 40.475300 -790.471619
136.614594 43.863899 -792.794617
136.746902 45.017300 -792.961121
137.354904 48.354599 -792.935608
137.925201 52.008598 -793.122498
136.082504 39.025501 -790.883179
136.487305 41.443298 -790.942627
136.515503 46.637901 -792.972229
137.074600 49.477501 -792.853027
135.951202 42.391102 -791.419128
135.847305 43.397999 -792.061584
135.588699 44.434200 -793.066772
136.085403 47.700600 -793.260315
137.034698 52.831699 -793.180603
135.009201 39.288399 -791.272827
135.428207 40.263802 -790.714905
135.369095 45.609699 -793.016296
135.892700 48.899101 -793.158630
135.183197 41.402802 -790.783020
134.995697 46.646702 -793.338928
134.820801 42.508598 -791.256775
134.721405 43.515400 -791.892212
134.406601 44.136700 -792.863770
134.744293 47.802799 -793.578003
135.530304 50.153801 -792.733582
134.274796 40.404400 -791.012329
134.233902 45.307201 -793.092407
134.722595 48.978298 -793.460022
135.302094 51.304699 -792.506470
134.012604 41.554100 -790.994080
133.764206 46.277000 -793.476685
133.602005 47.526699 -793.821777
134.353607 50.274601 -793.198730
133.564896 42.583801 -791.273621
133.526093 43.685200 -791.807800
133.442703 44.682499 -792.402710
132.881104 41.098202 -791.407104
132.964005 45.526299 -793.008606
133.128204 48.578899 -793.864929
134.231094 51.828999 -792.630127
132.467194 46.553600 -793.500183
133.471298 50.999401 -792.979126
132.056107 42.056099 -791.502502
132.221207 43.207401 -791.589478
132.307297 44.378101 -791.868103
132.088898 47.967499 -793.844604
131.715393 45.186100 -792.435974
131.804794 49.109200 -793.836121
130.937103 42.487801 -791.908325
131.126297 43.626900 -791.933716
131.024002 46.025200 -793.157776
131.159103 47.165298 -793.310486
130.604401 44.619301 -792.174683
130.631500 48.248699 -793.605408
130.813004 49.687901 -793.772278
129.898499 43.525600 -791.914612
130.007599 45.653801 -792.536987
130.125702 46.801498 -792.732910
142.097000 57.364899 -768.916199
129.339798 44.493099 -792.343201
129.590897 47.747002 -793.102722
129.628006 48.904499 -793.495789
129.890106 50.325298 -793.467712
132.115295 52.675400 -789.192871
140.934692 56.515400 -769.976501
127.207199 40.078201 -794.627502
139.890198 55.443802 -771.066711
142.057999 58.759300 -767.327026
128.865997 45.579201 -792.182312
128.942505 46.739399 -792.485596
128.592804 48.379200 -793.019714
128.788803 50.028599 -793.245605
138.608398 54.876301 -772.013977
139.516693 56.370800 -770.487793
138.587402 55.621201 -771.124207
139.446503 57.303101 -769.789673
140.771896 58.510601 -767.148621
141.199905 59.383099 -766.498230
127.668297 45.497002 -791.645691
127.708504 46.669800 -792.043823
127.748703 47.836201 -792.439087
128.069504 50.944000 -792.983521
115.599297 39.688202 -817.202515
125.687103 41.469501 -793.831116
127.364304 48.904400 -792.949829
137.292496 55.234501 -771.874878
138.091293 56.549599 -770.518311
127.329002 50.050999 -792.968384
129.952393 54.507900 -788.112183
134.053894 53.221298 -777.735474
138.129105 57.417198 -769.715088
120.860298 43.757900 -804.327820
126.482803 46.316799 -791.882385
126.669296 47.449501 -791.910522
126.907501 51.221699 -792.923706
136.818497 55.961899 -771.082275
126.486702 48.542000 -792.185730
126.151703 49.501202 -792.818115
129.112198 55.898399 -788.372620
139.158203 59.909000 -765.822327
138.292404 58.848999 -766.815918
120.697098 45.008598 -803.000183
125.445297 46.727600 -792.228516
125.857697 50.677601 -792.890686
136.445496 57.160801 -769.985107
125.321404 47.859699 -792.474182
127.369598 53.290699 -789.799011
135.405701 56.494900 -771.127930
137.222107 58.448502 -767.547119
120.584297 45.702202 -801.887512
124.519402 47.053299 -792.900513
124.989502 48.963100 -792.565613
124.812202 50.141998 -792.718323
136.179794 57.973801 -768.370728
126.957100 54.985699 -788.764221
135.280197 57.475899 -769.531921
136.763504 59.204601 -766.648499
137.700195 61.648602 -765.399780
124.411102 51.276402 -792.651001
132.392700 54.992199 -774.752197
123.716400 49.362701 -792.796082
125.768898 54.004200 -789.762512
119.800797 46.991501 -800.522705
123.211502 50.394901 -792.596191
134.239304 58.335899 -768.997925
135.768707 60.177299 -766.044312
122.860100 51.674599 -792.605774
134.738602 59.780800 -766.888428
121.890099 50.758301 -792.902100
133.206696 58.930099 -768.450684
134.433899 60.607899 -766.142578
121.518997 51.868801 -792.539124
133.193298 60.079498 -767.061584
120.497803 51.009102 -793.092712
120.660004 52.908501 -792.290222
132.163498 60.640400 -766.810120
120.012100 52.051399 -792.691528
130.919998 60.018299 -768.063721
129.803604 59.020100 -769.779480
129.857697 60.081501 -768.651184
119.246696 53.819599 -792.007324
119.972397 55.980000 -790.164429
129.635101 66.155899 -767.338196
123.156303 65.493599 -769.824280
110.208199 59.525299 -786.667297
111.026901 67.753403 -775.198303
106.718697 60.610500 -784.884094
113.757103 57.796799 -782.139099
120.496002 64.539398 -770.958618
114.409599 57.947201 -787.287720
121.638000 64.280197 -770.981995
114.392197 58.069401 -790.333496
125.070602 61.652901 -770.918274
126.590599 65.396400 -768.425720
118.219704 55.158100 -790.861328
122.981102 56.260300 -789.142090
123.163597 48.144001 -792.999573
126.168999 57.640099 -789.180603
137.930099 59.662498 -766.061279
132.751404 49.896198 -793.731812
135.570694 53.826099 -792.081726
138.159897 53.431900 -793.456604
113.970901 69.359299 -776.494873
90.589897 26.758801 -806.881470
89.854897 25.741400 -807.107971
90.865501 27.333099 -805.180115
89.068497 24.840799 -808.187683
91.202003 28.087500 -804.388123
89.969704 26.769199 -805.833801
88.247200 24.365801 -808.885376
88.724197 25.590300 -807.371826
87.490700 23.914499 -809.759521
89.000702 26.266500 -806.368713
93.231201 29.092699 -803.629517
93.695999 30.831200 -802.283325
92.698303 28.276501 -804.277588
92.341599 27.432899 -805.071228
93.083801 30.001600 -802.949585
91.740997 26.750200 -805.845581
93.537598 32.030602 -801.192688
95.477798 38.364300 -796.909180
95.124802 37.550900 -797.710388
94.769997 36.494202 -798.238525
92.103104 29.435101 -803.233276
96.125298 41.089199 -795.107422
95.625702 39.691101 -795.950317
94.082703 35.669601 -798.897522
93.704597 34.616001 -799.540894
93.366203 33.675999 -800.120117
92.549896 31.512600 -801.637573
92.177399 30.527500 -802.332214
96.342300 42.462502 -794.177490
92.744797 32.834000 -800.727112
99.563103 52.722801 -789.063782
91.047203 29.060400 -803.490479
94.646202 39.277401 -796.395508
94.280098 38.367100 -797.135010
93.931801 37.354198 -797.669312
91.182404 30.053101 -802.685608
98.805000 51.900398 -789.403625
95.383499 41.948101 -794.617981
95.006500 40.853802 -795.195313
93.355103 36.556702 -798.292725
92.946800 35.459000 -799.018127
92.563004 34.396500 -799.664978
91.765800 32.151199 -800.964111
91.423103 31.328699 -801.686218
90.074402 28.119301 -804.560425
91.917297 33.458000 -800.197205
98.837303 53.786598 -788.364807
97.961304 51.121899 -789.534119
97.614899 50.012798 -789.933289
95.188301 43.053902 -793.653625
94.079697 40.253601 -795.783875
90.065300 29.727699 -803.061096
89.155403 27.670601 -805.084900
87.928703 25.138901 -808.088074
98.134903 52.827999 -788.662720
96.917297 49.038898 -790.168701
94.254204 41.771702 -794.624695
93.346397 39.467300 -796.340698
92.988602 38.527401 -796.981018
92.648697 37.586102 -797.533875
92.194901 36.374599 -798.324280
91.800201 35.274101 -798.958130
90.921600 32.859200 -800.408630
90.553001 32.027401 -801.223389
90.179398 31.075701 -801.926086
89.312202 29.014400 -803.725220
88.420097 26.978399 -805.671875
86.602402 23.580999 -810.495605
96.205200 48.271599 -790.654480
95.839104 47.206001 -791.184387
93.531799 41.077999 -795.193115
91.065300 34.524300 -799.474792
88.570900 28.337700 -804.308899
87.675003 26.418900 -806.391479
87.304703 25.647200 -807.276184
86.871597 24.884001 -808.470520
97.956398 54.400398 -787.640076
97.188499 52.074699 -788.634521
96.801399 50.966599 -789.209290
95.170700 46.316502 -791.650818
94.810204 45.310299 -792.215698
94.441704 44.271702 -792.781311
94.092400 43.345798 -793.384277
92.867599 40.319599 -795.750183
89.153900 30.628901 -802.335510
86.178200 24.254299 -809.197388
97.358902 53.420502 -788.065125
96.224998 49.954399 -789.478088
93.463699 42.510502 -794.049927
92.165398 39.270802 -796.494629
91.793098 38.285500 -797.131775
91.436699 37.287498 -797.679626
91.034798 36.170300 -798.306824
90.126404 33.753502 -799.846924
89.727402 32.789101 -800.633606
89.361504 31.895700 -801.344971
88.521599 29.808300 -802.936279
87.627998 27.707600 -804.765808
85.451698 23.721901 -810.504272
90.455803 35.305302 -798.804199
87.902603 29.061600 -803.711121
87.026802 27.084000 -805.580078
86.214302 25.347500 -807.424316
95.386497 49.142399 -789.800598
95.019302 48.206001 -790.454773
94.647499 47.149399 -790.994385
92.612000 41.944000 -794.602783
86.335403 26.350100 -806.244202
85.534897 24.807899 -808.231873
97.136703 55.324402 -786.733215
96.750298 54.334900 -787.407898
96.300797 52.898602 -787.871582
95.916801 51.735100 -788.338989
95.553200 50.696201 -788.852173
93.915298 46.302601 -791.488098
93.567001 45.296501 -791.967407
93.202202 44.424000 -792.673828
92.836899 43.557701 -793.390015
91.869102 41.150902 -795.160889
91.516296 40.277699 -795.811096
91.028900 39.040001 -796.674316
90.674896 38.076900 -797.228577
90.306297 37.048901 -797.777283
89.452301 34.749599 -799.142090
88.969299 33.600101 -800.083984
88.600403 32.714401 -800.794922
88.231903 31.735600 -801.398987
87.867599 30.888800 -802.132324
86.858597 28.488800 -804.101318
84.778099 24.375799 -809.104675
94.853699 50.373199 -789.727600
92.089798 42.801102 -793.940674
89.568901 36.254200 -798.189880
87.093399 30.126900 -802.703125
86.093903 27.814301 -804.707886
85.733101 27.027399 -805.485596
85.249397 26.077900 -806.647400
94.249802 49.353901 -789.627380
93.870102 48.275002 -790.155823
93.500298 47.259899 -790.710815
91.394402 42.062698 -794.530884
86.380600 29.416901 -803.317993
84.538200 25.547199 -807.425476
96.379601 56.175701 -786.206787
96.000504 55.142300 -786.777222
95.656601 54.100700 -787.176819
95.153503 52.519501 -787.696472
94.769600 51.498798 -788.303284
92.748199 46.136600 -791.510925
92.354599 45.134998 -792.183472
91.953201 44.209099 -792.977295
90.723503 41.157501 -795.166382
90.342300 40.272800 -795.913879
89.760498 38.706100 -796.810730
89.354103 37.615898 -797.442322
88.634903 35.618099 -798.481812
88.270203 34.761398 -799.185730
87.802002 33.616199 -800.038025
87.431801 32.751301 -800.757507
87.056503 31.767000 -801.365723
85.721703 28.696100 -804.014221
83.893501 24.964199 -808.177979
94.189003 50.580700 -788.732117
86.406799 30.950500 -802.105530
84.613998 26.921000 -805.742371
91.114197 43.519501 -793.441895
88.480797 36.824200 -797.855774
85.769699 30.190800 -802.692688
84.847397 28.122601 -804.550171
83.964104 26.277901 -806.482788
94.697197 53.431198 -787.172913
93.112396 49.135899 -789.495422
92.718201 48.129398 -790.142395
92.329002 47.160099 -790.808716
90.482498 42.655998 -794.077515
89.300301 39.777199 -796.175171
85.134804 29.468700 -803.382019
83.335800 25.664400 -807.222900
91.638496 45.941002 -791.730530
91.247002 44.992599 -792.424500
89.594002 40.970100 -795.336121
88.614601 38.430801 -796.885925
87.472000 35.475300 -798.702026
87.109001 34.559200 -799.304382
86.637100 33.441799 -800.170471
86.259399 32.577400 -800.896912
95.634499 56.906898 -785.557617
95.255699 55.804001 -786.017395
94.869904 54.674400 -786.479187
94.009804 52.302898 -787.671692
85.755798 31.711399 -801.547607
83.950996 27.645300 -805.070679
93.497398 51.395500 -788.287781
93.069603 50.207802 -788.867615
89.706802 41.908600 -794.583374
90.473198 44.273701 -792.871277
87.823700 37.695400 -797.296570
87.378700 36.590500 -798.039612
85.041000 30.920000 -802.093506
84.175598 28.975599 -803.767273
83.214500 26.942699 -805.767883
91.237000 46.833698 -791.133423
89.848396 43.423698 -793.472473
88.168800 39.347500 -796.355774
84.413696 30.174900 -802.735474
82.537003 26.138800 -806.537720
93.817497 54.074501 -786.513489
92.090500 49.626999 -789.158203
91.704498 48.596802 -789.708923
90.509499 45.808998 -791.863708
88.423599 40.729900 -795.385925
86.502403 36.075199 -798.656311
85.948502 34.598099 -799.447693
85.492798 33.494999 -800.224609
85.088699 32.540001 -800.939819
83.260696 28.361000 -804.331421
94.659500 57.145901 -784.843628
94.242897 56.096901 -785.498779
93.889503 55.072102 -785.903320
93.161697 53.158501 -786.957397
92.776199 52.212101 -787.590576
92.369003 51.162399 -788.203979
91.023697 47.882702 -790.440674
88.941299 42.765099 -793.857300
88.538399 41.841499 -794.593079
87.241203 38.599998 -796.661072
86.741798 37.466301 -797.585571
84.382202 31.708401 -801.503113
83.484802 29.661800 -803.153076
82.542603 27.660000 -805.050720
89.565201 45.253700 -792.279907
89.195297 44.371498 -792.910095
87.440201 40.015499 -795.711487
83.681198 31.019300 -802.085693
91.350304 50.544498 -788.523682
90.915199 49.494301 -789.246521
90.022202 47.423199 -790.825195
89.639801 46.462399 -791.417603
88.080101 43.297100 -794.686218
87.504303 41.346199 -795.008423
85.729897 37.057701 -797.949524
85.358101 36.245899 -798.664124
84.988197 35.347198 -799.271973
84.605797 34.398602 -799.878174
84.229500 33.485802 -800.498413
82.438698 29.340300 -803.673523
93.613998 57.503399 -784.351929
93.195000 56.460800 -785.006714
92.810898 55.398998 -785.486816
92.440102 54.419102 -786.000793
92.039902 53.510300 -786.725403
91.673500 52.573299 -787.269287
91.255699 51.595001 -787.992126
90.116600 48.775902 -789.790283
88.118103 44.125999 -793.282104
87.435699 42.379501 -794.293701
86.362000 39.730499 -795.997803
85.978600 38.845299 -796.675476
83.413399 32.804100 -801.074280
83.033401 31.893801 -801.708374
82.573502 30.834700 -802.524170
81.631302 28.648300 -804.176880
88.520302 46.151501 -791.616272
88.133301 45.299801 -792.340881
87.327301 43.365398 -793.666382
86.392097 41.165100 -795.254883
85.175003 38.209400 -797.217529
83.873001 35.254398 -799.552917
83.497299 34.453201 -800.285889
81.761398 30.279699 -803.132324
90.154800 51.065300 -788.140930
89.777199 50.216599 -788.822571
89.031303 48.487202 -790.108704
88.645203 47.623100 -790.809998
84.392899 37.544102 -797.889771
84.006302 36.678699 -798.591980
81.926201 31.709700 -802.010376
92.478401 57.627701 -783.990417
92.085899 56.635399 -784.569885
91.716400 55.667900 -785.076416
91.306297 54.712399 -785.775818
90.926201 53.816700 -786.411682
90.535202 52.874699 -787.042480
89.101501 49.541698 -789.495178
87.109596 44.772202 -792.742981
86.302902 42.864498 -794.085571
85.351799 40.622799 -795.677490
84.944801 39.637199 -796.328186
82.457199 33.910702 -800.649170
82.040497 32.844101 -801.249023
89.902000 52.052898 -787.620422
87.726601 46.889000 -791.205078
87.346001 45.969601 -791.813782
85.663696 42.236198 -794.887329
83.084099 36.171001 -799.205078
82.667999 35.190701 -799.899170
89.131897 51.162601 -788.637878
86.226799 44.119499 -793.231201
84.073402 39.105499 -796.876221
88.003304 49.176102 -789.746216
87.607803 48.274200 -790.432617
84.763100 41.558399 -795.102905
83.386803 38.432800 -797.505920
83.008698 37.612400 -798.211182
81.373802 33.859402 -801.019714
80.960503 32.830399 -801.636108
91.377296 57.724701 -783.342712
90.959702 56.833000 -784.132202
90.563202 55.848999 -784.721497
90.154999 54.921200 -785.427917
89.765701 54.100300 -786.175781
89.345200 53.131001 -786.887817
88.180702 50.560902 -788.992126
86.613503 46.747002 -791.409973
86.231300 45.836700 -792.023376
85.271698 43.631699 -793.655579
84.061600 40.823601 -795.682312
82.018700 36.436699 -799.515381
81.532898 35.159901 -800.154785
88.625198 52.419998 -787.596191
86.625397 47.797699 -790.940491
85.530998 45.128899 -792.607788
84.556503 42.886101 -794.249329
83.329399 40.041000 -796.291016
87.902397 51.625301 -788.174072
87.209396 50.094200 -789.403992
86.797501 49.126598 -790.067078
83.837997 42.176102 -794.836609
82.581596 39.344101 -797.000427
82.174400 38.504200 -797.792725
81.754303 37.614700 -798.583618
90.254204 57.490898 -783.313721
89.813797 56.616600 -784.202820
89.419701 55.776402 -784.931396
89.029800 54.966999 -785.677307
88.639297 54.164001 -786.432800
85.479301 46.861500 -791.608276
84.558098 44.767899 -793.158508
83.143997 41.468601 -795.437378
80.893303 36.641800 -799.562378
87.998802 53.451500 -787.066711
86.969299 51.105801 -788.777222
85.902603 48.849098 -790.753479
84.830200 46.125301 -792.206726
83.905296 43.947701 -793.660889
87.344498 52.595501 -787.737183
85.306801 47.931301 -791.084290
83.287399 43.187000 -794.257996
82.269798 40.863499 -795.936218
81.099899 38.511398 -798.241577
80.697403 37.719700 -799.055298
86.127602 50.485199 -789.387512
84.182297 46.482800 -793.095276
81.643898 40.126099 -796.595520
79.989700 37.061501 -800.147888
89.585197 58.401699 -782.593384
89.120697 57.524799 -783.565918
88.669601 56.622501 -784.450073
88.266602 55.865700 -785.298279
87.848801 54.942402 -786.013611
85.479301 49.757900 -790.132690
84.375999 47.112099 -791.776794
82.435097 42.625301 -794.867371
80.985802 39.517899 -797.462097
79.412201 36.852001 -801.115173
87.185501 54.291599 -786.682800
86.295700 52.353199 -788.223816
84.215302 48.313702 -792.408508
83.265404 45.355598 -793.002686
82.864601 44.429100 -793.634094
81.724197 41.879501 -795.531616
86.461304 53.605801 -787.379028
85.586700 51.675800 -788.849487
84.507401 49.238998 -790.598877
84.117897 48.337502 -791.204102
83.397301 46.627201 -792.273682
82.133904 43.889599 -794.457581
80.996201 41.296700 -796.273071
80.013603 39.344799 -798.182129
79.608002 38.658501 -799.111206
79.196404 37.953201 -800.043823
78.537003 37.065399 -801.824829
88.725899 59.422401 -782.859985
88.336899 58.528599 -783.464783
87.937698 57.696201 -784.187012
87.536598 56.762001 -784.795898
87.116302 55.948299 -785.630371
84.833801 50.976898 -789.505798
81.383499 43.146999 -794.989624
80.241798 40.776299 -797.065491
86.354202 55.282700 -786.362305
85.462799 53.372200 -787.904114
84.092499 50.289200 -790.098816
83.084602 47.962700 -791.642822
82.364700 46.293400 -792.736084
81.936401 45.359501 -793.457886
80.630203 42.521400 -795.670410
79.532997 40.471100 -797.928223
78.272400 38.258400 -800.693787
77.670998 37.532700 -802.407715
88.301201 60.576401 -782.530518
85.613297 54.752201 -787.070984
84.715897 52.746300 -788.513428
83.336098 49.765598 -790.855286
82.340500 47.433601 -792.325989
81.150902 44.687099 -794.132019
79.877296 42.128101 -796.525574
78.787102 40.041000 -798.698792
78.367500 39.308899 -799.621277
87.577301 60.203201 -783.427124
87.207703 59.124699 -783.709229
86.811600 58.323700 -784.442871
86.382401 57.375702 -785.139893
85.956802 56.453999 -785.854614
83.968597 52.148399 -789.190002
82.589600 49.028900 -791.341980
80.373703 44.086700 -794.885498
79.104599 41.587502 -797.317078
77.376297 38.741199 -801.305908
85.247704 55.838200 -786.587524
84.612900 54.371101 -787.531311
83.269699 51.554199 -789.880493
81.292603 46.910599 -792.729919
80.874001 46.037701 -793.468079
79.650803 43.513802 -795.657776
78.400002 41.221901 -798.249878
77.498100 39.695301 -800.272888
76.722198 38.621300 -802.306213
87.260803 61.318600 -783.287292
83.916397 53.648201 -788.294922
82.581497 50.820400 -790.580383
81.653099 48.536098 -791.780090
80.163696 45.292400 -794.221802
78.977097 42.961300 -796.478027
77.760696 40.844101 -799.125793
86.490898 59.990700 -783.924927
85.364998 57.459702 -785.662415
81.969803 50.011501 -791.129211
78.382004 42.514702 -797.367676
76.695503 39.689899 -801.162720
85.943001 59.076599 -784.467712
84.309998 55.615200 -787.233276
83.182503 53.119099 -789.012024
80.906799 47.956001 -792.446106
79.411102 44.837002 -795.043091
76.927597 40.703999 -800.008606
84.567398 56.849899 -786.373596
83.634300 54.940800 -788.013123
82.506302 52.505001 -789.836121
81.199203 49.642601 -791.899597
80.182999 47.077301 -793.082581
78.726997 44.292801 -795.881470
77.582901 42.232300 -798.239014
86.294899 61.515400 -783.900391
85.141800 58.631901 -785.254822
83.020103 55.273201 -790.159912
81.892700 51.784801 -790.655090
79.584396 46.331799 -793.762207
78.135902 43.723202 -796.719788
76.988503 41.688702 -799.102173
82.887001 54.496899 -788.858887
81.312897 51.226700 -791.513916
85.502602 60.717899 -784.503418
84.391701 58.081100 -785.957581
82.261703 53.674198 -789.554688
80.439796 49.956299 -792.695618
80.079597 49.626499 -793.821899
79.775101 49.528099 -794.999329
84.891602 59.731499 -784.937988
83.595100 56.962299 -787.010925
83.193497 56.130100 -787.684814
81.656303 53.081299 -790.436096
82.827301 56.637699 -788.859924
81.044800 52.583500 -791.377502
80.518997 51.550800 -792.325317
79.203201 49.939301 -795.921021
84.741096 61.166100 -785.264404
84.052002 59.146099 -785.656128
82.285500 55.605801 -788.728577
81.881401 54.790199 -789.424316
79.911301 51.207802 -793.312927
79.516899 50.562199 -794.181702
83.325104 58.276798 -786.406372
81.234398 54.340801 -790.331421
78.706902 50.824501 -796.651306
82.663803 57.730701 -787.278015
80.581299 53.902599 -791.269592
80.184097 53.238300 -792.114319
79.739700 52.388500 -792.924011
78.992203 51.366901 -794.804199
83.701202 60.719002 -785.514404
83.125198 59.418301 -786.302185
83.251701 60.398300 -787.014282
82.022903 57.162399 -788.107605
81.370796 55.944698 -789.324707
79.167397 52.184799 -793.888977
80.759499 55.384800 -790.194702
78.350601 51.716099 -795.732178
78.010101 51.642399 -797.084900
79.385696 53.556499 -792.886780
78.600304 52.478001 -794.837830
82.272499 58.982800 -786.976318
80.109100 55.067699 -791.110596
79.687401 54.403099 -792.043213
81.720299 58.351299 -787.781921
81.107903 57.147202 -788.818176
78.754601 53.380402 -793.905884
82.723602 61.059700 -786.078979
80.429298 56.460098 -789.798279
77.996399 53.063900 -795.646973
77.638000 52.765900 -796.768372
82.027298 60.297501 -786.753784
79.813797 56.202000 -790.734375
78.903397 54.826302 -792.769470
78.461800 54.620499 -794.350586
81.302002 59.661900 -787.393677
80.890297 59.036598 -788.302002
80.455399 58.154701 -788.975281
79.140297 56.023800 -791.704102
77.724098 54.150799 -795.186829
79.716698 58.033199 -789.839172
79.307198 57.359798 -790.666016
78.430801 57.245800 -791.461914
80.165001 56.661598 -791.756104
83.740700 38.506901 -798.733704
84.330803 23.920099 -810.114685
77.115501 53.657200 -796.139526
77.971100 55.321301 -793.337219
85.043297 61.777699 -784.061707
78.209999 56.060501 -792.468323
83.704300 61.651600 -784.611328
79.821701 59.153099 -788.852722
78.737396 58.375000 -790.317200
80.329300 60.015202 -787.941711
77.308403 43.121201 -797.322327
80.756798 31.525101 -802.268982
81.929802 26.955799 -805.802917
96.515099 40.423302 -795.986694
96.722099 39.431000 -796.596130
96.556900 38.446602 -797.311890
96.339996 37.465302 -797.921814
95.274696 35.708801 -798.987305
96.065102 36.499500 -798.567688
94.872704 34.772099 -799.541016
97.788101 38.726601 -797.493591
94.514297 33.803101 -800.064575
94.100700 32.978699 -800.794617
97.769501 37.747501 -798.089478
97.139999 36.932201 -798.659729
96.870102 35.967499 -799.271118
96.210197 34.957901 -799.781006
95.611702 34.100300 -800.276306
95.323997 33.272499 -801.007813
94.603500 32.313999 -801.646729
97.029297 34.092602 -800.598206
95.759300 32.687302 -801.887024
96.611900 33.398102 -801.522888
84.532402 57.857800 -787.100586
81.021202 60.823700 -787.062073
82.219299 31.275400 -803.548828
96.806297 32.291901 -802.239624
97.428703 35.019699 -799.862488
97.812302 39.779701 -796.408997
97.672096 40.726799 -795.722595
97.126198 41.612801 -794.871582
87.347099 38.700802 -795.287476
98.027603 42.329399 -794.734375
98.978897 42.981201 -794.934814
97.253098 43.183601 -793.846313
99.855797 43.727901 -794.854492
96.179901 43.528099 -793.285706
98.004303 44.040199 -793.538574
99.115700 44.288502 -793.910278
100.609200 44.590401 -794.518616
96.884399 44.471001 -792.921326
99.701103 45.196301 -793.520386
96.023804 45.085800 -792.266479
97.252899 45.445702 -792.372620
98.402496 45.757301 -792.557617
99.540497 46.065102 -792.743408
100.640503 46.310101 -793.104004
96.326401 46.106098 -791.685120
97.473000 46.452801 -791.740173
98.577698 46.775902 -791.831482
99.670197 47.054298 -792.064270
100.760597 47.294300 -792.428528
96.989197 47.258701 -791.046509
98.169998 47.629902 -791.049072
99.307602 47.897800 -791.365173
100.399597 48.139000 -791.723999
98.627197 48.619801 -790.634827
99.748901 48.879902 -790.958191
88.149803 46.818001 -790.133728
98.740700 50.243500 -789.699280
99.803802 50.430500 -790.215393
89.207397 51.978001 -786.356384
88.501099 54.649502 -783.409485
89.716499 54.875099 -783.943787
89.041901 51.180302 -787.275085
99.952797 51.665901 -789.641479
98.072403 36.302101 -799.017212
90.133400 55.919899 -783.066284
101.133400 45.556999 -793.879883
100.818100 49.234901 -791.194824
110.775703 65.817200 -764.090088
110.171898 65.693901 -765.124878
112.122101 68.390900 -756.479126
111.810600 67.902199 -757.476929
111.502899 67.437798 -758.484497
109.525101 65.322800 -766.007874
110.959297 67.022499 -759.485413
110.046700 66.225502 -763.159729
112.214798 69.070999 -755.277771
110.485100 66.762703 -760.577271
109.937798 66.440903 -761.550903
109.331902 66.060898 -764.114014
108.598503 65.223602 -766.780273
112.044998 70.120399 -753.692322
111.044502 68.608803 -756.893188
110.720100 68.073601 -757.878784
108.733299 65.804199 -765.081787
111.422096 69.796700 -754.591919
111.089104 69.298698 -755.659119
110.068497 67.634804 -758.770874
109.067902 66.473801 -762.364624
107.695503 65.124802 -767.575928
109.460701 67.315300 -759.771484
109.160500 67.013199 -760.900208
107.844597 65.683998 -765.842712
111.384300 70.694603 -752.893921
108.261497 66.358200 -763.226196
106.885902 65.027496 -768.447205
110.110901 69.154404 -756.350830
109.796700 68.683601 -757.346985
107.764503 66.087097 -764.305603
110.688797 70.300301 -753.817383
108.281700 66.890297 -761.636719
106.961197 65.597900 -766.591187
106.222198 64.921799 -769.418213
110.177498 69.869202 -754.745789
109.108902 68.368103 -758.217407
105.735100 64.723503 -770.432007
108.582703 67.977600 -759.184998
108.261497 67.502800 -760.193115
106.885300 65.978302 -765.093079
106.238998 65.396698 -767.547729
105.214500 64.455597 -771.416504
107.338097 66.786903 -762.377930
107.034897 66.508301 -763.515381
109.976997 71.048500 -752.778381
109.146599 69.733398 -755.251892
108.823799 69.337601 -756.345093
108.505600 68.878799 -757.344788
107.369102 67.241699 -760.915405
106.015404 65.895401 -765.857483
105.345802 65.233902 -768.306580
105.035103 64.912102 -769.426270
104.310097 64.187500 -772.068909
109.319603 70.657402 -753.667908
107.857300 68.585403 -758.275818
107.464897 68.036301 -759.520508
106.097801 66.455803 -764.235229
105.366798 65.674500 -766.829407
104.370697 64.549400 -770.295105
106.483101 67.165703 -761.706787
106.182899 66.917900 -762.849121
103.382202 63.947102 -772.760620
103.571701 64.315498 -771.135315
108.420502 70.451103 -754.347595
108.065697 70.012100 -755.513977
107.696404 69.414299 -756.568726
106.535301 67.844398 -760.235229
105.164497 66.364197 -764.986023
104.434097 65.584503 -767.527283
104.110298 65.205498 -768.616699
106.770302 68.584198 -758.721802
104.600304 66.004204 -765.915283
103.537804 64.826698 -769.533997
102.444099 63.803101 -773.471924
108.248398 71.062798 -752.989685
106.832901 69.143402 -757.385071
105.701897 67.710297 -761.009583
105.382500 67.315102 -762.044312
105.064301 67.016502 -763.181580
102.529099 64.149902 -771.696899
107.365402 70.622398 -754.808411
106.986702 70.093300 -755.959900
105.832901 68.457703 -759.441711
104.407501 66.810799 -764.165283
103.661102 65.885399 -766.567810
103.320198 65.559196 -767.773804
102.576797 64.612503 -770.138428
107.382896 71.096703 -753.741699
103.785400 66.556396 -765.172302
102.682602 65.244400 -768.766724
101.608597 64.060303 -772.372620
101.300201 63.941299 -773.658203
105.774696 69.245399 -757.914307
106.017403 69.952499 -756.598877
104.859497 68.296898 -760.016174
104.525398 67.944603 -761.143677
104.198196 67.541000 -762.181885
101.559402 64.434196 -770.720825
100.548599 63.754700 -774.568115
106.261497 70.653099 -755.231079
103.689903 67.352501 -763.190125
102.871300 66.478302 -765.922302
102.517197 65.964699 -766.951416
101.749100 65.075699 -769.437683
104.919403 69.096199 -758.657104
103.178299 67.103600 -764.273987
102.009300 65.689102 -767.958618
100.526901 64.056198 -772.811890
100.701599 64.236801 -771.549927
106.264198 71.174400 -753.964111
104.990799 70.026001 -757.104675
99.747704 63.971401 -773.655518
99.421997 63.809898 -774.923828
105.236198 70.689400 -755.768311
103.996803 68.979599 -759.350098
103.640404 68.479698 -760.370972
103.287804 68.003601 -761.400818
102.244102 67.021400 -764.929871
101.053902 65.620697 -768.639221
100.640297 65.044098 -769.827881
105.355103 71.126999 -754.655090
104.263199 69.760101 -757.946716
102.754402 67.852600 -762.474426
101.699303 66.779297 -765.932617
101.344902 66.330597 -766.995789
102.192596 67.637001 -763.491272
99.854202 64.850700 -770.646484
99.499397 64.417099 -771.720276
104.239304 70.627197 -756.443909
100.513397 66.155296 -767.757813
98.900497 64.256897 -772.697815
98.575699 64.014503 -773.849670
98.263199 63.842899 -775.027283
104.309799 71.319397 -755.115906
103.177498 69.819000 -758.390625
102.809196 69.283096 -759.401978
102.469704 68.884399 -760.441406
102.123100 68.457397 -761.480408
101.258499 67.539299 -764.238403
100.621902 66.894402 -766.303894
99.817703 65.828102 -768.629028
99.465401 65.418503 -769.713013
103.241302 70.685501 -757.038513
101.391296 68.257301 -762.406616
100.540100 67.366699 -765.133972
98.733498 65.171799 -770.577087
98.377296 64.742203 -771.653625
97.237297 63.756500 -775.542786
103.298897 71.448700 -755.678711
100.655098 67.987503 -763.325012
99.590797 66.978401 -766.842224
99.230904 66.526299 -767.905029
97.639900 64.434303 -772.495789
97.340401 64.230202 -773.576904
103.321297 72.158401 -754.599182
102.255600 70.711502 -757.613220
101.911499 70.289497 -758.638428
101.535103 69.726997 -759.643799
101.180199 69.266701 -760.671997
99.522301 67.363503 -765.760620
98.514198 66.086403 -768.716919
96.674004 64.122002 -774.534912
102.365097 71.384499 -756.425415
100.545898 68.939697 -761.596985
99.727997 67.994499 -764.099915
97.883301 65.821503 -769.698120
97.518898 65.351997 -770.757324
96.063904 63.979198 -775.565979
99.960197 68.616096 -762.579529
96.918701 65.000298 -771.764221
102.312302 72.235397 -755.166687
98.490303 67.315399 -766.254578
98.182999 67.075302 -767.326721
96.322899 64.637299 -772.672180
102.512100 72.844597 -753.617371
101.342102 71.369598 -757.034973
100.987701 70.903801 -758.048279
100.620102 70.384102 -759.056824
100.254501 69.879402 -760.073303
98.720497 68.022797 -764.644226
97.556801 66.726501 -768.242126
95.720901 64.465897 -773.667725
101.427101 71.906601 -755.863770
99.607803 69.499702 -761.025024
98.903297 68.638298 -763.106079
96.912498 66.303802 -769.102478
96.555397 65.892899 -770.187500
95.102898 64.235100 -774.615417
94.776299 64.000504 -775.772278
101.720299 73.041496 -754.423706
98.971001 69.172897 -761.926575
97.822197 67.766602 -765.307312
95.910599 65.599297 -771.134888
98.004402 68.408897 -763.770691
97.204498 67.575401 -766.282776
96.842697 67.146301 -767.357910
95.254898 65.218597 -772.024719
100.855400 72.816498 -755.205017
100.410301 72.127998 -756.331970
100.014603 71.494301 -757.309021
99.633400 70.931602 -758.306213
99.262497 70.420097 -759.318420
96.242104 66.888496 -768.305176
94.620399 64.799004 -772.903992
98.686996 70.145897 -760.324280
97.941299 69.223701 -762.474670
95.653198 66.552597 -769.258423
95.307999 66.235497 -770.382996
94.049698 64.597603 -773.915588
93.699799 64.254799 -775.029907
98.121902 69.848602 -761.304077
97.061897 68.608498 -764.441895
97.207603 69.121002 -763.360779
96.500099 68.279099 -765.432983
96.117699 67.867996 -766.604980
94.524597 65.853699 -771.132080
99.767197 72.839996 -755.633606
98.957001 71.689301 -757.777222
95.531097 67.466301 -767.597900
93.957901 65.480698 -772.053101
99.169197 72.454002 -756.538330
98.354698 71.310799 -758.694702
97.990303 70.847298 -759.716370
94.927498 67.196503 -768.592529
94.538399 66.639503 -769.609985
93.304604 64.970100 -772.950684
92.925003 64.596199 -774.143188
92.569099 64.180496 -775.185181
97.370003 70.641998 -760.698975
96.998001 70.160797 -761.726929
96.235802 69.301300 -763.982971
96.344498 69.977402 -762.747314
95.560600 68.988197 -764.931824
95.186501 68.526100 -765.986328
93.624001 66.557198 -770.344116
93.241600 65.941101 -771.250671
97.715500 72.101402 -757.702087
97.298203 71.672501 -758.980530
94.487396 68.236000 -766.938416
94.107498 67.744499 -767.981812
93.739304 67.322601 -769.057495
92.539497 65.537903 -772.074219
92.143402 64.973801 -773.099915
96.597099 71.427200 -759.925781
96.220200 70.931702 -760.949524
95.377602 69.995903 -763.446411
95.597397 70.931396 -761.907227
94.684799 69.706100 -764.349976
94.297897 69.172997 -765.369385
92.756599 67.223900 -769.641785
92.362900 66.667999 -770.662720
93.635399 68.803200 -766.266113
93.261497 68.352402 -767.327515
92.884201 67.884201 -768.382385
91.665001 66.136703 -771.503723
91.278099 65.519798 -772.417725
90.886398 64.882698 -773.328125
95.672897 72.327698 -760.512329
94.728401 70.772400 -762.677307
94.966400 71.861397 -761.335815
94.013199 70.303299 -763.522278
91.638199 67.154198 -769.877991
93.545601 69.821800 -764.479126
91.803902 67.730499 -768.796692
95.296402 73.303200 -760.038330
92.917099 69.377899 -765.342285
92.496002 68.815002 -766.444519
92.114799 68.356201 -767.505005
90.924797 66.857597 -770.733582
90.548500 66.324600 -771.681274
90.161301 65.740402 -772.612000
93.982903 71.600998 -761.874023
94.409798 72.921997 -760.774719
93.407799 71.024399 -762.680420
89.278099 65.440399 -773.338684
92.813904 70.405098 -763.502991
91.139603 68.379303 -768.109314
90.721802 67.854897 -769.234985
94.378304 73.978699 -760.291626
92.235497 70.006798 -764.426025
91.806297 69.532097 -765.659424
91.378601 68.956703 -766.758789
89.815903 67.009102 -770.972595
89.426201 66.429802 -771.905029
93.460899 72.648003 -761.405029
92.814301 71.930801 -762.160217
89.758202 67.764702 -769.861572
88.617798 66.205803 -772.729675
93.401100 73.628998 -760.776001
92.175201 71.180496 -762.860779
90.026703 68.449699 -768.504211
91.154800 70.121803 -764.894470
90.316200 69.101601 -767.151428
91.468597 70.756897 -763.651917
90.617500 69.674896 -765.877686
88.856201 67.464600 -770.520386
88.480797 66.978302 -771.490784
92.328300 72.827904 -761.627014
89.011101 68.338799 -769.038574
87.767197 66.889999 -772.398926
