60.941299 23.095301 -765.098083
60.677200 23.083200 -765.195007
60.405300 23.056601 -765.287292
59.973999 22.972799 -765.411316
59.704201 22.952801 -765.506226
59.245098 22.819700 -765.614685
59.013802 22.751200 -765.668579
57.591801 22.294001 -765.980530
57.361000 22.232500 -766.038025
56.712002 22.133900 -766.239319
56.477402 22.068600 -766.296326
55.986301 22.022699 -766.463928
55.441002 22.002600 -766.666687
62.699200 22.910999 -764.734802
62.522301 23.071400 -764.889893
62.271301 23.080900 -764.993286
62.046600 23.014601 -765.045898
61.788502 23.011000 -765.145081
61.525501 22.998100 -765.241272
61.255001 22.971300 -765.332886
60.964298 22.905100 -765.411377
60.707802 22.907801 -765.513428
60.420601 22.850800 -765.595520
60.136101 22.800301 -765.679993
59.857300 22.762100 -765.768799
59.581902 22.731400 -765.860291
59.270500 22.632401 -765.929382
59.025501 22.537201 -765.974487
58.790699 22.462601 -766.026611
58.497398 22.402201 -766.109314
58.196602 22.328899 -766.187927
57.941299 22.218901 -766.229126
57.676800 22.092699 -766.265320
57.387501 22.045000 -766.353088
57.150002 21.971800 -766.406982
56.859402 21.923901 -766.495422
56.630100 21.867800 -766.555176
56.336498 21.816700 -766.642883
56.055199 21.789101 -766.738403
55.764198 21.745100 -766.828918
59.482899 22.620501 -766.054626
55.657600 21.625900 -767.021973
62.790001 22.817200 -765.007690
62.592899 22.936399 -765.148621
62.343601 22.948900 -765.252991
62.063301 22.899401 -765.336426
61.801399 22.887800 -765.432800
61.527302 22.852699 -765.521484
61.262699 22.837400 -765.617004
61.035702 22.769699 -765.669678
60.768700 22.751400 -765.764587
60.498199 22.726900 -765.857483
60.268398 22.656300 -765.909912
59.997299 22.632500 -766.003418
59.736599 22.629801 -766.104126
59.240398 22.424299 -766.188782
58.998699 22.335501 -766.236084
58.713902 22.290400 -766.323608
58.480499 22.219500 -766.377197
58.190800 22.167299 -766.462830
57.918201 22.024401 -766.493286
57.706600 21.873600 -766.495728
57.430000 21.849600 -766.591187
57.202301 21.794500 -766.651123
56.973801 21.738701 -766.710815
56.695999 21.715300 -766.807129
56.381199 21.624800 -766.882080
56.097900 21.593500 -766.976379
59.483601 22.461300 -766.251526
55.937302 21.485100 -767.120422
63.028500 22.744499 -765.164612
62.785702 22.832399 -765.306824
62.555302 22.882700 -765.424194
62.279701 22.841299 -765.510315
62.003101 22.798800 -765.596313
61.731602 22.767700 -765.686218
61.457600 22.732401 -765.775024
61.197601 22.726101 -765.873718
60.897800 22.641199 -765.946106
60.622200 22.605900 -766.035522
60.395599 22.540701 -766.089722
60.118599 22.504601 -766.179077
59.851898 22.489500 -766.275818
59.282501 22.266199 -766.380127
59.045200 22.185301 -766.430115
58.746201 22.112200 -766.508423
58.517899 22.050699 -766.565186
58.287102 21.985100 -766.620789
57.980999 21.902201 -766.696777
57.696899 21.738100 -766.720703
57.412300 21.698700 -766.811401
57.182899 21.640200 -766.870178
56.883499 21.575199 -766.953125
56.586399 21.516001 -767.038086
56.357300 21.460800 -767.098572
55.793598 21.495600 -767.338623
59.662201 22.426500 -766.442688
56.153900 21.378099 -767.262207
58.954300 22.069300 -766.621826
57.876598 21.758101 -766.879822
62.986099 22.704800 -765.417603
62.462799 22.780199 -765.664124
62.188801 22.740700 -765.750977
61.923401 22.720100 -765.844482
61.632099 22.647400 -765.920471
61.366798 22.628799 -766.015076
61.077599 22.562901 -766.093811
60.809898 22.541100 -766.187683
60.304901 22.432699 -766.328674
60.026798 22.393200 -766.417175
59.504002 22.256001 -766.549805
59.254601 22.149000 -766.590881
58.708401 21.972799 -766.711914
58.468498 21.887800 -766.760986
58.167900 21.812901 -766.839417
57.675201 21.623600 -766.932312
57.425400 21.524000 -766.977478
57.139900 21.482700 -767.067871
56.839001 21.413700 -767.149597
56.561001 21.388700 -767.245789
55.980999 21.297501 -767.425476
62.778900 22.755100 -765.559204
60.570202 22.468100 -766.306030
62.847801 23.104900 -764.470825
62.948601 22.956800 -764.705322
63.235401 22.664400 -765.494080
63.268600 22.445499 -765.703430
61.231701 25.177401 -761.118225
61.334999 25.034100 -761.354980
60.764999 25.698400 -760.240723
60.875401 25.565701 -760.482422
60.980301 25.424801 -760.720520
61.081200 25.278099 -760.955994
58.198101 27.656799 -755.352600
59.781300 26.406500 -758.454224
59.995800 26.278200 -758.851074
60.270401 26.091700 -759.371887
60.402000 25.990400 -759.628174
60.524200 25.875200 -759.878174
63.047298 22.523800 -765.589417
63.214001 22.471800 -765.960327
60.541000 25.763599 -760.159790
60.997002 25.182400 -761.179382
63.259300 22.353500 -766.206970
57.793800 27.775801 -754.997620
57.925701 27.669701 -755.257629
60.587399 25.651100 -760.435486
60.695999 25.516500 -760.676270
60.793098 25.364500 -760.909729
61.028099 25.047899 -761.445313
63.293999 22.230700 -766.476196
59.529099 26.425900 -758.527100
59.726799 26.273899 -758.913513
60.000599 26.087700 -759.434692
61.173599 24.725500 -761.987915
62.863899 22.601000 -765.758972
63.306198 22.086300 -766.722473
62.963501 22.504601 -766.018372
63.379700 21.949100 -766.966492
60.755901 25.228300 -761.148621
57.355801 27.901800 -754.565186
58.370899 27.318399 -756.441101
60.237598 25.786501 -760.152222
60.346699 25.653400 -760.393921
60.455200 25.519600 -760.635071
62.990002 22.385500 -766.274719
63.312698 21.755899 -767.123779
63.717300 21.493700 -767.888489
57.629200 27.682400 -755.360901
59.284801 26.410200 -758.606201
59.502102 26.214600 -759.048523
60.394001 25.400600 -760.870178
60.491901 25.250999 -761.104492
60.609402 25.131500 -761.351624
62.609501 22.600000 -765.840088
62.764099 22.466801 -766.151306
62.942799 22.296400 -766.520508
63.053001 22.168400 -766.761230
63.343300 21.873301 -767.371521
63.445499 21.732500 -767.607300
63.662399 21.394300 -768.130371
63.748699 21.227100 -768.357178
63.821301 21.036900 -768.576172
63.917000 20.885201 -768.808472
63.936901 20.684299 -768.953613
63.964500 20.495899 -769.103027
60.011398 25.556101 -760.557922
60.120201 25.423100 -760.799683
60.236801 25.302200 -761.046570
60.343201 25.166100 -761.286926
62.480598 22.555099 -766.039917
62.619900 22.397600 -766.342224
62.796799 22.224899 -766.710815
62.914501 22.109800 -766.956177
63.012100 21.961800 -767.189697
63.140701 21.787500 -767.485474
63.236500 21.636400 -767.718018
63.323601 21.471100 -767.945618
63.427502 21.333300 -768.182678
63.547100 21.144199 -768.473389
63.654499 20.934601 -768.757202
63.843498 20.471399 -769.310730
63.912800 20.275000 -769.528870
63.927799 20.065100 -769.672119
63.976700 19.833500 -769.879517
58.941700 26.380800 -758.697388
59.141800 26.160500 -759.129028
62.253399 22.568199 -765.937988
62.558701 22.297400 -766.559326
63.556900 20.777300 -768.955078
63.619099 20.569799 -769.169312
63.861500 19.646900 -770.069580
59.335201 25.990999 -759.646301
59.828602 25.473801 -760.697327
59.975700 25.325500 -761.007324
60.085201 25.194599 -761.249878
60.183701 25.047001 -761.485229
62.289501 22.475100 -766.181274
62.616100 22.163700 -766.859070
62.726398 22.037100 -767.100525
62.830200 21.899900 -767.337891
62.941601 21.698299 -767.624084
63.043598 21.558201 -767.860474
63.176201 21.391399 -768.158875
63.258202 21.218300 -768.383972
63.349998 21.061100 -768.614624
63.610298 20.408100 -769.388184
63.668098 20.193100 -769.600403
63.719101 19.966101 -769.809021
63.862999 19.503300 -770.295471
62.327702 22.371500 -766.417114
63.347000 20.890699 -768.826294
63.804100 19.315100 -770.432373
58.670601 26.333300 -758.794006
58.892899 26.146601 -759.240601
59.577099 25.469400 -760.674072
59.698601 25.356100 -760.924622
59.811798 25.230600 -761.169617
59.922100 25.100700 -761.412476
61.979698 22.523100 -766.035522
62.285000 22.252701 -766.656921
62.408100 22.070000 -766.949890
62.559601 21.933701 -767.259521
62.651501 21.776699 -767.489990
62.884899 21.467400 -768.024170
63.009800 21.287701 -768.318176
63.102798 21.132601 -768.549500
63.274601 20.720600 -769.048889
63.355202 20.544100 -769.273376
63.434101 20.286699 -769.542175
63.503101 20.090300 -769.760620
63.546700 19.850700 -769.965393
63.555698 19.630501 -770.106079
63.686298 19.143299 -770.586182
63.719601 18.962799 -770.741028
59.450600 25.367500 -760.885498
59.568100 25.247999 -761.133423
59.805000 25.012699 -761.629883
61.272999 23.010900 -765.020325
61.848499 22.409000 -766.244019
61.968601 22.297100 -766.491272
62.072899 22.159901 -766.729370
62.268002 21.940399 -767.153198
62.374802 21.807501 -767.392578
62.473598 21.661400 -767.627197
62.582901 21.532600 -767.867920
62.713501 21.361900 -768.165283
62.824799 21.159300 -768.451721
62.927101 21.018999 -768.688416
62.990601 20.814400 -768.903320
63.101700 20.610901 -769.189819
63.164799 20.404800 -769.404785
63.258801 20.172199 -769.682190
63.320099 19.962299 -769.896729
63.418400 19.500099 -770.312927
63.472801 19.277300 -770.524414
63.510399 18.867001 -770.818420
63.531898 18.665800 -770.967224
58.267101 26.256500 -758.948425
58.485100 26.062500 -759.392273
59.161598 25.445101 -760.778687
59.304901 25.290001 -761.086426
59.418800 25.165001 -761.331970
59.531799 25.039000 -761.577026
61.543201 22.454800 -766.131714
61.700500 22.326200 -766.445374
61.807598 22.193199 -766.685181
61.903099 22.041500 -766.918274
62.002602 21.896299 -767.153625
62.094299 21.738501 -767.384521
62.205799 21.612801 -767.626770
62.325401 21.500601 -767.873718
62.420399 21.348101 -768.106384
62.522900 21.208000 -768.343384
62.608101 21.039101 -768.570618
62.696098 20.874901 -768.799500
62.783501 20.709400 -769.028076
62.841301 20.494600 -769.240295
62.923599 20.320200 -769.466187
63.005901 20.145500 -769.692383
63.068501 19.937799 -769.907776
63.097698 19.751600 -770.059814
63.151798 19.528700 -770.270996
63.228500 19.343500 -770.494812
63.276699 19.109501 -770.703186
63.326801 18.799101 -770.958923
63.612000 18.413500 -771.615784
63.718399 18.277800 -771.856201
63.860901 18.204500 -772.115417
59.023399 25.344000 -760.984802
59.166901 25.189100 -761.292725
59.279800 25.062401 -761.537720
61.402901 22.344900 -766.337830
61.520500 22.228399 -766.583984
61.616901 22.077801 -766.817688
61.721600 21.940701 -767.056274
61.813801 21.783199 -767.287598
61.910500 21.632900 -767.521484
62.011799 21.490299 -767.758118
62.122501 21.362900 -768.000000
62.235699 21.239901 -768.243286
62.314499 21.060301 -768.466980
62.405701 20.900801 -768.697876
62.506001 20.756399 -768.933899
62.575100 20.560200 -769.152588
62.664398 20.397200 -769.382629
62.732201 20.198200 -769.600708
62.800400 19.999599 -769.819275
62.893200 19.606400 -770.187927
62.962898 19.409201 -770.407898
63.045799 19.233999 -770.635315
63.105400 19.018999 -770.850220
63.178799 18.668301 -771.164490
63.274899 18.514700 -771.399475
63.432301 18.306801 -771.759216
63.540699 18.174200 -772.000671
63.663700 18.066799 -772.249878
63.767101 17.925501 -772.488770
63.883801 17.807301 -772.734619
57.857300 26.223900 -759.068176
58.075401 26.028999 -759.512512
58.299500 25.843800 -759.960083
58.778500 25.374001 -760.959900
58.887699 25.241199 -761.202820
58.993599 25.103399 -761.443420
59.103901 24.972601 -761.686829
61.117401 22.378901 -766.247498
61.233398 22.259399 -766.492920
61.327599 22.105000 -766.725525
61.439701 21.979200 -766.968628
61.534100 21.825001 -767.201294
61.625900 21.666401 -767.432495
61.732498 21.532000 -767.672302
61.841400 21.401501 -767.913391
61.946800 21.265200 -768.152405
62.036301 21.102900 -768.382385
62.107601 20.910299 -768.602173
62.203098 20.757500 -768.835571
62.290199 20.590700 -769.064514
62.374298 20.418800 -769.291809
62.460201 20.249800 -769.520203
62.534801 20.061600 -769.742371
62.592499 19.844900 -769.955627
62.722401 19.513100 -770.344788
62.786098 19.305500 -770.561890
62.869701 19.131100 -770.789795
62.943600 18.940100 -771.012695
63.034000 18.538401 -771.382385
63.129501 18.383200 -771.617310
63.424599 18.092400 -772.234070
63.527699 17.950300 -772.473022
63.626701 17.801100 -772.709778
63.709000 17.622700 -772.938110
63.778400 17.421499 -773.159973
63.883400 17.282200 -773.400085
56.627300 27.091600 -756.998474
61.090199 22.128300 -766.653687
61.191799 21.985300 -766.890686
61.305401 21.861900 -767.134827
61.394100 21.698200 -767.364380
61.481499 21.532301 -767.593323
61.598099 21.414101 -767.838928
61.702900 21.276501 -768.077820
61.801800 21.129400 -768.313293
61.970001 20.786100 -768.767578
62.042400 20.594900 -768.988403
62.140400 20.445801 -769.223572
62.299000 20.085199 -769.673401
62.442101 19.697599 -770.115295
62.848701 18.806400 -771.249207
63.086800 18.338499 -771.881775
63.186199 18.190201 -772.118774
63.743599 17.148600 -773.568970
57.552502 26.222200 -759.154785
57.761101 26.012699 -759.592896
57.988400 25.832001 -760.042908
58.452099 25.338100 -761.033325
58.565300 25.210899 -761.278687
58.673901 25.077000 -761.521179
58.786201 24.948900 -761.766113
60.796001 22.344299 -766.327026
61.709301 20.978901 -768.504822
62.055302 20.306499 -769.419678
62.197899 19.918699 -769.861023
62.334702 19.519699 -770.299683
62.407700 19.327600 -770.521912
62.507500 19.180401 -770.758728
62.606701 19.032200 -770.995178
62.749001 18.639799 -771.438477
62.830200 18.460300 -771.665894
63.117500 18.075800 -772.325012
63.224098 17.939600 -772.565674
63.301701 17.753000 -772.791626
63.408600 17.617001 -773.032715
63.483002 17.424400 -773.257202
63.636002 16.964600 -773.755920
63.704300 16.759899 -773.978088
63.757500 16.551901 -774.179382
60.246201 22.891701 -765.419006
60.733101 22.218100 -766.548218
60.814201 22.042101 -766.773315
60.911098 21.891199 -767.007629
61.015099 21.751900 -767.246216
61.117901 21.610701 -767.484009
61.207500 21.448200 -767.714294
61.319801 21.322399 -767.957520
61.415298 21.169300 -768.191223
61.606400 20.785500 -768.703613
61.684200 20.602800 -768.927429
61.774799 20.441200 -769.158508
61.961201 20.126200 -769.623779
62.099701 19.730700 -770.063171
62.517399 18.857300 -771.203003
62.782700 18.355900 -771.896118
62.877201 18.198799 -772.130493
63.424400 17.299801 -773.481873
63.660400 16.416000 -774.351929
57.296700 26.200100 -759.230774
57.516201 26.006300 -759.676086
58.183998 25.295099 -761.101196
58.302299 25.175400 -761.349976
58.410702 25.040701 -761.592285
58.530201 24.923100 -761.841675
61.369701 21.040400 -768.398376
61.721600 20.299101 -769.361694
61.886600 19.947800 -769.815186
62.032700 19.564301 -770.258972
62.122398 19.400101 -770.490173
62.195301 19.207300 -770.712280
62.283298 19.040001 -770.942871
62.474201 18.729900 -771.411987
62.540401 18.524799 -771.631226
62.820900 18.048100 -772.332886
62.927799 17.911900 -772.573914
63.035999 17.778200 -772.815613
63.109600 17.584299 -773.039429
63.219101 17.452499 -773.281921
63.362598 17.137899 -773.681885
63.400398 16.961100 -773.841492
63.460300 16.741699 -774.059387
63.548401 16.245399 -774.480408
60.472698 22.260599 -766.484680
60.554901 22.086100 -766.710327
60.657501 21.944300 -766.947998
60.754902 21.794201 -767.182678
60.862999 21.661200 -767.423584
60.960800 21.511700 -767.658386
61.056000 21.357901 -767.891785
61.170200 21.235100 -768.136108
61.328899 20.875401 -768.585022
61.431702 20.656200 -768.867676
61.498299 20.454800 -769.085327
61.858299 19.802000 -770.009094
62.518200 18.387400 -771.828674
62.614799 18.233700 -772.064087
63.424400 16.577801 -774.250427
58.441200 24.807800 -762.064514
61.124802 21.057199 -768.307495
61.610298 20.146799 -769.571228
61.804001 19.607901 -770.177124
61.883301 19.426201 -770.402527
61.962700 19.244600 -770.628174
62.175400 18.892500 -771.154724
62.585899 18.081301 -772.247314
62.660000 17.888599 -772.471191
62.757801 17.736500 -772.707581
62.868599 17.607000 -772.950684
63.074402 17.320299 -773.428894
63.323399 16.378500 -774.351929
63.358501 16.113899 -774.558289
58.035198 25.214500 -761.281372
58.145401 25.082701 -761.525085
58.253101 24.947201 -761.767212
61.435699 20.309500 -769.286499
61.645699 19.955299 -769.810486
62.014198 19.079901 -770.877197
62.231701 18.736099 -771.406677
62.290901 18.519300 -771.622070
62.934502 17.467699 -773.208618
63.080601 17.157801 -773.609924
63.160301 16.973900 -773.837524
57.051102 26.184601 -759.317871
57.281898 26.007500 -759.770874
60.425701 21.974501 -766.880920
60.723999 21.534201 -767.588989
60.818100 21.378799 -767.822021
60.921799 21.239000 -768.060425
61.167999 20.712900 -768.739014
62.374699 18.254499 -771.995483
63.172501 16.823700 -774.035828
60.209900 22.214600 -766.552429
60.448399 21.831400 -767.136719
60.545799 21.681200 -767.371521
61.025200 20.917400 -768.541687
61.178501 20.548500 -768.988281
61.371101 20.165600 -769.502625
61.546902 19.753799 -770.008118
61.730301 19.275000 -770.564026
61.933899 18.907499 -771.085999
62.210999 18.346500 -771.831726
62.621700 17.612600 -772.880371
62.709999 17.444000 -773.112183
62.810101 17.295601 -773.350220
63.137600 16.654499 -774.218872
63.141102 16.254000 -774.456299
57.753700 25.272400 -761.190186
57.894199 25.111200 -761.496887
57.999699 24.972000 -761.737671
58.115101 24.847799 -761.984680
60.207802 22.057899 -766.777527
60.798698 21.088800 -768.235779
61.156101 20.355499 -769.203186
61.361301 19.992500 -769.724976
61.538101 19.581600 -770.231384
61.711300 19.084600 -770.782288
61.933899 18.748400 -771.315002
61.997501 18.539000 -771.533020
62.203201 18.093201 -772.103516
62.303398 17.945200 -772.341309
62.395100 17.782400 -772.574707
62.826500 17.161699 -773.589172
62.911098 16.986000 -773.819397
57.101799 25.966801 -759.928223
60.186501 21.906900 -766.964600
60.436001 21.540400 -767.556030
60.522499 21.372200 -767.784790
60.604900 21.197201 -768.011292
60.859402 20.760900 -768.650696
60.935699 20.575300 -768.874023
61.129700 20.194000 -769.389587
61.323299 19.811399 -769.905518
61.500999 19.401300 -770.413025
61.691101 18.931801 -770.973877
61.964802 18.363899 -771.718506
62.381199 17.638500 -772.771301
62.865501 16.785601 -774.000977
62.969101 16.480000 -774.335510
56.773201 26.164900 -759.437378
57.200600 25.759501 -760.321228
59.969799 22.193501 -766.593018
60.214199 21.741899 -767.225891
60.703499 20.915001 -768.448303
60.937000 20.443600 -769.076172
61.122799 20.048401 -769.587524
61.305801 19.647600 -770.097778
61.475700 19.223700 -770.601501
61.685501 18.786600 -771.173523
61.940498 18.186300 -771.908875
62.368801 17.479900 -772.968689
62.465801 17.325800 -773.205383
62.570202 17.184401 -773.445923
62.655399 17.009501 -773.676697
57.572498 25.208000 -761.352478
57.674400 25.063000 -761.591187
57.779900 24.923500 -761.832092
57.898701 24.804199 -762.081482
59.952999 22.023899 -766.810913
60.205601 21.584900 -767.448730
60.487701 21.038700 -768.193481
60.914001 20.261000 -769.291382
61.094501 19.856100 -769.799988
61.276600 19.452999 -770.310181
61.406700 19.040400 -770.746887
61.638302 18.559601 -771.377075
61.733898 18.403799 -771.612610
61.924900 18.011600 -772.129883
62.017502 17.850000 -772.364014
62.105999 17.681400 -772.596130
62.626598 16.809299 -773.891907
62.701900 16.616400 -774.117981
56.844799 25.962900 -759.913025
59.981201 21.828100 -767.075012
60.210201 21.428101 -767.655029
60.288700 21.246799 -767.879517
60.563702 20.766100 -768.575989
60.633202 20.569300 -768.795776
60.898300 20.070801 -769.487610
61.086899 19.679300 -770.001282
61.242802 19.232100 -770.497681
61.404999 18.872900 -770.952515
61.712200 18.202200 -771.808289
62.087898 17.485399 -772.794922
62.231201 17.330601 -773.102417
62.325802 17.172001 -773.338013
62.416199 17.006100 -773.571594
60.698601 20.442101 -768.998230
61.424400 18.716900 -771.140686
56.514702 26.080299 -759.519775
59.709499 22.107100 -766.677124
59.908401 21.659300 -767.239014
60.219601 21.083700 -768.045715
60.344398 20.900000 -768.341797
60.677799 20.281601 -769.206970
60.822498 19.896299 -769.650330
61.006901 19.497499 -770.161804
61.402100 18.503500 -771.338684
61.482399 18.321899 -771.566101
61.635201 18.024200 -771.970886
61.728199 17.863501 -772.205322
61.823299 17.706301 -772.440979
62.336201 16.821899 -773.733093
57.334202 25.180099 -761.367615
57.536800 24.963600 -761.801086
57.641399 24.823400 -762.041687
59.713600 21.926399 -766.873291
59.936901 21.517799 -767.450012
60.453899 20.426201 -768.869812
60.671799 20.083900 -769.399719
60.821602 19.706699 -769.846375
60.997299 19.293100 -770.353577
61.107201 19.083401 -770.642517
61.179298 18.888901 -770.864990
61.470100 18.111700 -771.758301
61.831699 17.531300 -772.645020
61.988098 17.319000 -773.006104
62.074001 17.145399 -773.237305
62.180401 17.007401 -773.479187
56.856300 25.680599 -760.414307
57.392601 25.071199 -761.583923
57.692402 24.704000 -762.253174
59.966599 21.368601 -767.649780
60.324402 20.714600 -768.573975
61.194599 18.715000 -771.059326
56.529499 25.854300 -759.964111
59.632500 21.750200 -767.070129
59.947498 21.181601 -767.879822
60.074200 20.924200 -768.222229
60.398102 20.290800 -769.083191
60.543201 19.906401 -769.527283
60.596901 19.682699 -769.739197
60.663700 19.480101 -769.958496
60.760502 19.327200 -770.194580
61.134300 18.534300 -771.224182
61.223999 18.347300 -771.469299
56.230499 26.020399 -759.583618
57.101200 25.089399 -761.449280
57.252602 24.944700 -761.763672
57.350300 24.793900 -762.000122
59.395500 22.004601 -766.732910
59.584599 21.541000 -767.290222
59.688000 21.400000 -767.529419
59.872101 21.004101 -768.039673
59.997898 20.744600 -768.382019
60.099602 20.600700 -768.620422
60.224800 20.572701 -768.827087
60.300598 20.075100 -769.231873
60.867599 19.136200 -770.640198
61.635201 17.338400 -772.853210
61.719101 17.161501 -773.083679
61.808399 16.993799 -773.317078
53.135101 27.739799 -754.038086
57.357800 24.677299 -762.244080
58.878201 22.582100 -765.776184
59.341301 21.791201 -766.940979
59.653099 21.216801 -767.749573
60.126801 20.362700 -768.967224
60.250999 19.865700 -769.445374
60.310699 19.651501 -769.660828
56.251099 25.825899 -760.061096
56.993401 25.002100 -761.669983
59.152599 21.932501 -766.741882
59.285301 21.608400 -767.132629
59.366501 21.431499 -767.359070
59.466599 21.284800 -767.596680
59.601299 21.039900 -767.944214
59.685299 20.867100 -768.172729
59.785999 20.643900 -768.455811
59.870499 20.471500 -768.684814
60.023899 20.178600 -769.088623
60.069401 19.941601 -769.295776
55.999599 26.001499 -759.692078
57.028198 24.861300 -761.921082
60.658501 18.365499 -771.228027
56.821800 25.079000 -761.504578
59.848801 20.332399 -768.879883
57.151299 24.748600 -762.138916
57.094700 24.617001 -762.369812
58.575100 22.551901 -765.838013
58.941399 21.840799 -766.813416
59.020599 21.662001 -767.038879
59.092999 21.472099 -767.260620
59.166500 21.283800 -767.482971
59.263802 21.133699 -767.719421
59.385502 20.946199 -768.014893
59.449200 20.741301 -768.231995
59.534199 20.570801 -768.461426
59.624401 20.408899 -768.693970
59.734501 20.124201 -769.028625
55.759102 26.033800 -759.731323
55.960602 25.814899 -760.166687
56.669701 25.021700 -761.711975
56.775299 24.883600 -761.953918
56.879398 24.743401 -762.194824
59.167301 20.983500 -767.883911
59.522301 20.247499 -768.855774
56.833401 24.637699 -762.408020
58.290501 22.452999 -765.907227
58.659500 21.743299 -766.884827
58.732601 21.554100 -767.106873
58.810001 21.371500 -767.331726
58.874401 21.167900 -767.549072
59.070202 20.791000 -768.068115
59.160000 20.627899 -768.300415
59.235298 20.440901 -768.524475
59.387798 20.069599 -768.974304
59.441200 19.846100 -769.186584
59.495499 19.623400 -769.399475
59.539299 19.394600 -769.600220
55.784401 25.750900 -760.323486
56.406200 25.049500 -761.683228
56.511799 24.911200 -761.925171
56.614300 24.768600 -762.165283
58.793098 20.985500 -767.706421
59.166801 20.279200 -768.690613
59.403900 19.188601 -769.691589
59.429699 18.996099 -769.843811
59.453999 18.800900 -769.995422
55.530300 26.005199 -759.847778
58.772202 22.002001 -767.151184
58.849098 20.824400 -767.960388
59.268101 19.649599 -769.290405
59.307499 19.402500 -769.495605
59.474998 18.542400 -770.256714
58.546600 21.437000 -767.220581
58.615101 21.240801 -767.440674
58.868198 20.650499 -768.174927
58.957001 20.486200 -768.407227
59.142899 20.093599 -768.922424
59.172798 19.909700 -769.076111
55.757401 25.563601 -760.719482
56.484200 24.653700 -762.366821
56.579498 24.500601 -762.602600
57.948799 22.338200 -765.969604
58.432598 21.813999 -767.018188
58.528801 21.050600 -767.614624
58.607601 20.870399 -767.841187
58.876999 20.305000 -768.585999
59.095402 19.498400 -769.394775
59.135300 19.252100 -769.600830
59.147099 19.037100 -769.745422
59.196098 18.804701 -769.956970
59.216999 18.603800 -770.107178
59.277100 18.389099 -770.325623
55.243500 25.990299 -759.891296
55.475399 25.743601 -760.391785
56.077202 25.015200 -761.742371
56.185398 24.881300 -761.986877
56.287601 24.738600 -762.227417
58.230598 21.661400 -767.015625
58.267200 21.414499 -767.217224
58.330799 21.210400 -767.434998
58.535000 20.694799 -768.051575
58.612701 20.512501 -768.278015
58.762600 20.138201 -768.728088
58.843201 19.959999 -768.956482
58.902599 19.746799 -769.173218
59.142700 18.186600 -770.460571
59.221298 18.002100 -770.689697
56.284199 24.574499 -762.478271
58.271099 21.033600 -767.612793
58.338001 20.834400 -767.833008
58.560299 20.346901 -768.461304
58.803200 19.503599 -769.331482
58.860001 19.285299 -769.547424
58.866600 19.061800 -769.689514
58.897202 18.877800 -769.845215
58.930199 18.697201 -770.002319
58.962299 18.514900 -770.159180
52.838100 27.646500 -755.492798
55.499001 25.511600 -760.830078
58.043900 21.480301 -767.110291
58.598099 19.991100 -768.839294
58.671700 19.801201 -769.064209
58.938301 18.286400 -770.367615
58.975498 18.033001 -770.574402
55.942799 24.909300 -761.953674
56.024700 24.735901 -762.181580
58.036201 21.309799 -767.288818
58.266800 20.683399 -768.012512
58.359402 20.525200 -768.247803
58.482700 20.185101 -768.637817
55.233299 25.723700 -760.425171
56.220001 24.463600 -762.682373
55.017300 25.933300 -760.021423
58.045101 21.138100 -767.496521
58.595100 19.637899 -769.226379
56.039200 24.596701 -762.434387
58.079201 20.906900 -767.740723
58.295601 20.332300 -768.411926
58.605999 19.364799 -769.459473
58.636299 19.180599 -769.614929
58.658199 18.825300 -769.858521
58.716400 18.607700 -770.076416
58.424000 19.870300 -768.962891
58.709801 18.385599 -770.277893
58.740398 18.121000 -770.481323
58.804501 17.911600 -770.703125
55.668201 24.923700 -761.851624
55.766102 24.773899 -762.089905
57.748100 21.441799 -767.094177
57.830299 21.190300 -767.368774
58.015701 20.719801 -767.930786
58.098499 20.545300 -768.160828
58.304600 20.029200 -768.781616
58.437199 19.468399 -769.316284
55.957802 24.448900 -762.637573
57.864101 20.993799 -767.599121
58.351700 19.696800 -769.112793
55.009102 25.684500 -760.535583
55.788799 24.624300 -762.353882
58.154400 20.205299 -768.581909
58.474602 19.015200 -769.775330
58.592201 17.949600 -770.585327
52.633598 27.614901 -755.823486
54.749001 25.937799 -760.046692
56.217800 23.977200 -763.450073
57.845901 20.834600 -767.796692
58.040901 20.377399 -768.365112
58.367901 19.277500 -769.515381
58.464500 18.731199 -769.986328
58.539299 18.224899 -770.400208
58.482800 18.543699 -770.156677
57.143398 22.127899 -766.067627
57.593102 21.311300 -767.237183
58.148201 19.888599 -768.926392
55.026001 25.431101 -761.008728
55.445400 24.868099 -761.982300
55.546902 24.722500 -762.223389
55.685200 24.483299 -762.576111
55.792198 24.346100 -762.820618
57.572498 21.128599 -767.443481
57.765099 20.667200 -768.010925
57.828602 20.460501 -768.230286
57.920898 20.222300 -768.512085
57.993900 20.030500 -768.737427
58.103298 19.663900 -769.121521
58.169498 19.459999 -769.343323
58.245098 19.114700 -769.663330
58.346802 18.339199 -770.278076
54.754700 25.675501 -760.597717
57.531601 20.963400 -767.627197
57.606201 20.774700 -767.852905
58.098900 19.242800 -769.513123
58.178799 18.903700 -769.836121
58.238201 18.687000 -770.055176
54.463799 25.910700 -760.158997
55.448200 24.624399 -762.423279
56.948101 22.027500 -766.252014
57.293900 21.273199 -767.226990
57.603600 20.535601 -768.137085
57.685699 20.280899 -768.413574
57.860001 19.863899 -768.926819
57.942299 19.530300 -769.250427
58.120300 18.489300 -770.140076
55.208199 24.880100 -762.020874
55.502800 24.427000 -762.739075
57.286598 21.126801 -767.418701
57.668201 20.116400 -768.600830
57.975800 19.056499 -769.699524
54.765701 25.417400 -761.096375
55.262501 24.743200 -762.253723
57.790001 19.694099 -769.104614
57.873100 19.360901 -769.429199
57.995899 18.777800 -769.963013
57.279598 20.972900 -767.629028
57.355801 20.785999 -767.856018
57.487801 20.378799 -768.298828
57.657299 19.953100 -768.809692
54.509102 25.661501 -760.678772
55.310200 24.543800 -762.624084
57.359501 20.638201 -768.058228
55.349701 24.320499 -762.918030
57.005798 21.249500 -767.256226
57.443401 20.244499 -768.517822
57.680500 19.535500 -769.299316
57.725201 19.216700 -769.556702
57.786598 18.924101 -769.823975
54.966801 24.864901 -762.131287
55.090900 24.676100 -762.432007
57.006199 21.091400 -767.470703
57.440800 20.080400 -768.731812
57.523399 19.823900 -769.009827
54.222801 25.686800 -760.719177
54.452400 25.428600 -761.220886
55.068600 24.550400 -762.677917
56.953602 20.913200 -767.701477
57.043098 20.746000 -767.936829
57.112202 20.546200 -768.160522
57.185501 20.352900 -768.386719
57.434399 19.662201 -769.175476
57.452000 19.456400 -769.324890
57.480099 19.266899 -769.480286
54.692600 24.882299 -762.186829
54.780998 24.714500 -762.420593
54.984901 24.419201 -762.905273
56.316601 21.904800 -766.419189
56.667099 21.147400 -767.401001
57.080399 20.176901 -768.604980
57.146099 19.970600 -768.827271
57.226101 19.786900 -769.057922
53.995300 25.676399 -760.855286
54.769100 24.578501 -762.680298
56.643101 20.987499 -767.655884
56.731098 20.817301 -767.890503
56.826698 20.659100 -768.129517
56.856602 20.474100 -768.284973
54.142200 25.445400 -761.317200
54.885700 24.302999 -763.122498
56.857300 20.320601 -768.478577
56.982201 19.819300 -768.966370
57.085300 19.661699 -769.216187
54.508801 24.818800 -762.349915
56.380901 21.223101 -767.325378
56.899799 20.107901 -768.775208
54.546398 24.681900 -762.622314
54.666000 24.485500 -762.920593
56.365101 21.082399 -767.523376
56.465199 20.854000 -767.811279
56.548500 20.676300 -768.043579
56.564301 20.538401 -768.274780
56.564800 20.306900 -768.414124
56.676498 20.173700 -768.662781
52.121300 27.305201 -757.484070
54.157299 24.870800 -762.419189
54.260101 24.726400 -762.661987
54.344002 24.554100 -762.892883
54.439999 24.399700 -763.131470
55.852699 21.247999 -767.171692
55.519699 21.811199 -766.525879
54.324100 24.273001 -763.319092
55.526299 21.617701 -766.759399
53.904900 24.849800 -762.533630
54.002399 24.698999 -762.774170
54.091000 24.535200 -763.009277
54.104000 24.383801 -763.221619
52.130199 26.744301 -759.138489
53.953999 23.920900 -763.762085
53.985500 24.207199 -763.417786
54.251499 23.375700 -764.352600
53.737202 25.659500 -761.015381
55.771599 21.878099 -766.568726
56.018200 21.011299 -767.494324
52.035400 26.894199 -758.642212
54.338699 23.221800 -764.567505
53.878601 24.490601 -763.120789
54.086700 23.726299 -763.925293
53.016399 26.165300 -760.284973
53.168499 25.964800 -760.652222
53.359402 25.680099 -761.133484
53.464199 25.923901 -760.578979
53.710300 25.933001 -760.452087
56.202000 20.881399 -767.686829
53.823101 25.430500 -761.436890
54.790600 22.668800 -765.290283
52.050301 27.171801 -758.067871
55.328400 21.882601 -766.396973
52.165401 27.394501 -757.157104
56.314400 20.682899 -767.952271
53.998699 25.899401 -760.365173
54.218102 25.925800 -760.249573
57.452900 19.101999 -769.715027
53.017601 27.746201 -754.642273
55.276699 26.223101 -759.447876
56.060001 25.575600 -760.683594
59.174198 17.778099 -770.824585
56.338600 25.581200 -760.586121
53.127399 27.701900 -753.449524
57.859200 24.316799 -762.996704
55.570499 27.069599 -757.056213
56.664398 26.347601 -759.017273
60.733200 19.146299 -770.406982
60.869400 18.870800 -770.809387
61.411301 17.384199 -772.650879
61.515598 17.663099 -772.363892
59.559101 22.797199 -765.623291
63.176998 15.964900 -774.646423
54.604599 27.345200 -752.692322
59.028999 25.941000 -759.739319
62.858799 19.843700 -770.016418
62.147202 22.058500 -766.955872
59.627899 26.036400 -759.572815
58.409000 27.500999 -755.705505
63.147800 22.012199 -766.957520
58.771500 27.355900 -755.908630
59.078999 27.197201 -756.540894
59.298100 27.071600 -756.824829
63.397499 16.114799 -774.883179
62.408199 16.700399 -773.928406
62.105499 16.883101 -773.677612
61.207600 17.385500 -772.471375
61.090199 17.445101 -772.243530
60.914101 17.546400 -772.039185
60.778900 17.618799 -771.818970
60.657101 17.681700 -771.593628
60.511002 17.761700 -771.378418
60.324200 17.870800 -771.180115
60.161900 17.962500 -770.972290
59.929501 18.103901 -770.793884
59.698200 18.244699 -770.615784
59.499802 18.362200 -770.424622
60.199600 18.146700 -770.807007
60.017899 18.252100 -770.607788
59.769402 18.405001 -770.437012
58.672401 19.098200 -769.896973
63.618401 16.239000 -774.804871
61.197701 17.634800 -772.088684
61.014500 17.740801 -771.887329
60.857201 17.828501 -771.676025
60.700600 17.915701 -771.464722
60.544300 18.002701 -771.253723
60.410999 18.073500 -771.033630
63.440300 16.500299 -774.580688
59.785801 18.583799 -770.221130
61.466999 17.770500 -772.140015
61.260399 17.893200 -771.947388
61.098000 17.984501 -771.737671
60.944698 18.069500 -771.524719
60.775799 18.165501 -771.318298
60.556999 18.281300 -770.949524
60.416199 18.357401 -770.732483
60.273899 18.434799 -770.516418
60.086700 18.544001 -770.319519
59.752300 18.816000 -770.047302
57.278301 20.364700 -768.656128
57.968899 19.883801 -769.160583
60.735401 18.462299 -770.966003
60.582298 18.547800 -770.753418
60.460602 18.611099 -770.528076
60.259701 18.730400 -770.336121
60.115299 18.809799 -770.120789
59.757900 19.032499 -769.904175
57.612900 20.371201 -768.637085
57.205898 20.637400 -768.544373
56.996700 20.763300 -768.364929
63.495998 17.002899 -774.145874
57.426201 20.609600 -768.385986
60.881302 18.507299 -771.163086
59.999199 19.001801 -769.966797
59.655800 19.234200 -769.763123
60.660801 18.754801 -770.633118
60.519699 18.832199 -770.415588
60.324799 18.947701 -770.221130
60.205002 19.161400 -770.013000
59.992100 19.289600 -769.827087
59.788200 19.411699 -769.638123
57.186100 21.018600 -767.851685
56.930599 21.177799 -767.693970
63.616798 17.261900 -773.762390
62.570499 17.888201 -772.780884
60.537102 19.059299 -770.287415
56.870800 21.304800 -767.495972
55.121601 22.344601 -765.763184
60.460602 19.243799 -770.058289
60.212002 19.397699 -769.887512
60.010399 19.518600 -769.697327
59.827000 19.626600 -769.499817
63.568600 17.504700 -773.530090
62.129501 18.360001 -772.062012
59.697498 19.783600 -769.296814
54.605202 22.873301 -764.924683
63.401100 17.723200 -773.524414
63.368999 17.724600 -773.258911
63.241001 17.793400 -773.030823
63.750801 17.643499 -773.667786
63.677200 17.667801 -773.334412
63.641800 17.809500 -773.091187
63.459599 17.917200 -772.896484
62.976299 18.268499 -772.387512
63.303299 18.163401 -772.459717
62.019100 19.045401 -771.309204
62.710098 18.690500 -771.701721
64.073601 18.016800 -772.665710
63.894299 18.127001 -772.531677
63.448200 18.390900 -772.058105
63.171398 18.557100 -771.797729
62.963299 18.689100 -771.696289
62.369099 19.057400 -771.289917
62.157001 19.185400 -771.099426
62.827801 19.053900 -771.383118
62.474300 19.263500 -771.018005
55.211899 23.642799 -764.461487
54.423599 24.125601 -763.850098
53.580502 24.634300 -763.092285
62.997601 19.204000 -771.018372
62.792900 19.333500 -770.917297
62.602798 19.445999 -770.717285
53.838600 24.742100 -763.005371
53.671700 24.839899 -762.817078
53.225300 25.108500 -762.409485
63.305599 19.219400 -770.950500
54.687801 24.424999 -763.355713
54.347500 24.638500 -763.163513
53.035801 25.410999 -761.740173
52.861401 25.495199 -761.299988
62.718899 19.808500 -770.237671
62.378300 20.019501 -770.009827
61.825600 20.358500 -769.595825
61.550800 20.523500 -769.343201
61.330700 20.657200 -769.160522
55.294701 24.268900 -763.418274
54.805302 24.573900 -763.116882
54.563801 24.724199 -762.965698
54.114700 25.000999 -762.647827
52.733299 25.802299 -760.992676
63.668701 19.600201 -770.980225
63.604198 19.625500 -770.741028
63.524700 19.660200 -770.493713
63.159801 19.901501 -770.460327
62.992599 19.997601 -770.250977
62.264900 20.430599 -769.536499
55.831799 24.263201 -763.286926
55.296700 24.593000 -762.914917
54.979599 24.789499 -762.709778
54.755600 24.927299 -762.549683
54.529202 25.066700 -762.391418
53.907600 25.444700 -761.890076
53.666199 25.588100 -761.650330
52.976002 25.987801 -760.825012
63.928398 19.810900 -770.270325
61.564999 21.246599 -768.374207
55.640900 24.762100 -762.496887
54.300800 25.577900 -761.444397
53.923599 25.803301 -761.092224
53.695099 25.944300 -760.938477
63.837601 20.177200 -770.295776
63.796398 20.186001 -770.042297
61.262402 21.700899 -767.694824
55.526798 25.097601 -761.942322
54.354301 25.801701 -760.897278
53.506302 26.318701 -760.247620
53.317902 26.431400 -760.073608
63.925800 20.273001 -769.819214
61.203300 21.903700 -767.348083
60.772999 22.163601 -766.985718
60.474899 22.351700 -766.843872
60.318600 22.440399 -766.637024
54.891899 25.644199 -761.080017
54.654202 25.784500 -760.836426
54.183701 26.068701 -760.441895
53.420898 26.532400 -759.840881
60.958199 22.250799 -766.850586
59.241001 23.281000 -765.329590
59.064899 23.383801 -765.135315
55.277901 25.598801 -761.016479
54.040501 26.382700 -760.478516
53.887100 26.435801 -759.820374
53.008099 27.016001 -759.752014
52.726898 27.187300 -759.539307
52.619400 27.242800 -759.322327
64.015503 20.647800 -769.299072
63.792301 20.786900 -769.172180
61.005402 22.441799 -766.487122
60.394798 22.820700 -766.118530
60.204800 22.939899 -766.021423
59.484200 23.361799 -765.246216
59.326401 23.451700 -765.042725
53.273701 27.057501 -759.367126
63.757801 20.977699 -768.972717
59.569099 23.459600 -764.901978
53.465000 27.093100 -759.195129
52.625500 27.579399 -758.229675
62.790501 21.672501 -767.858215
61.284302 22.555599 -766.295288
53.294601 27.295300 -758.744385
53.151501 27.375500 -758.546387
63.691799 21.230301 -768.682617
63.429401 21.386999 -768.452881
55.628601 25.943199 -760.286011
54.340401 26.695601 -758.937378
53.148499 27.438299 -758.302429
62.107601 22.149200 -767.189575
52.939602 27.556200 -758.347107
52.751400 27.510500 -756.120117
57.506100 24.797100 -762.404785
53.502800 27.186100 -758.869324
59.901501 23.452499 -764.790771
53.903198 26.950199 -758.418579
53.367199 27.307301 -758.440308
58.989700 24.034700 -763.896790
63.335999 21.568100 -768.212830
56.958698 25.292601 -761.452087
60.260502 23.404900 -765.029785
60.162102 23.515200 -764.708374
59.264801 24.042999 -763.835693
58.254101 24.629499 -762.750916
54.634300 26.723900 -758.782715
63.626400 21.625999 -768.323975
63.531200 21.667700 -768.046692
62.112301 22.483200 -766.431519
56.778000 25.591600 -760.912292
56.539299 25.723400 -760.570923
53.224701 27.496799 -755.092529
53.494900 27.239100 -754.073181
53.516499 27.201599 -753.773071
53.508701 27.184601 -753.485229
58.259602 24.941601 -762.176880
56.429699 25.995600 -760.136108
53.881500 27.488400 -757.620300
53.496498 27.490299 -754.337524
53.691399 27.330200 -753.933289
53.597401 27.340200 -753.255371
63.246601 22.273899 -767.005615
62.815701 22.514999 -766.434570
56.186699 26.358601 -759.406982
55.910599 26.523899 -759.181885
55.735199 26.625601 -758.996277
55.494099 26.744801 -758.471680
63.202599 22.452499 -766.449280
62.784401 22.693100 -765.982727
59.460800 24.651300 -762.872375
58.777802 25.035601 -761.996094
55.712002 26.783300 -758.361023
55.320400 27.008301 -757.920227
55.173302 27.090200 -757.720215
59.356701 24.801800 -762.705627
57.400299 25.913900 -760.332520
55.585701 26.951500 -758.213989
55.217201 27.139000 -757.478271
55.122398 27.184200 -757.248901
54.751598 27.408300 -756.974182
59.767700 24.598000 -762.929626
55.825802 26.839600 -758.135620
55.005901 27.294800 -756.993103
55.676201 26.978300 -757.792297
55.529202 27.060200 -757.591614
59.738602 24.742500 -762.627625
58.778900 25.284901 -761.420593
57.899399 25.800699 -760.559875
55.554901 27.031099 -756.364685
55.457802 27.077801 -756.135376
55.522800 27.017500 -755.907898
55.744801 26.846500 -755.589478
55.526798 26.956600 -755.142578
55.392502 27.029499 -754.934021
54.993000 27.282301 -754.785583
54.817902 27.384001 -754.602112
54.698101 27.446800 -754.386230
54.685501 27.433800 -754.106812
54.716301 27.390200 -753.800903
54.942299 27.223200 -753.569702
54.903400 27.228701 -753.304321
54.931999 27.186501 -752.997925
53.845501 27.932699 -753.366577
60.038200 24.595200 -762.744019
59.267200 25.041100 -761.907227
55.716202 26.885300 -755.303101
55.382198 27.055401 -754.636597
55.301701 27.090200 -754.396423
55.228298 27.120199 -754.151978
54.929501 27.316500 -754.137024
55.136799 27.162800 -753.918213
57.682098 25.934799 -760.246704
59.249001 24.824800 -762.920471
58.827900 24.819901 -762.434204
63.188900 22.054100 -767.336121
53.281700 27.658100 -754.539917
60.517200 23.393200 -765.144714
56.188999 25.905600 -760.291870
54.392101 26.948299 -758.272583
53.730499 27.366301 -757.985291
53.512402 27.499399 -757.827393
53.740501 27.055401 -753.918518
57.071800 25.124800 -761.864929
52.433899 27.595100 -758.411499
53.959599 26.313900 -760.104797
53.748100 26.449600 -760.031982
52.757900 27.025999 -758.904602
63.513401 20.332199 -769.814026
55.166698 25.300400 -761.755920
54.660198 25.602600 -761.276794
53.866699 26.080200 -760.582397
63.783901 19.941200 -770.040100
55.437302 24.932199 -762.295471
54.833801 25.302500 -761.861572
54.575901 25.456900 -761.624390
53.109100 26.395901 -761.092712
52.845001 26.561899 -760.955811
55.509201 24.681499 -762.745117
55.303101 24.805901 -762.570923
55.042301 24.969000 -762.424316
54.821098 25.104200 -762.258911
54.541401 25.273800 -762.031799
54.327099 25.404301 -761.864380
54.015301 25.589701 -761.563782
53.539101 25.877701 -761.165588
60.981800 21.167299 -768.478821
60.348801 21.540400 -767.822327
54.158100 25.251499 -762.232788
63.950802 19.097900 -770.953430
55.011902 24.484600 -763.260376
54.383801 24.871901 -762.835510
55.317200 24.090401 -763.747620
55.086300 24.232201 -763.583679
54.219799 24.766800 -762.998718
62.173000 19.743900 -770.349487
61.505001 20.153900 -769.875122
54.714199 24.215099 -763.681580
54.282001 24.485001 -763.433472
61.824001 19.655399 -770.458313
58.055901 21.906500 -767.048523
63.638500 18.285101 -772.372314
63.625702 18.051100 -772.677490
56.136002 22.328699 -766.191284
60.058102 19.751499 -769.541016
62.405602 18.252199 -772.235107
56.200401 22.024099 -766.630127
56.258900 21.834600 -766.892578
57.112202 21.318701 -767.466614
57.708302 21.076700 -767.764282
56.496601 21.849800 -766.822021
62.381100 18.035700 -772.591187
63.477901 17.187099 -773.955811
62.740002 17.639099 -773.256775
60.948502 18.696199 -770.992310
57.540100 20.807100 -768.090271
57.152599 20.835501 -768.186279
56.818600 21.041000 -767.875793
57.766800 20.189400 -768.815674
62.881500 16.712500 -774.255615
57.241798 20.200100 -768.862183
62.148499 16.632200 -773.882813
61.860001 16.855101 -773.521423
61.484699 17.144899 -772.906006
61.546501 16.940800 -773.190796
61.282600 17.142300 -772.720398
61.041801 16.921600 -773.076721
60.997700 16.922001 -772.803101
60.861698 16.996401 -772.566284
60.782501 17.027599 -772.328186
60.669998 17.084299 -772.091614
60.547600 17.148500 -771.855591
59.860401 17.604500 -771.323730
59.797600 17.623501 -771.087524
59.575600 17.773600 -770.938293
62.642200 16.453100 -774.442688
63.199200 16.616899 -774.489685
56.596001 21.236000 -767.651489
55.424301 21.935400 -766.133789
57.687500 20.540001 -768.454224
61.271900 18.135201 -771.590881
60.989498 18.310699 -771.283203
63.427601 16.750999 -774.417725
57.708401 19.997400 -769.062988
57.350201 19.999100 -769.017273
58.348999 19.301500 -769.780823
58.620300 18.869900 -770.223877
61.706501 16.737400 -773.317688
61.371700 16.952600 -773.004517
61.093201 17.106001 -772.531128
60.889099 17.222401 -772.217285
60.746700 17.301600 -771.982178
60.667400 17.332899 -771.745300
60.535702 17.403999 -771.510681
60.333801 17.528799 -771.279419
60.134701 17.670601 -771.208130
59.891201 17.827200 -770.979919
59.708199 17.937700 -770.750000
58.249001 18.973400 -770.190491
56.039001 27.620899 -744.691406
55.816200 27.665600 -744.824219
55.142899 27.726299 -745.173279
56.389000 27.640499 -744.349182
56.136398 27.520201 -744.379578
55.805401 27.594000 -744.581970
55.487999 27.581699 -744.717773
55.268002 27.632700 -744.853577
54.933998 27.702101 -745.054382
54.671200 27.678400 -745.157288
56.687901 27.636299 -744.050293
55.905701 27.455099 -744.278320
55.045799 27.586100 -744.760986
56.947300 27.676600 -743.887085
56.446999 27.599899 -744.060425
55.679600 27.558901 -744.380127
55.407200 27.516899 -744.474182
54.782001 27.624100 -744.833496
54.542801 27.642599 -744.955078
57.261902 27.668301 -743.765076
68.579903 25.361401 -737.047485
68.375099 25.447800 -737.200928
56.205002 27.519600 -744.148376
55.135399 27.535801 -744.517883
54.877201 27.513500 -744.547729
57.035599 27.752399 -743.599915
56.792999 27.760900 -743.715393
56.544201 27.758301 -743.825989
56.299500 27.650101 -743.860779
56.040100 27.629499 -743.963684
55.772400 27.594400 -744.060120
55.506302 27.563200 -744.158386
55.247002 27.544901 -744.262817
54.607899 27.629900 -744.611206
54.415401 27.732000 -744.769775
54.981098 27.632999 -744.248291
54.771999 27.705799 -744.393677
54.251499 27.999901 -744.835022
67.812401 25.835899 -736.965820
67.594299 25.942699 -737.139221
56.691601 28.018499 -743.518005
56.465199 27.943100 -743.567322
56.187099 27.887400 -743.653809
55.903599 27.822599 -743.736389
55.645100 27.804600 -743.840393
55.393501 27.799601 -743.950500
55.192902 27.886999 -744.102478
55.004002 27.995399 -744.263672
54.791199 28.060499 -744.405518
54.588100 28.143000 -744.555115
54.403702 28.258600 -744.719421
55.500099 28.015200 -743.816284
54.939400 28.238001 -744.225586
54.756599 28.356600 -744.391296
54.562500 28.454500 -744.547485
54.379799 28.572399 -744.712708
56.684299 28.228399 -743.215088
56.415501 28.188801 -743.308472
56.138199 28.134300 -743.395325
55.851700 28.064199 -743.475220
55.690300 28.222500 -743.659302
55.487598 28.305401 -743.808899
55.290401 28.398001 -743.962891
55.148899 28.590500 -744.161926
54.869202 28.534401 -744.248718
54.666500 28.616600 -744.397827
54.185398 28.806601 -744.748230
67.034798 26.285000 -737.049072
66.812698 26.409500 -737.236694
66.599098 26.475100 -737.379089
55.873402 28.302601 -743.496582
54.554001 28.833700 -744.464417
55.727299 28.475700 -743.648682
55.415798 28.585400 -743.866089
56.716599 28.354601 -742.925110
56.469200 28.354601 -743.036072
56.190601 28.184099 -743.041382
56.362099 32.303398 -739.401611
56.187599 32.475800 -739.567688
55.969002 32.551899 -739.695129
55.731800 32.587799 -739.806519
55.568901 32.513302 -739.991028
56.532398 32.159698 -739.503723
56.425900 32.342899 -739.649780
56.170502 32.477200 -739.824707
55.956600 32.563599 -739.956177
55.675400 32.642601 -740.198914
55.449902 32.500999 -740.319580
56.970001 31.703100 -739.760620
56.816200 31.873400 -739.916626
56.633701 32.029701 -740.075684
56.410702 32.097099 -740.199219
56.169498 32.125000 -740.306885
55.983700 32.272598 -740.462219
55.784000 32.389599 -740.605103
55.551701 32.436298 -740.720276
55.268299 32.374699 -740.792908
55.017101 32.413200 -740.910583
57.154800 30.956800 -740.708130
63.034500 28.291201 -737.249695
62.776001 28.279699 -737.340698
62.359100 28.500299 -737.622314
62.066101 28.406500 -737.679871
61.712898 28.474400 -737.851379
61.488998 28.547100 -737.976685
61.253601 28.592199 -738.091003
61.008701 28.615400 -738.196411
60.780800 28.678301 -738.317810
60.577499 28.798300 -738.462097
60.305302 28.758499 -738.542297
59.685902 28.963499 -738.891479
57.325802 30.813101 -740.824402
57.125900 30.888700 -740.942383
56.937500 31.029600 -741.092896
63.106602 28.054399 -737.309875
62.675301 28.242201 -737.578186
62.432999 28.270901 -737.685730
61.982498 28.410400 -737.934021
60.487400 28.786600 -738.709290
60.244301 28.813900 -738.816284
59.980000 28.793200 -738.904175
59.569599 28.877001 -739.106018
