40.193001 -0.568700 -739.459778
39.926800 -0.713400 -739.373413
39.682598 -0.617500 -739.669678
41.014400 -0.412000 -738.994385
41.206200 -0.503600 -738.442688
41.111198 -0.393500 -738.677979
40.622101 -0.281000 -739.141418
40.381302 -0.286600 -739.268982
40.123299 -0.354300 -739.304626
39.862000 -0.444400 -739.304871
40.959499 -0.214600 -738.817871
41.003300 -0.227700 -738.543518
40.525200 0.038600 -739.254272
40.252300 -0.022500 -739.309326
40.050999 -0.095900 -739.302979
39.847500 -0.157800 -739.317078
39.584202 -0.272900 -739.277588
39.327900 -0.308700 -739.364624
39.064301 -0.421200 -739.329712
40.881199 0.072500 -738.836975
39.948299 0.098400 -739.412170
41.071602 0.208900 -738.698792
40.722599 0.219500 -738.915283
40.128101 0.282800 -739.359192
39.757500 0.189400 -739.416687
39.391300 -0.018900 -739.281982
40.972301 0.177200 -738.485413
40.752701 0.208000 -738.661499
40.035198 0.466000 -739.497070
39.775200 0.426000 -739.579407
39.519299 0.363500 -739.622070
40.701401 0.407700 -738.818909
40.606098 0.515200 -739.051086
40.493099 0.591700 -739.242188
40.778900 0.293200 -738.444580
39.923500 0.678500 -739.571716
39.665401 0.640900 -739.657288
39.298302 0.420300 -739.502380
39.041100 0.366200 -739.543884
41.061100 0.201700 -738.276184
38.745098 0.347000 -739.590881
40.699501 0.731000 -738.971680
40.578999 0.795500 -739.147095
39.468300 0.647500 -739.534912
39.088902 0.664200 -739.685730
40.904900 0.823500 -738.815979
39.983398 0.894000 -739.458130
39.735100 0.873100 -739.565002
38.975601 0.786000 -739.853821
38.672600 0.673100 -739.839600
38.439999 0.633100 -739.905884
40.512299 0.766900 -738.734009
40.405102 0.857100 -738.944397
40.282200 0.918000 -739.115173
39.546600 1.008100 -739.683594
39.275600 0.948300 -739.739014
38.849602 0.759000 -739.668518
40.361900 0.723700 -738.395081
40.314899 0.919100 -738.745728
39.777500 1.219400 -739.549377
39.102402 1.005900 -739.580383
38.863499 0.866900 -739.486206
40.543400 1.326000 -738.815979
40.317501 1.327500 -738.947327
40.101898 1.364100 -739.130920
39.457500 1.475300 -739.682678
39.197701 1.433900 -739.762207
38.986301 1.340900 -739.728516
40.243801 1.409300 -738.653687
40.072800 1.506600 -738.913025
39.970501 1.603800 -739.132813
39.864799 1.694600 -739.343872
39.174500 1.724100 -739.786987
38.904301 1.664600 -739.842285
38.686199 1.560000 -739.793030
38.444099 1.562500 -739.935486
40.274502 1.826200 -738.941284
40.069698 1.793900 -739.004700
39.845402 1.815100 -739.167786
39.153400 1.979400 -739.835999
38.873402 1.902600 -739.867981
38.634399 1.896700 -739.994507
38.428902 1.813500 -739.973511
39.828701 1.773600 -738.809387
39.716999 1.993900 -739.239502
39.518299 2.059800 -739.462219
38.951000 2.166300 -739.962891
38.491001 2.050000 -740.031494
38.224300 1.994200 -740.090698
39.842701 2.040100 -739.027527
38.680500 2.210100 -739.972717
39.596100 2.096700 -738.971802
39.460499 2.174600 -739.179077
39.384602 2.318800 -739.462524
39.307701 2.460100 -739.741821
38.552200 2.375100 -740.031189
38.317200 2.375800 -740.166504
37.981800 2.323400 -740.270691
39.636002 2.351400 -738.994873
39.443501 2.397600 -739.181885
39.256302 2.484500 -739.433777
39.144001 2.563900 -739.630371
38.639599 2.643400 -740.051086
38.369301 2.582600 -740.104309
38.112202 2.545100 -740.188599
37.835602 2.468400 -740.218689
39.454700 2.615900 -739.216614
38.543999 2.839900 -740.111023
38.273102 2.777900 -740.162415
37.908100 2.689300 -740.223328
39.256302 2.576900 -739.132080
39.053799 2.637600 -739.349121
39.458801 2.606400 -738.953125
39.052799 2.866000 -739.618530
38.328400 2.975100 -740.214172
38.038502 2.880300 -740.221191
37.811199 2.894700 -740.375122
39.225300 2.640700 -738.929688
39.155899 2.799700 -739.235229
38.910599 3.065200 -739.818970
39.921501 3.056500 -738.995728
39.047001 2.761400 -739.000793
39.099300 2.997200 -739.365479
38.866199 3.003600 -739.509094
38.702000 3.132000 -739.817688
38.062401 3.252100 -740.383484
37.786999 3.182400 -740.424072
37.571201 3.216900 -740.604919
37.337898 3.220700 -740.744202
37.120998 3.168000 -740.779785
38.712898 3.159300 -739.581970
37.275700 3.229100 -740.519897
37.644699 3.364200 -740.411072
38.767101 3.389200 -739.631470
38.563702 3.448800 -739.847717
37.811298 3.510500 -740.381470
37.112598 3.371300 -740.547791
39.294800 3.482000 -739.270630
39.058998 3.451800 -739.354919
38.736099 3.581300 -739.756775
38.451801 3.636700 -740.012207
37.569901 3.608000 -740.468384
37.302799 3.553300 -740.529419
39.091301 3.453600 -739.144714
38.831902 3.499500 -739.370178
36.888100 3.412900 -740.336487
36.644100 3.400000 -740.454529
36.659100 3.562500 -740.718811
36.387501 3.365400 -740.543091
38.585300 3.571000 -739.483215
38.470501 3.648800 -739.679504
38.319500 3.802300 -740.023621
37.627800 3.832500 -740.469910
37.383099 3.817200 -740.584229
37.115398 3.761700 -740.644104
36.409302 3.219300 -740.137085
36.207100 3.143100 -740.124878
38.990501 3.749700 -739.373779
38.758499 3.723100 -739.461975
38.426102 3.835800 -739.841614
36.832500 3.804600 -740.701416
36.113400 3.344800 -740.340576
38.175999 3.966600 -739.993530
38.059898 4.040700 -740.184814
37.356602 4.049600 -740.602783
37.104099 4.020400 -740.698486
38.588001 3.941400 -739.537109
37.935600 4.174300 -740.303284
36.863201 4.073700 -740.749329
38.312401 4.020300 -739.665771
37.353199 4.277000 -740.648621
37.029099 4.382200 -740.762024
36.826698 4.302200 -740.743591
36.547001 4.243100 -740.804626
36.951900 4.607900 -740.808411
36.683899 4.550300 -740.865173
36.445400 4.544600 -740.992676
37.873299 4.672400 -740.082886
37.662300 4.716800 -740.279175
36.944599 4.834900 -740.891296
36.674999 4.773800 -740.943176
36.432800 4.824600 -741.168213
37.470299 4.863300 -740.466980
37.374100 4.971100 -740.704590
36.526001 4.924000 -740.998413
37.519402 4.907600 -740.262512
36.838200 5.088300 -740.959717
36.336102 5.030100 -741.150085
37.708900 4.883600 -739.960327
37.345798 5.076100 -740.494324
36.607300 5.153200 -741.049072
37.234402 5.190200 -740.680115
36.102402 5.053800 -741.099487
36.268398 4.690300 -741.044128
36.228500 5.091600 -741.392578
37.575001 5.070000 -740.062378
37.403400 5.111500 -740.230713
36.839600 5.355000 -740.964294
36.360401 5.190200 -740.959778
37.674400 5.506900 -740.021484
37.432201 5.489800 -740.130981
37.204899 5.499800 -740.278076
37.038799 5.620300 -740.577271
36.992901 5.817100 -740.936829
36.352299 5.775900 -741.233704
36.089802 5.721000 -741.291016
37.438702 5.888800 -739.902527
37.203701 5.907100 -740.068420
36.921902 6.097900 -740.554321
36.825401 6.202600 -740.787476
36.633202 6.272900 -741.017212
36.012402 6.264400 -741.358887
35.741402 6.193500 -741.393982
35.489399 6.156500 -741.475708
36.945702 6.672700 -740.606384
36.724300 6.690000 -740.763184
36.497501 6.697200 -740.906128
36.380001 6.762100 -741.084229
36.259899 6.821900 -741.255310
35.853298 6.916900 -741.651184
35.582901 6.845600 -741.685120
35.320499 6.788700 -741.739075
35.027199 6.678400 -741.719788
36.996601 7.415500 -741.089600
36.719299 7.329700 -741.102722
36.437801 7.237000 -741.106384
36.210701 7.242000 -741.245789
36.097698 7.313400 -741.432922
35.432301 7.353600 -741.884888
35.176998 7.308000 -741.953979
34.922901 7.264800 -742.026611
34.702400 7.279900 -742.179321
34.614201 7.374900 -742.392517
36.516102 7.479300 -740.872375
36.282001 7.426000 -740.916199
36.065601 7.450000 -741.082214
35.993198 7.593500 -741.369385
35.449001 7.844700 -742.113220
35.152401 7.725600 -742.080383
34.944000 7.628300 -742.034180
34.703499 7.607900 -742.137878
34.689899 7.716400 -742.331299
34.493900 7.749200 -742.500488
35.965801 7.836300 -741.195801
35.775299 7.904900 -741.423279
35.153000 8.149500 -742.202026
34.900398 7.974700 -742.048279
34.661098 7.955800 -742.154114
34.574699 8.069300 -742.398621
35.903198 8.351100 -741.457275
35.705101 8.404600 -741.663574
35.538300 8.512500 -741.945190
35.080200 8.639800 -742.428528
34.775700 8.506200 -742.375122
34.579700 8.429800 -742.357178
34.371399 8.463100 -742.534729
36.022701 8.671100 -741.406921
35.805000 8.689700 -741.564575
35.563801 8.666400 -741.663879
35.458199 8.747700 -741.864929
35.397800 8.907700 -742.174683
34.806702 9.063600 -742.784424
34.587200 8.945800 -742.708618
34.352299 8.931900 -742.820496
34.088100 8.868000 -742.863281
35.915199 8.707100 -741.193604
35.654598 8.650200 -741.246277
35.445702 8.684600 -741.426086
35.378601 8.967100 -741.950989
35.227600 9.232500 -742.494690
34.610401 9.209900 -742.812378
34.301701 8.939300 -742.525330
34.156502 9.079200 -742.849915
34.153999 9.203800 -743.065613
35.272499 9.161800 -742.101990
34.352901 9.270800 -742.822571
34.036098 9.373800 -743.183289
34.029400 9.490400 -743.388123
35.554100 9.038700 -741.656799
34.632198 9.437100 -742.878113
35.452900 8.861400 -741.597778
33.842400 9.476000 -743.590881
36.020100 8.423700 -741.002686
35.375702 9.167100 -742.296387
34.100498 8.920600 -742.614929
35.963501 9.860300 -742.524170
35.731400 9.849500 -742.640808
35.518002 9.737600 -742.571777
35.207001 9.587300 -742.493225
34.438301 9.563000 -742.899414
34.181301 9.509700 -742.956909
36.244099 10.215000 -742.531311
36.037300 10.219600 -742.659790
35.796902 10.058300 -742.520996
35.533001 9.721100 -742.091370
35.333401 9.634800 -742.058472
35.108799 9.639300 -742.197327
34.547401 9.980200 -743.114075
34.281799 9.911100 -743.149170
34.071201 9.806900 -743.091919
33.853298 9.821200 -743.243591
33.796501 9.982800 -743.556213
33.790199 10.101100 -743.764526
35.490299 10.170600 -742.265991
35.270000 10.074500 -742.227783
35.057301 10.099300 -742.394775
35.018700 10.297800 -742.761108
34.512199 10.464900 -743.345886
34.258701 10.416000 -743.408997
34.026501 10.274300 -743.298828
33.763500 10.210000 -743.340576
34.933701 10.464400 -742.300720
34.922199 10.577100 -742.503174
34.911499 10.691000 -742.707397
34.810501 10.778000 -742.917419
34.282101 11.034200 -743.670776
34.032799 10.991800 -743.742493
33.798698 10.846900 -743.627625
33.585400 10.824700 -743.713501
35.019600 11.366000 -743.065613
34.818100 11.378000 -743.204224
34.474602 11.562000 -743.725403
34.273800 11.730800 -744.136780
34.282902 11.874800 -744.382324
33.927799 11.648900 -744.196411
33.703400 11.520500 -744.103882
33.501999 11.559000 -744.288818
34.769901 11.630800 -743.034424
34.679199 11.734100 -743.267883
34.647099 11.938500 -743.643677
34.453201 11.990600 -743.848328
34.083500 11.996100 -744.074280
33.800598 11.894800 -744.063171
33.553501 11.855000 -744.138489
33.357498 11.902100 -744.335510
34.643002 11.905700 -742.961121
34.543900 11.981200 -743.151489
34.542500 12.238900 -743.603516
34.477402 12.384500 -743.896484
34.364399 12.446500 -744.071472
34.170700 12.497200 -744.273987
33.938801 12.481900 -744.383423
33.623901 12.325100 -744.293884
33.392300 12.310900 -744.405090
33.287701 12.385500 -744.597290
33.047298 12.356200 -744.687073
34.934799 12.609300 -743.479370
34.738899 12.614200 -743.603271
34.494900 12.578500 -743.684509
34.386700 12.649200 -743.872314
34.296902 12.751200 -744.104126
34.211201 12.859400 -744.344482
34.001400 12.881300 -744.506470
33.763401 12.854600 -744.599792
33.553398 12.749700 -744.539429
33.342201 12.769000 -744.697693
34.756100 12.623600 -743.367371
34.136600 13.046200 -744.474915
33.949902 13.107200 -744.692322
33.696899 13.054400 -744.748596
33.496201 13.090900 -744.931030
33.499298 12.950600 -744.728577
34.393501 12.978800 -744.118103
33.241798 13.045500 -744.916382
34.675999 13.020100 -743.734192
34.573101 13.102900 -743.940918
34.317902 13.177800 -744.223999
34.240398 13.302200 -744.488770
33.878700 13.318500 -744.732117
33.622799 13.260900 -744.782593
33.425098 13.176200 -744.750671
34.458199 12.887700 -743.348694
34.297298 13.005800 -743.652405
33.800301 13.564600 -744.932312
33.225899 13.341500 -744.880371
34.369801 13.317100 -744.050781
34.365799 13.440400 -744.270630
34.265701 13.524900 -744.479004
33.475800 13.441200 -744.800903
33.974899 13.884800 -745.186890
33.834801 13.770400 -745.068298
33.259300 13.543900 -745.011230
34.421001 13.568700 -744.075073
34.336601 13.680600 -744.323181
34.160198 13.760400 -744.569397
33.599300 13.813400 -744.997314
33.401299 13.727200 -744.963013
33.194099 13.752000 -745.130371
34.428902 13.881300 -744.189880
34.349300 14.000800 -744.449097
34.170399 14.075100 -744.687500
33.947800 14.200600 -745.042480
33.762100 14.261100 -745.260620
33.463799 14.128300 -745.203674
33.243900 14.004400 -745.115723
34.465801 14.638200 -744.490723
34.281300 14.638000 -744.600830
34.179600 14.717100 -744.802307
34.093498 14.822700 -745.041626
33.625500 14.900200 -745.460022
33.427399 14.811600 -745.421387
33.232300 14.728500 -745.390930
33.050201 14.733300 -745.508484
38.836399 21.723600 -747.607971
38.592098 21.657200 -747.637024
38.349701 21.594900 -747.671997
38.115501 21.548201 -747.730408
37.877102 21.493999 -747.777771
37.688000 21.402599 -747.727722
37.440498 21.332399 -747.751587
37.187801 21.253401 -747.762695
36.910198 21.129801 -747.708313
36.712601 21.025299 -747.639526
36.518200 20.927000 -747.580078
36.328701 20.838200 -747.534973
37.651699 21.730301 -747.506897
35.612400 20.831100 -747.120483
37.027000 21.692600 -747.185425
36.726898 21.529301 -747.071899
36.459301 21.426100 -747.047913
38.094200 22.208200 -747.090515
37.602901 22.074900 -747.148926
36.936798 21.752800 -746.970276
36.544201 21.630400 -746.987976
35.699600 22.187401 -748.917419
35.482399 22.212900 -749.096924
35.083099 22.240900 -749.392822
35.144199 22.458599 -749.751526
37.814602 21.698700 -747.732178
37.527500 21.556101 -747.648987
37.256100 21.443300 -747.610474
36.713699 21.221300 -747.539490
36.384602 21.007401 -747.352478
34.834900 20.133499 -746.714722
34.577099 20.054501 -746.729126
36.013302 20.644100 -747.412781
38.514099 21.355400 -747.448425
38.322601 21.390100 -747.628174
38.079498 21.328400 -747.665100
37.820301 21.237301 -747.658630
37.632702 21.149700 -747.614685
37.490601 21.017200 -747.461609
37.388802 21.087999 -747.651978
37.156601 21.048000 -747.721375
35.888699 20.535200 -747.567871
38.180302 21.203100 -747.517212
36.970200 20.912100 -747.730591
36.706699 20.816401 -747.718323
36.438301 20.712400 -747.694275
36.244701 20.617300 -747.640503
35.649601 20.309900 -747.447815
38.141102 21.783199 -747.737122
37.065701 21.353600 -747.617981
35.031399 20.245899 -746.856995
35.438599 20.798000 -747.421814
32.918098 20.223499 -747.928589
32.175201 20.045000 -748.061523
38.571499 21.856400 -747.743530
33.792400 15.975300 -745.940308
33.524502 15.887200 -745.951294
33.243698 15.778500 -745.933716
33.144699 15.851100 -746.125671
32.955898 15.919300 -746.366028
33.201801 15.112600 -745.633484
32.981602 14.987000 -745.547974
32.775299 14.884800 -745.495422
34.494499 14.088200 -744.242493
34.081100 14.422200 -745.093872
33.716099 14.535500 -745.523682
33.442501 14.320200 -745.313293
33.233601 14.213300 -745.254822
33.122299 14.047900 -745.343994
33.184700 13.955100 -745.524780
34.322800 13.170300 -743.899719
34.529499 12.691100 -743.435303
34.481899 12.854800 -743.754089
33.485901 12.536900 -744.495789
34.835098 12.377700 -743.519226
34.802101 12.112300 -743.249512
33.220299 12.450100 -744.838623
35.148399 11.885400 -742.881226
34.875401 11.797100 -742.897583
34.441399 11.930100 -743.404114
34.319199 12.212100 -743.976685
33.985500 12.263300 -744.276489
33.786999 12.177200 -744.249817
33.516499 12.093400 -744.272278
33.181099 12.023100 -744.359619
35.005901 11.656700 -743.138977
34.546600 11.698900 -743.502319
33.267899 11.698700 -744.307495
34.717899 11.538300 -743.378479
34.092899 11.832700 -744.288513
34.099400 11.403000 -743.901611
33.882301 11.288200 -743.837280
33.682899 11.321200 -744.020630
35.426899 10.211200 -742.046387
34.927502 10.488000 -742.843506
34.845798 10.596600 -743.084473
34.283901 10.640600 -743.514893
34.023701 10.576100 -743.566223
33.707100 10.420600 -743.494080
33.689602 10.596400 -743.811707
34.942799 10.285300 -742.965271
34.235001 10.212400 -743.284424
35.048100 9.762800 -742.450684
35.930698 9.308200 -741.525391
35.385399 9.142200 -741.580627
35.313900 9.272200 -741.851318
35.326401 9.417600 -742.095825
35.222401 9.329800 -742.259094
35.543098 9.149300 -741.892517
34.341400 9.342900 -743.150330
34.230999 9.404000 -743.325928
35.357601 8.768800 -742.359314
34.849602 8.666700 -742.503113
33.644699 8.521500 -743.011780
33.446602 8.531000 -743.153015
35.710201 8.389800 -741.895386
34.993301 8.438800 -742.431213
34.229301 8.365600 -742.785828
33.709301 8.529400 -743.395691
33.434200 8.479400 -743.482483
35.797199 8.081200 -741.622314
35.933701 7.475800 -740.703613
35.948101 7.628600 -740.957703
34.284302 7.912000 -742.491394
36.128502 7.983400 -741.702087
35.899399 7.975800 -741.833008
35.198799 7.930100 -742.194519
34.379799 7.916100 -742.684998
36.142899 7.238400 -740.742004
36.050900 7.490000 -741.569214
34.921799 7.292900 -742.260071
37.270000 5.715200 -739.822571
37.054001 5.736600 -739.994324
36.017700 5.835600 -741.473816
35.804600 5.858600 -741.646301
36.928699 3.707900 -740.517090
36.508099 3.577700 -740.931885
37.868198 3.717400 -740.405212
36.958900 3.603600 -740.778625
36.828098 3.026100 -740.841919
38.826000 2.375300 -739.951782
40.138100 1.790100 -738.728516
38.106499 1.752200 -739.922791
38.839901 1.435700 -739.877502
38.426998 0.630900 -739.576111
39.594299 0.052300 -739.417725
38.376400 -0.181500 -739.786621
40.562302 -0.856000 -739.224182
41.117298 -1.096300 -738.969116
40.806599 -1.096900 -739.159912
41.065102 -0.559900 -740.121399
40.659199 -0.494100 -740.859192
40.432301 -0.949900 -739.428101
40.520500 -0.653100 -739.262512
40.321400 -0.866600 -739.591675
39.690800 -0.266400 -739.573425
40.354198 0.163900 -739.318726
39.071201 -0.426500 -738.863220
39.479198 0.239200 -739.424500
40.621101 0.503400 -738.319519
40.505402 0.984300 -738.629272
40.446999 1.153800 -738.944702
40.242100 1.194300 -739.138611
39.497101 1.217600 -739.639404
40.252701 1.578900 -738.824280
38.168098 1.778100 -740.123718
39.040100 3.460700 -739.567627
36.327000 3.240100 -739.887878
36.228401 3.358000 -740.059387
38.150101 4.160800 -739.803223
37.998199 4.293800 -740.120789
37.906799 4.399100 -740.354187
36.353199 3.875500 -740.449585
37.139000 5.379400 -740.447021
36.707600 5.548200 -741.001526
36.455200 5.501300 -741.080383
36.210701 5.468400 -741.178101
37.008099 5.627100 -740.320679
36.898399 5.832900 -740.736572
36.195900 5.918600 -741.321411
35.613998 5.820900 -741.521118
35.359699 5.770900 -741.596130
35.404900 6.287200 -741.664917
35.211800 7.359900 -742.256226
34.941399 7.406600 -742.505615
36.480801 7.297900 -740.767273
35.307301 7.165800 -741.843201
35.509399 7.012600 -741.876221
35.276402 6.946500 -741.890686
35.713902 7.073100 -741.780518
34.666199 7.392900 -742.601013
35.427700 7.609000 -742.034729
35.228001 7.521000 -742.010315
36.174400 7.483500 -740.721130
35.976398 8.010000 -741.362122
34.884602 8.149400 -742.278015
34.697102 8.286600 -742.600525
36.056999 8.246900 -741.587280
34.593899 8.417200 -742.796204
35.839001 8.512000 -742.011475
33.230701 8.476800 -743.367126
35.822300 8.223500 -740.979187
34.823200 8.832600 -742.647705
34.623600 8.741000 -742.616699
34.377899 8.699200 -742.699890
35.539200 9.458600 -742.217529
35.820301 9.771500 -742.225098
34.546700 9.737800 -742.967224
33.945900 9.588900 -743.089172
35.631401 9.912500 -742.193787
35.070301 9.965700 -742.637878
35.103401 10.253300 -742.245422
35.019001 10.367100 -742.494812
34.772202 10.919700 -743.068604
34.909500 11.019100 -742.742004
34.838799 11.155700 -743.022888
34.105801 11.903800 -744.495789
34.543201 11.763700 -743.723389
33.535400 11.782100 -744.393127
33.756001 11.684900 -743.916016
33.258499 12.031000 -744.561218
34.598099 12.133500 -743.340027
34.293800 12.804200 -744.548401
33.917000 12.648100 -744.516113
33.237301 12.551900 -744.450317
34.773602 12.953900 -743.464722
33.235699 13.098900 -744.687622
34.260201 14.205300 -744.472717
34.245701 14.440800 -744.893188
33.697300 14.483800 -745.314697
33.105900 14.320800 -745.403320
34.342999 14.414000 -744.625916
32.915298 14.293300 -745.316223
34.439098 14.360300 -744.389526
33.805698 14.768500 -745.502991
33.495098 14.594900 -745.395508
32.849400 14.208200 -745.127197
33.203999 14.405600 -745.129517
33.319698 14.576300 -745.221130
32.989799 14.367800 -745.098389
32.996601 14.205900 -744.932312
37.984200 21.108999 -747.708923
37.438099 20.819300 -747.542725
37.089401 20.668400 -747.497375
36.873699 20.648701 -747.600220
36.644100 20.601101 -747.662170
36.456501 20.500401 -747.603271
36.125999 20.389601 -747.617371
35.874599 20.300100 -747.619019
35.535702 20.174700 -747.612671
35.334702 20.088200 -747.512085
37.025002 22.303499 -750.387878
36.746399 22.216900 -750.411621
36.453800 22.037901 -750.280212
38.845001 21.538000 -747.787476
58.114700 13.361200 -741.857483
57.953098 13.474800 -742.023376
57.792900 13.606000 -742.188721
57.627998 13.665200 -742.355591
57.470798 13.831900 -742.519470
57.305599 13.882900 -742.686279
57.143600 13.975700 -742.851685
56.978600 14.024800 -743.018372
56.819500 14.152900 -743.182373
56.662800 14.308800 -743.345276
56.500301 14.384800 -743.510620
56.340801 14.498400 -743.674377
56.182800 14.627200 -743.837402
56.019501 14.687200 -744.002686
55.862000 14.816700 -744.165283
58.339901 13.073900 -741.512817
58.236301 13.221800 -741.622192
55.663898 14.930600 -744.257813
55.502201 15.006300 -744.421997
58.658001 13.097100 -741.046692
58.495300 13.205100 -741.213379
58.333000 13.317900 -741.379822
58.115398 13.441900 -741.601807
57.954102 13.561600 -741.767517
57.795200 13.712800 -741.932190
57.632301 13.801200 -742.098083
57.470100 13.896100 -742.263672
57.307098 13.978100 -742.429504
57.146599 14.091900 -742.594177
56.984600 14.182100 -742.759399
56.823101 14.277800 -742.924194
56.661201 14.364400 -743.089172
56.500301 14.462700 -743.253479
56.339600 14.560300 -743.417786
56.179199 14.659900 -743.581726
56.018902 14.758700 -743.745483
55.858101 14.847600 -743.909485
55.325901 15.179000 -744.453613
58.781399 12.968600 -740.776428
55.663799 14.997700 -743.966675
55.503700 15.090900 -744.130127
55.120098 15.183700 -744.516113
58.327202 13.334200 -741.153320
58.110500 13.471200 -741.375000
57.953300 13.654400 -741.539185
57.794899 13.813100 -741.703674
57.632900 13.911100 -741.869324
57.471298 14.014100 -742.034485
57.307701 14.082600 -742.200500
57.149200 14.223800 -742.364319
56.985100 14.282500 -742.530212
56.821899 14.351700 -742.695679
56.661201 14.452500 -742.859985
56.498699 14.527300 -743.025085
56.337399 14.616800 -743.189514
56.177502 14.720800 -743.353210
56.018501 14.834800 -743.516418
55.858898 14.937800 -743.679688
55.317699 15.154600 -744.228027
54.999599 15.354700 -744.553284
58.556499 13.110100 -740.812927
58.395000 13.236400 -740.979187
55.125500 15.305800 -744.323975
58.733101 12.924100 -740.438721
58.575699 13.125800 -740.604187
58.199699 13.425500 -740.991882
58.042000 13.603500 -741.156616
57.885101 13.786500 -741.320801
57.725700 13.924400 -741.485596
57.566101 14.054200 -741.650330
57.408798 14.215900 -741.814026
57.247200 14.308400 -741.979004
57.084999 14.389600 -742.144226
56.920898 14.441200 -742.309998
56.761101 14.551800 -742.474121
56.602299 14.673800 -742.637573
56.439701 14.740600 -742.802490
56.275398 14.783000 -742.968079
56.114300 14.866100 -743.132385
55.952900 14.944100 -743.296570
55.794601 15.059800 -743.459412
55.632900 15.129400 -743.623596
55.473999 15.232800 -743.786377
55.313702 15.317000 -743.949829
55.148899 15.344300 -744.115295
54.930099 15.392100 -744.335510
54.769402 15.466700 -744.499023
58.576401 13.164200 -740.303894
58.417500 13.333600 -740.469788
58.314098 13.485700 -740.579529
58.156898 13.672500 -740.744385
57.995499 13.782200 -740.910278
57.832802 13.868100 -741.076416
57.673100 13.998400 -741.241516
57.514999 14.149800 -741.405823
57.358501 14.320700 -741.569275
57.197899 14.423100 -741.734070
57.037998 14.535000 -741.898499
56.879799 14.666400 -742.062073
56.716599 14.724200 -742.227478
56.553299 14.778200 -742.392883
56.392700 14.869200 -742.557129
56.233101 14.970800 -742.720825
56.073799 15.072900 -742.884216
55.913300 15.158000 -743.047974
55.752800 15.240400 -743.211914
55.589901 15.290600 -743.376587
55.428299 15.355800 -743.540771
55.267502 15.430000 -743.704529
55.110500 15.548300 -743.866272
54.945400 15.567500 -744.031921
54.778000 15.559200 -744.198730
54.612202 15.570100 -744.364685
54.427700 15.547600 -744.547974
53.535400 15.956600 -745.456299
53.379700 16.071899 -745.616699
53.213600 16.077499 -745.782776
53.059799 16.210199 -745.942017
52.914101 16.421200 -746.096497
52.758202 16.525999 -746.256714
58.285702 13.538900 -740.242004
58.184299 13.723600 -740.351318
58.081799 13.882000 -740.460815
57.921200 14.001900 -740.626282
57.761700 14.134200 -740.791504
57.603699 14.285600 -740.956116
57.441002 14.358500 -741.121826
57.282299 14.491000 -741.286194
57.119598 14.559400 -741.451721
56.960400 14.676700 -741.616028
56.802700 14.813300 -741.779480
56.653900 15.073300 -741.939514
56.491299 15.129800 -742.104370
56.325699 15.143500 -742.270630
56.164101 15.212700 -742.434998
56.004002 15.299900 -742.598816
55.841400 15.352400 -742.763489
55.681499 15.438700 -742.927124
55.519600 15.496800 -743.091370
55.360699 15.591700 -743.254272
55.199402 15.654400 -743.418274
55.039799 15.737700 -743.581421
54.882702 15.848100 -743.743225
54.716499 15.848700 -743.909302
54.550301 15.849000 -744.075378
54.381302 15.818300 -744.242920
54.209301 15.754600 -744.411987
54.048901 15.824000 -744.575317
53.887100 15.876700 -744.739197
53.724701 15.921100 -744.903381
53.564400 15.988500 -745.066528
53.410099 16.118601 -745.226379
53.253899 16.224899 -745.387207
53.099098 16.345200 -745.547119
52.945499 16.475300 -745.706177
52.795300 16.637100 -745.863281
52.638599 16.730000 -746.023987
52.483002 16.832399 -746.184021
52.326698 16.926500 -746.344299
52.173000 17.044100 -746.502991
52.022301 17.188400 -746.659912
51.874500 17.357000 -746.814880
58.155300 13.703400 -740.009277
57.999100 13.902500 -740.174377
57.900902 14.131200 -740.282776
57.744701 14.317600 -740.447205
57.586800 14.468400 -740.611816
57.426701 14.579100 -740.776794
57.265400 14.668600 -740.942017
57.105999 14.783100 -741.106384
56.945099 14.871700 -741.271301
56.783298 14.945600 -741.436279
56.621101 15.010500 -741.601318
56.461102 15.104600 -741.765503
56.300400 15.186900 -741.929871
56.143799 15.324200 -742.092529
55.986401 15.446600 -742.255310
55.828300 15.555600 -742.418213
55.667000 15.620600 -742.582275
55.504501 15.667800 -742.746887
55.343300 15.731000 -742.910889
55.184399 15.822400 -743.073730
55.022999 15.879500 -743.237671
54.866699 15.998400 -743.399170
54.706699 16.069500 -743.562378
54.546101 16.133101 -743.725708
54.385201 16.191500 -743.889221
54.220001 16.198799 -744.054626
54.050201 16.154699 -744.222412
53.879200 16.098400 -744.390808
53.717800 16.150700 -744.554504
53.558399 16.224400 -744.717102
53.399899 16.306400 -744.879211
53.239899 16.370199 -745.042114
53.080601 16.441500 -745.204529
52.925800 16.557800 -745.364380
52.769699 16.657900 -745.525024
52.616600 16.788099 -745.683716
52.462101 16.900499 -745.843323
52.306900 17.004000 -746.003113
52.148701 17.076900 -746.164429
51.994202 17.184799 -746.323608
51.838600 17.279301 -746.483521
51.680698 17.350700 -746.644470
51.527599 17.466299 -746.802673
51.375900 17.593000 -746.960022
57.768902 14.209000 -740.082520
57.668598 14.396800 -740.191284
57.512100 14.571400 -740.355713
57.352699 14.691700 -740.520630
57.193600 14.814300 -740.685181
57.038200 14.988000 -740.848572
56.880199 15.117900 -741.012512
56.722801 15.253100 -741.176025
56.561600 15.327400 -741.340576
56.398399 15.370800 -741.505798
56.235401 15.416700 -741.670776
56.073700 15.478600 -741.835388
55.911999 15.539400 -741.999878
55.753101 15.636900 -742.163330
55.597099 15.770500 -742.325317
55.437500 15.853700 -742.488708
55.277901 15.935200 -742.651978
55.118000 16.009399 -742.815308
54.961201 16.121901 -742.977173
54.804600 16.234200 -743.138916
54.646500 16.324900 -743.301086
54.486500 16.391001 -743.464172
54.324100 16.428699 -743.628174
54.159401 16.438200 -743.793396
53.993698 16.436001 -743.958984
53.825100 16.402300 -744.126099
53.658501 16.391899 -744.292175
53.497002 16.439400 -744.455872
53.339802 16.532600 -744.617310
53.178200 16.576401 -744.780884
53.021900 16.676600 -744.941772
52.863998 16.757099 -745.103394
52.705898 16.834900 -745.265076
52.549801 16.932199 -745.425476
52.393200 17.022499 -745.586182
52.235802 17.103001 -745.747314
52.080601 17.203699 -745.907104
51.925598 17.305000 -746.066711
51.766201 17.361401 -746.228699
51.611599 17.463600 -746.387878
51.452900 17.524799 -746.549500
51.303299 17.670900 -746.705688
51.139900 17.686300 -746.869812
50.975201 17.691200 -747.034729
50.786098 17.807600 -747.229126
57.553699 14.563600 -740.007507
57.393002 14.665600 -740.172913
57.239799 14.885600 -740.336426
57.084000 15.057200 -740.500122
56.926701 15.198200 -740.663879
56.766701 15.294800 -740.828430
56.608398 15.413300 -740.992188
56.449699 15.522500 -741.156006
56.288200 15.586700 -741.320618
56.129101 15.684800 -741.484192
55.970699 15.788600 -741.647522
55.811199 15.875800 -741.810974
55.646999 15.896700 -741.976196
55.482601 15.914100 -742.141418
55.320900 15.967500 -742.305725
55.161701 16.051201 -742.468811
55.005699 16.174601 -742.630615
54.846001 16.249001 -742.793579
54.690399 16.372000 -742.955017
54.533001 16.469101 -743.116882
54.373100 16.535700 -743.279907
54.212502 16.590599 -743.443176
54.051300 16.639500 -743.606628
53.886101 16.640499 -743.771912
53.721600 16.649799 -743.936890
53.557701 16.666901 -744.101624
53.395599 16.703600 -744.265381
53.238499 16.794201 -744.426819
53.080002 16.869400 -744.588684
52.920399 16.930599 -744.751221
52.757900 16.959801 -744.915222
52.599998 17.037399 -745.076721
52.441101 17.103300 -745.238586
52.279400 17.139700 -745.401978
52.126099 17.259600 -745.560974
51.970600 17.356400 -745.720886
51.812000 17.420401 -745.882629
51.656399 17.513100 -746.042419
51.506100 17.654600 -746.199280
51.345402 17.694901 -746.361877
51.189098 17.776800 -746.521973
51.028999 17.821199 -746.684326
50.865601 17.836100 -746.848389
50.704201 17.868900 -747.011414
50.545399 17.925200 -747.172791
50.341202 17.941401 -747.377808
56.955799 15.218400 -740.422119
56.638599 15.452600 -740.750183
56.480301 15.570000 -740.913879
56.322102 15.684300 -741.077393
56.161098 15.754700 -741.241577
56.001999 15.849700 -741.405212
55.844398 15.964100 -741.568115
55.628502 16.032400 -741.787109
55.466000 16.074400 -741.951477
55.304699 16.130800 -742.115479
55.143101 16.183001 -742.279419
54.826000 16.361200 -742.604797
54.668701 16.462700 -742.766785
54.405998 16.620600 -743.036682
54.248699 16.715401 -743.198486
54.086498 16.750601 -743.362305
53.868198 16.772900 -743.581726
53.703800 16.782801 -743.746521
53.540401 16.804001 -743.910828
53.380901 16.868299 -744.073303
53.219398 16.909700 -744.236694
53.058701 16.959200 -744.399719
52.901100 17.041000 -744.561096
52.742500 17.112101 -744.722900
52.582100 17.161600 -744.885681
52.420200 17.196199 -745.049072
52.259499 17.241899 -745.211914
51.791199 17.513000 -745.692688
50.846298 17.940300 -746.657410
50.684700 17.970501 -746.820374
50.140800 18.024900 -747.366821
57.186199 14.905600 -740.111328
57.084202 15.054800 -740.219971
56.768700 15.331200 -740.548096
54.958500 16.313299 -742.402588
52.076000 17.363100 -745.331909
51.923500 17.490400 -745.490173
51.607800 17.632000 -745.812195
51.450500 17.706600 -745.972900
51.294201 17.790300 -746.132874
51.134800 17.842899 -746.294617
50.977901 17.917500 -746.455017
50.493599 18.013901 -746.943420
50.323601 17.969000 -747.111084
57.124100 15.225300 -739.878479
56.965599 15.212900 -740.035095
56.807201 15.361300 -740.198181
56.646801 15.468300 -740.361511
56.492001 15.670400 -740.523193
56.332401 15.780800 -740.685913
56.171398 15.864000 -740.848877
56.012402 15.978200 -741.011230
55.852600 16.075199 -741.173523
55.693001 16.172300 -741.335693
55.531601 16.238600 -741.498413
55.373299 16.349100 -741.659912
55.211700 16.407900 -741.822388
55.054501 16.529699 -741.983215
54.892899 16.583799 -742.145630
54.730301 16.623600 -742.308411
54.566399 16.643200 -742.471680
54.403500 16.676300 -742.634583
54.242699 16.738001 -742.796387
54.082802 16.809500 -742.957886
53.925900 16.920401 -743.117920
53.770500 17.046801 -743.277100
53.606800 17.064501 -743.440125
53.443901 17.091299 -743.602722
53.282001 17.131201 -743.764771
53.123199 17.208300 -743.925415
52.964001 17.278299 -744.086121
52.804699 17.346100 -744.246826
52.640202 17.352100 -744.410095
52.481499 17.425200 -744.570374
52.321701 17.484600 -744.731201
52.161900 17.542900 -744.892029
52.003201 17.612600 -745.052124
51.843498 17.669500 -745.212830
51.683498 17.723101 -745.373596
51.523602 17.776800 -745.534180
51.368801 17.882999 -745.692078
51.212601 17.972799 -745.850525
51.051800 18.013100 -746.011719
50.892502 18.069401 -746.171875
50.730202 18.094500 -746.333801
50.568501 18.125900 -746.495300
50.407902 18.167101 -746.656311
50.244202 18.178699 -746.818970
50.081299 18.198000 -746.981323
49.916401 18.198999 -747.144775
49.747101 18.159800 -747.310974
49.550098 18.198299 -747.507813
56.623501 15.523600 -739.931824
56.523499 15.719800 -740.039124
56.367599 15.897800 -740.200989
56.207500 15.995700 -740.363892
56.048500 16.108000 -740.526184
55.888302 16.197001 -740.688782
55.730598 16.324600 -740.850525
55.572701 16.443199 -741.012024
55.412701 16.526600 -741.174072
55.251202 16.583099 -741.336487
55.090900 16.655199 -741.498596
54.930698 16.728001 -741.660522
54.770199 16.795099 -741.822327
54.609299 16.852800 -741.984314
54.451900 16.959999 -742.144775
54.292099 17.030399 -742.306274
54.130402 17.073900 -742.468323
53.968300 17.110201 -742.630615
53.808102 17.171499 -742.791870
53.645500 17.199699 -742.954285
53.483700 17.237101 -743.116516
53.323898 17.300800 -743.277527
53.166500 17.392500 -743.437378
53.004700 17.427900 -743.599304
52.846802 17.511000 -743.759277
52.690201 17.606501 -743.918579
52.527500 17.629000 -744.080811
52.367401 17.681000 -744.241821
52.207298 17.732100 -744.402588
52.046600 17.776800 -744.563782
51.886398 17.824900 -744.724670
51.728500 17.899000 -744.884277
51.571400 17.979900 -745.043518
51.411400 18.028299 -745.204102
51.251999 18.082800 -745.364380
51.090302 18.112000 -745.525879
50.930698 18.161900 -745.686279
50.774601 18.248100 -745.844727
50.615200 18.299601 -746.004883
50.456501 18.357000 -746.164612
50.292599 18.362600 -746.327271
50.126999 18.351400 -746.491089
49.963402 18.361200 -746.653687
49.800900 18.381399 -746.815674
49.636700 18.386600 -746.978699
49.470501 18.372299 -747.143005
49.297699 18.299400 -747.311218
49.131500 18.288000 -747.475586
48.967300 18.296101 -747.638672
56.153400 15.996200 -739.955200
55.999401 16.198500 -740.116577
55.844299 16.374100 -740.278015
55.686501 16.497400 -740.439697
55.529800 16.634300 -740.601013
55.369999 16.716700 -740.763000
55.211201 16.810900 -740.924622
55.049500 16.858200 -741.086975
54.886799 16.887501 -741.249817
54.728401 16.981899 -741.410889
54.567699 17.040001 -741.572815
54.408699 17.119801 -741.734009
54.250999 17.217199 -741.894592
54.091400 17.285801 -742.055786
53.930698 17.336201 -742.217407
53.771702 17.409100 -742.378174
53.611000 17.457600 -742.539673
53.453800 17.550600 -742.699585
53.291401 17.573900 -742.861816
53.129799 17.608299 -743.023621
52.969200 17.654400 -743.184814
52.807800 17.688999 -743.346497
52.646702 17.727600 -743.507874
52.490601 17.826000 -743.666992
52.330799 17.877199 -743.827820
52.172401 17.944500 -743.987793
52.013000 17.999100 -744.148315
51.855400 18.073601 -744.307800
51.697800 18.146601 -744.467224
51.536598 18.178301 -744.628479
51.376202 18.218800 -744.789307
51.216000 18.260201 -744.950073
51.055500 18.298401 -745.110901
50.895901 18.345699 -745.271301
50.734600 18.374001 -745.432617
50.575699 18.427999 -745.592529
50.416801 18.481300 -745.752380
50.255699 18.511400 -745.913513
50.093700 18.532499 -746.075073
49.933701 18.573200 -746.235596
49.774200 18.618099 -746.395813
49.610298 18.620600 -746.558472
49.444000 18.601000 -746.722717
49.279800 18.602200 -746.885681
49.115700 18.604900 -747.048584
48.948002 18.575800 -747.213684
48.782101 18.563299 -747.377808
48.618301 18.570601 -747.540588
48.459900 18.626699 -747.700073
48.295101 18.626101 -747.863586
48.139000 18.701401 -748.021729
47.982899 18.775299 -748.179688
47.825600 18.838400 -748.338501
55.515800 16.531300 -740.136780
55.416199 16.705299 -740.243286
55.262100 16.879700 -740.403870
55.102299 16.954399 -740.565918
54.944599 17.060101 -740.727112
54.786999 17.165001 -740.888123
54.625900 17.211700 -741.050171
54.465302 17.264400 -741.211975
54.308701 17.375500 -741.372375
54.150002 17.453100 -741.533325
53.988499 17.487700 -741.695313
53.827900 17.535000 -741.856812
53.670200 17.622499 -742.017212
53.511002 17.686100 -742.177979
53.350101 17.725300 -742.339478
53.189999 17.773199 -742.500671
53.032902 17.861200 -742.660583
52.874001 17.923100 -742.820984
52.714401 17.974701 -742.981873
52.551800 17.989401 -743.143921
52.389999 18.012199 -743.305725
52.228401 18.038200 -743.467285
52.068699 18.086500 -743.627991
51.912201 18.171499 -743.787109
51.755901 18.257299 -743.946106
51.598900 18.334400 -744.105286
51.442200 18.411699 -744.264282
51.283199 18.462900 -744.424377
51.123100 18.501101 -744.585083
50.961800 18.525400 -744.746399
50.800900 18.554001 -744.907471
50.641300 18.596201 -745.067810
50.483002 18.652000 -745.227417
50.322201 18.680901 -745.388428
50.160500 18.701300 -745.549927
50.004398 18.777599 -745.708191
49.845299 18.822001 -745.868225
49.684700 18.852501 -746.028992
49.521900 18.861200 -746.190979
49.358501 18.863701 -746.353516
49.192902 18.847000 -746.517212
49.028900 18.845200 -746.680115
48.865002 18.846100 -746.842773
48.702099 18.856600 -747.005127
48.536800 18.844601 -747.168823
48.372002 18.838499 -747.332214
48.210602 18.863600 -747.493591
48.056198 18.950600 -747.650696
47.897900 19.001900 -747.810181
47.739300 19.050301 -747.969788
47.585201 19.136801 -748.126587
47.430500 19.216801 -748.283691
47.275299 19.291800 -748.441101
47.119801 19.363300 -748.598572
46.976501 19.534500 -748.748413
46.823101 19.620001 -748.904480
55.003300 16.941700 -740.194092
54.852001 17.152901 -740.353882
54.752201 17.306601 -740.459900
54.593201 17.383900 -740.621277
54.436401 17.493000 -740.781921
54.275200 17.530199 -740.943787
54.114899 17.580900 -741.105286
53.954700 17.631001 -741.266785
53.794102 17.674299 -741.428284
53.633301 17.715000 -741.589905
53.472198 17.750000 -741.751526
53.312199 17.798500 -741.912781
53.154400 17.877600 -742.072998
52.997700 17.968599 -742.232788
52.842499 18.076900 -742.391785
52.683800 18.136400 -742.552185
52.524101 18.182899 -742.713013
52.362801 18.208599 -742.874390
52.203999 18.264200 -743.034729
52.046398 18.334400 -743.194397
51.886902 18.379601 -743.354980
51.726101 18.409401 -743.516113
51.564400 18.427601 -743.677612
51.405899 18.482700 -743.837585
51.248901 18.554501 -743.996826
51.090000 18.603201 -744.156921
50.935902 18.704800 -744.314514
50.775700 18.737700 -744.475220
50.618401 18.801201 -744.634277
50.457901 18.830099 -744.794983
50.299900 18.884800 -744.954529
50.141602 18.936399 -745.114075
49.979698 18.949400 -745.275574
49.819599 18.981199 -745.436096
49.661900 19.037001 -745.595276
49.500999 19.060600 -745.756226
49.340599 19.088100 -745.916870
49.178501 19.100100 -746.078491
49.014900 19.097700 -746.241028
48.852100 19.103600 -746.403076
48.689999 19.117001 -746.564697
48.527599 19.127701 -746.726624
48.363998 19.127600 -746.889221
48.201599 19.138500 -747.051086
48.039101 19.150101 -747.213013
47.878700 19.179100 -747.373779
47.723999 19.259300 -747.531006
47.565102 19.301100 -747.690796
47.413799 19.408100 -747.845886
47.258301 19.478399 -748.003479
47.107101 19.582899 -748.158508
46.948898 19.629000 -748.317688
46.791599 19.680901 -748.476379
46.635899 19.746401 -748.633972
46.478901 19.800301 -748.792419
46.316101 19.807600 -748.954529
46.163399 19.895000 -749.110229
54.483101 17.280701 -740.350586
54.330700 17.461700 -740.510315
54.178699 17.643999 -740.669495
54.020100 17.717899 -740.830383
53.858398 17.743200 -740.992310
53.697498 17.780800 -741.153870
53.537498 17.828899 -741.315186
53.377701 17.879801 -741.476318
53.219200 17.947599 -741.636902
53.059898 18.003799 -741.797729
52.903599 18.097900 -741.957275
52.746300 18.177700 -742.117188
52.587799 18.237801 -742.277527
52.429199 18.297300 -742.437683
52.268398 18.325701 -742.598877
52.109901 18.383699 -742.758972
51.952099 18.449400 -742.918823
51.793598 18.505301 -743.078796
51.638000 18.594400 -743.237488
51.480701 18.661699 -743.396912
51.319401 18.680500 -743.557983
51.160500 18.728001 -743.718079
50.996101 18.711300 -743.880798
50.836498 18.750500 -744.041077
50.682800 18.853100 -744.198486
50.525902 18.919600 -744.357483
50.369400 18.989201 -744.516174
50.209999 19.026600 -744.676270
50.051102 19.069000 -744.836121
49.892502 19.114700 -744.995728
49.731701 19.136200 -745.156616
49.577301 19.223000 -745.314026
49.418900 19.268999 -745.473389
49.257999 19.288300 -745.634277
49.095299 19.291300 -745.796082
48.932201 19.291300 -745.958130
48.767502 19.275900 -746.121216
48.604000 19.272699 -746.283508
48.441299 19.277399 -746.445496
48.282299 19.317699 -746.605286
48.124001 19.363501 -746.764709
47.965401 19.406099 -746.924316
47.806198 19.443100 -747.084229
47.645401 19.465900 -747.244995
47.491798 19.551500 -747.401611
47.333099 19.591900 -747.561096
47.172901 19.619600 -747.721619
47.018501 19.696600 -747.878418
46.863998 19.770901 -748.035400
46.706699 19.821899 -748.193970
46.549301 19.870800 -748.352722
46.394100 19.938200 -748.509888
46.239399 20.008699 -748.666809
46.080002 20.040600 -748.826721
45.918499 20.055700 -748.987915
45.770302 20.175900 -749.140625
45.623100 20.301600 -749.292603
54.131599 17.551600 -740.464294
53.977600 17.701799 -740.624023
53.821098 17.806601 -740.784302
53.660000 17.839600 -740.945923
53.500301 17.892599 -741.106873
53.342602 17.974300 -741.267273
53.182701 18.021900 -741.428284
53.023602 18.078400 -741.588989
52.866501 18.162300 -741.748779
52.709900 18.251499 -741.908386
52.552799 18.330900 -742.068115
52.393398 18.377701 -742.228577
52.235100 18.438101 -742.388611
52.075699 18.483400 -742.549072
51.917500 18.543100 -742.708923
51.759399 18.603100 -742.868713
51.601002 18.658300 -743.028503
51.442200 18.706301 -743.188477
51.286098 18.787300 -743.347229
51.127102 18.830999 -743.507324
50.968899 18.884501 -743.666809
50.806499 18.889000 -743.828430
50.643700 18.889299 -743.990173
50.486599 18.953300 -744.149109
50.329899 19.020901 -744.307922
50.172501 19.079599 -744.466919
50.016499 19.153000 -744.625183
49.860001 19.218599 -744.783691
49.704300 19.292999 -744.941711
49.543499 19.312799 -745.102417
49.384300 19.348400 -745.262207
49.228401 19.418100 -745.420227
49.068298 19.444300 -745.580383
48.905602 19.445299 -745.742126
48.742199 19.440500 -745.904175
48.577202 19.420300 -746.067322
48.416100 19.437901 -746.228210
48.253601 19.444000 -746.389771
48.093102 19.467300 -746.550415
47.933498 19.499901 -746.710388
47.773201 19.525801 -746.870911
47.617001 19.588600 -747.028870
47.459599 19.640200 -747.187622
47.301201 19.682699 -747.346924
47.144001 19.735100 -747.505371
46.986301 19.781900 -747.664307
46.830002 19.841400 -747.822327
46.673199 19.895300 -747.980530
46.514900 19.936701 -748.139587
46.358799 19.995600 -748.297424
46.202900 20.056101 -748.455017
46.051300 20.150600 -748.609924
45.895199 20.207199 -748.767578
45.737499 20.251600 -748.926208
45.578899 20.287901 -749.085510
45.428200 20.386200 -749.239624
50.647900 19.035000 -743.823792
45.213501 20.477600 -749.287170
53.878201 17.729200 -740.427673
53.723801 17.871500 -740.587524
53.565498 17.948299 -740.748230
53.407700 18.029200 -740.908630
53.247501 18.071600 -741.069702
53.087502 18.116301 -741.230713
52.929901 18.195700 -741.390808
52.771900 18.266701 -741.551025
52.611500 18.302700 -741.711914
52.452999 18.362900 -741.872192
52.296101 18.444099 -742.031677
52.137100 18.495899 -742.192017
51.979099 18.558901 -742.351807
51.823002 18.644899 -742.510803
51.664600 18.700001 -742.670715
51.506199 18.754400 -742.830505
51.349499 18.829000 -742.989502
51.191898 18.890400 -743.148804
51.033501 18.940201 -743.308472
50.875702 18.997801 -743.467773
50.718498 19.060499 -743.626770
50.451599 19.107100 -743.894104
50.291500 19.134600 -744.054504
50.129902 19.146299 -744.215515
49.974499 19.225300 -744.373474
49.817501 19.286501 -744.532227
49.660801 19.349400 -744.690674
49.502602 19.395300 -744.849976
49.345901 19.456301 -745.008423
49.188599 19.510799 -745.167175
49.029499 19.545700 -745.326782
48.869999 19.576000 -745.486694
48.709000 19.592100 -745.647278
48.547798 19.606400 -745.808228
48.385300 19.607599 -745.969727
48.222301 19.605499 -746.131470
48.060699 19.616100 -746.292725
47.899899 19.635500 -746.453186
47.742298 19.685200 -746.612000
47.583401 19.721201 -746.771606
47.424702 19.759399 -746.931030
47.268101 19.816401 -747.089172
47.108101 19.842400 -747.249329
46.950100 19.886200 -747.408325
46.795799 19.961901 -747.564880
46.637100 19.999001 -747.724182
46.484001 20.082600 -747.880188
46.325600 20.121401 -748.039185
46.168701 20.172400 -748.197388
46.012402 20.227600 -748.355225
45.853001 20.257099 -748.515015
45.699501 20.334299 -748.670898
45.543999 20.394800 -748.828125
45.385101 20.427700 -748.987488
45.020401 20.551300 -749.355286
44.806599 20.746700 -749.485413
45.162899 20.510000 -749.079773
53.589298 17.804800 -740.435486
53.385502 18.038000 -740.647888
53.228500 18.137699 -740.807983
53.070499 18.218100 -740.968323
52.911201 18.274900 -741.128906
52.752602 18.342199 -741.289124
52.594601 18.416201 -741.449219
52.433800 18.446699 -741.609985
52.273102 18.479401 -741.770813
52.114601 18.540800 -741.930786
51.955700 18.596001 -742.090881
51.798199 18.669701 -742.250305
51.642399 18.764299 -742.408997
51.484798 18.832001 -742.568420
51.325298 18.873899 -742.728394
51.166500 18.923700 -742.888123
51.011902 19.025801 -743.046021
50.852100 19.060600 -743.206116
50.696701 19.149599 -743.364075
50.536598 19.178600 -743.524170
50.377499 19.219900 -743.683777
50.218300 19.258801 -743.843506
50.058800 19.294300 -744.003174
49.898499 19.320499 -744.163391
49.738998 19.354200 -744.323181
49.581600 19.411900 -744.481873
49.425201 19.480700 -744.640015
49.267200 19.530001 -744.798889
49.109798 19.584200 -744.957520
48.954102 19.657400 -745.115112
48.794701 19.689100 -745.274719
48.634300 19.711201 -745.434692
48.473598 19.730000 -745.594910
48.314602 19.765600 -745.754272
48.153099 19.776501 -745.914917
47.990398 19.775101 -746.076294
47.828800 19.786501 -746.237122
47.669998 19.823799 -746.396301
47.512901 19.878401 -746.554382
47.354500 19.918600 -746.713379
47.195099 19.950300 -746.872925
47.036301 19.986799 -747.032104
46.879501 20.041800 -747.190125
46.719898 20.070900 -747.349670
46.560101 20.097900 -747.509399
46.405300 20.169901 -747.666077
46.247501 20.213699 -747.824585
46.091099 20.270300 -747.982178
45.934502 20.323900 -748.139893
45.777802 20.376600 -748.297607
45.618099 20.403299 -748.457214
45.465698 20.491100 -748.612183
45.311001 20.557899 -748.768677
44.937199 20.609400 -749.141785
44.775398 20.619499 -749.302673
44.594002 20.713699 -749.486816
45.077599 20.650200 -748.830322
53.242901 18.011700 -740.489075
53.088501 18.156500 -740.648621
52.936600 18.337200 -740.807190
52.780102 18.438000 -740.966797
52.620300 18.483000 -741.127319
52.462200 18.553900 -741.287170
52.300499 18.568199 -741.448120
52.139801 18.597099 -741.608826
51.981098 18.655199 -741.768677
51.823299 18.724600 -741.928223
51.665001 18.784201 -742.087891
51.507301 18.851299 -742.247314
51.349201 18.911600 -742.406677
51.191101 18.970699 -742.565979
51.034401 19.047001 -742.724670
50.877800 19.121700 -742.883423
50.717899 19.153099 -743.043274
50.558300 19.188101 -743.203125
50.403301 19.280300 -743.360779
50.247501 19.359100 -743.518921
