61.368099 41.104301 -756.864685
59.795200 40.716099 -758.179871
59.439701 40.683800 -758.517883
59.040798 40.550800 -758.825989
58.233101 40.382198 -759.523987
57.875702 40.350601 -759.864380
57.501801 40.282700 -760.194885
57.136799 40.236198 -760.532227
56.750801 40.144001 -760.857178
56.139198 39.991600 -761.367493
55.775902 39.844898 -761.629395
55.404099 39.681702 -761.887817
51.751301 38.417702 -764.675476
66.078201 43.806801 -753.655212
65.675499 43.618999 -753.927917
65.277603 43.446602 -754.206909
64.918503 43.254101 -754.431824
63.985199 42.571602 -754.882690
63.617500 42.488098 -755.196106
63.275002 42.469398 -755.531311
61.527100 41.594398 -756.671204
60.861599 41.036598 -756.940613
60.491600 40.964802 -757.264893
60.134102 40.923901 -757.599182
58.558201 40.546001 -758.927917
54.917500 39.570301 -761.922180
54.516800 39.349300 -762.168518
54.177101 39.046700 -762.293030
53.767601 38.812500 -762.538574
53.396702 38.663799 -762.807617
53.040699 38.549099 -763.086182
52.682701 38.431999 -763.365112
52.319000 38.304699 -763.642517
51.956001 38.181099 -763.921692
64.458603 43.132500 -754.540894
62.792801 42.417702 -755.718872
62.404900 42.287201 -756.019470
61.992802 42.099098 -756.302795
59.381401 40.935501 -758.118225
58.988098 40.812901 -758.429871
57.835602 40.632500 -759.474121
57.453499 40.542999 -759.798584
57.068802 40.449501 -760.122803
56.684799 40.359299 -760.448792
56.268299 40.198700 -760.756592
55.672001 39.971500 -761.199219
61.538300 41.705399 -756.209106
61.097301 41.453701 -756.476685
59.678799 41.070599 -757.647217
58.139099 40.771500 -759.002319
55.229000 39.866299 -761.316772
65.778000 44.058601 -753.230225
65.404297 43.943100 -753.528320
65.049004 43.755402 -753.755371
64.685699 43.549198 -753.977478
64.050697 43.136398 -754.327576
63.697800 42.843700 -754.476379
63.339802 42.780899 -754.796692
62.998798 42.761799 -755.131104
60.638699 41.444801 -756.589478
60.276199 41.270802 -756.833984
59.935299 41.265900 -757.178589
58.526798 40.923199 -758.369385
56.242298 40.401100 -760.325073
55.825199 40.240200 -760.634827
54.752602 39.731499 -761.362488
54.391701 39.487499 -761.554688
54.025299 39.341599 -761.823486
53.628502 39.132801 -762.077881
53.251801 39.076698 -762.421875
52.878601 38.923199 -762.692078
52.499298 38.759102 -762.960876
52.149300 38.658798 -763.245972
51.710400 38.375401 -763.489319
64.205399 43.479698 -753.947815
62.499298 42.770500 -755.179688
62.104698 42.620499 -755.474609
61.731400 42.408100 -755.702881
61.423500 42.007301 -755.728821
61.055698 41.814201 -755.965271
59.486801 41.408501 -757.275574
59.095299 41.285301 -757.586792
58.723099 41.209000 -757.911987
58.081600 41.074402 -758.470276
57.727699 41.044399 -758.810181
57.342201 40.943699 -759.131470
56.966400 40.867100 -759.460083
56.548698 40.698399 -759.765320
55.326199 40.168499 -760.632324
54.937698 39.966999 -760.883972
51.740002 38.899101 -763.380981
65.461899 44.286201 -752.783813
65.099503 44.197800 -753.090881
64.689499 43.988499 -753.359680
64.323196 43.773499 -753.579773
63.720299 43.440399 -753.956970
63.402199 43.114799 -754.048279
63.037998 43.034100 -754.362793
62.700600 43.021500 -754.698730
60.550400 41.852100 -756.057312
60.158600 41.720402 -756.363281
59.800800 41.557201 -756.611877
58.222599 41.261398 -758.013000
56.068001 40.688702 -759.804688
55.688499 40.499901 -760.057129
54.427898 39.899502 -760.914795
54.065701 39.759499 -761.184509
53.667400 39.650799 -761.513672
53.311401 39.528198 -761.789795
52.908199 39.413799 -762.119690
52.538502 39.266499 -762.392029
52.185799 39.157200 -762.674072
51.886799 39.274700 -763.064209
62.255501 42.973000 -754.817993
61.865200 42.831001 -755.115723
61.444401 42.382999 -755.225891
61.046200 42.111599 -755.439087
59.353500 41.625198 -756.823181
58.981701 41.545502 -757.146484
58.606800 41.459900 -757.468872
57.768002 41.312401 -758.221680
57.388100 41.221001 -758.544983
56.999901 41.112301 -758.864624
56.612499 41.007801 -759.186218
55.240002 40.459599 -760.198425
54.871700 40.299400 -760.460571
63.840000 43.741100 -753.513184
60.613602 42.097301 -755.642700
56.152802 40.944698 -759.383972
64.480301 44.251400 -753.011719
63.327000 43.465599 -753.634277
62.970501 43.280602 -753.867920
62.634800 43.269100 -754.202820
60.178398 42.030800 -755.837280
59.787701 41.899300 -756.143616
58.155201 41.571899 -757.580383
55.697498 40.846600 -759.579285
54.375702 40.313801 -760.553284
53.994801 40.129398 -760.812073
53.640999 40.006100 -761.086487
53.249901 39.911098 -761.419189
52.867298 39.730598 -761.682373
52.506901 39.599602 -761.958130
52.151299 39.586300 -762.312073
64.033897 44.001900 -753.122070
62.226398 43.239300 -754.434326
59.342800 41.785599 -756.360596
55.274502 40.789600 -759.821411
65.139000 44.430302 -752.289917
64.787598 44.364498 -752.603821
65.602303 44.554001 -752.401611
65.521599 44.938099 -752.127319
61.455200 42.732498 -754.851013
65.076797 44.832001 -752.059814
64.310699 44.396198 -752.562012
63.557400 44.005199 -753.081421
63.215500 43.722500 -753.245789
62.878502 43.455101 -753.415527
62.561901 43.483601 -753.764221
61.746498 43.198299 -754.419678
61.059601 42.536701 -754.686707
60.691799 42.445000 -755.007324
60.320301 42.345699 -755.326782
58.917900 41.939400 -756.510986
58.535301 41.822800 -756.830322
58.199299 41.819199 -757.177490
57.687698 41.741001 -757.656799
57.302399 41.624100 -757.978699
56.919399 41.514999 -758.303284
56.526299 41.384701 -758.624207
56.148399 41.291599 -758.954529
54.790501 40.739300 -759.993713
65.229103 45.196499 -751.623230
64.555397 44.631302 -751.944885
63.848499 44.355000 -752.496887
62.128899 43.641300 -753.811523
61.272800 43.018002 -754.284607
59.835098 42.378101 -755.354492
59.486099 42.220600 -755.612671
59.108398 42.110699 -755.933228
57.781799 42.013599 -757.254211
55.680401 41.369099 -759.014771
55.327801 41.226501 -759.286804
54.972599 41.080101 -759.559082
54.313900 40.801201 -760.058899
53.912300 40.666500 -760.387573
53.498001 40.506500 -760.712524
53.131599 40.347198 -760.987610
52.777401 40.216900 -761.269714
52.414600 40.069901 -761.549500
52.065601 39.742500 -761.692688
58.685902 42.334999 -755.940308
58.354301 42.336102 -756.289490
58.009800 42.307598 -756.632080
57.340302 42.187801 -757.254272
56.978100 42.010399 -757.514709
56.590801 41.888500 -757.838989
56.204899 41.771702 -758.165405
55.858299 41.637600 -758.438599
54.502800 41.190601 -759.559814
51.947601 40.190899 -761.567200
65.509003 45.489799 -750.220520
65.143402 45.368301 -750.524475
64.797401 45.300900 -750.844421
64.423103 45.159801 -751.144226
64.015800 44.934502 -751.421570
63.651699 44.584202 -751.568481
63.309601 44.534801 -751.896484
62.913101 44.346100 -752.187378
62.536701 44.092999 -752.413330
62.147400 43.810101 -752.632629
61.825500 43.819302 -752.979187
61.473598 43.753399 -753.306396
60.993500 43.251801 -753.473022
60.637100 43.063599 -753.721924
60.281799 42.996799 -754.052124
59.914501 42.901901 -754.375916
59.561798 42.729599 -754.631714
59.191101 42.630402 -754.956177
58.822498 42.538399 -755.283203
58.271900 42.577999 -755.892212
57.941601 42.580002 -756.242676
57.584301 42.519402 -756.579102
56.890900 42.341202 -757.190979
56.528999 42.164501 -757.453491
56.122898 41.998501 -757.770020
55.403000 41.775799 -758.379578
55.035900 41.705502 -758.719910
54.687302 41.570599 -758.996826
54.036400 41.302502 -759.502686
53.666302 41.126400 -759.774170
53.309700 40.982201 -760.053223
52.925598 40.886700 -760.394287
52.518299 40.637299 -760.655273
64.291000 45.257000 -750.642822
63.928501 45.146400 -750.953308
63.572201 44.933998 -751.187683
63.158298 44.574402 -751.383179
62.818901 44.530701 -751.714722
62.448601 44.290298 -751.944885
62.114601 44.027000 -752.120972
61.742001 43.904400 -752.434021
61.413101 43.893799 -752.776978
61.038502 43.652901 -753.011414
60.568100 43.292400 -753.266418
60.205799 43.204800 -753.592285
59.838501 43.106400 -753.916382
59.489498 42.940102 -754.174500
59.104198 42.801998 -754.490479
58.765900 42.779598 -754.835388
58.455299 42.824600 -755.196777
57.883099 42.807301 -755.794189
57.489201 42.768002 -756.186707
57.125301 42.689499 -756.520691
56.460400 42.464600 -757.075073
56.056999 42.300999 -757.393005
55.655899 42.145401 -757.713928
54.945999 41.942699 -758.331482
54.205002 41.678398 -758.940125
53.589100 41.379902 -759.392273
52.847301 41.131100 -760.012390
52.626999 41.389099 -760.422913
63.949100 45.203701 -750.335205
63.507000 45.122101 -750.753784
63.102699 44.902901 -751.037598
62.723701 44.514599 -751.178284
62.369801 44.431801 -751.501526
61.650700 44.007401 -751.982483
60.967300 43.799801 -752.573914
60.629902 43.535198 -752.754822
57.986198 43.003201 -755.227783
56.639198 42.818298 -756.547119
55.156300 42.237499 -757.740723
54.452702 42.046001 -758.364685
53.709801 41.774799 -758.976318
53.102200 41.493099 -759.435486
64.002502 45.349098 -749.897522
61.864700 44.304401 -751.490173
61.151402 44.011600 -752.059998
60.168400 43.516499 -752.782227
59.813599 43.441502 -753.114197
59.414600 43.259499 -753.420288
59.064800 43.086498 -753.679626
58.755199 43.127102 -754.042114
58.443199 43.161800 -754.403076
58.122002 43.174702 -754.759094
57.517300 43.069401 -755.340271
57.165901 43.012798 -755.681274
56.807201 42.940701 -756.019409
56.167400 42.763100 -756.588928
55.777901 42.624802 -756.914917
55.386200 42.484100 -757.241516
54.689301 42.298302 -757.867126
53.990398 42.115200 -758.496582
52.633701 41.440601 -759.499512
52.278400 41.189899 -759.711182
63.530201 45.136398 -749.961182
63.205200 45.118801 -750.302673
62.846500 45.013199 -750.620483
62.443199 44.675499 -750.826782
62.068699 44.415901 -751.055481
61.432499 44.077099 -751.514587
60.724701 44.030602 -752.252808
53.233700 41.904999 -758.940796
60.281502 43.775501 -752.382080
57.658401 43.237499 -754.880676
56.332802 42.965401 -756.143188
54.924198 42.525501 -757.380981
54.234299 42.349300 -758.014282
52.334702 41.782902 -759.702026
61.561600 44.271000 -751.108521
59.711800 43.532700 -752.634094
59.345501 43.423801 -752.961914
53.488899 42.155800 -758.529419
52.775101 41.937099 -759.163574
63.512299 45.202801 -749.351013
63.149700 45.079399 -749.667175
62.821400 45.048698 -750.009583
62.478401 44.980099 -750.342102
62.022900 44.617500 -750.595886
60.979801 44.156502 -751.432495
60.675999 44.197498 -751.797302
58.906502 43.437099 -753.231384
58.587601 43.446400 -753.590881
58.254700 43.421501 -753.942383
57.936199 43.432499 -754.302673
57.213200 43.360100 -755.053406
56.855701 43.279800 -755.393921
56.500000 43.205502 -755.736389
55.836601 42.956001 -756.298584
55.450802 42.816601 -756.629517
55.057999 42.663399 -756.958618
54.440201 42.534199 -757.553528
60.282501 44.055901 -752.005127
53.780499 42.422501 -758.126709
52.164902 41.504799 -760.123230
63.869801 45.553699 -748.790283
63.424400 45.296902 -748.768616
63.068901 45.047199 -749.022888
62.744499 45.018002 -749.387207
62.432400 45.024300 -749.760620
62.072800 44.897099 -750.101318
61.596600 44.446301 -750.364380
61.257401 44.256599 -750.639404
59.784199 43.824001 -752.094116
64.294502 45.155602 -747.172607
64.043404 45.328602 -747.584229
64.174797 45.975800 -747.858093
63.861099 45.968700 -748.224426
60.790401 44.132500 -750.638428
60.509701 44.231602 -751.036072
60.180199 44.196899 -751.402771
59.347698 43.664700 -752.034424
59.035000 43.680801 -752.414917
58.752701 43.777100 -752.812683
58.434601 43.778801 -753.190002
58.097198 43.730400 -753.556885
57.762501 43.689999 -753.926086
57.439400 43.680698 -754.302002
57.108200 43.651402 -754.674194
56.769600 43.604099 -755.043274
56.052898 43.414200 -755.765015
54.627602 42.850498 -757.077026
53.986698 42.643600 -757.697693
53.003399 42.182701 -758.554871
63.324200 45.678001 -748.191223
62.989399 45.472500 -748.451599
62.660599 45.170300 -748.640991
62.274799 44.963902 -748.961121
61.948002 44.927101 -749.323486
61.602100 44.837601 -749.673584
61.271900 44.543301 -749.869812
60.892899 44.241600 -750.119019
59.692501 44.049400 -751.412292
56.339100 43.722301 -755.163818
55.604801 43.487598 -755.877380
55.227001 43.347301 -756.231689
54.860001 43.235802 -756.592285
54.199402 42.973499 -757.200623
53.505501 42.639000 -757.800720
53.146099 42.445801 -758.098206
59.049500 43.892399 -751.659729
58.753502 43.947399 -752.046997
58.459202 44.006401 -752.434875
58.152699 44.033199 -752.815979
57.843201 44.052399 -753.195618
57.492100 43.964001 -753.553894
57.164200 43.937199 -753.924988
56.834801 43.907200 -754.296021
56.487099 43.831902 -754.658813
55.851200 43.720699 -755.339783
54.385799 43.264500 -756.777283
53.756500 42.965401 -757.326721
62.904202 45.910999 -747.875977
62.562901 45.565701 -748.055176
62.203602 45.299000 -748.307495
61.876900 45.001801 -748.500977
61.541698 44.683800 -748.690796
61.195999 44.590801 -749.041016
60.874298 44.565899 -749.407471
60.532001 44.237000 -749.598572
60.169701 44.103901 -749.942200
59.870800 44.146198 -750.325684
59.495399 43.980801 -750.663696
59.160000 43.925800 -751.026672
56.016399 43.970100 -754.796570
55.370399 43.829102 -755.472473
55.017399 43.742699 -755.835815
54.645302 43.611000 -756.192078
53.933800 43.323799 -756.849976
53.289799 42.876701 -757.322510
62.253300 45.518902 -747.711487
61.775101 45.273499 -748.120911
61.450500 44.982101 -748.316895
61.150299 44.636799 -748.448425
60.411301 44.316799 -749.119690
60.064999 44.100800 -749.391113
59.741402 44.073200 -749.758911
59.408600 44.021000 -750.121582
59.049000 44.019100 -750.549072
58.737801 44.147400 -751.004272
58.453400 44.226002 -751.395081
58.176399 44.323700 -751.789612
57.870899 44.345699 -752.168274
57.552200 44.333401 -752.540283
57.218601 44.283401 -752.905273
56.903000 44.280701 -753.279785
56.583199 44.268002 -753.652771
56.233101 44.178902 -754.012024
55.916698 44.176701 -754.387817
55.564899 44.086300 -754.748108
54.933498 43.977699 -755.429871
54.552299 43.820099 -755.781128
54.163399 43.646301 -756.130920
53.460999 43.379299 -756.793274
61.789501 45.228298 -747.444702
61.416100 45.166199 -747.849670
60.760300 44.442501 -748.159180
60.412300 44.341099 -748.508179
60.034801 44.159599 -748.840088
59.633598 44.039101 -749.239990
59.277302 44.043301 -749.668030
58.973900 44.191101 -750.126587
58.720100 44.350399 -750.533630
57.172699 44.629902 -752.562805
55.093498 44.250099 -754.795715
54.531601 44.309601 -755.505127
58.912300 44.366600 -749.677124
58.330799 44.598999 -750.523376
58.051998 44.685799 -750.913086
57.764801 44.750099 -751.298218
57.458900 44.764702 -751.673279
57.143501 44.755199 -752.043884
56.690701 44.736801 -752.572876
56.411201 44.820499 -752.961487
56.069500 44.518398 -753.172913
55.739101 44.474701 -753.539185
55.326900 44.676899 -754.163513
59.645699 44.061798 -747.887695
59.252201 44.080700 -748.371216
59.000900 44.245701 -748.779602
58.710300 44.326000 -749.179871
58.340801 45.099098 -750.125671
58.024101 45.079899 -750.492371
57.722900 45.102100 -750.867676
57.413300 45.102600 -751.238770
57.126301 45.162498 -751.621521
56.846901 45.241699 -752.007629
56.533100 45.232101 -752.377075
56.195000 45.160900 -752.735718
59.903099 44.079800 -747.005127
59.579601 44.042599 -747.369385
59.143902 44.064301 -747.906616
59.036999 44.503399 -748.320313
58.514599 44.766701 -749.118530
58.273300 44.949699 -749.527100
57.347599 44.953201 -750.640686
56.548801 44.945599 -751.594788
56.225498 44.910999 -751.960388
55.898800 44.868698 -752.325195
60.096600 44.426800 -746.582275
59.733002 44.113300 -746.534119
58.996700 44.389702 -747.603821
58.223701 45.627102 -749.340088
57.899300 45.574200 -749.698425
57.560501 45.483799 -750.049927
57.227200 45.409901 -750.405273
56.882301 45.306702 -750.755920
56.565800 45.279598 -751.121399
56.151798 45.227699 -751.588806
55.794201 45.096901 -751.936829
59.355000 44.069000 -746.813171
58.796200 44.705799 -747.904724
58.599201 45.003899 -748.336914
58.637798 45.468498 -748.590210
60.183899 44.797100 -745.860718
59.906502 44.855999 -746.243530
59.467999 44.573799 -746.607727
59.125500 44.448200 -746.952881
58.197201 45.426102 -748.735474
55.349098 45.095600 -752.065674
55.139599 45.327900 -752.475586
60.086800 45.239101 -745.981812
59.812401 45.299099 -746.363708
58.785999 44.661201 -747.237976
57.863701 45.627701 -749.013184
57.479599 45.730099 -749.559509
57.108601 45.638901 -749.965088
56.783901 45.560299 -750.320923
56.459900 45.485100 -750.677979
56.115200 45.356701 -751.026672
59.346699 45.009899 -746.496826
59.041100 44.977402 -746.861023
58.460201 44.881802 -747.531311
58.324501 45.209900 -747.913574
55.699100 45.393299 -751.339600
60.299198 45.766701 -745.333008
60.081600 45.979198 -745.746826
59.799999 46.004200 -746.120483
59.458599 45.737999 -746.382019
59.050201 45.402100 -746.683716
58.767399 45.427898 -747.059387
57.914101 45.374298 -748.108521
57.670601 45.509499 -748.505127
57.386200 45.645100 -748.953979
57.004299 45.740898 -749.500916
55.275101 45.475399 -751.525391
54.965801 45.433998 -751.891479
54.615398 45.287201 -752.241577
60.105499 46.565399 -745.595581
59.418900 46.267700 -746.281372
58.408001 45.738602 -747.232117
58.014801 45.447399 -747.546570
56.540798 45.841202 -749.689575
56.257500 45.859699 -750.064270
55.939201 45.784901 -750.423279
55.627399 45.728600 -750.785889
54.150398 45.244701 -752.362976
53.805599 45.111599 -752.718018
59.693802 46.667000 -745.804016
58.980900 46.262299 -746.460022
58.648300 46.131802 -746.804016
57.588402 45.462799 -747.735413
57.313801 45.502701 -748.115479
57.069500 45.625900 -748.510925
56.838902 45.785599 -748.912415
55.206299 45.724098 -750.978271
54.901100 45.682899 -751.345093
54.548500 45.518799 -751.693115
53.381199 45.081799 -752.914001
52.807598 45.215099 -753.740784
58.250301 46.162399 -747.101318
57.883900 45.934101 -747.428772
56.482700 45.903500 -749.231628
59.899200 46.845001 -745.211914
59.220600 46.628201 -745.960022
55.816898 46.052502 -750.048401
55.514999 46.006401 -750.414185
54.115200 45.435799 -751.876587
52.960201 45.105701 -753.175476
58.947399 46.848499 -746.307617
58.397701 46.536999 -746.829224
56.095699 45.958199 -749.491577
53.701500 45.314602 -752.233093
52.408199 44.936401 -753.693787
57.429401 45.906898 -747.623474
59.478802 46.932800 -745.403809
59.220600 47.099701 -745.862976
56.861099 45.667198 -748.099487
57.956200 46.524399 -747.088318
56.599602 45.805698 -748.458618
58.319302 46.743301 -746.422302
57.513599 46.367199 -747.324829
57.033699 46.068802 -747.811218
56.336201 46.024101 -748.785583
55.081299 46.014900 -750.587830
54.779900 45.915199 -750.953674
57.926102 46.838501 -746.671997
55.956799 46.111698 -749.041809
55.662899 46.129799 -749.483704
55.373901 46.161900 -749.928101
54.349998 45.820801 -751.185730
53.225201 45.219299 -752.409607
52.919601 45.006802 -752.707886
52.560200 44.856800 -753.128296
57.595001 46.817600 -747.000488
56.564499 46.070702 -748.000488
51.914700 44.897400 -753.227722
51.773800 45.065399 -753.682312
51.924099 45.257401 -752.214417
51.699100 45.121101 -752.607788
51.453300 44.911400 -752.986877
51.209000 44.708698 -753.368713
52.262402 46.073502 -750.936707
52.022900 45.874298 -751.314209
51.778801 45.659698 -751.689392
51.502800 45.427601 -752.122314
51.259300 45.219101 -752.501221
50.986599 45.002701 -752.940125
50.751202 44.826698 -753.327881
50.500000 44.596298 -753.705872
51.303699 45.669800 -751.744873
50.794201 45.257198 -752.564270
50.032398 44.614300 -753.767273
51.537102 46.162899 -750.808472
51.296501 45.952301 -751.184387
50.865200 45.621700 -751.898315
50.352501 45.192402 -752.716187
50.121498 45.024502 -753.106079
49.602501 44.583900 -753.929016
51.623798 46.256500 -750.130005
50.906200 45.822498 -751.423523
50.485001 45.524601 -752.146179
49.731300 44.883999 -753.348206
49.205700 44.415600 -754.168030
51.164001 46.222801 -750.320313
50.957699 46.130402 -750.723022
50.441399 45.754101 -751.608826
50.014702 45.426498 -752.326904
49.776402 45.221100 -752.708923
49.274200 44.817200 -753.538513
51.194901 46.312199 -749.857422
50.590698 45.986301 -750.995483
50.071602 45.596401 -751.880615
49.420200 45.110298 -752.993591
48.916801 44.698700 -753.823730
48.688599 44.533798 -754.218079
51.266499 46.592999 -749.490723
50.706902 46.182098 -750.259521
50.201099 45.912300 -751.231323
49.551399 45.392300 -752.334290
48.291000 44.344501 -754.441528
51.592300 46.999100 -748.763916
48.984600 45.055199 -753.157593
49.897400 46.032001 -750.819519
49.685001 45.945202 -751.288025
49.478500 45.786098 -751.679382
48.551800 44.952900 -753.333374
48.325001 44.720699 -753.714111
49.080002 45.663101 -752.084717
48.837502 45.453602 -752.527588
47.907501 44.510300 -754.105713
47.762699 44.598900 -754.553406
47.718102 44.890499 -754.917908
47.601601 45.048599 -755.352722
48.437000 45.293999 -752.722412
47.429798 44.477299 -754.196472
47.224602 44.398300 -754.672424
47.958500 45.296001 -752.947510
47.625000 45.119499 -753.215576
46.944099 44.907398 -754.852722
47.014400 44.660900 -753.907288
46.793201 44.408298 -754.285278
47.344101 45.449902 -752.785278
46.364601 44.306099 -754.447388
47.256802 45.675499 -752.340576
46.896702 45.301399 -752.994324
45.984299 44.432301 -754.718201
46.516102 45.088699 -753.286682
46.301701 44.902199 -753.708923
46.056999 44.586800 -754.103027
46.776501 45.593201 -752.489014
46.390598 45.432999 -752.765625
45.570999 44.526600 -754.230713
45.374901 44.366199 -754.629272
46.017300 45.291302 -753.044128
45.691101 45.059700 -753.353088
45.080898 44.526100 -754.299316
44.898201 44.517101 -754.791382
44.611000 44.168999 -754.598022
45.000000 44.900299 -753.583374
44.790901 44.681599 -753.973022
43.333199 44.585499 -754.039429
42.348301 45.802799 -751.504089
42.114601 45.530102 -751.831726
43.318298 46.434799 -750.123413
42.960602 46.136700 -750.696106
42.698101 45.873299 -751.086670
41.983898 45.306702 -752.249207
41.785599 45.352798 -752.706970
41.383801 45.145500 -753.434998
41.768600 45.110901 -753.109619
41.402500 44.677101 -753.602417
44.358700 46.753799 -749.298279
44.126701 46.502499 -749.622314
43.890900 46.383499 -750.040222
43.658001 46.279800 -750.461914
43.408699 46.098400 -750.867371
43.155300 45.899399 -751.270325
42.909901 45.740700 -751.682373
42.661598 45.570099 -752.093079
42.405102 45.363701 -752.497620
42.312000 45.208401 -752.955383
41.960602 44.861000 -753.462219
41.573399 44.496899 -754.032715
45.132599 47.225601 -748.817505
44.897701 46.826401 -749.041870
44.814999 46.718899 -749.496582
44.563099 46.554901 -749.900818
44.303101 46.354599 -750.298279
44.060101 46.237202 -750.714111
43.801998 46.050400 -751.116089
43.547600 45.882702 -751.523193
43.248501 45.655499 -751.982483
42.936901 45.374802 -752.432983
41.994801 44.666000 -753.883972
45.702702 47.157101 -748.398315
45.462799 46.902199 -748.716675
42.832500 45.194801 -752.893127
42.563000 44.979198 -753.295227
45.459301 46.888500 -749.177307
42.491798 44.756500 -753.716187
42.122601 44.537102 -754.309814
46.274200 47.347900 -748.304504
45.925400 47.037998 -748.796204
45.405800 46.675999 -749.591125
45.132301 46.433399 -749.977112
44.888802 46.335499 -750.394226
44.620998 46.124802 -750.788879
44.368000 45.985802 -751.199219
44.103699 45.796799 -751.600525
43.832500 45.579201 -751.997314
43.578800 45.442902 -752.410828
43.338001 45.223499 -752.746826
48.001400 49.077999 -746.437317
47.743099 48.888302 -746.822693
43.257999 45.030201 -753.163818
42.996601 44.873798 -753.575928
42.621201 44.645199 -754.165405
46.869400 47.472801 -747.986511
46.375099 47.099701 -748.709778
46.035999 46.861698 -749.217224
48.449501 49.211102 -746.232727
47.732800 48.508701 -747.171570
45.623798 46.439899 -749.933777
46.718700 47.265701 -748.416992
45.374001 46.310200 -750.385620
45.109798 46.147999 -750.788330
44.842098 45.972698 -751.189270
44.568298 45.772800 -751.586914
44.300598 45.602402 -751.991028
45.876202 46.614601 -749.575073
48.850899 49.316502 -745.946106
48.296001 48.999599 -746.785583
44.102798 45.400299 -752.394226
43.821701 45.199299 -752.794800
47.325802 47.383099 -748.003174
46.581001 46.858700 -749.062622
43.739101 45.104599 -753.255676
43.491199 44.912201 -753.597412
48.963600 49.148499 -746.388306
48.402901 48.670898 -747.132080
48.159599 48.299400 -747.354919
47.196201 47.208199 -748.468506
46.472000 46.644402 -749.461182
46.154400 46.419601 -749.910217
45.910301 46.376499 -750.333984
45.585999 46.127602 -750.780823
45.311798 45.955299 -751.181519
45.032001 45.761002 -751.579285
49.387798 49.219200 -745.921570
48.788300 48.883999 -746.817078
47.830799 47.500301 -747.734009
47.018299 46.996700 -748.918091
44.875900 45.567101 -751.978271
44.600300 45.402199 -752.383484
44.319698 45.218601 -752.786621
43.255402 44.557999 -754.513916
48.291599 47.899200 -747.615417
47.769501 47.359001 -748.234070
46.953098 46.733200 -749.333313
44.248600 45.090900 -753.233582
43.952301 44.860699 -753.630798
49.857300 49.218399 -745.812195
49.493500 49.089298 -746.388916
48.899399 48.507599 -747.108093
48.605000 48.235500 -747.474426
46.709099 46.416199 -749.791626
46.377399 46.313301 -750.326294
46.088200 46.097099 -750.716675
45.777500 45.940800 -751.181519
49.298000 48.874001 -746.767029
47.662102 47.122501 -748.644226
45.558899 45.733898 -751.575684
43.820499 44.699402 -754.066711
43.732399 45.189499 -754.518616
48.308701 47.536800 -747.900513
47.555599 46.852501 -749.095276
45.422298 45.547100 -752.040222
45.144001 45.418999 -752.449524
44.863602 45.284599 -752.858582
50.515701 49.066799 -745.791016
50.261398 49.016602 -746.201416
49.988499 48.878399 -746.591980
49.723701 48.615898 -746.895325
49.451000 48.320400 -747.192627
49.189201 48.079201 -747.503174
48.915199 47.785400 -747.803711
48.464500 47.331299 -748.315491
48.182098 47.168598 -748.708130
47.523998 46.593700 -749.507385
47.231899 46.397701 -749.897217
46.965500 46.316399 -750.310181
46.708099 46.122398 -750.640930
46.424400 45.970001 -751.041870
46.138199 45.809601 -751.442383
44.302200 44.705502 -753.967590
43.935699 44.386101 -754.413025
48.101601 46.892101 -749.115784
46.067200 45.639999 -751.875977
45.710999 45.496700 -752.403992
45.422901 45.341999 -752.807983
48.945000 47.459999 -748.179810
45.189602 45.165798 -753.249207
51.804699 49.046398 -744.327209
51.064999 49.006802 -745.802002
50.788799 48.881401 -746.193481
50.500999 48.703602 -746.573975
50.208000 48.504200 -746.950684
49.935501 48.238800 -747.254272
49.646599 47.902500 -747.544189
49.385700 47.696701 -747.863098
48.728199 47.171200 -748.662781
48.030300 46.645000 -749.530090
47.747700 46.363098 -749.841125
47.426800 46.230701 -750.303589
46.893600 45.970901 -751.049316
52.195099 49.480801 -744.665894
48.680599 46.915298 -749.042786
47.344700 46.031799 -750.759705
46.806999 45.772598 -751.506592
46.531898 45.694901 -751.920715
46.241901 45.557999 -752.325317
51.490700 48.852501 -746.046326
51.205101 48.698601 -746.431213
50.942101 48.484798 -746.743774
50.678299 48.270000 -747.057373
50.393002 47.960899 -747.352417
50.128502 47.749599 -747.669128
49.826401 47.535702 -748.046570
49.526600 47.335201 -748.428223
49.255600 47.104401 -748.744507
48.681099 46.670101 -749.446716
48.390999 46.523899 -749.843384
48.098701 46.215099 -750.150085
47.823700 46.138100 -750.561584
47.310299 45.834702 -751.238098
45.436699 44.826401 -753.763794
44.867298 45.344501 -755.007019
52.908001 49.981499 -744.824280
49.169498 46.832901 -749.184021
47.743301 45.930801 -751.019287
47.265202 45.785301 -751.724670
52.121300 48.846298 -745.779114
50.855000 47.889599 -747.309082
53.268101 50.226898 -745.026001
53.092800 50.423100 -745.424377
51.997700 48.706402 -746.229797
51.696701 48.500000 -746.603088
51.391201 48.276699 -746.973999
50.716202 47.719799 -747.757324
50.403301 47.475800 -748.128418
50.128101 47.239601 -748.442383
49.818199 47.015900 -748.820374
49.163300 46.588100 -749.644714
48.895199 46.395000 -749.971924
48.610901 46.137299 -750.288574
48.330101 46.051899 -750.697998
47.768799 45.885700 -751.519287
51.330200 47.847900 -747.273315
49.757900 46.797001 -749.229187
48.247299 45.929600 -751.189819
47.679401 45.748001 -752.009216
53.949100 50.238499 -744.853271
53.716999 50.300400 -745.265076
53.445202 50.047699 -745.562012
52.754002 48.743500 -745.940491
52.479500 48.623798 -746.317627
52.204498 48.375702 -746.622375
51.934399 48.153198 -746.933777
51.267899 47.648701 -747.727905
50.966202 47.460300 -748.109985
50.691502 47.231098 -748.425171
50.385899 47.032299 -748.807617
49.689301 46.597099 -749.689880
49.408901 46.357899 -750.008484
49.130199 46.129002 -750.330383
48.846500 46.037102 -750.738281
48.205799 45.863499 -751.678772
53.379601 49.691299 -745.855225
51.833401 47.837200 -747.305298
50.262600 46.808498 -749.264771
48.764999 46.008400 -751.235779
47.928200 45.655499 -752.390686
47.143200 45.081299 -753.335876
53.278198 49.254299 -746.038208
54.281700 50.345100 -745.161926
52.926201 48.503399 -746.297180
54.064800 50.103100 -745.543884
53.237999 48.768398 -746.086670
52.661999 48.234501 -746.688721
52.387600 48.031399 -747.004578
51.789799 47.587799 -747.692017
51.481800 47.412800 -748.076416
51.162899 47.195599 -748.454102
50.890598 47.016399 -748.780212
50.174099 46.589699 -749.663513
48.298901 45.715401 -752.112305
54.730598 50.177200 -744.842773
53.957500 49.678200 -745.769775
50.749298 46.854599 -749.191895
49.996201 46.297699 -750.054871
49.723099 46.131001 -750.387817
49.433601 46.054001 -750.796875
48.804798 45.861301 -751.671082
53.756802 49.234100 -746.036499
52.322701 47.649502 -747.375183
54.537701 50.100300 -745.459106
53.424198 48.460098 -746.396484
53.130798 48.191101 -746.697021
52.838799 47.931599 -747.000916
50.661900 46.621201 -749.615173
47.408298 44.824799 -753.613525
53.730801 48.772900 -746.249817
52.225399 47.470200 -747.826721
51.917999 47.322601 -748.214783
54.364899 49.446800 -745.831787
51.263599 46.855301 -749.109375
46.560101 44.760700 -755.102722
52.814999 47.641899 -747.367310
50.261799 46.073898 -750.357178
54.181599 49.042198 -746.135986
45.716599 44.852001 -754.757080
55.129398 49.924599 -744.932617
55.004700 49.917000 -745.406799
54.703098 49.743698 -745.709473
55.422501 49.609200 -745.120178
53.613400 48.174099 -746.713013
54.136700 48.558102 -746.360718
53.368099 47.976799 -747.049072
55.291801 49.573002 -745.609924
54.963100 49.312599 -745.896912
54.689899 48.934502 -746.052673
52.738701 47.399700 -747.762024
55.815601 49.213501 -745.057800
54.088699 48.220901 -746.752380
53.359699 47.645100 -747.387695
52.542400 47.253799 -748.229797
52.238201 47.120300 -748.549316
55.735901 49.333599 -745.539612
54.788601 48.554699 -746.348511
53.906601 47.890499 -747.132629
53.204899 47.263100 -747.706177
52.075199 46.887299 -748.952209
51.747799 46.677200 -749.262024
55.586201 49.021400 -745.905273
55.243999 48.718201 -746.185486
54.634399 48.243000 -746.717712
53.064701 47.195000 -748.176880
48.071602 44.946201 -753.368713
56.425098 48.672199 -745.082825
56.240299 48.942101 -745.452515
55.196400 48.315601 -746.455322
54.588402 47.857899 -746.992371
54.121201 47.606701 -747.455872
53.773300 47.307800 -747.744629
52.964001 46.965099 -748.594177
52.653400 46.815102 -748.910889
52.245899 46.643200 -749.338928
51.905102 46.391899 -749.642822
56.180500 48.636002 -745.829102
55.842602 48.526001 -746.199219
55.165798 47.968700 -746.771423
53.707298 47.019100 -748.130676
56.825699 48.361401 -745.317993
55.800598 48.138802 -746.493530
55.090401 47.636101 -747.133484
54.775600 47.459099 -747.440186
54.461601 47.288502 -747.749023
53.623199 46.844002 -748.579102
53.260399 46.670799 -748.947815
52.901501 46.515099 -749.320374
52.575802 46.319302 -749.631287
52.254799 46.305000 -750.027100
56.731300 48.365101 -745.823730
56.423901 48.205700 -746.128723
55.723999 47.738701 -746.771484
54.340401 46.916599 -748.092590
52.157700 46.220501 -750.475708
57.297699 48.241901 -745.419495
56.325001 47.883099 -746.454895
55.593899 47.480900 -747.167297
55.245098 47.349701 -747.537292
54.901402 47.240799 -747.911926
54.224800 46.734600 -748.504822
53.833801 46.627102 -748.939209
53.503700 46.414501 -749.245422
53.110901 46.306999 -749.682129
52.787701 46.288502 -750.076111
57.175400 48.082901 -745.842712
56.832600 47.966099 -746.211121
56.188099 47.549198 -746.806702
54.810699 46.766300 -748.132813
52.665199 46.230099 -750.535889
55.966301 47.189499 -747.235229
55.430199 47.041801 -747.826721
54.662201 46.542099 -748.532104
54.321499 46.459400 -748.913574
53.972500 46.348801 -749.291382
53.655300 46.355900 -749.687927
53.261799 46.253101 -750.124817
57.763802 48.255901 -745.775513
56.963402 47.578800 -746.430786
58.107601 48.594101 -745.703491
57.561901 47.848999 -746.009827
56.714001 47.361801 -746.813171
55.301201 46.658298 -748.204773
53.161201 46.206299 -750.612488
52.844501 46.062500 -750.931274
58.468800 48.455101 -745.361511
56.489899 47.011398 -747.080017
56.019199 46.956699 -747.629517
52.600899 45.885300 -751.291077
55.117298 46.374199 -748.565430
54.795799 46.207802 -748.876221
54.444000 46.272099 -749.335999
54.128700 46.300400 -749.733887
53.808800 46.312500 -750.129517
52.337299 45.698700 -751.624329
57.545101 47.460400 -746.297424
55.833199 46.700298 -748.004578
58.254398 48.306900 -746.072327
57.306400 47.268101 -746.716797
56.968601 47.026299 -747.008301
56.447300 46.792702 -747.525513
55.583302 46.321899 -748.342102
53.674198 46.134800 -750.557678
58.943501 48.349800 -745.410889
58.681301 48.464699 -745.781921
58.063900 47.819401 -746.215576
53.421700 46.017200 -750.941772
53.087101 45.809502 -751.309570
56.888500 46.599400 -747.293823
56.351601 46.503899 -747.890320
55.484100 46.049999 -748.710815
55.027500 46.091400 -749.276917
54.674999 46.171101 -749.736572
54.351101 46.184601 -750.130493
52.811298 45.558498 -751.672913
52.476700 45.381302 -751.988281
58.990601 47.848900 -745.713989
58.778900 48.108898 -746.090820
58.331299 47.424000 -746.298279
56.113400 46.039600 -748.284729
54.187099 46.023701 -750.576172
54.817799 46.117298 -750.183289
53.871201 45.757500 -751.140930
53.543201 45.598801 -751.456482
52.585602 45.230301 -752.422974
52.271000 45.128101 -752.749512
59.073601 47.512299 -746.048523
53.331699 45.438999 -751.901123
54.180801 45.436798 -752.785400
60.685600 44.738098 -746.625916
60.191002 44.524899 -747.078796
57.713100 44.628300 -750.319519
60.962799 44.886200 -747.108704
60.632000 44.539398 -747.316406
60.278999 44.312199 -747.601624
58.419998 44.444000 -749.694702
60.901199 44.883499 -747.580872
60.182400 44.226200 -748.055908
59.830200 44.036201 -748.345276
55.020000 44.870499 -754.457092
55.648800 44.314499 -753.970520
60.348099 44.184700 -750.394714
59.926201 44.165100 -750.807983
64.666100 46.038799 -748.066284
64.297997 45.915401 -748.378174
52.884701 42.762299 -758.317810
64.889702 45.391800 -749.565979
64.540100 45.495499 -749.925476
54.096500 43.795799 -756.562073
54.585400 44.062099 -755.116882
64.461502 45.000000 -751.591675
64.070702 44.557400 -751.853394
63.365601 44.383202 -752.328430
66.226196 45.516499 -750.671692
65.835403 45.497898 -750.958618
65.423302 45.379501 -751.226807
63.041401 44.163502 -752.592773
62.570999 43.822800 -752.827698
61.352699 43.509300 -753.723389
64.852203 45.220699 -751.315430
62.268002 43.712799 -753.172119
60.797501 42.905102 -754.196472
65.746597 45.230900 -751.839111
61.745300 43.438801 -754.002808
60.570801 42.756100 -754.578125
60.131599 42.639000 -754.846008
66.259598 45.263599 -752.112305
66.005898 44.846901 -752.385193
66.483200 44.875900 -752.564880
66.091599 44.457901 -752.681274
52.184601 40.441799 -760.979980
66.796303 44.610901 -752.827209
66.481796 44.272701 -752.919189
66.352303 43.998901 -753.268372
68.655296 45.480301 -752.384216
68.318298 45.693501 -752.705078
67.782600 45.139400 -752.867676
67.468498 44.798500 -752.956787
66.878899 44.275299 -753.169495
51.718800 39.404701 -762.142212
66.897903 43.874599 -753.440613
51.753700 39.759800 -762.477722
67.745499 43.684200 -753.808411
67.553398 43.316399 -754.094299
68.273102 43.488800 -753.988281
68.065697 43.214401 -754.339478
67.653000 42.964100 -754.523193
68.576797 43.258801 -754.282227
68.193398 42.918701 -754.669983
67.925102 42.661400 -755.007874
68.912300 43.020199 -754.657288
68.611198 42.752102 -754.917786
68.371597 42.480598 -755.211121
69.382202 42.808899 -754.906311
68.105103 42.313900 -755.588379
69.065804 42.551601 -755.245789
68.728401 42.295101 -755.548218
69.594803 42.520699 -755.202698
68.561699 41.932098 -755.807678
69.441399 42.310001 -755.594971
51.928501 36.926300 -765.701721
69.899803 42.278400 -755.499695
69.182800 41.932899 -755.859802
68.967903 41.559799 -756.133423
69.443497 41.530998 -756.104370
69.641800 40.969799 -756.328796
62.729401 37.960999 -760.445923
62.310299 37.889400 -760.722107
61.903500 37.890701 -761.022217
69.837502 40.627300 -756.683411
52.232601 34.184601 -768.191284
52.678501 32.365299 -769.614075
55.257599 31.708300 -769.947083
53.731899 29.993200 -771.374817
61.306599 44.920502 -746.802979
61.700901 44.791199 -747.114807
66.350098 45.648998 -751.162903
66.775101 45.647499 -751.477600
67.151100 45.686798 -751.750000
67.545403 45.789501 -752.026611
67.953598 45.741600 -752.335571
66.111603 45.485600 -751.651917
66.705597 45.435799 -752.097778
60.707001 44.583801 -748.839294
59.545200 44.035400 -748.730896
69.668297 40.246101 -757.901794
70.511299 37.953800 -759.465271
58.565102 44.552101 -750.125977
58.125500 44.686001 -750.018799
51.449902 49.155800 -745.517273
69.891197 38.304298 -759.763123
61.944401 41.327499 -757.450928
62.103699 41.235699 -757.985596
62.424301 40.980499 -758.445679
47.443501 47.758301 -747.734680
62.423000 39.903801 -758.817810
62.963402 40.191502 -759.145996
63.178398 39.880798 -759.606506
65.960999 37.103600 -761.828186
66.944901 36.058102 -762.621582
64.096901 38.501499 -760.672791
65.314499 37.411499 -761.628479
63.261501 39.784100 -760.211487
64.300598 38.299198 -761.096130
62.338100 37.526199 -761.075928
52.924500 42.846802 -757.600830
46.271900 45.643200 -753.496887
52.562698 42.156101 -758.802673
44.704800 45.226799 -753.320923
60.724899 31.945999 -767.970520
51.522598 38.993900 -762.794983
60.270500 31.761900 -768.233887
59.774399 31.432400 -768.477417
60.162800 31.245701 -768.710815
55.949200 36.062199 -766.535889
58.305698 33.470299 -768.009277
59.292400 31.258101 -768.677124
59.662498 30.998100 -768.901917
58.967899 31.076700 -768.966187
59.320099 30.745701 -769.182312
51.849300 36.936901 -765.211426
58.499001 30.832399 -769.246826
58.874001 30.576200 -769.470703
59.220299 30.335199 -769.677673
57.115799 32.463799 -768.963379
58.071499 30.602100 -769.577026
58.349602 30.259800 -769.747620
58.829102 30.369301 -770.014221
57.678902 30.476299 -769.861023
57.948002 30.098101 -770.026123
58.233700 29.774300 -770.198486
57.273899 30.144899 -770.053894
57.632801 29.809700 -770.265503
52.155800 34.616402 -767.427979
57.186699 29.725700 -770.366028
57.554199 29.410801 -770.579285
56.651901 29.943800 -770.415771
56.229500 29.647200 -770.601074
56.521702 29.325399 -770.768616
56.898499 29.027700 -770.981628
55.847500 29.444799 -770.776123
56.416401 29.004101 -771.093872
54.245201 31.927900 -770.162903
55.797901 29.067600 -771.054688
56.011902 28.715401 -771.385925
55.239300 29.113600 -771.126099
55.521599 28.764500 -771.350586
52.441200 32.597198 -769.149780
56.986401 29.406000 -770.722473
57.369701 29.215700 -770.985718
54.818298 28.962700 -771.444092
55.476398 28.520399 -771.755615
55.740601 28.155199 -771.875793
54.859600 28.680201 -771.807007
54.228699 28.820299 -771.791626
54.857101 28.276300 -772.083313
54.443699 28.433599 -771.937073
53.414700 29.861000 -771.005981
56.483700 28.705999 -771.488770
51.789398 36.262299 -766.069580
60.519001 32.014500 -768.543701
51.594898 38.320400 -764.230774
55.065601 38.814098 -763.511902
51.906200 40.560699 -761.921570
55.292000 39.340000 -763.497681
61.780998 33.659599 -766.300415
52.115398 41.510799 -760.820618
52.406700 41.015202 -760.208923
45.976299 45.306099 -753.645203
53.724400 43.434799 -757.386475
54.382099 44.335300 -756.433472
62.440102 40.494099 -758.364319
49.222301 45.981499 -751.348328
47.082001 47.885899 -748.057983
69.709099 41.872101 -755.629272
59.216000 44.260201 -749.221619
69.324898 42.950600 -754.439026
69.747704 42.669102 -754.657410
69.000702 43.172699 -754.124023
68.123398 43.713100 -753.446289
68.719299 43.428600 -753.763489
66.870003 45.148102 -752.469971
58.810200 47.301201 -746.384277
63.977901 45.427399 -749.257874
64.392197 45.374199 -749.490417
62.146198 44.940498 -747.305786
61.359798 44.999699 -747.417114
65.273399 45.382000 -749.823425
66.769402 45.511002 -750.971130
67.972099 45.707600 -751.849792
64.694397 45.325699 -750.377380
67.366798 43.351398 -751.336182
52.411900 33.446800 -768.043030
51.963200 35.219700 -766.514526
52.051998 35.785099 -765.961426
62.227001 33.994301 -765.723511
51.548901 38.406300 -763.014526
62.755299 36.419399 -763.157410
60.541199 37.106899 -763.496521
62.662800 36.695900 -762.679077
62.970100 36.698898 -762.213013
61.064301 37.562401 -762.248474
52.102798 39.725399 -761.206177
59.341702 38.578201 -763.008789
62.092602 37.707100 -761.924988
62.072899 37.557999 -761.482483
59.617802 38.818100 -762.605225
51.902199 37.337299 -763.990723
58.482498 35.847599 -765.875183
52.329201 33.119400 -768.696289
52.944199 31.802799 -769.242126
53.888500 29.157400 -771.246521
56.186699 28.279900 -771.685303
55.244999 28.047199 -771.884521
54.701599 28.109699 -771.615723
53.750801 29.544201 -771.014282
53.466099 30.241800 -770.504822
53.231201 30.859600 -769.976013
62.342499 35.721500 -764.003418
52.784599 41.158501 -758.992676
56.791500 54.061699 -721.838684
56.654400 54.254601 -722.288330
56.301399 53.930801 -722.879272
56.077801 53.694698 -723.232422
57.282398 54.167801 -721.891113
57.120499 54.271198 -722.331787
56.899300 54.046902 -722.682678
56.526299 53.764000 -723.340027
56.283600 53.567299 -723.758911
56.233002 53.355499 -724.240479
57.640999 54.235298 -722.206421
57.363800 54.015701 -722.679688
57.114201 53.799801 -723.093628
56.775799 53.563301 -723.693420
56.738499 53.290100 -724.114197
56.516998 53.320301 -724.627930
63.940601 51.955898 -724.872009
63.648102 51.800999 -725.283630
63.359299 51.660702 -725.697388
63.060398 51.490898 -726.111328
62.771599 51.355598 -726.528076
62.504398 51.180199 -726.884216
62.226898 50.865799 -727.176392
61.985699 50.885300 -727.602295
61.740398 50.892502 -728.028198
61.459202 50.791401 -728.451904
61.167702 50.660900 -728.876221
60.889599 50.465900 -729.239624
60.617199 50.397499 -729.667480
60.357899 50.263401 -730.034180
64.353401 51.665199 -724.996399
64.102898 51.661400 -725.415588
63.819099 51.443298 -725.765808
63.534000 51.334900 -726.182312
63.242001 51.207600 -726.599304
62.965000 51.018501 -726.955078
62.700001 50.868599 -727.313477
62.415901 50.663200 -727.671570
62.186401 50.733700 -728.098694
61.913601 50.674500 -728.523071
61.634602 50.598499 -728.948181
61.365002 50.444500 -729.312012
61.100899 50.309101 -729.677429
60.809601 50.202702 -730.105408
60.528301 50.182999 -730.567078
60.898399 50.087700 -732.081421
61.675900 49.885101 -731.104126
61.457100 50.010201 -731.532898
66.019203 51.538601 -725.503479
65.734299 51.453201 -725.918030
65.448700 51.144199 -726.205811
65.157700 50.822201 -726.495117
64.889702 50.573002 -726.788391
64.615097 50.528999 -727.209595
64.351196 50.407600 -727.569275
64.061096 50.210701 -727.928528
63.748100 49.949501 -728.288086
63.475300 49.918499 -728.713928
63.245602 50.013599 -729.141602
62.981400 50.009201 -729.568481
62.716599 50.003799 -729.995789
62.431400 49.834000 -730.362488
62.165901 49.829201 -730.791382
61.494598 50.104099 -732.039429
61.234501 50.116600 -732.469177
62.152199 49.819500 -731.305725
61.946999 49.934399 -731.704224
61.212799 50.039299 -732.955078
66.340698 51.318802 -725.782471
66.068298 51.276199 -726.199402
65.777603 50.956200 -726.488403
65.483597 50.630001 -726.779114
65.191704 50.313499 -727.071899
64.916801 50.273201 -727.494324
64.639801 50.117401 -727.854370
64.336899 49.998100 -728.277222
64.025101 49.635899 -728.576294
63.768101 49.655201 -729.003723
63.547501 49.780201 -729.432312
63.291801 49.804100 -729.859985
63.034302 49.823200 -730.288086
62.766602 49.599701 -730.594727
61.931599 50.012901 -732.182617
61.675800 50.057598 -732.622498
62.664001 49.617500 -731.085083
62.482601 49.714901 -731.612915
61.645199 49.920101 -733.076172
66.532402 50.963200 -726.075317
65.078201 49.958199 -727.799072
64.159302 49.322800 -728.888000
66.459999 50.903702 -726.540588
66.185501 50.661400 -726.834473
65.894897 50.375599 -727.129028
65.580399 50.134998 -727.486389
64.942802 49.748600 -728.268616
64.671402 49.638699 -728.632507
64.108200 49.367599 -729.363220
63.874802 49.476700 -729.791321
63.626202 49.543301 -730.219177
63.347900 49.528999 -730.647888
63.075699 49.383801 -730.993103
62.475899 49.753601 -732.143677
62.220798 49.843800 -732.595093
63.069801 49.563301 -731.460999
62.095699 49.751999 -733.090210
61.813400 49.672199 -733.486389
65.649803 49.818001 -727.868713
65.374199 49.590199 -728.169128
64.744698 49.251999 -728.957825
64.446701 48.969898 -729.262573
62.962399 49.608299 -731.930176
66.773598 50.408798 -726.713013
66.490196 50.375500 -727.132385
66.124702 50.000198 -727.487000
65.195503 49.370098 -728.570007
64.328598 49.045399 -729.728088
64.130699 49.260700 -730.155212
63.863899 49.288200 -730.583008
63.572201 49.195599 -730.982117
62.736000 49.586800 -732.494629
63.498299 49.368801 -731.410828
62.558800 49.602600 -732.986694
62.367699 49.445702 -733.402527
66.911903 50.067699 -727.077698
66.613197 50.003399 -727.496704
66.292999 49.770802 -727.854614
66.006401 49.634800 -728.215088
65.681801 49.396099 -728.576172
65.312798 49.038700 -728.938904
65.016502 48.884399 -729.304016
64.727501 48.643200 -729.609680
64.472504 48.930302 -730.157776
63.458302 49.336601 -731.927917
63.184601 49.348099 -732.350891
62.192101 49.284199 -733.826111
64.353500 48.946800 -730.650024
64.071404 48.922901 -731.063171
63.908901 49.157001 -731.438599
63.066299 49.334000 -732.810425
62.851601 49.264301 -733.258972
62.537399 49.045601 -733.609375
67.021500 49.672600 -727.286377
66.849998 49.726299 -727.780029
66.460297 49.484100 -728.195190
64.742104 48.540600 -730.092773
66.201401 49.359901 -728.583374
65.859100 49.140099 -728.942322
65.599403 48.926800 -729.301086
65.332199 48.570099 -729.480225
65.096001 48.297401 -729.790894
64.630096 48.556198 -730.576416
63.874298 49.070999 -731.901917
63.586800 49.106998 -732.319885
64.468803 48.655102 -731.078125
67.059700 49.322899 -728.222412
66.756798 49.112099 -728.515381
66.455704 48.908001 -728.809814
66.123901 48.852299 -729.223206
65.087799 48.172901 -730.247925
64.430199 48.915501 -731.516724
63.499001 49.014999 -732.811707
62.951302 48.839401 -733.450073
64.931999 48.249100 -730.746216
64.026398 48.788200 -732.235474
65.578400 48.135502 -729.979919
63.390499 48.792000 -733.229980
66.045700 48.561100 -729.640320
64.412201 48.816399 -731.967285
64.913399 48.475498 -731.173096
63.905701 48.803200 -732.718506
65.453598 47.794899 -730.288391
64.747398 48.537701 -731.601685
65.273903 47.734501 -730.713379
66.220497 48.233501 -729.936584
65.270699 48.085800 -731.096313
64.660400 48.369202 -732.037476
64.367996 48.451099 -732.460571
63.904499 48.551800 -733.116028
63.538101 48.462299 -733.546387
68.296501 49.224800 -727.934998
68.018700 49.315601 -728.342224
67.702400 49.087399 -728.634399
67.370300 48.822800 -728.928284
67.072998 48.535599 -729.165405
66.782799 48.268299 -729.403625
66.029999 47.898201 -730.188599
65.106796 48.185699 -731.534485
65.834099 47.530602 -730.447388
65.604202 47.406601 -730.870972
64.998100 48.018002 -731.966125
64.398499 48.376499 -732.922913
65.582199 47.711300 -731.235901
64.831902 48.253101 -732.476685
64.083702 48.324501 -733.473816
66.497299 47.541500 -730.250488
65.475998 47.851700 -731.714294
66.391197 47.154900 -730.533997
66.038399 46.931099 -730.869385
65.855202 47.179199 -731.229309
65.338303 47.822399 -732.215576
64.903000 48.135899 -732.930115
64.596603 48.165501 -733.335571
64.521400 48.217400 -733.795715
65.528397 47.664001 -732.610229
65.292603 47.851799 -733.004395
65.053596 48.016800 -733.391113
