70.084602 29.071899 -753.971680
69.793198 29.012899 -754.192017
69.527199 29.004000 -754.430603
69.243103 28.960600 -754.657104
68.943802 28.787100 -754.789673
68.675400 28.775900 -755.028381
68.448700 28.844700 -755.295227
68.172798 28.819599 -755.529419
67.881500 28.765800 -755.754028
67.601898 28.734800 -755.986694
67.314003 28.689100 -756.214722
67.026901 28.645201 -756.443787
66.746803 28.615499 -756.677917
66.483498 28.617300 -756.922791
66.198601 28.579399 -757.154785
71.542000 29.525200 -752.716370
65.832802 28.573200 -757.175781
70.939102 29.381399 -753.016174
70.649101 29.325701 -753.236023
70.348503 29.250099 -753.448914
70.057503 29.194099 -753.669373
69.745796 29.098600 -753.876099
69.450699 29.036600 -754.095276
69.192902 29.047600 -754.340698
68.929298 28.946199 -754.498413
68.606201 28.833000 -754.700806
68.380501 28.906799 -754.968872
68.114601 28.904200 -755.210388
67.832298 28.870701 -755.441589
67.544701 28.827900 -755.669800
67.255997 28.783899 -755.898010
66.972198 28.749701 -756.129883
66.677002 28.695000 -756.355225
66.420303 28.712200 -756.604797
66.137001 28.680700 -756.838379
71.856903 29.341999 -752.098816
71.714897 29.522100 -752.377502
71.229202 29.493401 -752.797485
71.421600 29.647200 -752.418396
68.296303 28.919701 -754.658997
65.822899 28.794701 -756.804321
65.508598 28.664301 -756.982483
71.585503 29.585400 -751.867981
71.071297 29.669201 -752.403687
70.784401 29.623400 -752.626282
70.482697 29.549101 -752.838684
70.165901 29.446600 -753.041382
69.853798 29.354300 -753.248413
69.553398 29.285999 -753.464600
69.256897 29.226200 -753.684204
68.973999 29.193501 -753.913818
68.681198 29.142401 -754.137329
68.383400 28.981100 -754.274292
67.987602 29.040300 -754.682312
67.724800 29.048401 -754.927429
67.444397 29.023600 -755.161377
67.161499 28.995001 -755.394470
66.889999 28.987801 -755.635010
66.596199 28.940201 -755.862183
66.316902 28.919800 -756.098816
66.041397 28.907000 -756.338196
71.283302 29.603100 -751.737122
71.132896 29.743799 -751.989685
70.763100 29.743900 -752.324890
70.472504 29.692200 -752.545471
70.178200 29.634300 -752.764099
69.835403 29.482700 -752.949280
69.519096 29.384300 -753.154419
69.222504 29.325100 -753.374084
68.934998 29.284401 -753.600891
68.640800 29.231400 -753.823608
68.056503 29.034599 -754.190125
67.680603 29.133200 -754.612183
67.395500 29.100500 -754.843506
67.123199 29.092501 -755.083618
66.843803 29.071501 -755.319397
66.562302 29.047501 -755.554504
66.285004 29.031601 -755.792603
66.015404 29.030300 -756.035828
65.733902 29.007900 -756.272217
65.430801 28.946699 -756.496216
70.944099 29.648899 -751.611084
70.828300 29.839399 -751.873779
70.502800 29.823900 -752.155579
70.205002 29.759300 -752.371582
69.886597 29.655701 -752.573914
69.558998 29.535400 -752.770630
69.245399 29.443701 -752.978394
68.905998 29.406000 -753.254272
68.612602 29.355301 -753.477783
68.322899 29.312300 -753.704285
68.023399 29.150200 -753.840881
67.763199 29.164801 -754.088623
67.515800 29.203699 -754.344727
67.082397 29.195900 -754.730530
66.804100 29.177700 -754.967285
66.522102 29.153200 -755.202209
66.249802 29.147301 -755.443726
65.985603 29.156500 -755.690491
65.719803 29.163099 -755.936523
65.393799 29.060801 -756.146729
65.110397 28.938900 -756.302185
70.647797 29.774300 -751.587280
68.897102 29.475000 -752.921509
67.183701 29.274000 -754.303589
70.396599 29.925200 -751.729492
70.125999 29.915899 -751.965881
69.828201 29.853800 -752.182983
69.506599 29.746401 -752.384094
69.242599 29.648399 -752.541016
68.571899 29.490000 -753.014709
68.271500 29.427999 -753.234314
67.945999 29.319599 -753.437988
67.668800 29.201900 -753.590515
67.437302 29.272699 -753.858093
66.862297 29.305401 -754.403870
66.575203 29.272800 -754.635925
66.301201 29.265100 -754.876770
66.042603 29.286100 -755.127502
65.789597 29.317699 -755.381897
65.503502 29.288900 -755.616089
65.167297 29.169901 -755.820801
70.331299 29.836500 -751.371216
68.905701 29.672199 -752.512085
67.146500 29.406000 -753.867615
69.937401 29.811600 -751.140381
69.828796 30.019600 -751.409424
69.583298 30.064699 -751.665771
69.271004 29.980301 -751.875122
68.953598 29.887400 -752.081726
68.632202 29.787800 -752.286621
68.316002 29.699600 -752.496094
67.995796 29.605000 -752.703918
67.677002 29.514200 -752.913574
67.393600 29.389200 -753.063477
67.112999 29.372400 -753.300171
66.900398 29.483101 -753.581482
66.635399 29.495899 -753.828796
66.359001 29.487600 -754.068909
66.088097 29.490200 -754.312988
65.832802 29.521700 -754.567017
65.570099 29.539700 -754.816589
65.277397 29.503500 -755.048096
68.928703 30.098700 -751.524109
68.600601 29.987499 -751.724609
68.280403 29.892700 -751.931580
67.955101 29.789600 -752.136414
67.638603 29.704300 -752.348022
67.316101 29.608900 -752.556580
67.031700 29.484100 -752.706909
66.751602 29.470301 -752.945313
66.542702 29.589399 -753.230103
66.287399 29.621799 -753.484680
66.014702 29.622400 -753.728271
65.751198 29.640200 -753.978088
65.464996 29.616800 -754.213989
65.165298 29.569599 -754.442078
68.590897 30.096300 -751.018982
68.358498 30.170200 -751.287720
68.056396 30.111401 -751.508179
67.773300 29.986401 -751.656799
67.503197 29.887300 -751.815308
67.237701 29.797701 -751.977722
66.908997 29.693001 -752.183777
66.630997 29.582300 -752.339600
66.378304 29.621099 -752.597229
66.139603 29.685900 -752.863770
65.890999 29.732300 -753.124023
65.617302 29.732800 -753.368530
65.337700 29.722799 -753.609375
68.102898 30.128901 -750.760681
67.865097 30.194099 -751.027222
67.558998 30.129801 -751.246826
67.282303 30.019100 -751.401489
67.016899 29.930799 -751.564819
66.690102 29.830999 -751.773071
66.395103 29.689501 -751.918518
66.098801 29.648701 -752.148926
65.893402 29.776300 -752.438416
65.649597 29.832600 -752.702820
65.383301 29.847700 -752.952881
65.070801 29.779100 -753.174622
67.522499 30.086800 -750.714417
67.277901 30.140600 -750.977722
66.967796 30.071501 -751.196777
66.692596 29.966101 -751.354614
66.422997 29.872299 -751.517029
66.111504 29.701799 -751.652771
65.855301 29.736500 -751.910400
65.643303 29.852400 -752.196411
65.385101 29.883400 -752.452698
65.126503 29.913601 -752.708679
64.799400 29.719601 -752.838928
65.775299 29.719801 -751.587280
65.055901 29.920300 -752.394714
67.023598 30.081900 -750.675293
66.755997 30.095600 -750.924622
66.440598 30.020800 -751.142578
66.121201 29.837299 -751.273682
65.509598 29.830299 -751.811523
65.278900 29.914400 -752.086426
65.779099 29.731701 -751.255798
64.784698 29.843201 -752.227417
66.691902 30.089399 -750.512878
66.422401 30.102301 -750.761475
66.135597 29.981100 -750.914185
65.456703 29.752899 -751.324280
65.245102 29.874201 -751.611572
65.007202 29.946800 -751.882019
66.377403 30.037100 -750.356812
65.819603 29.927200 -750.758911
65.539299 29.820101 -750.917725
65.144096 29.808599 -751.257813
64.926399 29.918301 -751.541626
64.651001 29.923100 -751.789185
65.819397 29.958799 -750.326721
65.520203 29.884800 -750.530029
65.211304 29.827999 -750.756104
64.942200 29.844299 -751.008118
64.701202 29.911699 -751.277588
65.883598 29.929501 -749.827576
65.651604 29.951900 -750.051880
64.457298 29.903999 -751.069824
64.964401 29.657600 -753.494507
65.083702 29.613501 -753.789185
66.210800 29.630400 -753.171814
65.117104 29.559700 -754.120789
65.043404 29.473301 -754.782288
65.190697 29.358299 -755.331970
68.323601 29.583300 -752.826782
68.014603 29.479799 -753.043884
67.640297 29.350201 -753.304321
67.339600 29.268801 -753.527405
66.867203 29.392401 -754.031311
66.537697 29.366400 -754.314270
66.275101 29.371599 -754.555603
69.887802 29.976801 -751.744080
69.554001 29.928400 -752.017517
69.231201 29.786900 -752.224182
65.268303 28.919399 -756.813599
66.286201 28.142099 -758.237671
74.826599 28.664301 -755.348511
71.655602 23.547400 -763.326599
73.035698 22.700001 -764.404480
77.626503 19.469900 -766.576416
78.015297 19.311001 -766.617126
78.369003 19.270700 -766.628479
78.014503 19.552999 -766.376282
78.707199 18.986500 -766.731079
78.439102 19.447300 -766.359497
78.176598 19.773800 -766.178711
78.721199 19.251200 -766.514526
79.035103 19.267599 -766.622314
78.552696 19.734501 -766.164185
78.904099 19.447701 -766.321472
73.996201 23.995100 -762.766785
74.570801 24.225599 -762.452820
74.875298 24.386101 -762.338989
76.061798 24.957199 -761.641724
76.338303 25.112499 -761.535583
71.345299 27.473801 -757.671875
71.654099 27.474600 -757.394714
72.537201 27.823900 -756.829224
65.110397 29.697001 -750.478210
81.153000 24.509800 -762.460876
67.830002 29.970100 -750.667603
69.287102 30.046801 -751.437622
68.961899 30.092300 -751.172974
69.406601 29.952499 -751.131226
69.152100 29.927799 -750.933594
73.348999 28.060101 -756.263672
82.884102 22.352600 -764.882080
82.606400 22.841600 -764.611084
82.901901 22.174801 -765.254272
82.657501 22.575100 -765.022522
66.137901 29.958599 -750.575012
82.891403 21.765900 -765.454285
82.382698 22.738701 -764.964722
82.594597 21.997999 -765.447510
82.422302 22.224701 -765.288513
82.250000 22.448601 -765.129700
82.031197 22.708700 -764.929382
82.727600 21.515100 -765.864075
82.554398 21.743401 -765.704712
82.090500 22.156300 -765.289673
81.919502 22.386900 -765.132019
83.575798 20.571699 -766.796326
83.313202 20.639200 -766.572205
83.052002 20.714399 -766.348816
82.722900 21.001101 -766.055725
82.241302 21.878099 -765.599121
71.487900 28.206100 -756.225708
81.596199 22.411501 -765.104980
81.744400 22.189600 -765.313477
83.780701 20.360399 -767.121277
82.575401 21.285200 -766.080322
82.351501 21.548901 -765.882080
81.934601 21.946899 -765.517822
68.370003 29.098600 -753.972595
82.778297 20.906000 -766.403687
84.027397 19.998600 -767.642883
83.853996 20.259300 -767.487976
83.519402 20.544600 -767.200195
83.269096 20.687000 -766.988525
83.013298 20.800200 -766.773682
82.520103 21.117901 -766.354675
81.999298 21.567499 -765.906494
81.618301 21.877001 -765.579590
81.393303 22.129700 -765.382874
84.157700 19.842600 -767.905212
82.213799 21.298500 -766.246826
64.087196 29.716299 -751.042419
82.666397 20.873699 -766.705383
81.646004 21.614700 -765.838013
83.538498 20.336100 -767.509094
81.314903 21.761900 -765.632324
81.047798 22.083599 -765.399414
84.200798 19.551701 -768.190125
83.746399 20.110201 -767.794373
83.244301 20.401300 -767.373230
82.993599 20.546801 -767.162781
82.350601 20.965700 -766.621094
81.869499 21.348101 -766.212402
82.657402 20.607000 -767.002014
82.032303 21.116400 -766.471375
83.961098 19.793200 -768.176575
83.403702 20.096500 -767.711914
81.530800 21.370001 -766.137573
81.279800 21.509100 -765.928223
80.988701 21.723101 -765.682678
82.379303 20.715599 -766.846313
80.778099 21.921101 -765.499817
64.829201 30.010300 -752.619995
71.089798 27.451700 -757.893677
82.057404 20.805500 -766.685120
75.782097 24.843500 -761.813171
84.292900 19.278500 -768.527588
83.658699 19.895800 -768.030884
83.074997 20.143299 -767.582886
82.816498 20.292500 -767.383484
81.740601 20.954700 -766.551880
80.972397 21.414700 -765.958496
83.998100 19.496799 -768.487305
83.320900 19.872000 -767.966675
82.480202 20.284700 -767.321777
82.218903 20.419800 -767.121277
81.958397 20.558399 -766.921204
81.404297 20.956400 -766.492615
81.153000 21.136999 -766.298279
80.647400 21.477699 -765.907776
80.403397 21.688400 -765.718079
84.443199 18.748600 -769.063721
84.252701 18.978300 -768.914185
84.069099 19.244801 -768.768677
83.661003 19.532900 -768.454102
83.389801 19.619699 -768.247986
83.008904 19.734400 -767.958679
82.743599 19.854401 -767.756104
82.484497 20.006901 -767.557190
82.169098 20.164700 -767.315918
81.901398 20.269600 -767.111877
81.635201 20.382000 -766.908813
81.384804 20.575701 -766.715271
81.132004 20.754299 -766.520386
80.883400 20.952499 -766.328125
80.629997 21.124599 -766.132874
80.333603 21.366400 -765.903503
65.930702 29.425600 -754.859497
84.514198 18.456200 -769.346924
83.717300 19.174000 -768.729187
83.402298 19.343201 -768.488281
83.126701 19.409300 -768.279907
82.697197 19.580000 -767.953125
82.431702 19.702900 -767.750671
82.167297 19.830700 -767.548889
81.902298 19.954700 -767.346802
81.637001 20.075899 -767.144409
81.075699 20.456200 -766.713013
80.574997 20.842100 -766.326782
80.321800 21.017401 -766.132019
80.018097 21.226700 -765.898499
84.168297 18.579700 -769.344421
83.917503 18.797199 -769.150574
83.655800 18.947701 -768.950623
83.393501 19.093700 -768.750183
83.119904 19.174700 -768.543213
82.795303 19.293501 -768.296997
82.365196 19.466200 -767.970276
82.102097 19.604300 -767.769470
81.825798 19.671801 -767.560913
81.563904 19.815701 -767.360901
81.293297 19.912901 -767.155701
81.037498 20.086700 -766.959412
80.784599 20.272900 -766.764893
80.523102 20.414200 -766.565308
80.279404 20.642401 -766.376526
80.027603 20.828400 -766.182800
79.749100 20.882500 -765.972900
65.595100 29.430700 -755.141418
83.326500 18.862900 -768.970215
82.836304 19.027800 -768.599487
82.504898 19.112801 -768.349670
82.228699 19.184299 -768.141479
81.953499 19.261801 -767.933899
81.680000 19.348900 -767.727173
81.395699 19.379000 -767.514221
81.115898 19.434401 -767.303711
80.845398 19.538799 -767.098816
80.590897 19.724600 -766.903625
80.328300 19.867300 -766.703430
80.055397 19.957800 -766.497070
79.765999 19.966700 -766.280823
79.489403 20.040400 -766.072327
79.314400 20.323200 -765.933472
82.981102 18.765499 -768.920715
82.542198 18.899500 -768.589783
81.428596 19.150900 -767.752808
81.143700 19.181999 -767.539673
80.858704 19.213800 -767.326416
80.580902 19.284300 -767.117371
80.315804 19.419901 -766.916016
80.043999 19.520599 -766.710388
79.759201 19.557100 -766.497314
79.496002 19.700899 -766.296997
79.147797 19.998899 -766.029114
82.690498 18.615101 -768.876099
82.202103 18.802200 -768.507507
81.925201 18.874901 -768.299377
81.632301 18.862301 -768.081970
79.790901 19.299299 -766.699829
79.171700 19.711800 -766.227600
78.824501 20.015400 -765.960815
81.308701 18.726700 -768.006287
81.028900 18.790199 -767.796814
80.753403 18.877399 -767.589783
80.470200 18.927099 -767.378113
79.480499 19.251699 -766.634094
81.654701 18.675501 -768.370605
79.277100 18.993200 -766.715515
67.321098 27.251301 -759.568726
67.885002 27.542101 -758.994507
69.285698 27.767300 -757.942017
69.884201 27.926701 -757.506592
76.228401 28.259001 -756.255798
75.880302 28.395901 -756.223022
72.621597 28.419001 -755.726013
64.964996 29.539600 -755.135925
65.416801 29.796000 -753.924622
66.600304 29.649000 -753.546082
73.482697 29.101500 -753.698120
66.893799 29.622000 -753.248779
67.183998 29.624701 -753.006897
66.530800 29.729799 -752.942688
66.775597 29.670601 -752.646484
66.376602 29.820101 -752.318481
65.623199 30.040600 -751.554871
65.570999 30.017099 -751.168396
65.197098 30.102200 -751.128784
65.314400 30.065201 -750.359375
64.923798 30.132601 -750.867676
65.470596 30.141300 -750.760376
66.113701 29.932400 -751.895874
67.282402 29.806900 -752.297424
68.690498 29.709801 -752.763977
73.915901 29.001699 -753.747620
65.767502 29.828199 -753.701172
65.468597 29.693300 -754.545410
74.944099 28.846701 -754.999023
70.346199 28.041599 -757.062927
66.258904 28.405600 -757.808716
69.575897 27.857401 -757.740479
74.804298 31.195200 -740.176086
74.593201 31.261101 -740.416077
75.534798 31.190100 -739.323486
75.275200 31.239300 -739.591675
75.016296 31.266300 -739.840576
80.097504 24.638700 -729.633789
79.906303 24.881500 -730.003723
79.729301 25.013399 -730.268372
79.472603 25.087500 -730.554382
79.299103 25.225500 -730.821106
80.192101 24.737499 -729.336792
79.009102 25.367701 -730.894104
79.906502 24.955099 -729.428589
79.752998 25.148100 -729.723572
79.562897 25.247200 -729.971802
79.318703 25.353300 -730.272888
79.124603 25.440399 -730.514587
78.794899 25.615200 -730.947388
78.634903 25.783300 -731.227173
74.808502 31.441000 -739.291321
74.546799 31.463600 -739.537720
74.281799 31.479200 -739.781128
74.008102 31.476299 -740.016602
80.245598 24.850201 -728.776123
80.014397 24.939501 -729.051514
78.359596 25.956900 -731.339600
75.399902 31.337400 -738.415283
75.163803 31.416700 -738.686584
74.912102 31.462000 -738.942871
73.696503 31.543699 -740.066101
78.899002 25.670000 -730.488708
79.702301 25.205799 -729.330627
79.510300 25.301201 -729.576721
79.321297 25.403099 -729.825684
79.094902 25.553400 -730.147705
78.696503 25.841999 -730.734314
78.078003 26.125099 -731.506775
74.605499 31.555000 -739.060425
74.359100 31.611099 -739.320618
74.088600 31.615499 -739.558472
78.450897 26.042101 -730.980713
73.787399 31.645500 -739.708313
73.375099 31.679899 -740.093811
80.225601 24.742001 -728.112671
80.049500 24.882799 -728.382996
79.857697 24.982000 -728.632019
79.694199 25.152000 -728.915771
78.862503 25.799400 -730.177673
78.193199 26.258400 -731.141174
77.980202 26.432100 -731.470886
77.800301 26.546900 -731.722717
75.252899 31.415300 -738.005615
75.022903 31.508600 -738.282593
74.770500 31.552700 -738.537781
73.474701 31.698299 -739.780518
80.535698 24.389799 -727.261597
80.401299 24.642200 -727.589478
79.420898 25.378599 -729.054382
79.246498 25.517700 -729.321716
79.065300 25.638399 -729.579590
78.896500 25.788700 -729.851501
78.580704 25.997999 -730.299988
78.405098 26.127701 -730.560486
77.529999 26.765301 -731.851624
74.470596 31.667999 -738.607727
74.233902 31.745199 -738.877014
73.972000 31.768299 -739.122681
73.699303 31.768600 -739.358704
73.163498 31.789801 -739.839478
80.740898 24.407900 -726.846619
80.140297 24.803400 -727.697571
79.969398 24.958000 -727.974976
79.783997 25.073900 -728.232483
79.601700 25.196501 -728.492981
78.173103 26.344400 -730.691223
77.998001 26.472799 -730.950195
77.851601 26.668501 -731.241089
77.666199 26.769501 -731.486023
77.235100 26.959900 -732.018372
80.837601 24.318100 -726.476624
80.436401 24.483500 -726.962280
80.263702 24.636700 -727.240173
79.357903 25.417601 -728.678772
79.152298 25.622601 -729.028625
78.778603 25.834400 -729.529480
78.608803 25.980700 -729.799072
78.364403 26.222401 -730.213379
77.389503 27.027500 -731.731995
75.366699 31.266500 -737.040771
75.294701 31.504601 -737.302979
75.027702 31.518200 -737.545227
74.753799 31.517000 -737.780823
74.542603 31.650499 -738.075500
74.178497 31.806000 -738.520691
73.928802 31.855101 -738.777710
73.665901 31.876200 -739.022522
73.409897 31.911800 -739.273621
73.139503 31.917101 -739.511719
72.852600 31.888399 -739.735474
71.907097 32.411301 -740.991577
71.654800 32.452000 -741.243896
80.971802 23.986500 -725.890320
80.946198 24.225700 -726.113525
78.920403 25.836800 -729.218079
76.950798 27.137501 -732.013428
71.996002 32.325600 -740.655579
81.212502 23.873699 -725.388000
80.536003 24.420401 -726.432983
80.014999 24.870899 -727.262573
79.850601 25.041401 -727.548279
79.692200 25.225500 -727.840088
79.502403 25.328501 -728.090881
79.315697 25.438000 -728.344482
79.101601 25.621700 -728.684204
78.356598 26.187000 -729.804199
78.117203 26.438000 -730.222412
77.950996 26.587500 -730.491821
77.796204 26.762899 -730.773315
77.622101 26.890400 -731.031128
77.458801 27.042299 -731.300171
76.730797 27.330099 -732.171875
76.845200 30.501101 -734.740601
76.649803 30.607100 -734.998779
76.397400 30.658300 -735.260071
76.170197 30.765301 -735.546692
75.936996 30.858000 -735.826416
75.700600 30.942600 -736.101990
75.453697 31.003401 -736.366577
75.225899 31.105499 -736.649475
75.042099 31.421400 -737.074280
74.708199 31.527399 -737.452209
74.216599 31.761900 -738.074585
72.488701 31.917700 -739.700317
71.306602 32.510201 -741.220886
81.449303 23.500999 -724.650208
81.278702 23.670799 -724.940796
80.948898 24.034700 -725.532593
80.322098 24.674500 -726.613525
80.147598 24.822001 -726.888672
78.873100 25.822100 -728.833374
78.591904 25.976900 -729.206970
78.435303 26.154200 -729.491821
77.175903 27.231100 -731.488220
76.431297 27.406401 -732.279907
74.408501 31.638201 -737.592896
73.951698 31.944201 -738.245789
73.691597 31.970699 -738.493103
73.442299 32.019600 -738.750000
73.165398 32.010601 -738.981995
72.893303 32.011902 -739.218506
71.997200 32.384800 -740.307678
71.698402 32.467800 -740.636230
71.461700 32.539501 -740.901428
70.987503 32.571701 -741.338684
81.706902 23.421700 -724.088623
81.014801 23.918501 -725.105713
80.700600 24.318800 -725.714722
80.545700 24.521500 -726.019470
80.364403 24.653601 -726.287476
79.792397 25.116899 -727.172607
79.628502 25.287001 -727.457703
79.457802 25.438200 -727.732727
79.283997 25.580099 -728.002625
79.111801 25.724501 -728.273071
78.135803 26.422701 -729.705627
77.908897 26.701500 -730.136719
77.738998 26.840300 -730.400574
77.570396 26.981199 -730.664978
77.409798 27.139500 -730.937317
76.915398 27.443501 -731.620972
76.669800 27.530399 -731.906677
76.114799 27.619400 -732.461609
76.417503 30.662800 -734.764282
76.146400 30.795300 -735.110291
75.899902 30.858299 -735.376587
75.684303 30.989500 -735.673523
75.445702 31.068600 -735.946472
75.188698 31.106400 -736.200684
74.964104 31.214899 -736.486328
74.742798 31.329399 -736.774170
74.602798 31.500200 -737.039185
74.133598 31.783300 -737.683594
72.546204 32.116901 -739.337402
72.203400 32.155399 -739.666321
81.889198 22.965700 -723.282471
81.820297 23.258801 -723.589172
81.442596 23.664801 -724.257813
81.251801 23.780800 -724.520386
81.066704 23.910601 -724.789795
80.810997 24.160400 -725.221313
80.112000 24.911800 -726.458679
79.939102 25.062201 -726.734924
78.852402 25.951599 -728.423584
78.683197 26.100201 -728.695129
78.500900 26.215099 -728.949524
78.329399 26.355400 -729.216003
77.146004 27.340500 -731.068787
76.402100 27.717800 -732.029724
74.298698 31.580299 -737.103516
74.143799 31.716999 -737.352722
73.861198 31.929501 -737.775879
73.653198 32.066601 -738.071228
73.411400 32.131401 -738.334778
73.159698 32.175098 -738.589111
72.875900 32.152000 -738.814697
71.763802 32.443600 -740.021423
71.568604 32.599998 -740.321899
71.326401 32.660801 -740.582275
71.063904 32.680500 -740.825684
70.773201 32.644100 -741.046204
82.165802 22.977501 -722.907227
81.567497 23.416201 -723.792603
80.486198 24.577000 -725.702881
77.876297 26.692301 -729.735474
76.931503 27.554100 -731.276184
75.850899 27.838800 -732.447571
76.035400 30.749300 -734.741272
75.819801 30.882500 -735.039490
75.613602 31.035200 -735.345886
75.396896 31.163099 -735.640503
75.133003 31.186300 -735.887573
74.883499 31.240900 -736.148621
74.649696 31.328899 -736.424377
74.433296 31.453899 -736.716187
72.554901 32.221500 -738.982422
72.244797 32.257401 -739.280029
71.921997 32.378799 -739.660522
80.583199 24.385401 -725.400818
80.262299 24.760700 -725.992676
79.714104 25.286100 -726.906372
79.533897 25.414801 -727.169800
79.361198 25.561300 -727.441589
79.182800 25.691700 -727.704895
79.018799 25.857100 -727.984985
78.102699 26.563601 -729.367676
77.695602 26.957399 -730.049316
77.537697 27.124100 -730.325378
77.366302 27.257200 -730.584778
76.685303 27.655800 -731.506104
76.083603 27.834200 -732.173706
73.846603 31.875200 -737.454224
70.420998 32.696800 -741.083984
71.245300 32.661201 -740.272705
81.816597 23.374599 -723.257996
81.400101 23.678801 -723.869629
81.149200 23.792200 -724.179626
80.967400 23.932301 -724.452576
80.823303 24.169901 -724.775391
80.029602 24.983900 -726.137817
79.866302 25.159700 -726.425110
78.768204 26.026400 -728.091980
78.605598 26.192200 -728.370422
78.431396 26.327999 -728.633423
78.264099 26.479401 -728.903625
77.057098 27.413799 -730.720581
76.399399 27.864100 -731.661194
75.263901 31.095900 -735.346924
74.108101 31.570400 -736.733582
73.905296 31.723101 -737.035278
73.582703 32.084202 -737.614380
73.367996 32.207500 -737.901672
73.123596 32.268002 -738.161377
72.850098 32.267601 -738.394897
72.586304 32.287300 -738.637024
71.894096 32.326099 -739.261475
71.582397 32.470901 -739.649719
71.393204 32.640900 -739.954102
70.942497 32.723202 -740.408630
70.676598 32.737801 -740.648315
82.073402 22.944201 -722.420288
81.860199 23.008200 -722.656128
81.693001 23.196501 -722.957092
81.481598 23.422400 -723.327393
80.634804 24.445400 -724.909912
80.456299 24.588699 -725.182678
80.289101 24.760000 -725.469177
80.111702 24.902800 -725.740723
79.605202 25.388100 -726.580872
79.436302 25.546200 -726.857971
79.257500 25.677900 -727.121216
79.085098 25.824301 -727.391418
78.917999 25.982201 -727.666687
78.083603 26.751801 -729.025696
77.836700 26.845800 -729.315491
77.660797 26.972200 -729.571777
77.472198 27.066999 -729.812500
77.320099 27.247700 -730.094177
77.144501 27.371201 -730.347778
76.802101 27.635300 -730.862122
76.626404 27.755199 -731.112671
76.097000 27.972401 -731.747192
75.871300 28.103500 -732.050110
75.606003 28.143299 -732.309875
75.629601 30.960100 -734.656677
75.388702 31.037201 -734.927185
74.983299 31.236200 -735.440430
74.730904 31.286100 -735.697815
74.508499 31.400499 -735.983826
74.278099 31.496799 -736.261414
73.663200 31.941900 -737.160278
72.260696 32.329700 -738.683411
72.010201 32.377201 -738.937195
71.066498 32.682201 -739.999084
70.335197 32.751301 -740.681519
70.008797 32.699100 -740.916199
82.642403 22.520300 -721.327209
82.363297 22.546101 -721.586975
82.191299 22.728201 -721.886597
81.293404 23.662901 -723.437927
81.120300 23.829300 -723.725281
80.943497 23.983700 -724.005920
80.787201 24.191000 -724.313293
79.878098 25.163200 -725.905823
79.719803 25.351900 -726.199280
78.677002 26.212999 -727.812195
78.515404 26.381399 -728.091614
78.343201 26.522400 -728.356873
78.170197 26.659901 -728.619873
76.907097 27.597099 -730.484680
76.369301 27.931601 -731.224487
73.918098 31.549000 -736.355103
73.691498 31.652399 -736.635193
73.436897 32.159302 -737.278381
73.223503 32.286098 -737.567017
72.994102 32.378502 -737.840088
72.759003 32.458302 -738.107727
72.473396 32.433201 -738.330078
71.709000 32.548698 -739.078918
71.435097 32.548302 -739.312195
71.224602 32.675900 -739.598877
70.709801 32.741100 -740.092590
70.476997 32.822300 -740.359375
82.713699 22.372400 -720.955017
81.957397 22.913200 -722.054382
81.772903 23.056801 -722.332520
81.592003 23.208700 -722.614380
81.423203 23.391800 -722.912170
80.584099 24.443001 -724.511292
80.368103 24.642300 -724.862915
80.191597 24.789801 -725.137512
79.446999 25.708099 -726.544312
79.260300 25.820000 -726.797485
79.077499 25.940701 -727.054688
77.848701 27.013100 -729.003906
77.663902 27.118299 -729.249878
77.486603 27.240299 -729.503601
77.242104 27.336901 -729.793213
76.094704 28.107599 -731.419373
75.843498 28.180700 -731.694885
75.610901 28.295500 -731.989685
75.375801 28.403200 -732.280701
74.194397 31.464199 -735.861328
71.960503 32.423100 -738.571777
70.040604 32.856899 -740.573120
82.964104 22.282200 -720.501587
81.258301 23.629700 -723.088501
80.031799 25.028299 -725.309692
79.937401 25.234800 -725.563782
79.497704 25.593000 -726.239685
78.844002 26.127800 -727.246521
77.964104 26.928801 -728.669922
77.036400 27.576300 -730.004883
76.630997 27.825701 -730.560181
76.477997 27.998301 -730.835815
75.016403 31.126101 -734.711121
74.767700 31.209801 -734.993408
74.556900 31.351500 -735.292175
74.319603 31.434200 -735.564026
73.412598 31.847601 -736.684570
73.304298 32.083099 -736.974915
71.649803 32.514702 -738.747986
70.889702 32.748699 -739.592712
69.690300 32.851002 -740.700928
82.657402 22.337099 -720.598816
82.438103 22.558100 -720.971924
82.264801 22.738701 -721.271606
82.077301 22.877701 -721.548523
81.033203 23.895300 -723.295227
80.861298 24.063801 -723.583618
80.704002 24.269400 -723.890686
80.536201 24.444901 -724.181519
79.697701 25.444500 -725.737671
78.618698 26.363001 -727.430786
78.452698 26.521099 -727.705383
78.234299 26.689400 -728.033386
78.076599 26.864401 -728.315125
76.792702 27.750401 -730.155701
76.219704 28.134300 -730.967407
75.081100 28.631300 -732.356812
73.856201 31.581600 -735.883606
73.611504 31.646400 -736.146912
73.089699 32.285900 -737.129883
72.870201 32.399200 -737.412476
72.643204 32.495998 -737.687622
72.397598 32.553600 -737.945496
72.116096 32.536301 -738.171204
71.347298 32.641499 -738.915588
71.105103 32.704899 -739.175476
70.536400 32.771198 -739.716370
70.300400 32.846100 -739.980774
70.053001 32.897900 -740.235413
82.946899 22.118200 -719.901184
82.760399 22.267700 -720.186279
81.803200 23.084900 -721.690979
81.607101 23.196899 -721.952698
81.441803 23.391899 -722.257874
81.273804 23.577400 -722.557373
80.335503 24.677299 -724.284119
80.177200 24.874201 -724.585022
80.019897 25.071699 -724.885620
79.818604 25.303600 -725.252502
79.437302 25.664301 -725.881470
79.275597 25.841499 -726.168823
79.092598 25.963200 -726.427429
78.914597 26.095900 -726.690979
78.745102 26.248899 -726.964417
77.744202 27.172899 -728.596619
77.578796 27.325199 -728.865784
77.413200 27.475401 -729.133728
77.169800 27.573799 -729.424194
76.916801 27.648100 -729.702698
76.418297 28.078699 -730.490601
75.960701 28.330500 -731.093079
75.707001 28.396601 -731.365173
75.461998 28.482100 -731.646423
75.227898 28.591700 -731.938416
74.807404 28.787800 -732.462402
73.993896 31.544500 -735.477173
73.285004 31.792900 -736.291321
73.127800 31.925501 -736.537109
71.789398 32.562599 -738.215698
71.523598 32.578098 -738.455627
70.758499 32.800800 -739.296021
69.707100 32.885300 -740.264526
82.980400 22.195299 -719.585083
82.485802 22.486700 -720.253174
82.292603 22.614000 -720.525574
82.094704 22.726200 -720.789185
81.919701 22.901600 -721.086487
81.809303 23.089701 -721.339417
81.585602 23.616199 -721.974182
81.463997 23.929300 -722.341980
81.093498 23.880199 -722.617126
80.898201 23.987801 -722.874573
80.723801 24.150600 -723.160706
80.567001 24.358601 -723.469971
80.410301 24.564400 -723.777283
79.570702 25.565599 -725.338379
78.513802 26.542601 -727.064514
78.322502 26.637600 -727.308105
78.147102 26.771200 -727.570496
77.990700 26.950500 -727.855225
77.835999 27.132099 -728.140381
76.671700 27.892099 -729.775513
76.511803 28.050501 -730.045593
76.155602 28.277399 -730.541016
74.975601 28.807600 -731.995972
73.640900 31.646000 -735.528320
73.397903 31.714500 -735.793579
72.857300 32.315399 -736.761780
72.721603 32.490501 -737.025330
72.495598 32.589298 -737.301575
72.240799 32.627102 -737.551208
71.986298 32.665600 -737.801025
71.191803 32.716099 -738.522278
70.941200 32.762001 -738.775024
70.424500 32.822102 -739.267090
70.179802 32.879601 -739.524475
69.952301 32.970901 -739.795776
69.387100 32.826199 -740.156677
82.682503 22.431999 -719.623779
82.480698 22.537100 -719.884827
81.515404 23.329300 -721.377930
81.323997 23.454000 -721.646484
81.156998 23.644100 -721.949585
80.970200 23.778099 -722.222229
80.333298 24.593399 -723.454102
80.193199 24.842501 -723.783875
80.053902 25.090799 -724.112488
79.878700 25.242001 -724.389587
79.693497 25.365400 -724.651978
79.537102 25.562500 -724.951782
79.338203 25.796900 -725.319580
79.169800 25.958401 -725.599670
79.001999 26.119900 -725.879272
78.834099 26.279200 -726.157104
78.651100 26.398800 -726.414185
78.506104 26.612700 -726.718628
77.640099 27.444099 -728.159912
77.457397 27.554100 -728.408813
77.220703 27.670000 -728.708679
77.048798 27.804001 -728.968506
76.873100 27.927401 -729.222717
76.687599 28.026199 -729.464478
76.242104 28.312300 -730.086487
75.875900 28.513700 -730.569214
75.695602 28.619499 -730.812378
75.448196 28.699200 -731.091125
75.214500 28.809799 -731.383972
74.969902 28.894400 -731.664185
74.691399 29.028700 -732.015381
74.459503 29.139700 -732.307129
74.308701 29.278799 -732.553284
73.658699 31.675301 -735.130676
73.098602 31.889299 -735.789612
72.828201 31.897900 -736.027893
72.612602 32.023201 -736.317688
72.191498 32.635799 -737.194275
71.930397 32.660801 -737.438416
71.671700 32.690800 -737.684570
71.411201 32.716702 -737.929077
71.134598 32.709801 -738.159485
70.602600 32.850899 -738.732910
70.123802 32.877201 -739.164124
69.833603 32.953300 -739.476074
69.549698 32.932400 -739.700928
69.157204 32.805500 -739.929077
82.622200 22.431101 -719.222717
82.391502 22.625799 -719.584106
82.192398 22.738001 -719.848877
81.978500 22.806601 -720.089417
81.783096 22.926500 -720.357483
81.603996 23.090900 -720.649414
81.430801 23.269800 -720.948425
81.227699 23.527700 -721.339722
81.042900 23.669800 -721.617615
80.882698 23.877600 -721.929810
80.713699 24.059000 -722.227417
80.610001 24.256300 -722.482727
80.451500 24.462299 -722.791992
80.303802 24.695000 -723.114685
80.194801 24.872499 -723.357727
79.936401 25.115801 -723.783875
79.782997 25.325600 -724.092224
79.484001 25.607500 -724.585571
79.336899 25.827700 -724.897278
79.127602 26.034401 -725.250488
78.972099 26.228399 -725.547180
78.799301 26.375999 -725.819519
78.467796 26.702200 -726.378113
78.236603 26.842400 -726.693970
78.057800 26.968599 -726.953186
77.890198 27.121599 -727.225525
77.737297 27.309200 -727.514587
77.561996 27.439800 -727.774597
77.202400 27.813900 -728.397583
77.021599 27.926701 -728.647278
76.857300 28.078100 -728.915527
76.672699 28.179399 -729.158691
76.427597 28.270300 -729.444824
76.193802 28.387199 -729.742981
75.975899 28.539900 -730.058228
75.423698 28.831699 -730.776123
75.244499 28.938499 -731.019287
74.955597 29.050699 -731.360779
74.725700 29.167999 -731.656128
74.433998 29.271000 -731.992188
74.115501 29.564899 -732.512390
73.955803 29.709000 -732.770386
73.520699 31.568800 -734.713379
73.311798 31.713200 -735.013672
73.101601 31.853100 -735.311523
72.810204 31.935400 -735.629822
72.537903 31.940599 -735.866577
72.312798 32.046101 -736.147827
72.055603 32.544498 -736.788574
71.839996 32.665699 -737.075012
71.582703 32.699001 -737.322815
71.355499 32.794498 -737.597412
71.091003 32.812401 -737.838379
70.796799 32.769699 -738.053406
70.566002 32.856701 -738.323975
70.320900 32.914101 -738.581726
70.045197 32.909500 -738.813171
69.798203 32.962898 -739.069092
69.517403 32.948200 -739.296509
69.209198 32.879799 -739.501770
68.894501 32.799400 -739.702515
68.611504 32.674500 -739.838501
82.387802 22.671900 -719.258911
79.890297 25.065901 -723.414124
79.557701 25.571699 -724.125671
78.569504 26.603901 -725.841675
77.336304 27.671400 -727.796570
75.766701 28.802799 -730.092529
75.530502 28.910000 -730.384583
75.028297 29.181601 -731.042786
74.152802 29.490601 -732.051025
73.705200 29.994200 -732.858826
72.753502 31.916401 -735.296326
72.497299 31.956301 -735.548706
71.990700 32.164600 -736.156982
69.725304 32.919998 -738.728577
82.081100 22.843300 -719.362610
81.898300 23.001900 -719.652710
81.710297 23.143600 -719.932983
81.506798 23.239799 -720.187927
81.305298 23.340599 -720.444885
81.195297 23.530701 -720.699524
81.028397 23.724800 -721.006226
80.857803 23.906700 -721.305481
80.675499 24.054001 -721.585571
80.513802 24.256100 -721.894470
80.402199 24.432501 -722.138977
80.243698 24.639400 -722.449219
80.064400 24.787500 -722.727417
79.914200 25.012199 -723.045593
79.687599 25.341000 -723.517029
79.604897 25.584499 -723.793579
79.472603 26.000099 -724.258118
79.183998 26.001900 -724.505676
79.019096 26.174801 -724.792725
78.870598 26.388201 -725.099792
78.710297 26.568899 -725.389526
78.381897 26.905100 -725.953918
78.203400 27.034300 -726.215515
78.019501 27.148300 -726.468811
77.857903 27.317400 -726.749573
77.680199 27.444401 -727.008606
77.451302 27.584801 -727.322571
77.152603 27.971201 -727.904297
76.982399 28.110701 -728.167419
76.820396 28.268600 -728.439209
76.640900 28.382799 -728.688904
76.402901 28.491301 -728.983582
76.166603 28.602501 -729.279175
75.921799 28.692200 -729.563782
75.281700 29.175301 -730.518372
74.745499 29.365400 -731.136475
74.575203 29.490000 -731.387085
74.326698 29.562799 -731.660706
73.915497 29.773701 -732.189819
73.695297 29.907900 -732.491028
73.413300 30.151600 -732.937683
73.298798 30.375799 -733.225098
73.120499 31.594000 -734.408020
72.734703 31.823999 -734.931580
72.207901 32.109901 -735.622681
71.725998 32.599701 -736.448120
71.515800 32.732899 -736.739990
71.255997 32.761398 -736.985718
71.029297 32.858601 -737.261230
70.778198 32.904800 -737.514282
70.484497 32.862999 -737.729614
70.236801 32.916100 -737.985596
70.008598 33.008400 -738.258301
69.379700 32.954300 -738.748718
69.114799 32.972401 -738.989929
68.852997 32.996799 -739.233826
68.544601 32.929100 -739.439514
68.256699 32.902500 -739.662476
79.706703 25.247700 -723.125427
79.350098 25.843901 -723.934387
78.540901 26.889601 -725.510315
77.265297 27.851299 -727.412720
75.740601 28.957500 -729.650085
75.500099 29.054701 -729.937622
75.342697 29.213699 -730.206482
74.994698 29.319901 -730.593323
74.081703 29.799200 -731.777893
73.519402 30.169399 -732.571106
73.007698 30.518700 -733.303406
72.362602 32.005901 -735.113220
71.887802 32.165901 -735.653687
71.626198 32.193699 -735.900330
69.638496 33.070900 -738.338684
81.988503 23.084999 -719.120422
81.784698 23.182899 -719.377075
81.585197 23.291700 -719.639404
81.395798 23.427500 -719.916077
81.193298 23.525200 -720.171570
81.027901 23.725500 -720.482422
80.833199 23.841700 -720.746887
80.682503 24.078699 -721.076172
80.526100 24.297300 -721.394775
80.367203 24.506399 -721.707520
80.201401 24.694099 -722.008118
80.020500 24.839001 -722.285217
79.869202 25.062099 -722.603088
79.522797 25.538700 -723.302490
79.423798 25.738701 -723.556396
79.138000 26.054899 -724.068115
78.991699 26.277599 -724.381470
78.827103 26.450100 -724.668030
78.683800 26.675699 -724.981384
78.263603 27.071501 -725.675171
78.095398 27.226801 -725.950317
77.919403 27.360500 -726.213623
77.761803 27.539200 -726.499512
77.571701 27.634701 -726.742615
77.403999 27.785101 -727.013000
77.014900 28.089001 -727.602417
76.855598 28.255100 -727.879028
76.704102 28.438700 -728.163818
76.537102 28.582899 -728.428406
76.286201 28.659800 -728.707520
76.117699 28.797701 -728.968079
75.876099 28.894501 -729.256226
74.750298 29.552401 -730.773926
74.514603 29.655399 -731.062317
74.283501 29.767799 -731.354614
73.823303 29.993401 -731.938293
73.608498 30.138800 -732.244690
73.282097 30.406900 -732.750183
73.116898 30.534800 -732.999512
72.832001 30.765400 -733.437927
72.705299 30.974701 -733.723328
72.531998 31.878401 -734.636780
71.954597 32.098099 -735.315430
71.334099 32.296902 -736.013184
71.226501 32.761799 -736.498779
71.014503 32.890202 -736.788513
70.766403 32.942501 -737.044373
70.498802 32.954399 -737.282715
70.237503 32.979198 -737.526672
70.038002 33.130199 -737.824707
69.803398 33.208599 -738.091187
69.267403 33.009499 -738.379822
69.004799 33.032001 -738.622925
68.744202 33.058701 -738.867676
68.473900 33.066002 -739.104492
68.185204 33.037201 -739.326416
67.910004 33.035599 -739.559814
79.644699 25.299900 -722.779480
78.446999 26.865000 -725.128479
75.451202 29.147200 -729.620117
75.048302 29.389200 -730.169128
74.067596 29.969999 -731.498596
72.428200 31.161600 -733.908020
71.617104 32.137100 -735.427185
79.131401 25.968201 -723.623230
78.217300 27.038200 -725.310730
77.117104 28.006201 -727.070496
75.567497 29.049801 -729.278320
75.230797 29.317499 -729.792725
74.763298 29.536800 -730.377686
73.319099 30.322901 -732.277283
72.814301 30.685801 -733.015930
72.256897 31.407400 -734.103516
71.349297 32.295399 -735.631104
71.053200 32.480499 -736.040894
70.705399 32.897701 -736.691528
69.455002 33.245602 -738.054016
67.585800 33.099701 -739.526428
81.634499 23.351700 -719.107971
81.418900 23.417000 -719.347290
81.146400 23.484600 -719.637207
80.975998 23.672800 -719.942017
80.792801 23.822701 -720.225281
80.607300 23.964199 -720.503601
80.513496 24.195700 -720.779724
80.348099 24.389500 -721.085083
80.237701 24.570999 -721.333008
80.066803 24.745501 -721.626709
79.900703 24.931299 -721.925781
79.798798 25.130699 -722.181702
79.621201 25.281200 -722.460815
79.427002 25.541401 -722.846985
79.250900 25.691799 -723.124695
78.921402 26.199900 -723.836304
78.749802 26.355600 -724.114685
78.598198 26.562000 -724.418884
78.442398 26.755301 -724.715576
77.997002 27.232700 -725.500183
77.849403 27.439501 -725.801270
77.694000 27.624399 -726.090576
77.519699 27.759600 -726.353882
77.342499 27.886299 -726.612488
76.980904 28.258900 -727.236572
76.737396 28.357000 -727.527710
76.593300 28.558901 -727.821716
76.407997 28.658600 -728.064270
76.245903 28.813499 -728.333801
76.012398 28.930599 -728.632324
75.848900 29.079201 -728.897583
74.555199 29.734301 -730.556702
74.325897 29.851000 -730.851196
74.096199 29.965500 -731.144226
73.796402 30.173201 -731.575989
73.556602 30.261700 -731.855713
73.051102 30.502399 -732.490906
72.603401 30.865200 -733.180420
72.461502 31.041100 -733.450378
71.995003 31.591101 -734.314514
71.855698 31.766500 -734.581970
71.640404 31.895700 -734.875122
71.426300 32.026199 -735.168274
70.886299 32.739700 -736.233826
70.392097 32.963100 -736.844727
70.127800 32.981400 -737.085693
69.985703 33.138401 -737.340027
69.839500 33.286098 -737.589905
69.135803 33.187000 -738.106384
68.821198 33.103699 -738.304321
68.575302 33.159100 -738.560974
68.329498 33.214401 -738.817627
68.052101 33.206799 -739.047913
67.764503 33.179501 -739.270203
79.106903 25.957701 -723.262512
78.230400 26.983400 -724.879517
77.119904 28.076401 -726.752991
75.298599 29.279699 -729.326477
74.949699 29.516300 -729.824585
72.820503 30.770300 -732.703918
72.236298 31.314400 -733.663513
71.164803 32.211102 -735.337524
71.014099 32.357101 -735.589722
70.729103 32.564999 -736.009094
69.529900 33.362000 -737.707581
79.425003 25.603300 -722.507996
78.877800 26.153799 -723.441223
78.011597 27.195900 -725.062927
75.558502 29.268700 -728.911621
75.098000 29.508400 -729.507385
74.728699 29.694000 -729.979797
74.558601 29.819401 -730.231079
74.120003 30.097700 -730.841003
73.834702 30.210899 -731.180298
73.353104 30.508499 -731.843323
73.109299 30.585501 -732.116516
72.032997 31.512699 -733.820129
71.535896 31.868401 -734.545471
70.087601 32.977501 -736.720703
69.188400 33.371601 -737.821716
68.834198 33.207100 -737.984497
67.440598 33.263599 -739.221313
81.212799 23.600700 -719.076294
81.021698 23.731100 -719.349670
80.828102 23.852699 -719.617920
80.655098 24.031000 -719.916504
80.455902 24.133699 -720.173401
80.287598 24.321199 -720.475830
80.124702 24.521799 -720.784729
80.023201 24.727699 -721.045715
79.863098 24.931200 -721.354675
79.690804 25.099501 -721.644287
79.597900 25.323000 -721.912781
79.207603 25.838600 -722.682617
78.726402 26.404499 -723.572510
78.566704 26.590900 -723.866577
78.400200 26.757601 -724.149780
78.245102 26.951900 -724.446777
77.800797 27.430599 -725.231323
77.655197 27.641800 -725.534424
77.499702 27.825500 -725.822815
77.318001 27.941601 -726.075989
77.170601 28.142300 -726.371887
76.837601 28.302500 -726.791626
76.683701 28.482599 -727.075378
76.518600 28.633499 -727.344116
76.358704 28.795401 -727.617676
76.187302 28.927900 -727.876099
76.025002 29.081100 -728.144287
75.799301 29.215401 -728.450684
74.289803 30.017900 -730.418091
73.638901 30.443399 -731.333923
72.828598 30.747400 -732.282471
72.536499 30.961500 -732.713074
72.470299 31.182699 -732.956909
72.250801 31.308300 -733.250610
71.789597 31.747000 -734.015686
71.304001 32.123100 -734.748474
70.710503 32.494400 -735.569275
70.401199 32.650101 -735.965088
69.781700 33.067001 -736.846680
69.668602 33.283298 -737.126404
68.488701 33.215401 -738.075317
68.275803 33.336300 -738.359314
68.021301 33.373600 -738.607971
67.762901 33.402901 -738.853271
67.085701 33.254799 -739.305481
79.411102 25.632799 -722.055420
78.937599 26.074301 -722.833679
78.842598 26.283300 -723.091919
78.033798 27.178499 -724.541016
75.529602 29.413401 -728.572571
75.292297 29.517000 -728.862915
75.020798 29.538200 -729.112488
74.850601 29.665800 -729.365906
74.676300 29.782700 -729.613708
74.513100 29.924299 -729.872986
74.034798 30.239401 -730.548279
73.878403 30.392401 -730.811401
73.381897 30.655300 -731.458008
73.162598 30.787100 -731.756897
72.027802 31.584400 -733.401123
71.528503 31.936100 -734.125305
71.323799 32.087200 -734.428223
71.039001 32.300301 -734.851807
70.896400 32.463600 -735.111877
70.114098 32.776199 -736.044495
70.051903 32.988098 -736.277222
69.387604 33.417702 -737.208313
69.128799 33.445599 -737.452698
68.842796 33.418201 -737.673584
67.418800 33.409801 -738.881592
80.893600 24.038900 -719.184021
80.614998 24.084801 -719.460876
80.429802 24.227501 -719.739929
80.236298 24.344999 -720.004822
80.121902 24.518101 -720.249329
79.944000 24.676201 -720.535095
79.773003 24.851200 -720.829590
79.663002 25.031500 -721.076294
79.488701 25.193701 -721.362671
79.567001 25.724600 -721.746277
79.136299 25.815800 -722.191284
79.032303 26.003700 -722.439392
78.653198 26.533001 -723.211914
78.500504 26.737801 -723.515991
78.339104 26.917700 -723.806274
78.170197 27.076000 -724.084778
77.799896 27.451401 -724.719177
77.628998 27.599199 -724.990417
77.470100 27.775700 -725.275818
77.295898 27.911900 -725.539978
77.141502 28.096500 -725.828430
76.967598 28.230200 -726.090271
76.819504 28.426901 -726.383484
76.649200 28.566799 -726.647522
76.464897 28.670300 -726.892700
76.297997 28.815901 -727.158630
76.141800 28.986000 -727.436218
75.971397 29.119900 -727.695313
75.810303 29.275200 -727.964417
75.648804 29.427900 -728.231812
74.266701 30.130699 -730.007690
73.618896 30.563400 -730.927673
72.897697 30.941799 -731.864319
72.663002 31.036699 -732.145081
72.432404 31.139799 -732.429382
72.309402 31.357300 -732.718811
72.145203 31.482300 -732.965027
71.815399 31.846300 -733.555298
70.565002 32.579399 -735.244385
70.321098 32.642300 -735.505981
69.719704 32.985298 -736.310303
69.486900 33.068600 -736.579712
68.468903 33.331100 -737.671326
68.196503 33.332500 -737.905029
67.964699 33.415001 -738.172913
67.730103 33.491600 -738.437988
67.092598 33.419899 -738.921387
66.777702 33.339100 -739.121826
79.237198 25.432800 -721.541626
79.139198 25.640301 -721.801270
78.885902 26.361000 -722.629028
78.787300 26.559401 -722.881592
77.986900 27.323400 -724.213074
75.345901 29.631599 -728.426270
75.033203 29.687599 -728.740784
74.772301 29.733101 -729.002075
74.644402 29.959200 -729.303223
74.402702 30.047600 -729.584473
74.031601 30.352100 -730.159729
73.797203 30.453800 -730.445984
73.389000 30.791401 -731.081116
73.158302 30.897400 -731.367920
71.910301 31.688200 -733.104309
71.565102 32.015499 -733.676819
71.293602 32.141602 -734.015503
71.079102 32.270599 -734.308105
70.855499 32.379101 -734.591125
70.697998 32.510502 -734.836975
69.979103 32.726700 -735.634277
69.739304 32.797298 -735.898926
69.290199 33.336102 -736.739380
69.075104 33.453602 -737.022827
68.811203 33.471100 -737.262878
67.413597 33.513100 -738.491699
80.352699 24.276501 -719.366516
80.181297 24.457001 -719.665710
79.984001 24.562700 -719.923828
79.899597 25.143400 -720.488525
79.871803 25.389799 -720.721191
79.591003 25.098301 -720.713318
79.399002 25.212799 -720.974182
78.900597 25.914000 -721.994019
78.402100 26.741800 -723.121521
78.247200 26.939699 -723.421509
78.082298 27.109301 -723.706116
77.796898 27.558100 -724.330078
77.567802 27.703600 -724.648926
77.434402 27.945900 -724.968201
77.259003 28.078899 -725.230713
77.096397 28.242901 -725.508484
76.862999 28.369900 -725.815308
76.694702 28.516399 -726.083008
76.514000 28.630501 -726.333984
76.359901 28.809299 -726.617004
76.179703 28.921900 -726.866272
76.017197 29.077000 -727.136414
75.844498 29.205500 -727.392700
75.669098 29.326300 -727.644775
75.519302 29.507700 -727.926270
74.139900 30.218800 -729.705811
73.574501 30.713400 -730.607727
72.902603 31.078199 -731.489990
72.677498 31.194599 -731.780701
72.436096 31.273800 -732.053589
72.199997 31.363701 -732.331299
71.987000 31.503700 -732.631714
71.683998 31.927299 -733.249390
70.450500 32.697498 -734.954712
70.187698 32.720798 -735.198486
69.436401 32.980400 -736.059387
68.470299 33.462700 -737.292297
68.148399 33.364399 -737.483276
67.886803 33.387798 -737.726196
67.668800 33.498100 -738.005676
67.080101 33.523201 -738.528870
66.789398 33.489601 -738.748230
66.501801 33.355701 -738.879883
79.121902 25.393999 -721.137207
78.979698 25.640800 -721.467773
78.733101 26.226999 -722.175415
78.636200 26.431499 -722.431580
78.463898 26.587400 -722.710815
77.997597 27.475599 -723.862122
75.246300 29.660101 -728.060913
75.065697 29.764700 -728.303528
74.767403 29.855000 -728.634277
74.526901 29.948099 -728.918396
74.361198 30.084400 -729.175415
73.890602 30.418699 -729.860107
73.728699 30.559500 -730.117615
73.322998 30.903799 -730.755615
73.107803 31.045099 -731.058899
71.782997 31.789200 -732.819519
