58.154400 47.498199 -757.712097
54.244801 54.325401 -756.518494
63.583302 40.647800 -759.960083
57.778599 51.599499 -756.845093
55.614799 55.200699 -756.177673
56.942699 54.189098 -756.101013
59.104401 50.656898 -757.055603
51.425800 58.413700 -756.791321
53.019699 55.506901 -757.673096
54.363998 56.345200 -757.233398
57.967300 53.268600 -757.229492
63.372200 41.580299 -761.312378
57.086800 55.929600 -756.339111
55.707500 57.022499 -756.578125
64.931999 41.887600 -760.799316
58.123798 52.000198 -758.484985
53.272598 56.993599 -758.428223
59.773998 51.841301 -758.209778
58.251301 55.179199 -757.296814
54.544899 58.115700 -757.613098
56.770100 58.279701 -756.670776
57.980701 57.133598 -757.155579
64.404800 42.721298 -762.415588
55.492599 59.483601 -757.409607
65.886200 43.282200 -761.759583
53.743301 59.174099 -758.697815
53.688499 57.304600 -760.003418
57.029499 60.020401 -757.118225
58.716702 56.191299 -758.537109
58.216999 58.813599 -757.521790
54.700001 60.499500 -758.499817
65.423599 43.713902 -763.411682
67.341797 44.032398 -762.254822
53.097900 60.363800 -759.886292
55.907001 61.417301 -757.839294
59.092201 57.888401 -758.589172
60.511002 55.751999 -759.150818
57.499599 61.600899 -757.424377
54.424198 62.070400 -759.273682
58.579498 60.548599 -758.080872
55.571701 63.027302 -758.554077
57.063400 63.481300 -757.930481
58.552200 62.775600 -758.035095
54.530201 64.236504 -759.672729
59.383598 60.311401 -759.584717
55.969501 64.909599 -758.945679
59.441101 61.992901 -759.317993
61.218201 60.076900 -759.938782
56.588501 66.443497 -759.018127
59.520302 64.220802 -758.887817
54.832600 65.878601 -760.424683
53.536201 67.893898 -760.607788
55.698502 67.738197 -760.025574
59.537201 65.867302 -759.431824
59.946301 63.753799 -760.531921
56.993500 68.587898 -759.466125
55.181702 68.783302 -761.202271
56.338100 69.785004 -760.380920
59.829700 68.744003 -759.786987
55.045700 74.213501 -759.055298
55.066101 71.040901 -761.371521
57.276798 71.171303 -760.177429
61.417801 67.209602 -761.303772
60.157101 70.417503 -760.193726
56.419800 72.047699 -761.341675
60.666302 69.617798 -761.535889
63.128399 67.426201 -761.717712
60.684799 72.245903 -760.816528
55.962101 73.757103 -762.611572
62.105400 71.173401 -761.748718
60.877201 73.857101 -761.370728
55.580700 78.799004 -762.424805
56.122002 77.301201 -763.142822
61.227901 75.585098 -761.707275
62.241901 73.785698 -762.386902
61.141300 77.349701 -761.690674
57.316200 80.225098 -764.020325
61.629398 79.497002 -762.312073
61.694901 77.859200 -763.382874
61.570202 81.612801 -762.266113
65.070396 79.359802 -763.194519
62.562401 83.482803 -761.979370
63.148399 85.358498 -761.201172
64.801498 85.584999 -760.768616
65.790703 87.609398 -759.867798
67.171997 88.347900 -759.272583
68.571800 89.021400 -758.595581
69.888702 89.890900 -757.917114
71.354698 90.375900 -757.312073
72.473900 91.348099 -756.456421
73.751602 92.113701 -755.698608
75.225502 92.725502 -754.950500
76.595497 93.350197 -754.290588
78.834099 94.246300 -753.074585
81.481499 95.243896 -751.555420
83.237099 95.700203 -750.327515
84.891899 95.865402 -749.797974
86.029900 96.572197 -748.709595
87.671097 97.098801 -748.006714
89.149803 97.117104 -747.228882
94.720398 98.447601 -744.082397
96.216904 98.767403 -743.080078
103.575500 100.001503 -739.054016
105.571404 100.293404 -737.811218
65.385902 88.987701 -768.823486
80.065102 98.621803 -754.697571
59.022400 96.883301 -767.185120
84.338501 98.650902 -752.893921
66.550003 88.479698 -770.065796
89.307899 99.669403 -750.103394
94.199303 100.816498 -746.950500
99.044899 101.269997 -744.921021
106.373703 102.470901 -741.189209
59.621799 97.921204 -770.889526
68.508400 94.445396 -770.604492
68.655197 99.076202 -772.569214
69.583199 96.483299 -777.495728
60.629101 104.669701 -776.809082
61.889000 106.098198 -777.059082
68.390800 103.344002 -775.559387
60.330101 104.852097 -787.912720
61.628601 105.903999 -787.694824
65.494301 114.463501 -779.502197
57.938599 105.949402 -789.690674
60.038101 105.558800 -789.371704
63.284901 114.376900 -781.000122
61.285400 106.569397 -789.805481
65.094200 114.247002 -781.907776
60.055698 105.637604 -791.202026
65.221001 115.952103 -780.747986
66.567497 115.064499 -781.117126
60.839001 106.990097 -791.706726
59.837799 106.440201 -792.962585
63.518700 106.019501 -792.747498
69.230103 116.666199 -782.148071
72.699600 113.941704 -783.581421
59.648300 106.271500 -794.624878
67.887299 120.200302 -781.139587
66.522102 117.258698 -785.080688
77.517998 117.912399 -781.479614
69.584198 119.673897 -782.591125
63.217899 106.639198 -796.280273
72.681297 121.691498 -780.438293
67.082603 122.265701 -782.056580
78.721199 118.185204 -782.590271
59.306301 107.320602 -797.967896
68.765198 122.768700 -782.168274
70.151901 121.270401 -783.148804
76.432404 119.665497 -783.647583
73.233498 123.295502 -781.557678
59.303398 107.671700 -799.681824
67.453903 123.939598 -782.936279
66.742996 121.424500 -786.136475
68.990799 124.588898 -782.678772
69.455200 123.347298 -783.685608
72.685501 124.780502 -782.175476
58.961201 107.823601 -801.976196
70.432701 125.157402 -783.278015
67.052399 125.746498 -783.855774
74.922997 125.377403 -782.726074
68.656403 126.228699 -783.768372
73.653000 122.584900 -785.867371
71.842697 125.121101 -784.307373
68.117104 130.304001 -780.803589
70.057503 127.017899 -783.338989
74.535797 124.216301 -785.085083
58.766800 109.081398 -803.036499
62.262600 110.352203 -801.029480
79.391296 122.772400 -785.519897
57.329300 108.285599 -804.932617
67.974297 128.199203 -784.106079
71.599602 127.491997 -783.893127
69.467300 128.765106 -783.638489
80.480400 123.654503 -786.508606
68.660400 130.284500 -783.450500
71.033699 129.072800 -784.017883
70.398300 130.528900 -783.507385
83.175301 124.548302 -786.090698
64.112701 130.878799 -784.973389
67.210197 130.789307 -784.342590
67.717796 132.726593 -783.303589
65.907600 133.718903 -783.208374
73.603699 130.892700 -784.070923
71.317398 132.728699 -783.140686
76.307701 130.904907 -783.694275
64.975304 135.541702 -782.147522
82.462303 125.400597 -787.594971
70.973503 130.032898 -786.464905
78.384201 126.697197 -787.901672
65.576897 137.089401 -782.121582
70.850304 134.025894 -784.254395
75.602097 132.546494 -784.957520
66.221901 136.611893 -783.644226
72.353401 134.823700 -783.952026
71.236000 137.460205 -782.923096
65.090202 141.786194 -780.507629
76.723999 133.369003 -785.832214
68.404503 136.857697 -784.712402
64.123703 140.384399 -782.650330
74.526901 134.371201 -785.986023
64.817703 141.971207 -782.559875
66.694702 141.663803 -782.429077
63.236698 143.487305 -782.157104
64.917099 143.595200 -782.305725
66.229401 144.256302 -781.379700
76.625504 138.556595 -784.459473
67.322403 146.677200 -779.888916
83.526703 131.734604 -791.575928
88.871002 130.842606 -791.211914
90.124702 133.608398 -790.112976
90.313599 131.710495 -792.217285
86.873199 134.055801 -790.992371
91.817101 132.118393 -792.795715
89.687302 135.843597 -790.711121
91.346100 135.876999 -790.291077
73.397697 139.932098 -790.886780
93.125000 132.649094 -793.639771
84.535202 135.354507 -794.360107
97.337097 134.464401 -795.811584
98.941299 134.192795 -796.257629
92.313103 136.920303 -796.158325
99.375504 135.881699 -796.628784
119.865097 127.016296 -806.908630
97.054398 139.706604 -797.627686
97.511002 140.297699 -795.385620
101.110703 136.108398 -796.876709
91.640404 133.657806 -791.019470
85.137901 131.702194 -792.077515
69.618401 143.554901 -782.126282
70.595596 134.591003 -789.528870
77.183998 137.155594 -785.718872
87.328102 129.298904 -790.455078
78.869797 131.207703 -789.399719
65.610397 138.739700 -783.057678
71.516098 134.277802 -785.979614
86.837601 127.389702 -789.295776
69.267799 134.602005 -783.736572
71.779701 131.063904 -784.259888
71.753899 128.535202 -785.414001
63.612701 105.835403 -794.432678
72.436600 111.960297 -779.833374
67.352699 115.623596 -776.002014
60.137501 104.403603 -772.538513
66.214302 98.181801 -776.454224
56.187698 85.892303 -765.313171
56.266201 82.836502 -764.667175
65.554001 81.973198 -764.202515
90.737198 97.241402 -746.755310
92.661797 98.014397 -745.254578
56.636299 77.856102 -764.841980
99.178703 99.272797 -741.546082
55.392601 76.655602 -764.550903
102.360603 99.359703 -740.043823
56.140202 75.322502 -763.646484
107.768997 99.869003 -737.407715
110.978104 100.381302 -735.519470
55.724499 71.828903 -763.212585
113.502602 100.397903 -733.961426
62.431599 69.112602 -761.642883
53.816399 69.566002 -761.926025
60.656700 64.435898 -762.823730
52.992500 63.754501 -761.269104
61.375702 64.077301 -759.670776
54.398701 62.857101 -760.885010
53.280899 59.000198 -761.475220
53.067101 54.815498 -759.169617
57.602402 43.902199 -756.651978
57.017101 42.128399 -757.596680
57.266998 38.319199 -754.633118
50.023602 37.127102 -754.991272
51.399899 38.258598 -752.636108
49.496300 35.527199 -754.487915
48.857899 33.257599 -753.187988
49.867298 33.626400 -751.869507
47.021198 27.708900 -751.967102
48.211201 28.697599 -751.139893
47.950298 26.859100 -750.786377
47.028400 24.708300 -751.137024
52.956200 23.853500 -750.101196
44.797699 22.463200 -750.210022
53.250000 20.478399 -748.142578
43.976898 18.854500 -750.138611
45.784599 19.408300 -749.310303
46.960098 20.857300 -748.181824
45.989300 17.948000 -747.849487
42.694302 16.073700 -747.586426
50.149601 13.771400 -746.598999
44.985500 14.592500 -745.927124
52.501301 11.202200 -746.302917
44.520199 12.202400 -746.321472
42.988300 11.607500 -746.449280
45.405201 13.180300 -745.084473
51.143002 3.248100 -743.839172
39.782398 6.718600 -742.960876
41.698200 4.264700 -744.242126
48.523300 3.406900 -743.472107
40.178501 4.598800 -743.575684
42.368500 3.306100 -743.011475
51.672001 4.181800 -741.092102
50.957600 -0.362200 -742.975586
41.032001 0.391300 -742.800720
41.677200 -2.008700 -743.580200
48.504799 5.090700 -738.144287
48.086498 -1.778800 -742.182373
42.428501 -1.925400 -741.793518
41.314701 -0.812100 -738.707520
48.674500 -1.167700 -737.507874
46.015202 -1.140000 -746.695984
45.123901 0.185300 -744.054871
44.168701 1.233000 -743.154480
45.295601 1.302600 -737.455688
46.783100 0.454300 -735.629028
46.657398 -0.851100 -745.088318
47.434502 -1.260700 -747.578308
45.729900 0.707100 -748.555420
43.547600 3.015800 -746.909912
45.486198 1.678300 -744.697876
44.476200 2.756000 -743.889282
45.364399 3.752600 -737.964417
45.185299 3.135600 -745.775330
44.597900 4.370200 -744.237976
47.103600 1.718900 -748.111511
45.333099 5.196500 -739.082275
46.928001 2.497700 -746.175110
46.194901 4.330200 -736.278015
45.984100 -1.644900 -743.820129
43.410099 1.749700 -738.776001
44.376598 -1.668200 -744.789673
44.064301 -1.075700 -743.257874
43.487598 -0.280000 -741.944397
44.901402 -0.620800 -736.983276
44.036900 -2.880400 -743.634277
46.371700 3.205200 -747.639221
46.384701 4.261200 -745.680786
47.654999 3.043900 -749.112915
45.466599 5.771400 -745.638123
46.008801 6.760400 -738.553284
47.424599 5.868300 -736.636902
44.583199 8.705300 -738.521729
47.632198 4.500200 -748.288513
45.210400 7.346800 -745.208801
46.494900 6.103700 -748.246216
47.129902 5.864500 -746.630005
44.782700 8.517800 -744.138428
46.505501 7.802500 -740.071228
44.559299 8.179400 -749.221924
46.192001 7.251600 -746.580627
48.900799 4.772900 -749.294189
43.727100 11.327400 -740.443970
45.795700 8.830100 -746.269714
46.283600 9.529700 -740.882874
47.026901 8.927800 -747.483887
48.808498 7.508700 -750.206604
48.547901 8.081900 -748.627197
45.853699 10.748900 -747.483276
48.353100 9.043100 -751.961975
47.469601 10.632400 -748.277588
46.717201 12.096000 -748.016418
48.051800 12.257100 -741.802795
49.339500 9.931700 -750.542175
46.177399 13.469100 -747.217285
44.911900 15.295700 -743.999207
48.231998 11.746000 -749.948914
47.370899 12.709900 -751.984802
47.151501 13.622800 -748.700317
46.480099 14.975300 -747.951721
48.894100 12.701200 -751.233582
48.278198 14.090100 -750.278381
47.751099 15.415000 -749.344727
46.706600 16.522600 -748.480286
47.181599 17.011801 -744.359680
47.831100 17.125900 -750.221680
49.488300 16.004200 -750.487793
47.065899 18.371300 -749.362488
46.638802 18.678699 -752.614685
49.177101 17.579700 -751.060486
48.295300 19.948700 -744.791870
48.189499 18.827700 -750.522705
47.423302 20.184900 -750.006226
50.130699 18.617901 -752.621399
50.088600 19.049400 -750.959778
48.644100 20.211000 -751.297119
47.854599 21.690599 -750.884094
49.007801 21.946699 -745.686890
50.086300 20.319401 -752.405884
48.215900 22.465500 -752.494324
51.593201 20.672100 -753.355713
49.890800 22.925600 -752.326111
48.678501 24.009300 -752.089111
49.662399 24.631399 -746.095093
48.590698 25.669500 -752.181580
51.120201 23.678101 -753.885925
50.134102 24.732901 -752.960205
49.934399 26.424500 -746.731812
50.190899 26.215700 -753.877930
49.215500 27.253201 -752.964478
48.937698 28.914000 -752.747986
51.075802 27.577499 -754.278625
50.236000 29.024401 -754.077087
49.724400 30.596500 -753.795776
52.083500 29.195400 -754.666077
51.266499 30.555401 -755.100281
50.362301 31.903200 -754.821716
50.040100 33.462700 -754.406921
52.491501 31.717501 -755.792480
51.540401 33.148300 -755.818970
50.697102 34.573700 -755.539307
52.911800 33.861900 -756.464417
52.167301 35.505100 -756.518372
51.183300 36.798801 -756.237122
52.779499 37.084900 -757.294128
51.385700 38.411598 -756.488525
51.004501 39.747002 -755.541870
52.897598 39.157299 -757.455872
51.738602 40.217899 -756.932983
51.527000 41.815300 -756.625000
53.359299 40.672798 -757.911316
52.667000 42.217201 -757.903015
51.834999 43.422100 -757.127625
54.218800 42.853401 -758.567078
52.871201 43.972801 -758.305115
51.058399 46.788399 -752.835022
52.074299 45.107498 -757.301819
55.657001 43.262600 -759.520325
53.137001 45.603699 -758.619812
54.577099 44.642101 -759.043213
52.572601 47.092701 -758.132324
53.921600 46.803299 -759.463074
52.522800 48.463600 -757.139282
53.651699 48.435001 -759.234985
55.067402 47.990299 -759.939514
53.036900 49.856602 -758.620483
54.955700 50.506699 -753.630188
54.992802 49.677799 -759.986572
54.007801 51.107300 -759.842773
53.266899 51.976799 -758.583679
55.887199 51.069500 -760.542603
54.074501 52.778400 -760.034912
55.576698 52.731800 -760.716187
54.214001 54.393002 -760.290894
55.801102 54.290600 -761.263123
54.651402 55.900501 -760.799927
56.244499 55.820702 -761.652771
55.461700 57.252300 -761.428223
54.406101 59.014801 -760.233215
57.055099 57.531101 -762.000610
55.954498 58.778099 -761.792297
55.152500 60.280399 -761.594421
57.417599 59.783298 -762.570801
56.383301 61.107201 -762.405884
55.638599 62.640900 -762.287781
59.109600 60.636799 -763.923279
57.693001 61.785900 -763.360291
55.256901 64.138901 -761.606689
56.999199 63.325100 -762.956909
56.401901 65.209503 -757.371277
56.190601 64.835503 -762.790283
55.564800 66.194702 -762.051270
57.066799 63.987701 -767.561829
58.590599 63.166801 -767.869812
58.102100 64.653000 -763.546570
58.806801 63.952499 -766.424927
57.199501 66.028198 -763.754822
58.172600 65.490402 -765.474426
56.289700 67.373398 -763.245911
58.438000 65.500504 -767.111328
55.978100 68.919296 -762.662415
56.961498 69.488503 -758.018494
58.180302 67.287102 -764.155090
57.373299 68.692398 -763.844116
56.589500 70.152100 -763.630676
58.641899 69.499496 -764.587830
57.795898 71.036301 -764.533508
57.122299 72.567596 -764.350525
58.979900 72.190102 -765.212280
57.297600 74.200600 -764.560913
58.760899 73.891296 -765.270691
57.443199 75.814003 -764.864319
59.419498 75.285202 -765.974792
58.643799 76.854897 -765.749512
62.567101 74.401497 -768.299377
57.996101 78.425797 -765.587585
57.716999 80.707497 -760.023315
59.967701 77.725998 -766.454590
59.318298 79.308899 -766.455017
59.532700 79.227699 -769.578186
60.534599 79.426498 -767.603088
61.151001 78.379097 -770.352478
59.241600 80.937103 -766.665283
60.434399 81.152603 -770.114380
60.540298 81.896400 -767.595276
63.525700 81.332001 -767.674194
60.214802 83.484299 -767.905090
61.436901 83.055397 -769.052979
60.480202 82.568199 -773.119019
62.129200 82.077103 -771.486572
60.229000 84.785004 -768.940979
61.191002 86.041496 -769.596924
61.459900 86.197098 -772.546875
60.611301 87.522202 -770.046021
60.793999 89.184998 -771.148621
61.832699 90.851700 -765.030823
62.674400 91.685799 -763.875977
61.194401 90.817398 -772.003296
59.828201 94.148003 -767.656494
63.301300 93.004303 -766.446716
63.132000 90.642700 -775.109070
62.770599 94.373299 -765.644287
62.217602 91.692802 -776.215027
61.944302 92.386101 -774.628784
62.749901 95.076698 -767.964417
63.127300 95.853699 -764.999695
61.021801 96.081398 -768.898621
61.358398 97.076897 -767.570984
62.281200 94.844803 -774.734070
64.667198 94.878304 -776.663330
62.735600 96.763603 -776.343811
62.776199 98.430603 -777.447571
62.904202 99.365898 -778.895813
62.814499 100.366302 -780.701111
62.405998 101.027702 -782.973572
62.335800 101.590302 -784.613586
62.282001 102.318298 -786.623596
62.087700 102.815399 -788.352783
61.778900 103.317299 -790.178894
61.480701 103.947403 -792.089783
66.606697 105.292000 -782.640381
61.350201 104.441597 -794.288513
61.170399 104.943298 -796.601501
62.514099 107.378197 -788.215820
67.047997 107.421097 -783.210388
60.939701 105.428001 -798.366577
60.282200 106.264801 -797.094116
63.706799 108.193398 -787.170410
67.513603 108.004501 -784.881226
60.735600 105.830803 -800.685120
60.438301 106.314003 -802.609375
62.423199 109.036003 -794.811584
60.344002 106.803200 -804.198181
60.263699 107.013000 -806.072693
62.331299 109.856003 -797.542480
66.533897 112.315201 -785.678223
60.219700 107.428703 -807.890686
59.417099 108.333504 -806.674072
60.027802 107.796204 -809.500977
69.805199 112.403297 -785.114929
71.107903 112.606598 -783.708130
59.692600 108.462402 -811.373474
68.621300 114.077103 -785.902710
70.612801 114.509201 -785.459473
72.344299 113.385002 -787.106995
70.406601 115.599297 -784.160400
72.544296 115.555298 -784.099915
61.493698 111.967003 -807.944397
71.805603 116.798302 -783.321106
71.043198 116.902100 -785.275330
61.136700 112.276299 -809.955383
70.870499 118.264999 -783.414612
72.723999 116.917603 -785.492981
72.799202 117.867104 -784.145081
74.217102 118.458603 -785.388000
69.851097 120.837303 -787.656616
75.378197 119.591202 -785.630798
72.288498 121.774498 -785.346680
75.632698 120.991096 -786.819214
72.251198 123.528702 -787.069824
77.385803 121.711800 -786.701416
72.540604 124.802002 -789.734009
72.870598 125.325203 -788.146912
70.826897 127.529900 -786.390320
79.196701 123.111000 -788.028015
73.576897 126.700798 -788.940308
69.917702 128.797897 -788.328125
81.371597 122.582802 -790.786621
73.262398 127.923203 -787.846130
80.519302 124.652603 -788.480103
72.777298 129.898102 -786.867920
73.883003 128.959106 -789.246887
72.756599 131.102493 -785.670471
81.697800 124.597397 -791.733582
82.143097 125.302696 -789.652100
72.784103 129.561707 -790.488708
73.937798 130.439102 -788.410095
74.815598 128.798294 -792.185974
81.723099 127.000198 -789.505920
74.547897 129.892197 -790.943481
73.610199 132.085098 -787.090271
83.965302 125.371300 -792.253174
74.153503 131.202606 -790.036926
83.329697 126.765404 -790.533203
74.221298 132.102997 -788.649109
73.550598 133.933701 -787.407715
84.621300 127.638496 -791.096619
75.677101 133.497192 -789.937073
69.644699 137.128601 -788.466675
84.896202 128.173203 -792.653992
75.805397 135.655502 -791.719604
87.868401 130.543198 -793.027588
54.800098 152.792206 -780.655090
75.645203 137.827698 -791.863281
57.992901 152.191605 -780.655579
89.237801 131.070999 -794.013672
90.704498 131.916306 -794.882385
76.092598 139.840103 -793.927673
92.415199 131.817703 -795.132813
88.187698 134.955093 -795.549683
88.391602 133.173401 -797.803589
57.235699 110.746300 -851.876404
57.724499 111.314102 -842.655029
58.189899 110.968903 -840.621582
57.882801 111.508003 -839.091187
60.909801 111.592400 -804.064819
61.432098 93.400497 -773.344971
62.057701 91.764900 -773.065308
58.497002 91.165298 -773.141113
63.025700 87.882401 -763.875122
60.329700 80.343803 -771.783203
56.737900 79.189102 -761.226929
59.303398 73.395500 -767.731079
57.015598 58.427299 -763.790771
56.480099 57.053501 -755.094971
54.819302 44.950500 -761.205627
50.184399 16.616899 -740.180786
48.744301 13.088200 -749.041016
46.070202 15.541500 -742.429321
48.036499 11.441100 -739.693420
46.618198 11.881500 -740.444214
49.361698 5.707600 -736.885498
43.940800 4.660700 -746.273804
45.425598 1.109600 -746.925720
47.331600 2.250500 -738.120178
44.179199 -1.077500 -746.594727
44.368698 0.726700 -736.174377
57.559601 106.030602 -882.097717
65.199303 109.871101 -869.230774
60.491501 109.613098 -867.158630
60.521599 112.291702 -865.142883
58.685398 115.385399 -859.118103
125.686996 126.813004 -816.805420
75.157799 127.547798 -789.376282
70.831902 126.320000 -784.998596
71.589401 129.401794 -788.088379
78.184601 129.737305 -790.966919
72.035599 133.067001 -791.220886
121.652100 129.551300 -810.049683
79.157997 128.634598 -785.967896
127.858704 127.099899 -807.538818
126.259201 127.723099 -807.773926
128.897202 126.564003 -806.242981
127.197899 129.011093 -808.711914
94.163200 133.000397 -795.865601
70.698502 135.408096 -787.488770
69.559898 134.793701 -785.806091
122.269501 130.841995 -806.162720
95.445999 134.321304 -796.501587
73.910500 136.237106 -788.258789
78.148598 137.097397 -790.656189
68.579201 138.411301 -786.601379
66.954498 139.797394 -784.461121
67.127899 141.032806 -785.774170
65.238701 140.518402 -783.856018
63.854401 142.350296 -786.343323
71.574699 140.037292 -784.604370
65.324600 142.469299 -784.563171
65.885201 144.699707 -786.216370
61.599899 143.842407 -782.391174
66.081902 143.782104 -783.575684
64.038300 144.848206 -783.382813
104.588203 139.988693 -795.711182
70.656898 143.228806 -787.264587
113.569901 136.745193 -803.603088
77.892197 142.132599 -792.601929
77.942001 140.051804 -792.489624
70.699898 139.736801 -788.095398
131.548996 124.452797 -806.063416
67.089500 135.371704 -784.295776
71.986900 132.601700 -785.600281
87.111603 127.849197 -793.001282
70.023598 129.967407 -785.104492
76.554100 125.659798 -786.463379
69.920799 127.828003 -784.973877
74.503304 124.695602 -788.403381
70.756897 123.805199 -784.713623
68.957001 117.840897 -779.517883
67.086502 118.151802 -780.336121
71.748901 115.171700 -782.681091
70.095802 115.226196 -782.414917
70.914101 113.696999 -781.856628
73.741096 112.031998 -782.545715
69.321800 113.347504 -781.616516
66.086800 112.398804 -777.641724
69.967697 111.774902 -781.422791
70.032204 110.453102 -780.112000
68.293900 111.938004 -781.119629
71.378403 109.129898 -780.915283
74.248001 107.684601 -782.169922
68.502403 110.025497 -780.667114
73.049103 105.647301 -779.774414
65.217300 112.882797 -867.429077
62.104198 109.496201 -868.148376
54.640099 106.343498 -877.674988
53.504601 102.494202 -885.457275
7.686800 24.477301 -714.529480
8.998700 24.245600 -713.550720
10.310800 24.236000 -712.499573
11.899000 23.763901 -712.567993
9.113300 23.976999 -715.209412
10.424800 23.570900 -714.282471
8.635700 23.871000 -716.836792
12.063400 23.223700 -714.273926
13.507400 23.516399 -713.007019
10.361300 23.470200 -716.181885
11.963800 23.022200 -715.906372
13.451500 23.034100 -715.126770
14.885800 23.250200 -713.886414
9.778800 23.576599 -718.429077
11.339200 23.319099 -717.857422
12.922500 23.097601 -717.321228
15.030900 23.115000 -715.585327
10.897900 23.234501 -719.797913
16.652399 22.822800 -715.190125
12.499500 23.241501 -719.024414
14.612100 23.085300 -717.328918
16.273300 23.076900 -717.092529
18.258801 23.322500 -715.361023
12.062400 22.879999 -721.070679
14.123600 23.148199 -719.267212
15.724900 23.092100 -718.733887
13.756900 22.999500 -720.937622
17.860201 23.440901 -717.369507
19.208700 24.151600 -716.556213
13.035600 22.554199 -722.844788
15.369800 23.257000 -720.653076
17.338900 23.400499 -718.961670
14.676000 22.907600 -722.502502
18.970600 23.817600 -718.596985
17.027500 23.438801 -720.881409
20.300301 24.596701 -717.739014
14.051600 22.865999 -724.228821
16.282801 23.226101 -722.872009
18.643499 23.867300 -720.667786
20.046301 24.303400 -719.934326
15.570100 23.254700 -724.749817
17.882799 23.638100 -722.670776
21.429001 24.924801 -719.233398
17.214600 23.452101 -724.684814
19.510599 24.012400 -722.549500
20.913200 24.601000 -721.752991
22.979601 25.208099 -719.791687
16.588301 23.239300 -726.396973
18.771700 23.947201 -724.298889
22.534100 25.113600 -721.624084
18.219900 23.604300 -726.221008
20.316999 24.555799 -724.108276
24.380699 25.155399 -720.649780
21.688000 25.020201 -723.304993
19.692699 24.201099 -725.648315
18.702600 23.258301 -727.789185
23.564199 25.529200 -722.880615
21.510099 25.094500 -725.102600
25.706800 25.769400 -721.818176
20.083300 24.246901 -727.605774
23.002399 25.709200 -724.615906
21.345600 25.123301 -726.864319
24.955500 26.325199 -723.387329
20.063499 24.515699 -729.243774
22.716900 25.968100 -726.477905
26.293200 27.303200 -722.981323
24.083300 26.506800 -725.655396
21.435101 25.434401 -728.803589
25.426001 27.092501 -724.839905
22.747499 26.441999 -728.641113
23.911699 26.823500 -727.523987
26.792400 28.214500 -724.592896
21.295700 25.969801 -730.847595
25.316999 27.551001 -726.892822
26.663700 28.270201 -726.267883
27.963800 29.421499 -724.750916
22.646999 26.886600 -730.692871
23.755400 27.375999 -729.586914
25.165701 27.795200 -728.752380
26.505600 28.497900 -728.051270
27.883101 29.404499 -726.568970
22.783100 27.513300 -732.395325
23.961700 27.926701 -731.263489
29.155199 30.358801 -726.046387
25.424299 28.553101 -730.732483
27.910999 29.372801 -728.364319
26.920200 29.000999 -730.162781
29.118401 30.465900 -727.786987
24.013000 28.476000 -733.544678
25.232500 28.847300 -732.393799
28.296400 30.006599 -730.104675
30.623800 31.194201 -727.725098
26.714701 29.570000 -732.218323
29.634899 30.795200 -729.332275
25.383400 29.274799 -734.067383
28.306400 30.094601 -731.913696
29.617300 30.798000 -731.040771
31.053900 31.652700 -729.531311
26.923700 29.968901 -734.044800
28.475599 30.519600 -733.531128
29.913500 30.915899 -732.711121
30.922600 31.611200 -731.616699
28.327600 30.528200 -735.173584
29.789801 31.316700 -734.832520
31.129601 31.510599 -733.657410
32.530602 32.165798 -732.960815
95.161003 42.212700 -779.786621
94.285500 42.874699 -778.494385
91.878304 43.493099 -776.064209
86.422501 40.435101 -778.424316
86.796097 41.863701 -777.269409
90.878998 44.647800 -774.814880
85.178001 41.496101 -777.699707
83.496201 41.668301 -777.498779
88.796402 45.688999 -773.177185
84.071701 43.093800 -775.766418
87.413200 45.964100 -772.212280
81.524696 43.249100 -775.197205
85.557297 46.255501 -770.464783
79.275703 43.466099 -774.863403
83.904701 46.301899 -769.229919
83.009003 45.894501 -770.763977
79.186096 44.509499 -773.269897
82.263100 46.352402 -769.170715
81.252998 45.853298 -770.447327
80.382401 46.408798 -769.038574
66.799004 44.357700 -764.096130
68.628403 44.948898 -762.811890
68.375900 44.694401 -764.476318
70.161301 45.572300 -763.037292
67.153000 44.732899 -765.888672
71.710800 46.091301 -762.745972
69.973999 45.167999 -764.848083
68.763199 45.084499 -766.072876
71.550003 45.569698 -764.361816
73.281097 46.359798 -763.221375
67.502701 44.852501 -767.538330
74.847900 45.931702 -763.602417
70.359299 45.186501 -766.561096
73.191200 45.780701 -764.766785
69.141701 44.972401 -767.818726
71.923698 45.511299 -766.083679
68.169197 44.869202 -769.145874
74.811699 45.771599 -765.238770
76.300201 45.858799 -764.434814
73.550301 45.633701 -766.442993
70.743698 45.135300 -768.338074
72.325600 45.316700 -767.670105
69.637703 44.795502 -769.944580
75.101303 45.639801 -767.028198
76.579498 45.763401 -766.206970
77.974602 46.347900 -765.490784
71.333504 44.842499 -770.019470
73.746300 45.301498 -768.514771
70.099297 44.593601 -771.593811
72.983200 44.970299 -770.089783
76.511299 45.612400 -767.908630
78.094597 45.840000 -767.335571
79.504898 46.661201 -766.100586
71.800598 44.519600 -771.752991
74.706001 45.105701 -769.918884
73.464401 44.562099 -771.852173
76.343399 44.976398 -770.140503
77.644302 45.397499 -769.215576
75.095703 44.496498 -771.612183
80.971901 46.369400 -767.448486
72.784599 44.300598 -773.337585
74.465897 44.208199 -773.145874
76.782799 44.612000 -771.720398
78.196098 45.036400 -770.734680
76.092796 43.985100 -773.323975
75.471901 43.546200 -774.814026
80.007401 44.763599 -771.737000
77.185898 43.051399 -775.189819
78.712601 42.217201 -776.174622
81.585098 44.126999 -773.449829
82.810501 44.728699 -772.429016
80.515404 41.685799 -777.007080
84.213699 44.326199 -773.356323
85.333603 45.042400 -772.306580
92.487701 42.660400 -777.638977
77.707397 43.729900 -773.786682
57.690102 49.883801 -763.322083
82.126198 42.185902 -776.630676
83.113602 43.734901 -774.553223
85.539497 42.581699 -776.402405
89.143799 40.079800 -778.550110
85.369698 43.645500 -774.920227
88.825699 41.407799 -777.497314
86.855003 43.249001 -775.651428
86.117599 44.604000 -773.744324
90.695198 40.607700 -778.468201
88.367897 42.702702 -776.572021
87.565903 44.368698 -774.621826
92.048103 40.654598 -779.576416
90.438499 42.290699 -777.564514
88.993202 43.839699 -775.461670
93.037399 41.872601 -779.018311
172.415207 69.022499 -680.144287
172.985107 68.541496 -681.712402
173.717407 68.386803 -683.214172
174.577103 68.521301 -684.627075
170.830200 69.878799 -679.720276
171.391006 69.234299 -681.451294
172.172302 69.072197 -683.045105
172.932907 68.959999 -684.546082
173.799606 69.102600 -685.956116
169.546295 70.795898 -679.179993
173.567200 69.857697 -687.476074
169.868607 70.317299 -681.023499
170.467606 69.789200 -682.693115
171.335800 69.762100 -684.289673
172.143600 69.723801 -685.789429
168.223999 71.788399 -678.926880
173.102203 70.882004 -688.686584
168.384003 71.346802 -680.540894
169.170197 70.951401 -682.387390
169.866898 70.650200 -683.969482
171.612503 70.692398 -687.051514
170.384399 70.862099 -685.571411
166.907593 73.036201 -678.851074
171.440903 71.868301 -688.225281
172.302399 71.923302 -689.700928
167.052002 72.616203 -680.503174
167.704697 72.314796 -681.997498
168.455307 72.165802 -683.497620
169.016495 71.728203 -684.979492
170.179794 71.768700 -687.004395
172.626602 72.778999 -691.069275
165.745804 74.282402 -678.920471
170.154907 72.911301 -688.237122
170.995407 72.920097 -689.715088
165.803604 73.810097 -680.497498
166.262802 73.210602 -681.969482
166.999207 73.028503 -683.472229
167.695099 72.788498 -684.966797
168.443405 72.632599 -686.461487
172.510193 74.160500 -691.968628
171.062500 73.283600 -691.356323
168.351700 73.575500 -687.802429
169.300293 73.584801 -689.468872
172.454407 75.553802 -692.870972
164.506500 75.710503 -679.275085
164.568298 75.061798 -680.884827
165.041702 74.443901 -682.407288
165.605804 74.000198 -683.897522
166.304306 73.759102 -685.401184
170.733307 74.314400 -692.628479
166.840698 74.043404 -687.006775
169.125793 74.032898 -691.063782
167.630798 74.296700 -689.111511
171.835007 76.719398 -693.868286
163.167999 76.941101 -679.770081
163.769104 75.769302 -682.144470
164.345001 75.289299 -683.702271
165.009796 74.996201 -685.209412
169.059692 74.926399 -692.477417
173.993607 73.469101 -702.862427
174.775101 73.330399 -704.404480
165.546204 75.116798 -686.817322
166.291397 74.951698 -688.325989
167.494797 74.728996 -690.713379
169.886093 75.835602 -693.726624
175.224503 73.282600 -706.066406
172.252304 73.773003 -701.142212
162.680603 77.140503 -681.337097
170.298294 77.637497 -694.322571
162.898193 76.833900 -683.047485
163.482407 76.371002 -684.606201
164.089096 75.799797 -686.326172
165.916000 75.590401 -689.810425
167.287796 75.855904 -691.952087
168.191406 76.027802 -693.366089
172.216995 73.955399 -702.851929
172.889694 73.627800 -704.416016
161.819000 78.328796 -680.442505
164.627899 76.158699 -687.879517
170.686600 74.796997 -700.189087
173.265701 73.620903 -706.099487
174.017395 73.466797 -707.609985
168.564804 77.501999 -694.385193
170.941193 74.623596 -701.854309
161.627106 78.268898 -682.086182
165.635193 76.723602 -690.965881
169.346695 79.086700 -694.911072
161.954407 78.025902 -683.770874
162.488998 77.472900 -685.348022
163.094193 76.776604 -687.212708
164.338303 76.822502 -689.378418
166.186707 76.969498 -692.506714
167.038498 77.059303 -693.923279
170.663300 74.339897 -703.453613
171.400497 74.192398 -704.933777
169.018997 75.891701 -699.644897
172.253799 74.274300 -707.239075
160.591599 79.833298 -681.156006
167.597305 78.771896 -694.844727
169.201401 75.615196 -701.274414
160.711807 79.535004 -682.764221
162.755600 77.552399 -688.654724
164.054901 77.832497 -690.654175
168.318298 79.950798 -695.856628
169.322495 75.325500 -702.887024
171.088196 75.106697 -706.283325
172.102707 74.380302 -708.915100
160.896103 79.226799 -684.431274
161.469299 78.752899 -685.992126
164.503006 78.012100 -692.247620
165.309402 77.949699 -693.757629
167.698196 76.812103 -699.312378
169.529404 75.067299 -704.561218
161.707901 78.427002 -687.636597
171.020401 75.207901 -707.937012
159.675400 81.063698 -681.750671
165.739899 79.040398 -694.907776
167.618698 76.621201 -701.025330
162.181595 78.757599 -689.615784
166.524704 79.904701 -696.082520
167.801895 76.173500 -702.619507
169.507996 75.854202 -706.036926
159.664993 80.939201 -683.477112
162.776993 79.035400 -691.218201
164.022507 78.953796 -693.540771
168.090195 75.923302 -704.277588
170.644302 75.324699 -709.532227
159.585800 80.217499 -684.971130
160.185898 79.802002 -686.521179
166.294800 78.051697 -699.468506
169.544693 75.924004 -707.723022
160.495499 79.489197 -688.137573
166.524902 80.585197 -697.692688
158.775299 82.309799 -682.463318
164.172195 79.891296 -694.893127
166.284302 77.764000 -701.105530
160.958496 79.955399 -689.641785
162.527893 79.748901 -692.688599
164.959305 80.346298 -696.362122
166.453705 77.190697 -702.639587
167.940308 76.909401 -705.623474
169.199402 76.102600 -709.379395
158.659607 82.222397 -684.146118
161.376694 80.232597 -691.280029
166.614502 77.010902 -704.331787
168.162704 76.828796 -707.311401
158.677597 81.474098 -685.703125
159.144104 80.721397 -687.398071
165.041397 79.276100 -699.615417
162.437805 80.605499 -694.092529
164.769699 80.916603 -697.917175
159.491394 80.945099 -689.080017
163.139404 80.868698 -695.712219
164.948700 78.893204 -701.214783
158.081406 83.924797 -683.889221
160.157898 81.272400 -690.643188
161.140503 80.931503 -692.794983
165.127502 78.401497 -702.835999
166.484497 78.069901 -705.648682
167.729095 77.176102 -708.901917
168.519104 76.802498 -710.745605
158.021606 83.210602 -685.369385
166.763794 77.771103 -707.272217
157.940308 82.476402 -686.844482
158.416595 81.929398 -688.324707
163.071304 81.376900 -697.311096
163.855896 80.475998 -699.749329
165.069000 78.245697 -704.476074
161.172699 81.643097 -694.338928
163.901093 81.951103 -698.882996
158.856796 82.416199 -689.911621
159.859100 82.069603 -692.105591
161.884598 81.960899 -695.864014
163.730301 80.041496 -701.367371
157.445297 85.056503 -684.898621
167.068695 77.998497 -710.208984
163.739304 79.558403 -702.986206
165.083405 79.122299 -705.893127
166.231598 78.459900 -708.706726
157.350906 84.464500 -686.436707
157.440903 83.623001 -687.924011
167.129807 77.834297 -711.907715
159.787003 82.508598 -693.684509
162.332306 82.367996 -698.416870
158.765305 83.171501 -691.387878
162.613800 81.553802 -700.138672
163.787094 79.390602 -704.702820
165.236496 79.197899 -707.525513
160.496796 82.779297 -695.318176
157.578598 83.596703 -689.606384
161.168900 82.571198 -697.229919
162.801895 83.270103 -699.786499
162.627197 80.698601 -702.388672
165.783401 79.147499 -710.186890
156.434601 85.888702 -685.898621
156.604095 85.200798 -687.740295
158.558105 83.653999 -693.004272
162.634293 80.370201 -704.049927
163.715607 80.210899 -706.177979
164.789597 79.944702 -708.971619
165.832794 79.029503 -711.882324
157.352402 84.580902 -690.956726
158.862503 83.721603 -694.645874
159.883499 83.601601 -696.621887
160.852097 83.262802 -698.749207
161.594604 82.207001 -701.275208
156.522095 85.128998 -689.452820
163.623398 80.769600 -707.788086
155.445099 86.714500 -686.928528
157.420105 84.853996 -692.581482
161.154404 84.112503 -700.159729
161.259796 81.843697 -702.892029
162.337906 81.367599 -705.373291
164.521103 80.236702 -710.585083
155.344193 86.543701 -688.570129
156.234894 85.876297 -690.924622
157.498306 84.860001 -694.341797
158.270706 84.812103 -695.791199
159.149994 84.330498 -697.917908
162.597702 81.777397 -706.997620
163.574997 81.224297 -709.381226
164.568405 80.218498 -712.298828
159.667801 84.838600 -699.480286
159.875198 83.409500 -701.450012
160.784393 82.202400 -704.441528
155.013000 86.777397 -690.198914
156.005905 86.297897 -692.530518
159.938705 83.176300 -703.129272
161.291595 82.818604 -705.976624
162.447403 82.393204 -708.542786
163.309906 81.575996 -711.015198
153.872604 87.707703 -688.379883
156.236801 86.285301 -694.246826
156.806198 85.835403 -695.779785
157.596298 85.816803 -697.231079
158.169907 85.402298 -698.732117
163.368500 81.286499 -712.734985
154.739899 87.197197 -691.786499
158.622192 85.846100 -700.325623
158.216995 84.237900 -701.384583
159.681702 83.659203 -704.683105
161.137497 83.547501 -707.444824
162.165100 82.763298 -710.180725
153.700607 88.145798 -689.970581
155.119095 87.299004 -693.488220
158.646606 84.486198 -703.023376
160.161407 84.075897 -706.228821
162.385696 82.542900 -711.973022
155.654495 87.159698 -695.531311
156.969894 86.584801 -698.562012
161.024307 83.693604 -709.152222
156.017502 86.954201 -697.182129
157.926697 85.855202 -701.880981
153.583405 88.533501 -691.621704
157.261002 86.851196 -700.198914
158.528793 84.930298 -704.651489
162.043106 82.657097 -713.590210
159.859406 84.768204 -707.702881
160.955399 83.718498 -710.873779
162.646606 82.794998 -715.196228
153.882004 88.355301 -693.267029
154.414993 88.206703 -694.852112
157.780502 85.866501 -703.527588
158.967102 85.410698 -706.186523
154.933197 88.166000 -696.635315
155.818298 87.747704 -698.692078
160.973907 83.553596 -712.561218
152.266800 89.612000 -691.351379
156.641296 87.323097 -701.696716
159.552597 85.101303 -709.327393
152.569504 89.733902 -692.980774
153.206604 89.385696 -694.497925
155.735703 88.216499 -700.293518
157.465103 86.856499 -704.851685
158.626999 86.175697 -707.666870
159.607895 84.721901 -710.977600
160.752197 83.598801 -714.230774
161.954102 83.474800 -716.526428
153.465698 89.398804 -696.144714
154.166000 88.972000 -697.853821
156.382507 87.552696 -703.335693
154.353500 88.908997 -699.483582
157.412094 87.546600 -706.404724
158.329300 86.381302 -709.277588
159.274307 84.840797 -712.595520
151.400406 90.917503 -693.506287
152.118195 90.719101 -695.003784
154.612106 89.164597 -701.117920
155.200607 88.744400 -702.616882
156.194504 88.407303 -704.756287
157.514694 87.485199 -708.097412
158.156403 85.947403 -710.868591
159.254898 84.561699 -714.299683
159.866501 84.173500 -715.806396
160.506805 83.855904 -717.290405
152.272797 90.910103 -696.662170
152.864807 90.463303 -698.200928
153.059296 90.371399 -699.866028
154.895401 89.566597 -704.043823
155.844299 89.094299 -706.262512
156.463501 88.734901 -707.764771
157.038895 87.989700 -709.596680
157.690704 86.478401 -712.379395
158.146194 85.844597 -713.876282
150.816406 91.803902 -694.820129
153.942795 90.073303 -702.349304
158.442200 85.422600 -715.481079
158.923096 84.827301 -716.989075
157.079407 87.772202 -711.250916
150.974396 91.973503 -696.503113
151.617004 91.674103 -698.043213
151.741501 91.554298 -699.697021
152.258102 91.086098 -701.181824
153.496201 90.949898 -703.687683
154.133408 90.643799 -705.229370
154.709503 90.237701 -706.761292
155.325104 89.896103 -708.299622
155.757401 89.258003 -709.805176
156.491394 87.753502 -712.810486
156.879303 87.027397 -714.325317
157.585403 86.015503 -716.752014
155.649094 88.908600 -711.487122
143.314407 96.590599 -681.509399
143.905197 96.204903 -683.054016
144.527496 95.875198 -684.598389
145.159103 95.562500 -686.142578
145.784195 95.237297 -687.687622
146.393005 94.881104 -689.234802
149.470505 93.412804 -696.699524
150.017502 92.923203 -698.271179
151.512497 91.599899 -702.551697
154.057205 90.927399 -708.143311
154.542206 90.371002 -709.668213
155.707306 88.209000 -714.215881
156.162704 87.589699 -715.751404
141.387100 97.834099 -678.575073
142.166702 97.862701 -680.039307
146.310593 95.167297 -690.883484
146.983093 94.928200 -692.430115
149.741394 92.902603 -699.896912
150.339996 92.505203 -701.472229
151.526398 92.155403 -704.123230
152.242905 91.993202 -705.671387
152.897903 91.703102 -707.239624
154.221100 90.286102 -711.300293
154.513306 89.488098 -712.718506
155.834106 87.470001 -717.421204
139.917099 98.761101 -676.932007
142.056305 98.154198 -681.697571
142.802902 98.046097 -683.248779
143.070694 97.168198 -684.710571
143.576096 96.624298 -686.268616
144.222595 96.334099 -687.823914
144.826706 95.966202 -689.382019
146.708694 94.984596 -694.057312
147.893799 94.461800 -696.898499
148.266907 93.724701 -698.410828
150.183899 92.772301 -703.122070
152.706299 91.885902 -708.925476
153.167694 91.283096 -710.462402
154.243805 89.608398 -714.337219
154.672607 88.944603 -715.877319
139.778305 98.985100 -678.583130
140.595901 99.068901 -680.065674
144.691498 96.173203 -691.078186
145.340195 95.883400 -692.639771
146.462601 95.059799 -695.690430
148.009293 93.762100 -700.070007
148.708893 93.560699 -701.633911
150.026596 92.994003 -704.782288
150.827896 92.998497 -706.319519
151.537903 92.818398 -707.880188
152.810806 91.150803 -712.133118
154.229904 88.729698 -717.482178
138.069504 100.140198 -676.196411
140.693802 99.849297 -681.571411
141.248306 99.400902 -683.127075
141.572098 98.627701 -684.590088
141.978500 97.993698 -686.061584
142.279694 97.165001 -687.541321
143.035904 97.065300 -689.107422
145.143600 96.048302 -694.274292
146.250504 95.188400 -697.341187
146.817505 94.733704 -698.927673
148.547501 93.775002 -703.303284
151.243103 92.842300 -709.512329
151.727097 92.284302 -711.050781
152.565598 91.272202 -713.765381
153.013901 90.640999 -715.314697
137.926300 100.263100 -677.869812
138.606995 100.101402 -679.360291
142.930496 97.321899 -690.734070
143.534393 96.945801 -692.309570
144.930405 96.096802 -695.929382
146.556503 94.676804 -700.614807
147.134293 94.325798 -702.112671
148.487305 94.100998 -704.970276
149.164703 93.850800 -706.550720
149.895096 93.706902 -708.117920
151.425797 92.196404 -712.717529
152.596298 90.393501 -716.939392
152.912903 89.617699 -718.394775
138.812698 100.670197 -680.888000
139.699097 100.620300 -682.657288
140.116196 99.929604 -684.216919
140.512100 99.279602 -685.690918
141.056000 98.801102 -687.264587
141.619598 98.355202 -688.840820
143.468002 96.943199 -693.955627
144.839996 96.040298 -697.593689
145.388397 95.638802 -699.092224
149.884796 93.776497 -709.820679
150.373703 93.231598 -711.360413
151.391693 92.004501 -714.666870
146.597198 94.852997 -703.632202
151.328201 91.647102 -716.310913
136.784302 101.042503 -678.922485
141.247406 98.441597 -690.436829
141.878693 98.110901 -692.024780
143.267700 97.330399 -695.576721
145.094498 95.842102 -700.751526
145.649902 95.447701 -702.261414
146.984695 95.087898 -705.249512
147.597107 94.800201 -706.753784
148.243896 94.579597 -708.252014
150.017395 93.377197 -713.011414
151.285400 91.108597 -717.950378
137.243896 101.220497 -680.497681
138.072403 100.976402 -682.380371
142.292007 98.155296 -693.689697
143.550797 97.134804 -697.258911
149.091797 94.263603 -711.200806
138.464600 100.784500 -684.056396
139.036499 100.438400 -685.556213
139.522598 99.942902 -687.051025
140.047607 99.513100 -688.550110
143.889206 96.940102 -698.895203
149.809204 93.101402 -714.698914
147.962799 94.921700 -709.879578
149.925903 92.569298 -716.335388
145.177002 95.940300 -703.755615
148.688599 94.499298 -712.828430
149.938797 92.150497 -717.962830
140.138901 99.742897 -690.195313
140.699005 99.389503 -691.727478
141.989594 98.562401 -695.272827
143.744400 97.015701 -700.564087
144.276398 96.599800 -702.109070
145.489105 95.865898 -705.392212
146.219406 95.829498 -706.917175
146.737793 95.378799 -708.473511
141.016098 99.269302 -693.434021
142.189499 98.317703 -696.897400
147.675095 95.301598 -711.483398
148.496704 94.136803 -714.466980
136.422806 102.247299 -681.910278
137.074600 102.051399 -683.465393
137.754501 101.906898 -685.020081
138.245300 101.273804 -686.737427
138.698502 100.737396 -688.268982
142.381607 98.267799 -698.588806
148.433304 93.731697 -716.083679
139.013504 101.028503 -689.857727
139.606705 100.737701 -691.403015
140.900208 99.927200 -694.971985
142.478699 98.075302 -700.301025
143.550003 97.174400 -703.516113
144.206497 96.995003 -705.065613
145.935898 95.900101 -709.849976
147.317307 95.489502 -713.147705
148.530899 93.585999 -717.786377
139.823303 100.726799 -693.085510
140.923096 99.558899 -696.665405
142.702194 98.058502 -702.016724
144.342804 96.890404 -706.707520
144.869293 96.456497 -708.279724
146.253906 96.139603 -711.481995
148.867706 93.850700 -719.439514
149.838806 94.507103 -720.691589
137.081406 103.291000 -685.628174
137.656296 102.965599 -687.176819
138.100403 102.414299 -688.712402
141.070496 99.331200 -698.299011
146.897705 95.335098 -714.785278
147.025894 94.823502 -716.450989
138.365707 102.519096 -690.348816
139.652802 101.016998 -694.710876
141.167297 99.123199 -699.987000
142.813004 97.871498 -704.805176
149.764008 95.097198 -722.306519
144.311005 96.691597 -709.851501
145.641098 96.613403 -712.960022
147.045105 94.943398 -718.094482
148.016098 95.039101 -720.185425
138.659805 101.989403 -691.979980
141.416397 99.042603 -701.676270
141.930298 98.575104 -703.388428
143.022598 98.023201 -706.512024
143.450195 97.553200 -708.031311
144.557693 96.755402 -711.476318
139.553406 100.985397 -696.352417
145.317505 96.579002 -714.591309
145.668503 95.932899 -716.142700
148.014206 95.688103 -721.757813
137.020996 104.921097 -687.091187
137.370102 104.264099 -688.651428
138.587402 102.332901 -693.671509
139.673706 100.700104 -698.045776
146.576004 95.783997 -719.470398
137.553406 104.078499 -690.346619
137.938293 103.479797 -691.919189
139.849594 100.481102 -699.757813
141.299698 98.906998 -704.887573
142.802795 97.848602 -709.536377
144.036896 97.308197 -712.970276
145.602905 96.166100 -717.859802
138.437607 102.357903 -695.377625
140.082108 100.340698 -701.466003
140.533493 99.841904 -703.073425
141.623596 98.941803 -706.599670
142.146805 98.576202 -708.214722
143.026794 97.678703 -711.260681
146.660202 96.358002 -721.057007
144.222900 96.905899 -715.774414
136.449997 105.626198 -688.931519
137.652298 104.073402 -693.447876
138.358002 102.308998 -697.086609
146.822098 96.596397 -722.839722
136.687698 105.522202 -690.618286
136.968307 104.807404 -692.074829
138.466293 101.922401 -698.776428
140.181396 100.149498 -704.685181
143.276505 97.786903 -714.383484
144.245895 97.030701 -717.439697
144.970200 96.875298 -719.250977
137.421906 104.139297 -695.106018
138.604797 101.801300 -700.445313
139.278793 101.203003 -702.645020
140.356995 100.075500 -706.359314
140.758499 99.541298 -707.873779
141.186096 98.964897 -709.495422
141.630798 98.508598 -711.017273
142.194305 98.201202 -712.634888
137.395996 103.744003 -696.719971
144.934097 97.382401 -720.818176
136.435196 105.169601 -694.153687
137.279297 103.190399 -698.272095
139.120300 101.433502 -704.349609
142.567093 98.031197 -715.856812
137.395599 102.984802 -699.945496
138.012100 102.514099 -701.836182
141.481506 98.409203 -714.118408
142.792999 97.936600 -717.544312
143.384995 97.660202 -719.161926
138.241302 102.515602 -703.482971
138.846497 101.473602 -705.978821
139.164902 100.751099 -707.487000
139.852798 100.672997 -709.083496
140.068893 99.824997 -710.508423
140.477798 99.268303 -712.029480
138.156296 102.919701 -705.155090
140.833496 98.715302 -715.642700
138.314102 102.836304 -706.846375
139.758408 99.635597 -713.502075
141.175400 98.946098 -717.325928
138.222702 101.863899 -708.965820
138.608398 101.247902 -710.471680
139.003601 100.645203 -711.983826
137.677505 101.788498 -711.710876
138.128799 101.186600 -713.317871
175.892593 68.322601 -683.432678
176.562897 68.161499 -681.944519
