130.504395 29.935900 -813.436279
144.099792 35.715099 -792.127380
137.592697 33.290001 -795.409424
131.431198 30.837601 -804.685425
131.830307 30.724899 -814.818787
132.222702 30.820801 -816.610413
133.222397 31.139799 -818.220520
141.152100 34.901798 -793.947510
133.355194 31.970400 -799.124023
132.066605 31.452999 -801.322571
131.014404 30.871099 -809.609070
130.826202 30.759501 -811.400330
137.131393 33.682301 -797.091370
131.745102 31.513901 -806.766602
131.888504 31.419901 -812.831482
134.110794 32.057499 -819.553223
139.827194 35.033001 -795.141418
132.849304 32.085201 -814.205383
138.270905 34.868500 -796.025391
134.761002 33.511501 -800.425476
133.059204 32.891399 -800.872620
131.968094 32.456299 -802.834229
131.494095 32.160198 -808.465698
132.759705 32.445599 -815.978394
141.466095 36.535301 -794.717407
131.835800 32.880901 -804.570923
131.820297 32.756401 -810.134827
132.707901 33.040699 -811.682983
133.520203 33.205700 -817.552490
137.580200 35.644402 -797.497192
131.805298 33.405102 -806.324219
133.011505 33.691002 -813.374512
133.606506 33.782799 -819.260681
143.014893 38.126301 -794.756104
140.388794 37.169102 -795.986572
132.796997 34.330399 -803.279297
131.919205 33.915001 -808.685791
132.992294 34.173302 -815.138672
138.841904 37.027100 -796.999817
137.255203 36.428001 -799.066772
135.342300 35.712898 -801.143311
132.723099 34.625500 -810.185303
132.300507 35.035900 -804.918823
133.031296 35.181999 -811.857483
132.721695 34.993099 -816.737793
132.503799 34.859299 -820.222900
136.450394 37.054401 -800.575989
132.092697 35.419899 -806.703003
132.915298 35.603802 -813.655273
132.262100 35.298599 -818.488525
142.912598 39.894402 -796.233521
139.697906 38.737900 -797.772827
138.063202 38.151600 -798.439819
132.563095 36.067200 -808.400513
135.482101 37.710300 -801.953186
133.214294 36.871101 -804.968384
132.837204 36.668900 -810.115112
132.489502 36.477798 -815.201477
137.198196 38.836498 -799.863403
132.903900 37.180401 -811.830017
131.784393 36.724602 -816.902771
130.927795 36.398800 -818.922729
144.780106 41.963902 -794.762207
139.135300 39.936001 -799.182678
134.507706 38.267399 -803.387878
132.491501 37.527100 -806.465576
132.761993 37.545898 -813.583313
128.559601 35.987202 -821.462402
136.432007 39.293098 -801.422180
132.712799 37.918800 -808.269409
129.394699 36.637798 -819.815430
127.899200 36.353401 -823.161987
133.677094 38.787800 -804.891724
132.826706 38.424702 -810.492188
140.180801 41.298302 -799.753296
132.162704 38.293400 -815.117126
130.523804 37.685398 -817.725220
127.748199 36.622002 -825.024780
138.073700 40.721298 -800.398804
135.438599 39.763599 -802.877686
132.715500 38.893200 -812.309814
144.085495 43.458599 -796.609009
132.903397 39.416302 -806.407715
128.677200 37.781502 -821.054077
133.102005 39.626598 -808.649902
131.143494 38.867298 -816.476013
129.654800 38.318401 -819.180725
136.769394 41.102001 -801.603394
132.851303 39.623100 -813.931824
134.474792 40.374100 -804.328125
143.854706 44.033600 -798.301880
128.250793 38.321301 -822.770813
133.073395 40.402500 -810.292725
127.993301 38.514999 -824.585083
135.719299 41.590000 -803.036682
133.245300 40.672401 -812.049805
131.770004 40.134499 -815.256775
130.249893 39.583099 -817.898071
142.430206 44.213699 -799.461426
133.596405 41.059898 -805.782227
145.884094 45.773499 -797.500916
133.405899 41.331799 -807.620483
129.203506 39.821899 -820.062500
140.910004 44.430599 -800.475281
134.862503 42.283901 -804.482971
133.053406 41.632401 -813.560120
130.934097 40.878101 -816.658630
128.668396 40.069500 -821.788330
133.523605 42.208599 -809.220825
133.762405 42.291901 -811.068787
128.147003 40.297600 -823.521973
136.303101 43.463902 -803.137695
131.842697 41.893101 -814.948975
130.194000 41.311901 -818.348999
133.955002 42.829700 -805.948914
130.115204 41.493301 -820.513672
138.100403 44.443699 -803.461792
133.590302 43.130199 -812.691223
133.445496 43.174702 -807.675415
135.205704 44.036301 -804.515686
131.315201 42.860600 -816.398682
129.100403 42.044300 -821.947998
138.976303 46.107201 -802.964172
133.797897 44.205601 -809.085083
133.878098 44.231300 -810.936401
132.327103 43.659599 -813.867920
130.928604 43.140701 -818.177979
144.327896 48.544102 -798.932983
137.489807 46.047699 -804.169922
134.347397 44.901501 -805.841125
130.527100 43.490799 -819.938782
146.644394 49.837101 -795.581177
145.294998 49.347401 -796.828979
143.065704 48.538502 -800.285889
135.728394 45.875801 -804.931213
133.668304 45.128201 -807.538086
133.218597 44.965099 -812.425293
132.114304 44.564400 -815.432007
130.140701 43.848400 -821.643311
140.562393 48.075500 -801.706482
132.312393 45.106800 -817.124878
131.727097 44.896801 -818.813477
138.980896 47.909599 -802.737427
133.834396 46.060299 -809.114014
132.718399 45.665199 -814.031311
131.317093 45.169800 -820.612122
143.638596 49.924400 -797.407227
142.350998 49.461899 -798.671021
137.750595 47.811298 -804.029785
133.414703 46.259300 -810.857788
133.278198 46.220001 -815.704224
141.513702 49.364399 -800.658325
134.766205 46.940201 -805.999390
136.329803 47.968300 -805.249817
133.826004 47.053501 -807.575806
133.299194 46.864899 -812.615601
133.129807 46.806900 -817.414673
132.697693 46.650101 -819.140503
140.842499 50.277302 -799.201477
139.872299 49.924099 -801.154480
133.761505 47.697601 -809.827026
133.877701 47.741600 -814.057983
132.327606 47.178600 -820.815125
142.836807 51.608200 -797.229980
138.693100 50.099899 -802.578003
137.847107 49.792000 -804.120483
135.075195 48.783001 -806.289124
133.632797 48.257900 -811.553711
134.147095 48.445000 -815.689514
134.030197 48.402500 -817.506592
133.907806 48.357899 -819.312683
136.381897 49.794998 -805.231873
134.085297 48.958199 -807.827881
141.458801 52.163399 -798.281006
139.899597 51.593399 -799.965881
134.468002 49.595100 -812.473328
134.754395 49.695900 -814.243286
138.900803 51.705200 -801.525024
134.010101 49.904499 -809.414978
134.647095 50.118000 -816.133484
134.661896 50.118301 -817.974915
137.992996 51.801800 -803.109985
137.001007 51.437500 -804.588623
135.368393 50.839500 -806.319580
134.216003 50.810699 -807.711487
134.682205 50.976898 -810.769409
140.657806 53.554699 -799.111694
134.921097 51.451199 -812.573425
134.837601 51.419102 -814.687012
134.513199 51.294800 -822.251221
139.332703 53.471401 -800.698730
134.801697 51.796501 -816.733215
134.949402 51.847698 -819.176514
133.287003 51.234901 -823.631104
138.332001 53.530201 -802.260010
136.324905 52.790600 -805.597900
134.404495 52.082600 -809.013489
137.339798 53.608101 -803.806274
135.097595 52.784698 -806.970581
134.901596 52.710800 -811.148071
134.258102 52.470100 -820.784119
132.172806 51.703701 -824.942627
135.138397 53.225700 -812.895325
134.775299 53.092999 -815.289795
133.214600 52.521900 -822.372375
134.344894 53.325001 -817.572571
136.550797 54.505600 -805.149170
134.660904 53.813702 -809.353394
133.848999 53.524101 -819.279114
138.447006 55.618301 -802.231873
135.518906 54.548500 -806.668701
131.891296 53.247799 -823.423584
137.511200 55.744598 -803.770325
134.869995 54.799999 -810.908386
134.757904 54.770100 -813.696472
134.202698 54.575298 -816.117920
132.859299 54.098701 -820.685974
134.559601 55.125000 -808.102295
133.472702 55.202599 -817.648193
131.796204 54.622501 -822.122925
136.718094 56.662800 -805.115417
134.778702 56.027000 -812.217224
132.840897 55.392601 -819.388123
130.893204 54.721901 -823.699280
138.042007 57.488300 -803.054016
135.530502 56.609299 -806.463928
134.710800 56.350498 -809.499084
134.179703 56.228298 -814.572327
133.664001 56.458900 -816.327271
131.993195 55.923500 -820.888489
137.254105 58.247299 -804.496277
134.592300 57.342201 -807.864014
134.769196 57.482399 -810.876587
134.514206 57.448002 -813.310120
132.986298 56.994301 -817.903198
131.282700 56.476200 -822.531006
136.131302 58.251999 -805.942322
132.314102 57.166000 -819.632019
133.939102 58.068298 -814.926575
137.893707 59.764702 -803.598999
134.645096 58.674400 -809.072021
134.861206 58.828300 -812.074585
133.330399 58.362900 -816.656372
135.346695 59.430801 -807.061890
132.798798 58.755600 -818.372681
135.195999 60.001598 -810.201782
134.560501 59.849098 -813.549988
133.976196 60.141899 -815.290527
136.038300 61.040901 -807.580322
135.003204 60.770901 -811.852905
133.388199 60.304298 -816.970825
134.731796 61.123299 -808.814514
135.358902 61.803699 -810.402588
134.294601 61.533798 -814.081177
136.770004 63.415001 -810.451721
136.257294 63.284698 -812.185913
135.502502 63.055302 -813.834412
134.294006 63.043701 -809.241211
134.590500 63.417500 -815.355774
133.749405 61.866501 -815.983582
131.386795 53.563702 -825.184814
145.042801 51.108002 -796.366028
146.113205 47.651100 -797.972778
142.324799 40.611301 -798.096985
145.205597 40.167801 -793.934570
145.474701 37.069500 -791.398376
146.098297 34.258801 -789.362427
146.764496 32.511398 -789.205078
130.852097 23.839100 -802.187073
133.860794 21.594101 -788.392029
125.831497 21.111401 -822.656372
119.924004 0.613000 -800.441895
147.189606 30.680099 -788.765991
132.544601 28.910601 -801.889404
138.392700 42.349300 -801.387207
135.054596 50.168499 -819.819519
142.488693 53.862400 -797.523376
132.727295 57.827801 -822.384399
132.225494 58.583099 -820.762329
137.150803 59.873100 -805.295227
146.416107 35.775398 -790.344482
145.841507 38.920700 -792.792786
145.485001 33.138100 -792.222900
134.720001 17.076099 -787.533203
134.503296 22.536699 -791.408081
144.068100 50.253399 -799.827881
140.338593 55.298000 -800.600708
130.775894 18.124100 -793.381104
131.603699 23.373800 -795.567017
133.036301 28.150700 -799.607788
125.394501 11.270300 -797.272522
135.733093 36.426800 -804.053101
135.626495 34.631001 -803.860413
124.091202 4.199000 -799.072388
131.761795 25.384300 -804.527100
127.472801 12.997500 -802.419373
132.915604 32.686600 -807.521423
129.270599 16.971600 -805.059021
132.343903 24.786699 -808.456177
131.118805 22.252399 -808.384583
128.718399 14.845900 -807.259277
127.537399 12.201400 -807.884583
134.523605 32.456299 -815.022522
125.987297 13.307500 -812.263428
133.977600 35.542301 -818.075073
126.615997 16.946501 -814.096619
126.376099 18.584900 -815.425903
132.358795 36.946999 -819.883118
134.543106 34.576500 -820.558777
131.725098 28.841600 -820.625610
129.684998 42.940899 -823.562500
128.147507 24.481899 -822.293884
131.820908 27.082199 -820.282288
133.436905 60.665298 -818.720703
133.572006 36.682701 -816.712402
134.345398 45.438499 -817.176086
134.072296 35.589401 -815.064575
128.736404 18.667400 -811.247803
130.088196 21.925800 -811.436584
131.378403 27.690701 -812.572510
122.517197 3.726800 -805.156372
132.981400 27.842600 -809.826294
134.854202 45.511299 -811.718872
132.630203 26.750200 -807.582397
128.971298 15.177400 -805.005371
128.714706 17.591499 -799.317078
123.492104 5.212400 -795.351196
133.252502 27.317801 -802.410828
122.822998 3.331800 -795.622681
126.797501 11.040200 -793.931274
135.932098 30.727501 -798.672424
129.876999 15.797900 -793.428711
137.998398 32.626400 -798.337280
142.431305 50.880501 -800.443726
142.315399 37.581699 -796.382202
128.940796 40.100300 -825.186279
130.334305 26.351000 -822.851196
133.397202 53.437500 -824.877625
131.458893 44.049801 -823.440674
132.298492 56.680698 -824.174622
132.827103 54.946301 -823.554810
134.161407 54.013599 -822.631714
135.705704 53.165199 -822.094116
133.839096 48.908501 -821.178528
133.957703 36.083302 -819.803589
135.554199 33.267899 -819.885620
134.485306 54.982800 -820.689026
132.123596 38.224701 -818.300476
135.712204 53.666500 -820.313416
126.984703 20.083300 -814.575012
124.832001 10.120900 -812.556580
134.963501 55.058102 -818.612793
132.923203 39.379601 -816.419800
125.957901 11.549000 -810.562988
122.595398 3.923800 -808.748230
133.908203 37.829498 -815.239014
126.773003 13.545900 -810.546875
133.567200 40.724098 -815.136108
121.585297 3.527500 -807.332397
134.982407 62.683498 -817.177124
135.505707 55.786098 -815.736694
134.358597 36.663200 -813.627808
118.239098 0.270000 -805.275574
136.151993 53.791500 -814.310974
117.912003 -0.267800 -803.550903
115.476402 -1.755100 -802.646484
132.576797 30.174299 -810.167725
128.786697 17.309299 -807.763428
116.980103 -1.024800 -801.409912
115.380096 -2.014100 -800.806213
133.082001 31.425100 -808.842224
129.591705 19.018499 -806.524902
127.814499 13.262600 -804.689514
125.464401 7.921000 -803.417725
123.528702 4.388800 -802.454224
129.990295 20.783001 -805.640686
118.498703 -0.358200 -799.917114
126.649200 9.803200 -802.371216
130.733307 23.345200 -804.893616
119.478302 0.862100 -798.597473
130.082001 20.771000 -803.454590
136.276901 62.598900 -808.507202
132.616394 29.549000 -804.255005
129.744995 19.235800 -802.200378
133.048798 31.566200 -804.190125
129.152603 17.173100 -801.643799
132.008408 25.190100 -802.031677
123.370201 4.350300 -797.362915
133.410294 30.796400 -802.588623
131.044495 21.738800 -799.815613
139.579300 49.207901 -803.891724
124.449501 6.931800 -794.794983
140.676498 45.065899 -802.864014
132.257294 24.367201 -797.529907
139.436203 60.959801 -802.990417
139.317307 59.052502 -802.762817
127.698601 14.466800 -794.558228
125.856598 8.700700 -793.386414
139.636307 57.360401 -802.262817
140.670105 51.464901 -801.702393
128.954407 13.680900 -792.375427
145.702103 49.600498 -799.545471
132.478195 17.368099 -790.469971
145.730698 42.940201 -796.115601
134.115997 21.220800 -790.179382
134.013901 19.346800 -789.645020
133.948898 17.573200 -789.249084
135.042007 23.790001 -789.573425
134.947495 20.142401 -788.280518
146.598297 50.712502 -797.189880
137.635696 34.663601 -799.015320
139.875305 54.509102 -802.166870
126.119904 11.048200 -799.640930
135.194504 47.861599 -808.691223
127.282303 11.384900 -803.758911
124.448502 6.484500 -804.546875
136.120407 54.802399 -812.453186
126.211502 9.889200 -806.461304
124.459503 8.072800 -805.815674
131.738098 25.963499 -810.240112
129.902496 21.180500 -809.378174
134.717102 44.455700 -813.254578
134.257294 38.614899 -813.476929
133.908707 43.028801 -814.544128
135.842697 54.095200 -816.630188
132.583603 41.557999 -816.608398
127.318802 18.570499 -813.588318
134.081497 56.674301 -819.309204
135.016098 34.073601 -817.977173
131.952194 40.139198 -817.932678
130.949905 39.746498 -819.684082
134.399902 34.875599 -812.977905
135.867798 56.296001 -813.692322
113.868698 -2.123700 -803.359314
134.137695 37.842499 -809.426270
118.720901 0.011100 -801.863403
132.899796 28.865900 -807.841980
121.778603 0.894000 -800.469788
129.836594 18.982201 -804.428223
126.028503 8.510900 -801.187988
125.090599 6.480800 -800.778870
138.444199 52.547401 -804.755188
140.904099 49.627499 -802.578918
145.050095 50.946701 -798.152588
147.783096 33.919601 -789.917786
121.076797 1.510900 -804.141174
122.228699 2.006000 -802.673218
130.762100 24.678200 -814.903076
101.187103 37.879700 -840.385681
117.049698 44.105598 -836.662476
115.747704 44.047501 -837.886475
113.949997 43.392300 -838.210022
112.311203 42.794800 -838.674316
109.376198 41.724701 -839.377319
107.348503 40.985001 -840.310303
103.439102 39.560902 -840.343994
128.267105 49.006302 -834.566711
119.906700 45.954899 -836.206116
118.349297 45.386002 -837.033875
129.778900 50.355301 -833.211792
126.472801 49.141998 -835.112305
122.727501 47.770599 -834.907227
109.406998 43.352299 -838.633423
106.203102 42.177502 -839.585815
121.071503 48.069000 -835.585571
118.870499 47.261700 -836.989502
111.209503 44.450600 -837.533630
130.215195 51.813599 -831.841309
118.936096 47.669102 -835.090820
112.719200 45.384701 -836.781921
128.237900 51.470501 -832.613892
114.982498 46.592098 -835.714722
134.975998 54.399601 -830.126526
131.483200 53.114399 -831.208984
133.284897 54.298199 -831.049011
125.612396 51.474701 -832.396912
117.111000 48.348801 -834.537476
111.074997 46.133099 -836.960571
109.416000 45.523701 -837.525818
106.006500 44.271198 -838.663513
103.019600 43.172600 -839.320984
101.352699 42.560001 -839.833984
135.742493 55.697102 -829.114319
123.712601 51.283001 -832.712830
120.294098 50.035301 -834.763184
113.450500 47.517300 -835.767212
107.712502 45.416901 -838.263123
129.917297 54.007999 -831.224670
126.812698 52.866600 -831.804382
118.725800 49.896900 -833.728394
131.476593 55.016899 -830.647217
121.303497 51.284100 -833.067078
111.758003 47.794498 -836.465027
104.154602 45.008701 -838.637512
136.349197 57.224499 -827.815674
133.660202 56.251999 -829.329285
117.040199 50.176899 -834.261475
115.248596 49.524300 -834.944214
109.509903 47.427200 -836.686523
127.497299 54.446800 -831.179626
124.734596 53.445099 -832.315308
122.997200 52.820301 -833.318970
113.383102 49.296700 -835.210083
107.819603 47.277500 -837.398987
134.640396 57.471600 -828.384521
131.793304 56.438900 -829.357178
129.778793 55.715801 -830.387207
105.791901 47.003601 -838.075684
102.541298 45.824902 -839.206482
136.958801 58.689201 -826.779419
130.100006 56.273102 -832.072998
118.731499 52.073502 -832.965576
139.689407 60.060299 -825.436523
125.811699 55.039299 -831.736572
111.648201 49.858002 -835.857300
109.858704 49.205101 -836.450012
103.834702 47.013500 -838.692383
132.800095 57.957600 -828.137207
121.822601 53.942402 -832.311890
120.139900 53.322399 -832.763916
115.856598 51.752399 -834.250671
140.536301 61.256199 -824.143982
135.266296 59.340801 -826.963928
128.095901 56.728901 -830.559326
123.500999 55.031399 -831.880005
113.535301 51.352501 -834.864014
108.108299 49.358101 -836.861084
136.712708 60.413101 -825.477112
131.186203 58.415501 -828.971802
129.532700 57.810001 -829.713623
126.428299 56.678501 -831.305176
106.367401 49.257702 -837.313599
104.754700 48.664299 -837.921875
140.711807 62.416000 -822.585327
133.553406 59.831501 -827.368530
124.753197 56.620399 -831.972290
118.683701 54.352600 -833.125916
111.964203 51.872700 -835.571411
109.994003 51.144001 -836.232300
103.081299 48.600800 -839.050415
139.061707 62.304699 -823.644409
120.747002 55.580399 -832.218384
115.720100 53.721901 -834.105225
137.386703 62.043201 -824.218506
135.222794 61.269600 -826.013123
131.911102 60.064999 -828.048218
127.805000 58.552299 -829.920471
122.882301 56.729198 -831.840210
113.972801 53.407799 -834.570923
108.327202 51.325298 -837.055115
129.582794 59.516899 -829.118286
140.681702 63.837700 -821.156677
126.175400 58.582298 -830.789978
116.999397 55.141201 -833.480225
110.702499 52.826401 -836.683228
106.472000 51.225300 -837.499084
104.074501 50.333900 -838.426392
139.385895 63.650200 -822.448120
133.461197 61.515202 -826.686218
119.065697 56.173401 -832.802673
135.683594 62.491402 -824.745972
124.446404 58.374001 -831.192993
112.151901 53.764400 -835.567322
141.828400 64.917503 -820.137573
137.663696 63.756302 -822.973816
130.461807 61.141499 -828.205627
120.630898 57.421200 -831.692322
114.736603 55.208199 -834.207581
108.991402 53.071899 -837.160828
134.113205 62.992901 -825.544189
131.918793 62.200298 -827.305115
131.458603 62.124401 -829.852112
126.950302 60.352299 -830.005493
107.214500 52.889000 -837.769897
104.961502 52.016998 -838.176819
141.347198 66.222900 -818.553284
140.310806 65.882599 -820.206909
138.943207 65.385201 -821.237976
136.148407 64.384102 -823.713989
128.748703 61.672501 -828.806519
123.065002 59.521801 -831.100586
118.908203 57.933899 -832.423279
117.212601 57.291801 -833.095825
113.126701 55.751598 -834.886719
110.878197 54.920200 -836.255920
137.281601 65.461700 -822.071899
134.489899 64.459900 -824.503784
132.561005 63.761299 -826.034302
130.235992 62.907398 -827.603821
125.051498 60.969700 -830.310730
121.206398 59.491199 -831.345703
115.459297 57.307800 -833.515320
109.298103 55.024300 -837.183777
127.187202 62.407799 -829.250000
113.715401 57.274101 -834.099915
107.537399 54.990398 -837.940613
105.769699 54.309799 -838.415527
140.239105 67.632301 -818.748901
138.998306 67.193703 -819.993225
135.906204 66.096901 -823.007202
130.912292 64.272301 -826.680420
128.579102 63.406101 -828.088013
123.311501 61.405399 -830.248901
119.622200 60.016102 -832.031494
117.727798 59.298500 -832.852783
111.939301 57.096100 -835.142090
137.504395 67.043297 -821.036987
133.090103 65.459503 -825.039917
125.385803 62.584202 -829.575073
110.054604 56.748798 -836.083313
140.866302 68.651497 -817.167603
134.183105 66.274803 -823.739319
121.576202 61.545502 -830.846802
115.677803 59.289799 -833.247192
108.249901 56.487499 -837.094421
131.387894 65.751900 -825.677002
129.221405 64.939003 -826.910278
126.931602 64.086197 -828.348877
113.918800 59.109100 -833.797180
106.168404 56.210400 -838.408630
141.361801 69.821297 -815.597900
139.342300 69.130898 -818.070801
138.099701 68.692200 -819.316223
136.083206 67.990700 -821.543213
123.824501 63.443501 -829.476074
119.748901 61.892502 -831.335022
118.298798 61.362400 -832.428528
116.756699 60.780201 -833.225098
112.145203 58.983501 -834.499878
110.557999 58.391300 -835.457397
134.550995 68.009003 -822.517883
132.814804 67.395699 -824.162415
125.129204 64.520302 -828.451477
122.043999 63.355801 -829.982910
108.899300 58.384998 -836.333984
106.954102 57.666302 -837.588989
139.828796 70.411301 -816.372314
136.573807 69.305603 -820.083923
131.113602 67.371201 -824.914124
128.763199 66.486900 -826.088318
127.265701 65.935303 -827.042419
115.030800 61.311600 -832.795227
140.684998 71.233299 -814.025330
138.360596 70.490402 -817.382813
138.544205 70.672302 -819.189575
123.483200 65.151199 -829.046875
120.121399 63.883202 -830.648926
118.657303 63.341702 -831.527710
116.934402 62.675598 -832.074280
113.344597 61.304600 -833.498474
111.289803 60.540298 -834.657776
109.641899 59.928600 -835.608521
136.799301 70.596100 -818.634827
135.000900 69.991302 -820.659790
133.665802 69.522102 -821.837402
132.295593 69.033501 -822.932312
129.372803 67.971603 -824.947998
125.681503 66.644798 -827.726379
121.768204 65.173599 -829.626526
108.172096 60.097099 -836.796387
139.220200 72.018303 -814.773193
130.608795 69.092499 -823.599487
127.861099 68.131203 -825.987488
124.199799 66.821899 -828.729980
115.273399 63.449699 -832.638916
111.896301 62.181599 -834.236816
139.816895 72.728500 -813.064819
137.865097 72.130997 -815.968323
135.146393 71.234100 -819.055176
126.343300 68.193497 -827.026672
120.060303 65.842102 -830.030029
118.484398 65.252098 -830.779480
116.930199 64.672501 -831.552490
113.599899 63.437698 -833.315125
110.226700 62.190800 -835.156982
109.008102 61.778900 -836.393799
136.459503 72.120102 -817.153076
133.585403 71.152100 -820.048828
132.213303 70.675598 -821.226013
122.460098 67.273201 -829.368713
130.887100 70.645302 -822.479980
129.356796 70.152199 -824.316284
124.726196 68.512398 -827.807373
138.348099 73.470703 -813.762024
127.811096 69.984299 -825.206116
120.887802 67.602501 -831.460205
116.390800 65.861099 -832.827515
114.523499 65.085899 -832.673279
112.211502 64.247597 -834.166382
137.019302 73.429497 -814.993225
134.753693 72.678101 -817.485474
126.280197 69.828796 -826.258301
117.279404 66.497002 -831.327271
110.567200 64.005402 -835.009583
135.432098 73.297096 -815.918884
133.345703 72.629097 -818.599121
132.344406 72.361504 -820.626709
123.141800 69.122002 -828.347717
120.712303 68.213997 -829.647888
119.131599 67.608597 -830.289307
131.237595 72.511902 -822.092529
130.027695 72.102097 -823.343994
124.816803 70.234299 -827.309082
137.057297 74.779900 -812.866699
135.692703 74.309097 -814.154907
128.677200 72.172699 -824.646179
127.194603 71.627502 -825.585022
115.926697 67.437897 -832.096802
114.362900 66.848999 -832.898376
112.842003 66.279800 -833.726685
134.505997 74.557999 -816.778320
132.865494 74.081398 -819.513672
121.753998 70.163803 -828.821716
117.762802 68.662498 -830.906311
111.379700 66.329002 -835.143616
135.324203 75.137901 -812.485718
133.956696 75.023903 -818.459412
131.810898 74.321503 -820.964600
130.294907 73.834999 -822.862183
128.028900 73.145302 -826.189697
125.670303 72.177002 -826.368896
123.701401 71.481697 -827.999878
120.139503 70.122902 -829.627197
135.118698 75.814598 -814.934875
128.968399 73.959900 -824.170227
116.182899 69.207298 -831.748413
114.745102 68.693298 -832.865723
113.505302 68.273903 -834.137573
137.190903 77.074303 -811.864990
136.105194 76.726402 -813.240723
134.671600 76.390602 -816.649292
132.998596 75.929199 -819.730591
121.986397 72.002899 -828.548218
118.429604 70.651001 -830.315796
112.514099 68.588600 -835.653625
111.282097 68.174103 -836.959595
135.790695 77.465897 -815.077026
133.946198 76.938904 -818.259216
131.961197 76.332001 -821.170288
130.599503 75.852997 -822.359680
127.593498 74.797699 -825.013672
126.293602 74.343903 -826.194275
124.780197 73.768898 -826.966980
120.385803 72.109100 -829.336975
137.738495 78.844498 -811.714417
136.890396 78.614799 -813.347717
129.344193 76.238297 -823.595581
123.130096 73.946701 -827.717529
117.133904 71.688797 -831.092529
115.826103 71.226501 -832.217224
114.517899 70.765297 -833.359985
113.509903 70.458801 -834.869080
112.762703 70.273697 -836.532288
135.089493 78.908699 -815.926086
134.190002 78.648804 -817.475830
133.006500 78.270699 -819.041687
132.182495 78.046303 -820.639221
130.977097 77.639702 -821.955200
126.510399 76.047699 -825.715210
121.599403 74.205803 -828.655273
119.503098 73.436996 -830.137085
137.915604 80.652603 -811.577576
136.419403 80.210297 -814.067627
129.421097 77.927399 -822.888672
128.281601 77.550697 -824.259827
125.130203 76.425301 -826.943787
119.698303 74.485397 -831.572083
116.376701 73.117302 -832.000427
115.093102 72.669601 -833.235413
135.288498 80.768303 -815.383911
134.123398 80.379799 -816.746277
133.105499 80.058296 -818.172180
132.001907 79.699699 -819.586426
130.847702 79.320000 -821.002686
126.770599 77.917999 -825.206726
123.269600 76.627098 -827.666626
120.467796 75.593002 -829.619629
117.899803 74.653503 -831.521179
136.377808 81.981796 -812.693115
129.399200 79.763702 -822.078674
127.959396 79.234200 -823.082825
125.353600 78.380501 -826.257202
124.371597 78.079102 -827.716980
121.947098 77.139397 -828.783813
135.501297 82.606400 -814.202087
134.518295 82.318703 -815.798279
133.190704 81.863602 -817.112976
132.114807 81.522301 -818.526672
131.043701 81.184402 -819.957520
126.600403 79.649902 -824.215576
123.436401 78.710503 -829.183472
122.035301 78.208702 -830.299316
124.605499 80.331902 -826.457397
123.959999 80.201302 -828.181885
122.942398 79.953796 -830.396118
121.583702 79.469002 -831.481018
135.180695 84.336800 -813.812317
114.142601 72.677200 -834.824524
111.669403 69.384003 -838.217407
108.544998 58.826599 -838.046082
103.796600 51.560299 -839.760010
117.387299 53.005402 -833.856384
139.289703 61.605999 -826.230286
107.617203 43.481098 -838.930786
104.384598 41.965401 -839.967773
121.910103 49.703999 -833.873230
116.796402 46.973400 -835.641418
124.303703 49.965099 -833.768188
122.894798 49.511101 -835.422607
114.537498 45.406502 -837.015991
126.150101 50.513699 -833.828125
116.211700 45.913898 -837.396118
110.250198 44.044998 -840.048523
124.068100 54.508801 -833.599670
132.339401 58.667400 -830.339783
103.896797 48.895199 -840.649475
140.546295 63.583599 -823.929321
110.808098 64.764702 -836.675415
116.304398 74.350700 -833.327576
130.068298 81.710899 -821.427185
128.347900 81.076797 -822.706299
127.044296 81.627502 -823.823120
139.359100 74.791199 -812.935303
133.587708 84.088600 -815.960388
140.849396 64.980499 -822.796021
125.953300 81.293503 -825.474976
129.257202 53.143501 -832.678223
128.745895 51.261799 -834.347473
109.535500 63.338902 -837.108215
110.595200 56.269001 -837.734619
134.006500 56.014599 -831.065796
137.531998 60.032101 -827.986572
132.603500 83.344704 -818.057983
141.548294 67.506798 -819.978088
140.741196 71.956200 -815.725708
132.955200 64.875900 -828.910828
128.933594 70.314003 -827.422729
131.543198 67.613297 -827.124512
133.477493 68.523102 -825.611328
132.288895 72.700302 -824.490723
133.900696 69.370300 -823.900574
131.957596 70.481201 -823.928101
132.951202 74.713898 -823.972778
132.796097 73.405296 -822.345520
135.103394 70.267799 -822.644409
133.858093 71.587799 -821.915588
135.106003 72.506401 -820.828186
136.378601 71.231903 -820.658813
138.094299 69.517197 -821.026917
139.762299 69.067802 -820.232422
135.729706 72.944099 -819.065796
133.861404 81.368103 -819.116821
137.425201 72.393700 -818.877930
136.504898 74.431602 -817.107727
140.650497 70.644798 -818.054077
140.158096 73.751198 -816.648315
137.198700 75.817802 -814.454224
137.802795 82.472000 -813.776184
138.606796 74.305000 -815.495422
138.944397 72.221100 -817.905212
141.988998 68.643303 -818.562073
131.396896 83.670303 -819.537109
140.205994 66.745903 -821.916504
132.462708 79.603798 -821.781006
136.734894 69.541298 -822.306274
137.618195 67.241898 -823.021484
129.261795 83.073402 -822.310974
142.180298 71.111099 -816.534729
140.562103 73.981499 -814.443176
138.307098 80.719299 -813.413025
112.908798 49.275101 -837.017700
112.183403 47.191898 -838.138184
115.177803 53.739601 -836.132385
104.949699 50.212601 -840.029297
113.636902 71.716698 -837.195618
115.100899 72.236702 -836.275085
116.075302 73.679100 -835.318481
117.495499 75.729797 -833.270081
116.228600 75.488403 -835.171997
118.709702 77.019798 -832.575989
119.916397 78.211197 -832.026123
151.261002 43.033401 -775.048584
150.274002 44.641701 -774.310486
151.136597 43.048801 -776.875977
149.605896 46.799702 -773.533875
150.332901 44.891701 -776.140015
151.370102 44.153900 -778.286621
149.393402 48.675400 -772.921509
149.839294 46.474800 -775.321289
150.430206 46.064400 -777.492981
149.280807 48.317799 -774.698730
150.878494 45.649601 -779.177124
148.943207 51.069000 -772.823914
149.706604 47.898499 -776.451782
151.173706 45.086102 -780.846680
149.135300 50.329102 -774.508423
150.477295 48.290298 -778.104004
149.404007 49.715500 -776.169922
150.786301 47.735699 -779.773376
148.932007 53.617599 -773.192383
150.175705 50.069000 -777.811890
149.031006 52.770802 -774.760071
150.606094 47.091999 -781.526489
148.840195 55.861801 -772.767029
149.060501 51.753502 -776.294312
150.377106 49.986698 -779.611328
150.443893 48.953400 -781.155884
149.020706 57.646099 -772.923096
148.691299 55.102600 -774.410828
149.555695 52.141998 -777.971130
148.806305 54.093700 -775.966919
149.962799 52.104000 -779.782593
150.229904 50.727200 -781.232178
150.214203 48.554199 -782.882385
148.940994 57.530899 -774.755920
148.910599 62.251701 -771.785278
148.899902 60.642101 -773.004028
148.909393 56.440102 -776.240417
148.739502 54.106899 -777.782715
149.379898 64.068199 -771.816528
148.878693 59.554001 -774.544128
149.408096 54.064400 -779.512512
149.848999 50.350601 -782.993774
149.809601 53.553398 -781.205688
150.033096 52.313099 -782.478088
149.843506 49.343601 -784.474487
149.025208 63.052601 -773.406982
148.875000 58.848499 -776.398926
148.778107 56.170601 -778.302917
148.754196 61.748001 -774.587524
149.184204 65.237602 -773.189270
148.927002 60.829601 -776.174377
148.739395 58.040001 -778.027710
149.155197 55.471401 -780.582581
149.634506 54.456501 -782.747986
149.523605 52.359901 -784.183472
149.509293 50.907600 -785.267822
148.980392 64.525101 -774.855103
148.807999 60.214901 -777.884827
148.568405 57.321899 -779.740601
148.821594 63.320099 -776.161072
151.393402 71.800598 -773.916870
148.739395 59.272499 -779.614990
148.962708 56.311699 -782.180725
149.589203 54.354401 -784.563171
148.723495 66.328400 -774.835388
148.420700 62.003201 -777.676514
150.449600 69.980598 -775.300476
148.762894 61.387100 -779.392578
148.477295 58.429001 -781.222778
149.240097 56.232899 -783.974976
149.963196 68.637703 -776.429016
148.577896 65.325302 -776.956482
148.545395 63.788502 -778.072083
150.748001 72.461197 -775.453979
148.516403 60.752800 -781.117126
148.396393 58.040100 -782.994629
149.348206 56.154499 -785.774292
148.399796 63.173302 -779.825073
148.530807 60.189400 -782.856812
148.772995 58.152699 -784.735474
150.011505 71.553299 -776.842712
149.001907 68.120697 -777.989990
148.320694 66.056198 -778.575195
148.313904 62.585602 -781.526001
149.749100 70.389198 -778.181396
148.274597 65.071098 -780.071716
149.489700 73.346497 -776.864075
148.426300 67.625198 -779.628418
148.276703 62.330898 -783.360474
148.141693 60.376701 -784.625671
148.117706 64.834396 -781.892517
148.413696 59.564098 -786.223877
149.511795 72.929604 -778.613892
149.522003 71.437103 -779.735107
148.924896 69.611000 -780.253418
148.583206 67.431000 -781.391785
147.992599 64.421799 -783.674316
147.895401 62.263401 -785.138184
148.327805 66.877998 -783.151978
149.403305 74.131599 -780.030396
149.518204 72.720299 -781.233826
149.029007 70.975502 -781.843384
148.580307 69.274696 -782.476685
147.599701 61.582100 -786.800476
148.684692 67.087898 -784.927490
147.745193 64.536903 -785.506714
149.432693 74.572800 -781.799011
149.339600 72.295502 -783.344727
148.175201 68.910301 -784.226929
147.738205 63.978001 -787.250183
148.457199 70.735497 -783.784912
148.245605 66.508202 -786.590210
148.122696 68.469002 -786.017883
149.083298 74.235901 -783.586182
148.098999 70.463097 -785.515686
147.549103 65.811699 -788.111572
148.568695 73.064697 -784.995422
147.981201 68.056099 -787.794312
148.790802 75.377403 -785.223511
148.096603 72.201500 -786.566406
147.793701 70.518097 -787.364990
148.513504 74.143097 -786.590515
147.218094 67.699997 -789.469177
150.683304 80.794701 -785.650330
150.909302 79.509598 -786.867981
147.306305 69.799599 -789.029480
147.898697 73.454399 -788.225098
148.166702 73.130302 -789.955383
149.955704 80.545700 -788.096375
147.486694 75.296097 -790.268127
148.936707 81.197899 -789.427429
147.803604 77.982399 -790.230530
146.783401 80.695702 -790.850098
146.784302 79.167000 -791.908081
145.670395 83.551300 -792.346680
145.600006 86.600197 -791.659790
145.522705 85.853302 -793.547119
145.202194 84.198402 -794.285522
144.531998 85.692497 -795.268372
143.864395 85.030502 -796.821777
149.877304 56.774799 -802.105286
148.846207 57.474602 -803.398682
150.937103 50.850101 -796.240601
150.207306 51.944000 -797.524780
149.822800 53.273899 -798.670410
149.503799 54.923599 -799.340027
151.547607 50.425499 -794.247925
149.058899 57.641899 -800.781921
148.372498 58.822300 -802.080627
150.143204 52.104900 -795.246521
149.741394 53.423599 -796.394775
149.046494 56.644100 -798.964172
149.333893 55.036800 -797.117676
147.876495 60.504398 -801.699097
148.546799 58.370800 -799.079529
150.251495 52.258499 -793.061829
149.429001 53.679401 -794.611511
148.808594 56.794800 -797.046509
147.969803 59.967400 -799.694702
150.987305 48.366402 -789.177185
150.771606 50.000900 -790.366089
149.145203 55.483799 -795.087524
147.731995 61.736500 -800.113403
150.144104 51.584301 -790.999878
148.490601 58.555698 -796.663879
148.218796 59.989498 -797.773621
147.058304 63.324799 -800.782593
149.581894 53.161400 -791.647583
149.142593 54.574600 -792.878174
148.572403 57.280102 -795.015381
150.417404 49.765598 -788.172974
147.666397 61.746201 -797.802917
147.498703 63.285500 -798.890381
146.823898 65.133499 -800.577576
149.959396 51.420300 -788.856689
148.644196 56.360001 -792.964478
147.981293 60.006599 -795.749817
150.337204 48.382500 -785.895996
149.604904 53.095699 -789.392273
149.352295 54.554699 -790.495178
148.684097 58.167599 -793.260925
151.050995 46.028198 -782.994507
150.490295 47.349602 -784.258789
148.907806 56.243698 -791.015991
148.388306 59.895699 -793.686279
147.465393 61.738499 -795.562317
147.218597 63.186901 -796.653809
146.955002 64.586998 -797.729126
146.667496 66.045303 -798.859497
149.556000 51.797401 -786.833618
148.669403 58.063000 -791.411011
145.770996 67.486099 -799.544189
149.359695 53.630798 -787.249817
149.186798 55.092899 -788.289673
148.389206 59.803398 -791.831299
148.037796 61.765499 -793.321777
147.517502 63.319099 -794.694519
148.900894 56.806499 -788.761230
146.901199 64.914101 -795.348877
146.274902 66.146698 -796.606323
145.952606 67.548897 -797.726929
148.534195 58.497299 -789.203186
145.036896 69.007202 -798.455078
149.090805 57.431599 -787.038879
148.086395 60.280602 -789.590820
147.766205 61.686798 -790.711487
147.430496 63.046299 -791.815918
147.080795 64.483398 -792.979126
146.397003 66.173500 -793.416687
145.734894 67.357101 -794.670227
145.241302 68.639801 -795.851807
144.503494 70.469101 -797.563782
147.773193 61.860100 -788.583618
147.359207 63.243099 -789.763306
146.913193 64.555496 -790.924194
145.597107 70.691101 -795.748413
145.079895 72.119797 -797.037170
151.124405 42.662399 -773.159729
147.036102 66.347603 -790.971802
147.312698 68.181198 -791.887329
146.630707 69.323898 -793.125488
146.177597 72.356697 -795.351318
146.037201 73.838203 -796.375183
146.411606 71.117897 -793.562012
147.062607 73.185997 -793.531311
147.031601 74.714401 -794.498718
145.879105 75.565598 -795.920288
150.626907 43.919201 -771.919312
147.042603 69.959099 -790.783325
146.899002 71.504501 -791.849182
147.578995 73.267197 -791.686279
146.205795 77.162399 -795.153625
149.980301 45.602600 -772.138123
147.263901 74.983902 -792.335022
146.696106 76.203903 -793.525024
145.895203 78.933502 -795.225281
147.810394 71.723000 -788.770996
146.633194 78.011597 -793.537781
147.363907 76.602898 -791.544189
149.657806 46.894402 -770.866821
146.220795 79.740196 -793.661377
145.563507 80.887100 -794.869080
149.196793 48.599201 -770.585022
147.991898 75.261497 -787.877686
146.191895 82.505898 -793.699280
149.161499 50.492699 -770.893127
149.049301 52.355701 -771.265381
148.980301 77.869904 -787.012207
148.881897 79.667397 -786.376587
148.758698 67.093002 -776.526489
149.227005 54.044102 -770.687073
148.766693 60.464901 -787.791016
150.354202 57.618999 -791.825195
150.623703 39.408600 -760.568481
150.516495 40.015400 -762.256714
150.336700 40.879501 -763.879517
150.231201 41.351101 -760.258911
150.585297 41.745399 -765.437622
150.174698 42.063900 -761.889893
151.288193 42.348400 -768.655579
151.207901 42.734699 -770.399170
150.114700 42.907700 -763.518372
150.683304 43.061798 -766.742371
149.976501 43.754002 -765.103821
150.781998 43.987000 -769.180420
149.715195 44.049000 -761.695374
150.288895 45.057400 -767.700684
150.444397 45.257900 -770.404297
149.995300 46.409698 -768.864624
149.429703 48.086498 -768.231018
149.191895 49.903500 -768.179810
149.093597 51.507999 -769.033813
148.857803 55.414600 -769.465271
148.997604 56.619701 -770.768921
149.316498 57.598301 -769.311401
149.211594 58.380299 -770.965210
149.732803 59.325600 -769.015625
148.409607 58.872002 -804.428772
149.463303 60.379101 -770.471130
148.171402 60.506901 -803.455688
147.530304 60.284801 -805.135315
147.684097 62.072498 -802.556274
147.312103 61.979000 -804.361206
146.735397 63.141399 -805.611206
147.183197 63.783501 -802.501221
147.012604 63.840099 -807.277100
146.703995 63.769299 -809.079285
146.856796 64.258904 -804.200195
146.214600 64.872597 -805.758972
146.173294 65.213799 -808.079712
146.653702 65.492798 -802.363770
145.575302 65.575500 -809.758728
146.283295 66.009499 -804.108276
146.025604 66.372200 -806.726807
146.752594 66.960800 -800.995728
145.971603 67.379898 -802.560486
145.667007 67.368797 -805.164673
145.056107 67.245796 -807.989014
144.093704 66.930702 -809.546021
146.037094 68.649002 -800.870972
144.917801 68.447304 -806.427429
143.202301 67.955399 -810.756287
145.394897 68.989098 -803.110718
145.604904 69.152603 -804.907715
143.939499 68.633003 -808.129272
145.094498 70.035896 -799.978821
143.900299 69.881302 -806.770874
142.964600 69.625298 -809.284485
144.874298 70.541603 -801.757690
144.893799 70.641197 -803.579529
144.399597 71.064201 -805.315430
142.853607 71.129303 -807.500610
142.341797 71.075699 -810.191284
143.857193 71.615799 -798.827393
144.021805 71.791199 -800.654724
143.745499 71.785797 -802.448608
143.648697 72.481400 -804.160583
143.009201 72.327301 -805.866577
142.170197 72.759399 -807.718506
141.972900 72.795403 -809.510071
150.432404 74.518097 -775.619873
144.790497 73.719200 -797.778320
143.931595 73.478302 -799.383911
142.708099 73.065399 -800.635315
142.620102 73.163498 -802.619873
149.665405 74.763496 -777.984375
142.281799 73.600098 -804.392029
141.505997 73.801300 -806.018188
140.948807 73.892899 -810.480286
141.160202 74.208900 -808.040527
149.548798 76.111198 -780.682312
149.353699 76.169098 -782.605286
145.102600 75.494904 -797.529480
144.302200 75.282997 -799.156921
143.183701 74.923203 -800.541016
141.934494 74.973099 -801.885986
141.068100 74.731796 -803.504822
147.677200 76.894798 -788.613281
140.383896 75.071999 -805.156677
140.314499 75.332497 -809.173096
145.530807 77.116997 -796.878113
143.069199 76.437599 -801.516724
139.947098 75.536797 -806.867188
144.696899 77.418701 -798.451477
143.896606 77.207298 -800.068481
141.916107 76.600800 -802.954102
140.521606 76.660004 -804.067505
148.522705 79.342903 -788.152527
145.511993 78.820198 -797.663086
143.508499 78.275703 -801.444702
138.993607 76.668098 -805.035400
139.234299 76.973198 -807.686279
145.089096 79.405800 -799.294128
142.709000 78.696297 -802.992920
151.008301 81.687401 -787.193604
141.091599 78.822197 -803.891418
139.816299 78.383598 -805.134583
138.027603 77.714600 -806.184875
150.338593 82.361099 -788.776001
145.283707 80.850899 -796.696228
143.895493 80.531799 -800.104675
142.867493 80.216301 -801.607727
147.876907 82.332199 -790.364990
144.474503 81.500702 -798.202881
142.059006 80.860703 -803.117676
141.436996 80.728699 -804.812378
140.057999 80.232300 -805.908386
138.726303 79.765999 -807.138916
145.279495 82.539200 -795.486328
143.239105 82.078102 -800.759521
144.601303 83.303200 -796.957397
144.061996 83.206596 -798.687012
142.361694 82.756798 -802.223816
141.859207 82.676498 -803.965027
140.675293 82.279297 -805.317017
139.647995 81.954399 -806.750122
143.378403 83.970200 -800.207886
138.447998 82.497803 -808.066772
142.326797 84.486702 -801.640625
141.651794 84.333900 -803.301880
140.712006 84.060600 -804.849426
139.626602 83.721802 -806.344788
143.710403 85.516701 -798.531677
142.674500 85.824997 -800.458374
142.041000 86.279503 -802.131470
141.051498 85.985199 -803.646606
139.942001 85.644402 -805.213379
138.935593 85.344200 -806.743713
145.685593 87.727097 -793.076904
145.084396 87.614197 -794.812317
144.024994 87.280998 -796.239502
142.552094 87.684998 -800.338501
142.343399 88.444099 -801.983887
141.085098 88.010498 -803.270813
139.856506 87.584503 -804.495605
142.138306 90.373299 -800.925293
143.358002 87.463799 -797.881104
150.104706 83.000999 -785.135986
151.717407 73.753998 -774.096130
149.243607 68.073601 -774.609009
149.543900 67.032204 -773.157715
149.976593 58.105099 -767.707886
150.006302 61.988400 -790.905518
149.630798 56.339500 -767.577026
149.400299 54.586399 -767.348877
149.151596 53.548500 -768.858582
149.490204 52.556499 -766.750000
149.460602 50.673100 -766.584778
149.528503 48.522301 -766.344177
149.824707 46.626598 -765.958496
151.826294 52.235401 -794.017517
151.712601 44.344398 -773.286377
150.135101 44.815498 -763.322571
151.815598 47.122601 -778.403320
149.996201 45.817799 -761.775818
149.706406 46.462601 -763.907715
150.190796 47.617599 -762.336182
149.786499 48.258900 -763.960876
151.325897 51.157799 -778.632019
150.359604 53.049400 -785.596985
150.790100 53.270199 -778.656982
150.501297 58.822102 -801.375610
150.056503 57.198601 -780.826782
149.191605 61.262402 -785.905273
151.125000 61.609600 -777.336914
148.057999 65.526604 -794.111023
149.449600 76.981201 -784.231873
139.733902 77.363197 -809.424622
146.940094 81.372002 -792.496277
145.546402 89.447304 -792.122375
151.245102 58.644501 -770.320618
150.416397 50.141899 -772.311279
150.679596 47.521500 -772.281372
151.355698 46.227402 -773.372681
150.952805 47.724602 -774.334717
151.883499 45.376499 -774.855286
151.376694 47.276199 -776.152100
150.325195 53.240200 -776.469727
152.094406 45.641602 -776.936829
150.315796 55.189899 -778.345581
152.345505 46.969002 -780.265991
151.349197 52.699902 -780.827515
150.695206 55.684601 -781.527527
150.005005 58.462502 -782.210815
149.892395 59.367901 -783.749329
150.387604 57.644402 -783.913574
151.097504 51.552399 -783.950928
150.069794 59.217499 -785.588379
151.114502 50.202202 -785.837280
149.002304 62.730900 -786.951172
150.815598 52.701302 -787.916382
151.718307 50.932701 -788.775879
149.216202 83.516502 -789.789124
150.380203 56.070999 -789.488220
151.314499 52.725498 -789.764282
150.955505 54.314800 -792.997620
148.651901 63.638802 -793.109680
151.239807 53.813202 -794.705078
149.403595 58.994801 -794.934204
151.990601 52.569302 -795.769226
147.472794 67.077003 -794.973022
150.214401 56.806099 -795.618530
149.000000 61.507801 -796.484985
150.937302 54.203602 -797.480286
149.925797 58.485298 -797.735229
146.228806 69.685997 -797.086182
149.079895 61.215500 -798.775513
146.900894 68.848701 -798.543579
148.159195 65.006203 -799.060120
150.659897 58.282101 -803.065613
141.491302 89.805702 -802.879578
143.528503 69.749702 -811.024475
142.793594 73.486099 -811.095093
149.767105 59.824600 -802.864624
145.611893 71.293701 -798.758972
149.730698 59.611801 -799.556885
150.597397 56.073101 -798.287781
147.910797 66.073601 -797.333008
144.174606 88.992699 -795.615479
150.195099 56.214001 -793.836792
145.379196 89.492500 -794.316528
149.534698 60.950401 -792.802490
150.326401 55.644199 -791.939880
151.025497 54.165001 -790.986206
149.628601 59.569099 -790.544922
148.064606 65.170998 -789.695313
150.068802 57.910198 -789.943115
147.048294 83.884804 -790.640015
148.345200 79.785698 -790.392578
149.773499 58.993999 -787.552673
150.415497 55.166100 -786.823975
151.595703 49.028999 -784.202271
150.864197 55.453800 -783.977722
150.905197 53.428799 -783.780579
151.898605 47.991402 -782.614685
149.514404 63.850201 -782.499023
151.642395 49.975300 -782.030884
151.921097 49.178501 -780.103394
151.100204 54.662399 -779.868225
151.133499 49.096298 -776.287415
149.827805 76.344704 -778.796875
150.371796 51.590698 -774.760010
149.819397 59.182899 -772.462524
151.402100 44.667301 -766.344604
150.212906 52.340199 -772.835693
151.904099 51.010300 -780.382874
151.320206 83.306999 -786.464172
140.955399 76.163200 -810.745422
142.150299 74.764000 -809.455200
143.808899 71.171600 -809.005493
146.454300 67.107201 -809.469482
139.825195 78.675598 -808.200623
147.484406 65.524200 -809.256592
141.244293 76.306702 -807.855774
145.870102 68.929901 -807.887512
142.289398 75.173500 -806.913818
140.722900 76.999603 -806.070984
147.712799 65.494102 -807.194519
145.611801 70.282799 -806.465210
146.821106 68.047302 -806.636719
143.648605 74.463501 -805.701721
142.178299 75.575500 -804.883484
144.755295 73.034599 -805.476318
143.783493 74.538696 -803.829590
148.376205 63.373501 -803.763428
144.797302 73.208801 -802.141479
146.602997 70.092300 -801.921082
149.332001 61.507801 -801.951416
148.712997 63.163200 -801.494507
147.642395 67.515800 -799.498474
150.440903 57.930599 -799.523193
149.084900 62.874901 -798.102722
146.112000 80.666603 -798.260986
147.950394 51.341400 -795.963989
148.593796 64.270599 -797.090820
147.361893 68.243202 -796.815918
151.186707 55.309399 -796.043579
146.658295 69.404999 -794.978088
149.083206 62.350800 -794.815613
147.897202 67.140602 -793.220703
148.275696 65.673798 -792.142578
145.816498 71.715103 -800.719727
145.414597 72.362396 -803.622192
146.901901 68.307098 -803.786621
146.122696 71.054497 -804.812012
139.266693 84.227303 -808.102722
145.081696 68.559502 -809.520996
148.810196 62.190601 -805.512817
143.123901 84.752296 -804.719421
148.833405 64.124298 -791.334229
152.113098 50.721199 -773.244080
46.040001 96.352898 -814.498413
46.648602 96.989304 -816.099182
46.929699 98.476898 -817.088684
45.531502 97.573502 -813.100281
45.650600 98.505203 -814.713989
47.134998 99.958702 -818.171814
44.936501 98.762299 -811.093323
45.965401 100.109802 -815.617615
44.740002 99.606697 -812.672485
46.385700 101.271698 -816.916992
47.293301 102.071999 -818.532288
44.744801 99.780800 -809.453918
45.047199 100.711502 -814.093872
44.638401 100.655502 -811.112671
45.709301 101.957199 -815.265076
46.044201 103.067398 -816.802979
46.840900 103.811203 -818.515930
48.420898 105.364197 -822.398071
47.366100 105.685699 -820.724487
48.279099 109.018402 -821.228394
46.496101 108.052597 -818.557617
47.010399 109.114899 -819.929626
49.163101 110.621902 -821.597229
