ply
format ascii 1.0
element vertex 691
property float x
property float y
property float z
property float nx
property float ny
property float nz
property float label
element face 0
property list uchar int vertex_indices
end_header
41.684502 80.902100 -737.363098 0.596490 0.802272 0.023637 0.000000
41.683998 84.515701 -733.935181 0.379344 0.093816 -0.920487 0.000000
41.683300 81.954903 -733.957886 -0.215212 0.027347 0.976184 0.000000
41.682301 83.587402 -736.861877 0.647074 0.085792 0.757585 0.000000
41.681499 44.550701 -733.541199 0.470926 0.112396 0.874983 0.000000
41.681301 91.906799 -737.468018 0.257437 0.003592 0.966288 0.000000
41.680199 48.869598 -735.391724 -0.997738 0.058565 0.033009 0.000000
41.674702 47.615898 -735.356323 0.864927 0.357954 -0.351809 0.000000
41.674500 91.718597 -733.864624 0.767207 0.064531 -0.638144 0.000000
41.673500 102.589996 -733.377319 0.394792 0.212806 -0.893786 0.000000
41.673199 51.731701 -735.289978 -0.092018 0.655814 0.749293 0.000000
41.665199 74.481201 -733.662720 0.630146 0.747815 -0.209017 0.000000
41.665199 116.547997 -731.605408 0.190407 0.193033 -0.962540 0.000000
41.663300 46.329498 -734.217224 -0.385363 0.921977 0.038142 0.000000
41.660500 86.708397 -737.195313 0.267559 0.033291 0.962966 0.000000
41.660301 63.438801 -738.450378 0.572215 0.810516 -0.125034 1.000000
41.656601 53.738098 -733.475281 0.589608 0.032059 0.807053 0.000000
41.656200 103.838898 -733.252991 0.474096 0.003984 -0.880464 0.000000
41.655399 39.236000 -733.451721 0.625173 0.188934 0.757273 0.000000
41.651798 44.288101 -734.426270 0.286323 0.953102 -0.098056 0.000000
41.651100 89.533600 -737.417175 -0.343290 0.343290 -0.874245 0.000000
41.650501 125.373398 -729.653687 0.269322 0.337020 -0.902155 0.000000
41.647598 79.507103 -737.007080 -0.237978 0.945035 0.224222 0.000000
41.644402 61.169601 -736.781921 -0.363680 0.360585 0.858904 1.000000
41.643600 110.937798 -732.391418 0.131062 0.114229 -0.984771 0.000000
41.642700 73.121498 -736.601685 0.032315 0.114776 0.992866 0.000000
41.641701 98.418297 -737.989014 0.343651 0.250061 0.905192 0.000000
41.641399 68.656097 -736.266785 0.020714 0.813372 0.581375 0.000000
41.641102 63.522999 -735.941772 -0.040290 0.019629 0.998995 0.000000
41.640499 68.064903 -736.205994 -0.015369 0.713975 0.700003 0.000000
41.635101 77.520401 -733.930420 -0.263596 0.066845 0.962314 0.000000
41.633701 61.792801 -737.077881 -0.507478 0.287519 0.812280 1.000000
41.631500 85.342201 -733.989197 0.534721 0.012246 -0.844940 0.000000
41.631302 36.993301 -734.127686 -0.714095 0.599709 0.361133 0.000000
41.630100 48.568802 -733.449280 0.642958 0.229963 0.730563 0.000000
41.629200 102.614998 -738.405823 0.483880 0.131442 0.865207 0.000000
41.629002 72.926003 -733.878784 -0.184865 0.024416 0.982460 0.000000
41.628899 129.737000 -727.267212 0.014383 0.417107 -0.908744 0.000000
41.627300 45.317799 -733.551880 -0.345770 0.112545 -0.931545 0.000000
41.626801 127.458603 -728.709229 0.412113 0.349434 -0.841462 0.000000
41.621201 118.138702 -731.378601 0.202314 0.128514 -0.970852 0.000000
41.618198 88.496399 -737.153381 -0.278795 0.169997 -0.945185 0.000000
41.618099 56.744202 -735.690002 -0.190523 0.296214 0.935926 0.000000
41.617199 90.250900 -737.325317 0.456162 0.085094 0.885819 0.000000
41.616901 99.639297 -738.073425 0.337994 0.008795 0.941107 0.000000
41.616001 58.847401 -733.362183 -0.706496 0.457144 -0.540262 0.000000
41.612499 45.030701 -734.203430 -0.950884 0.276063 0.140032 0.000000
41.612000 61.005402 -733.607300 0.471316 0.860857 -0.191797 0.000000
41.607899 96.520203 -738.040771 -0.354104 0.104467 -0.929353 0.000000
41.605999 115.469002 -739.731323 -0.027644 0.231965 -0.972331 0.000000
41.604698 43.108898 -734.648987 0.260738 0.946027 0.192482 0.000000
41.599602 38.548698 -733.440186 0.349140 0.110040 0.930587 0.000000
41.597198 63.095299 -737.821777 -0.815405 0.348097 0.462540 1.000000
41.596100 76.622002 -733.927979 0.191611 0.865963 0.461946 0.000000
41.596001 105.378403 -738.707825 -0.270310 0.018347 -0.962598 0.000000
41.595699 64.508202 -733.771423 0.087000 0.077961 0.993153 0.000000
41.593201 46.689999 -735.304626 0.526963 0.457144 0.716470 0.000000
41.591900 130.740906 -726.839722 0.195626 0.389803 -0.899880 0.000000
41.590900 43.821800 -733.466614 -0.539133 0.072167 -0.839123 0.000000
41.590199 119.316704 -731.179871 0.250167 0.146924 -0.956990 0.000000
41.584000 52.852901 -733.495117 0.506793 0.190987 0.840645 0.000000
41.581501 110.968903 -739.507324 0.371222 0.110956 0.921891 0.000000
41.581299 97.236397 -737.888000 -0.386275 0.022110 -0.922118 0.000000
41.576801 56.640499 -733.325317 0.244204 0.414997 0.876437 0.000000
41.574100 93.542801 -737.628784 -0.507999 0.039924 -0.860432 0.000000
41.572601 101.579102 -738.287720 0.556546 0.163514 0.814567 0.000000
41.570999 105.118797 -733.248474 0.330472 0.055727 -0.942169 0.000000
41.569401 43.661201 -734.398621 0.701211 0.712453 0.026699 0.000000
41.569000 71.659500 -736.495789 0.049850 0.037123 0.998067 0.000000
41.564800 85.916397 -734.025024 -0.498471 0.056928 0.865035 0.000000
41.563202 108.823799 -739.185486 0.514082 0.098807 0.852031 0.000000
41.559502 49.252300 -733.457581 0.504004 0.062826 0.861414 0.000000
41.557400 81.157303 -736.822388 -0.762149 0.061718 -0.644453 0.000000
41.556499 69.451599 -733.792175 -0.106345 0.287525 0.951851 0.000000
41.549099 72.276100 -733.884888 0.378816 0.271011 -0.884902 0.000000
41.545700 101.964203 -733.475220 0.474116 0.201911 -0.856998 0.000000
41.545601 36.322102 -734.310913 0.298096 0.098490 -0.949441 0.000000
41.545101 92.639198 -737.492615 -0.499469 0.193488 -0.844448 0.000000
41.543499 37.942402 -733.463074 0.812655 0.094158 0.575088 0.000000
41.542301 61.606602 -732.727783 -0.416102 0.165577 -0.894116 1.000000
41.542000 41.689301 -734.693604 -0.125945 0.970663 0.204819 0.000000
41.542000 73.892799 -733.680176 0.830485 0.393887 0.393887 0.000000
41.541901 95.938004 -733.859985 -0.488268 0.022993 0.872391 0.000000
41.536098 76.484703 -736.801575 0.169149 0.077976 0.982501 0.000000
41.533199 69.297203 -736.328186 -0.040445 0.081982 -0.995813 0.000000
41.533199 44.719601 -734.920898 0.870511 0.059510 -0.488538 0.000000
41.532101 70.890503 -736.466003 -0.052650 0.636072 0.769832 0.000000
41.529900 124.638298 -729.947327 0.280300 0.294823 -0.913516 0.000000
41.529499 92.787399 -733.956909 0.536889 0.063412 -0.841267 0.000000
41.525200 77.684799 -736.909485 -0.262905 0.398114 -0.878855 0.000000
41.521400 87.281799 -737.166504 0.539763 0.304114 0.784965 0.000000
41.521400 123.448601 -730.302307 0.282534 0.111700 -0.952732 0.000000
41.516701 57.364498 -733.308105 0.371414 0.567756 0.734646 0.000000
41.510101 55.954700 -733.325928 0.212466 0.631194 0.745957 0.000000
41.508999 109.849701 -739.328186 0.468561 0.076471 0.880115 0.000000
41.508999 74.759201 -736.668579 0.118990 0.050996 0.991585 0.000000
41.508202 87.812599 -734.110291 -0.611218 0.049635 0.789904 0.000000
41.507999 64.228302 -735.958374 -0.040038 0.517733 -0.854605 0.000000
41.507801 47.000702 -733.325317 0.488803 0.176801 0.854291 0.000000
41.506901 37.148998 -733.474426 -0.924622 0.125396 -0.359652 0.000000
41.505402 113.034500 -732.095398 0.154342 0.132117 -0.979144 0.000000
41.501400 59.268200 -735.807800 -0.064778 0.752866 0.654979 0.000000
41.497501 106.416496 -738.754211 0.440378 0.090298 0.893260 0.000000
41.497200 94.734802 -737.839294 -0.573149 0.037652 -0.818586 0.000000
41.496799 120.513702 -730.948486 0.324872 0.361477 -0.873952 0.000000
41.495399 65.156700 -736.034180 -0.120337 0.203939 -0.971560 0.000000
41.493698 110.190002 -732.562927 0.254842 0.194880 -0.947142 0.000000
41.492802 0.576800 -731.480530 -0.964982 0.226067 -0.133056 0.000000
41.492298 111.764397 -732.299622 0.240718 0.221461 -0.944992 0.000000
41.491299 35.620701 -734.312927 -0.449703 0.742916 -0.495826 0.000000
41.490002 45.516300 -735.093872 -0.409306 0.912055 -0.025006 0.000000
41.486599 51.456902 -733.366028 0.168079 0.595092 0.785885 0.000000
41.485298 70.042603 -733.801575 0.183224 0.014981 -0.982957 0.000000
41.484501 82.895500 -736.684509 0.690096 0.015335 0.723555 0.000000
41.482800 63.251301 -733.747925 -0.009277 0.048445 0.998783 0.000000
41.482700 91.270401 -737.381287 0.432009 0.001305 0.901868 0.000000
41.479000 114.252602 -740.039612 0.144028 0.367760 0.918700 0.000000
41.477001 104.065498 -738.577515 0.555584 0.150440 0.817737 0.000000
41.476200 83.073303 -734.053528 -0.467916 0.020111 0.883544 0.000000
41.473400 60.575500 -736.640503 -0.215193 0.605328 0.766336 0.000000
41.470798 90.962402 -734.076721 0.593373 0.094301 -0.799385 0.000000
41.466099 84.167999 -736.812500 0.425878 0.172967 0.888094 0.000000
41.464699 60.443401 -733.095398 -0.376126 0.051470 -0.925138 1.000000
41.463402 42.447498 -734.636719 0.960028 0.131922 -0.246864 0.000000
41.462898 47.995800 -733.434204 0.494825 0.104099 0.862735 0.000000
41.457298 112.810204 -739.738281 0.336246 0.100472 0.936399 0.000000
41.456001 67.825203 -733.768677 0.014728 0.475325 0.879687 0.000000
41.452599 93.472000 -734.022400 -0.452288 0.394344 0.799955 0.000000
41.451801 105.869499 -733.215515 0.364269 0.246287 -0.898137 0.000000
41.450802 42.862900 -733.372070 0.067806 0.702588 -0.708359 0.000000
41.448799 98.332298 -733.818909 0.562304 0.160444 -0.811217 0.000000
41.447201 103.225403 -733.474426 0.445961 0.114676 -0.887676 0.000000
41.445499 43.212898 -734.058411 -0.975569 0.192628 -0.105635 0.000000
41.442402 117.503403 -731.497375 0.206598 0.103925 -0.972891 0.000000
41.440102 40.381802 -733.343628 -0.574766 0.084991 -0.813892 0.000000
41.439400 111.598000 -739.572693 -0.487347 0.039588 -0.872310 0.000000
41.438999 36.041401 -733.375977 -0.925146 0.019409 -0.379116 0.000000
41.438301 113.615097 -739.732971 0.267190 0.069647 0.961124 0.000000
41.436298 52.193699 -733.219116 -0.500579 0.092175 -0.860770 0.000000
41.435600 40.119900 -734.552185 -0.534746 0.268157 0.801335 0.000000
41.435501 46.084900 -735.379822 -0.808532 0.555771 0.193378 0.000000
41.431702 104.686203 -738.556885 0.422187 0.175548 0.889349 0.000000
41.426498 62.820801 -735.927307 -0.060616 0.830303 0.554005 0.000000
41.424400 104.558197 -733.344788 0.388893 0.136183 -0.911162 0.000000
41.422001 109.217903 -732.724915 0.358685 0.663322 -0.656771 0.000000
41.421200 89.095596 -737.112488 0.436744 0.232630 0.868986 0.000000
41.420700 66.362198 -733.787720 -0.171959 0.238609 0.955770 0.000000
41.420700 115.645302 -731.844116 0.223535 0.135672 -0.965207 0.000000
41.419498 80.439499 -736.964783 -0.936520 0.239380 -0.256178 0.000000
41.418201 34.581902 -733.993774 0.205595 0.472718 -0.856895 0.000000
41.417999 131.265106 -726.568481 -0.312856 0.192203 -0.930150 0.000000
41.417099 50.223598 -735.324280 0.272381 0.038556 -0.961417 0.000000
41.412300 44.080101 -734.999512 0.623643 0.542518 -0.562800 0.000000
41.411400 41.067299 -733.346375 0.289024 0.003659 0.957315 0.000000
41.402901 33.809898 -733.988586 -0.113355 0.421232 0.899841 0.000000
41.402401 116.033897 -739.653076 -0.136188 0.986477 -0.091187 0.000000
41.402401 94.486702 -733.985474 0.537986 0.034575 -0.842245 0.000000
41.399700 100.029900 -733.703308 0.447929 0.064381 -0.891748 0.000000
41.398300 87.207001 -734.177307 -0.558138 0.004074 0.829738 0.000000
41.397099 79.558601 -734.015991 -0.503455 0.001335 0.864020 0.000000
41.394402 95.796997 -737.746094 -0.546304 0.057580 -0.835606 0.000000
41.393501 78.826302 -736.898071 -0.930788 0.255649 -0.261299 0.000000
41.392101 48.264500 -735.693298 0.639218 0.006903 -0.768995 0.000000
41.389301 52.209999 -735.511475 0.014821 0.869058 0.494487 0.000000
41.386002 55.393299 -733.361511 -0.542523 0.809942 0.222849 0.000000
41.385799 75.327301 -734.038513 -0.728873 0.041203 0.683408 0.000000
41.385502 107.538002 -738.812012 0.455037 0.084885 0.886418 0.000000
41.382500 53.758801 -735.584473 -0.113796 0.023201 0.993233 0.000000
41.382301 60.853401 -735.995300 -0.480622 0.684929 -0.547608 0.000000
41.379601 125.959602 -729.526428 0.327956 0.358464 -0.874041 0.000000
41.379501 92.188599 -734.058472 0.537567 0.099443 -0.837337 0.000000
41.379398 53.106499 -735.528320 0.006922 0.762843 0.646547 0.000000
41.377499 43.491199 -735.061279 -0.989579 0.136139 -0.046905 0.000000
41.376900 54.766201 -735.586914 -0.113266 0.494644 0.861683 0.000000
41.374901 41.845100 -733.362183 0.177024 0.073459 0.981461 0.000000
41.373199 82.214699 -736.729614 -0.628160 0.052703 -0.776297 0.000000
41.371300 79.911003 -737.449219 0.834108 0.084412 -0.545103 0.000000
41.370899 46.260399 -733.295776 -0.448770 0.011914 -0.893568 0.000000
41.367901 73.800400 -736.630981 -0.090595 0.829733 0.550759 0.000000
41.366199 50.790699 -733.251892 -0.796200 0.508993 -0.327096 0.000000
41.363098 72.291603 -736.487305 0.051022 0.495047 0.867367 0.000000
41.362801 114.589996 -731.989624 0.236674 0.142527 -0.961078 0.000000
41.362099 98.914597 -737.961426 0.382161 0.003834 0.924088 0.000000
41.360500 79.896103 -736.694214 -0.823324 0.185814 -0.536294 0.000000
41.359200 1.232800 -731.148499 0.280813 0.399210 -0.872797 0.000000
41.355701 65.784599 -736.043274 -0.027886 0.431570 -0.901649 0.000000
41.355099 62.248699 -733.639526 -0.167869 0.001127 0.985809 0.000000
41.351898 100.663696 -738.058228 0.585748 0.191171 0.787625 0.000000
41.350899 103.325104 -738.401672 0.605879 0.085315 0.790969 0.000000
41.350601 67.152702 -733.785095 -0.270196 0.069769 0.960274 0.000000
41.348801 62.255798 -737.319824 -0.436218 0.363251 0.823263 1.000000
41.347401 33.164200 -733.926086 -0.098865 0.172098 0.980106 0.000000
41.344501 41.033901 -734.325378 -0.429750 0.902870 0.011828 0.000000
41.344501 106.570801 -733.145020 0.360005 0.416599 -0.834771 0.000000
41.342999 49.790501 -733.234802 0.386280 0.309940 0.868749 0.000000
41.342800 41.827900 -733.968323 0.994173 0.075095 -0.077337 0.000000
41.340801 35.188000 -733.345886 -0.887804 0.188677 -0.419769 0.000000
41.338402 55.846699 -735.672119 -0.226604 0.042412 0.973063 0.000000
41.336700 97.530296 -733.963928 -0.437886 0.233238 0.868249 0.000000
41.336201 57.579700 -735.812805 -0.160655 0.135748 0.977631 0.000000
41.335999 62.308899 -732.058594 0.159052 0.257958 -0.952974 1.000000
41.335300 86.608704 -734.172485 -0.571634 0.096961 0.814759 0.000000
41.333302 78.693604 -734.043274 0.546843 0.004071 -0.837225 0.000000
41.328701 94.193100 -737.551819 -0.619922 0.023682 -0.784306 0.000000
41.327801 59.593102 -736.290894 0.638117 0.677487 -0.365810 0.000000
41.325100 85.977303 -736.811584 0.597706 0.073101 0.798375 0.000000
41.323601 110.488602 -739.324829 0.537678 0.243272 0.807292 0.000000
41.319599 84.076103 -734.133728 -0.527929 0.028796 0.848800 0.000000
41.319199 75.460098 -737.104614 -0.121250 0.046460 0.991534 0.000000
41.318699 122.014900 -730.732178 0.310576 0.334582 -0.889718 0.000000
41.318100 128.750900 -728.110779 0.444274 0.396158 -0.803542 0.000000
41.317699 37.587898 -734.453674 -0.018835 0.317678 0.948012 0.000000
41.314899 81.503502 -734.122375 -0.489354 0.028467 0.871620 0.000000
41.314899 71.384903 -734.008789 -0.552819 0.031867 0.832692 0.000000
41.311298 40.513401 -734.046570 0.962642 0.264821 0.056478 0.000000
41.309200 51.303902 -735.466125 0.139012 0.989170 0.047103 0.000000
41.306801 32.595600 -734.237671 -0.822657 0.063717 -0.564957 0.000000
41.306499 42.422100 -735.275818 -0.961689 0.126230 -0.243350 0.000000
41.302898 88.697701 -734.273499 0.567774 0.480682 -0.668265 0.000000
41.302700 82.381897 -734.088623 0.484138 0.065199 -0.872559 0.000000
41.299900 58.260399 -733.476807 0.185978 0.687043 -0.702413 0.000000
41.297100 118.647499 -731.333313 0.224174 0.218740 -0.949684 0.000000
41.295601 60.024101 -733.574585 -0.278312 0.593201 0.755417 0.000000
41.293301 130.090500 -726.966980 0.553506 0.340495 -0.760062 0.000000
41.290298 87.796501 -737.025330 0.601712 0.148552 0.784777 0.000000
41.290298 126.530998 -729.282410 0.353844 0.391255 -0.849538 0.000000
41.287800 98.899300 -733.845886 0.504318 0.605519 -0.615639 0.000000
41.287300 77.159897 -736.720276 0.103302 0.471226 0.875942 0.000000
41.286800 89.818298 -734.248779 0.583206 0.118992 -0.803562 0.000000
41.282700 47.218201 -735.183899 -0.343361 0.211189 0.915151 0.000000
41.281200 96.909401 -733.966919 -0.545191 0.051856 0.836707 0.000000
41.280998 39.641701 -733.156494 0.429880 0.003920 0.902878 0.000000
41.279999 68.900200 -733.812073 -0.590887 0.049358 0.805243 0.000000
41.279400 33.923401 -733.439270 -0.263397 0.842561 -0.469801 0.000000
41.279202 73.353996 -734.086426 0.681749 0.092366 -0.725732 0.000000
41.278999 38.609699 -734.487976 -0.011413 0.937151 -0.348737 0.000000
41.278702 78.017899 -734.133728 0.579889 0.060966 -0.812411 0.000000
41.278599 74.126503 -734.138916 0.644617 0.015315 -0.764352 0.000000
41.277599 114.891403 -739.744629 0.113739 0.226199 -0.967418 0.000000
41.276299 121.193901 -730.942871 0.215916 0.540555 -0.813130 0.000000
41.276001 89.803902 -737.048279 -0.596449 0.026416 -0.802216 0.000000
41.274101 49.535999 -735.338684 0.244125 0.713476 -0.656776 0.000000
41.272900 80.660202 -734.128479 -0.584507 0.020727 0.811124 0.000000
41.271801 102.150597 -738.120972 0.631198 0.015260 0.775472 0.000000
41.270901 54.263100 -733.107971 -0.530609 0.837573 0.130094 0.000000
41.270599 122.764297 -730.552429 0.328629 0.275577 -0.903361 0.000000
41.270401 39.443501 -734.587280 0.424720 0.041534 -0.904372 0.000000
41.270100 36.644199 -733.246826 -0.718027 0.101733 -0.688540 0.000000
41.269199 124.131500 -730.180481 0.314418 0.276395 -0.908156 0.000000
41.268101 109.356598 -739.030884 0.545446 0.140426 0.826299 0.000000
41.263500 108.378304 -738.881287 0.547052 0.176323 0.818318 0.000000
41.263199 33.291500 -733.371277 -0.788260 0.279603 -0.548149 0.000000
41.260601 62.266899 -735.954102 -0.060616 0.830303 0.554005 0.000000
41.253101 127.901604 -728.637817 0.408882 0.483817 -0.773781 0.000000
41.252998 81.653603 -736.504028 0.690305 0.004150 0.723506 0.000000
41.252998 75.952698 -734.174500 -0.716782 0.098613 0.690289 0.000000
41.249199 67.010201 -736.190430 0.006800 0.556256 0.830983 0.000000
41.247398 129.285095 -727.869629 0.468315 0.498102 -0.729777 0.000000
41.245098 90.431000 -734.194885 0.574450 0.170375 -0.800612 0.000000
41.244801 112.422699 -732.287292 0.271969 0.116933 -0.955175 0.000000
41.244701 106.987198 -738.697083 0.407000 0.210112 0.888934 0.000000
41.244400 64.974297 -733.552307 0.049499 0.208860 0.976692 0.000000
41.243500 44.818401 -733.252014 -0.325540 0.771354 -0.546843 0.000000
41.242199 70.600304 -733.970215 -0.625777 0.061575 0.777568 0.000000
41.241600 100.912598 -733.757629 0.491794 0.077062 -0.867295 0.000000
41.240700 98.035698 -737.786377 0.462121 0.067594 0.884237 0.000000
41.239498 85.370300 -736.669189 -0.709352 0.076883 -0.700649 0.000000
41.238300 31.712299 -734.113525 -0.100728 0.872507 -0.478106 0.000000
41.236401 116.690399 -739.568298 -0.311334 0.727522 0.611377 0.000000
41.225399 90.813103 -737.109680 0.748056 0.088950 0.657648 0.000000
41.224998 53.576199 -732.902588 0.851431 0.170286 0.496051 0.000000
41.224400 127.184799 -729.010376 0.391253 0.400757 -0.828442 0.000000
41.222801 84.839500 -734.265686 0.612423 0.070278 -0.787400 0.000000
41.220699 62.639599 -737.890015 -0.866180 0.407884 0.288727 1.000000
41.217602 58.425301 -735.963928 0.029256 0.809413 0.586511 0.000000
41.217098 32.599998 -733.247681 -0.885729 0.039336 -0.462532 0.000000
41.216000 84.673203 -736.646973 -0.699023 0.101542 -0.707853 0.000000
41.208599 44.764702 -735.468018 -0.705546 0.702613 0.092410 0.000000
41.206402 77.224701 -734.182373 -0.664128 0.064828 0.744803 0.000000
41.202999 86.708397 -736.845703 0.710497 0.050035 0.701919 0.000000
41.199699 99.499100 -733.898071 -0.484064 0.028474 0.874569 0.000000
41.199001 43.365799 -733.223999 0.492567 0.170106 0.853488 0.000000
41.198502 105.859802 -738.561096 0.505032 0.068550 0.860374 0.000000
41.193100 119.734596 -731.187500 -0.106707 0.979989 0.168033 0.000000
41.192600 108.708099 -732.895020 0.481508 0.267848 -0.834510 0.000000
41.191399 40.896999 -734.895630 0.910044 0.071881 -0.408231 0.000000
41.191299 75.809799 -736.651794 0.300177 0.033911 0.953281 0.000000
41.189098 83.424500 -736.614807 0.613995 0.122799 0.779699 0.000000
41.187199 48.945499 -733.119629 -0.380471 0.065414 -0.922476 0.000000
41.186798 44.184200 -733.230530 0.513657 0.057073 0.856095 0.000000
41.184700 38.959702 -733.151428 0.353672 0.027008 0.934980 0.000000
41.184101 107.492302 -733.073608 0.502569 0.728145 -0.466079 0.000000
41.183300 52.936699 -732.871277 -0.287145 0.365320 -0.885488 0.000000
41.182701 78.160599 -736.702271 -0.509023 0.190696 -0.839363 0.000000
41.182201 45.407299 -733.092773 0.261008 0.900993 -0.346536 0.000000
41.181198 95.522202 -734.179626 -0.556739 0.026248 0.830273 0.000000
41.180199 47.531200 -733.147827 0.517465 0.031569 0.855122 0.000000
41.178799 65.745903 -733.769775 0.515283 0.004036 -0.857011 0.000000
41.178600 131.826996 -726.474976 0.317767 0.608113 -0.727477 0.000000
41.177399 85.476700 -734.315918 0.624176 0.006889 -0.781253 0.000000
41.176701 30.425800 -733.843689 -0.215333 0.296962 0.930293 0.000000
41.175201 112.193703 -739.504089 0.528471 0.114381 0.841210 0.000000
41.173698 110.671898 -732.594482 0.403300 0.097728 -0.909834 0.000000
41.170601 113.555603 -732.103210 0.479431 0.088575 -0.873098 0.000000
41.166100 0.180000 -731.796082 -0.182052 0.342935 0.921549 0.000000
41.165001 93.968002 -734.241577 -0.614937 0.076327 0.784873 0.000000
41.163101 72.816803 -736.861084 0.364384 0.766015 -0.529571 0.000000
41.159302 92.017799 -737.264587 0.685948 0.182613 0.704363 0.000000
41.159100 101.321503 -737.948120 0.590187 0.138255 0.795340 0.000000
41.157101 35.057800 -734.312378 0.560752 0.102877 -0.821567 0.000000
41.155102 71.329002 -736.858887 0.926228 0.341242 0.160175 0.000000
41.152000 103.905403 -733.546509 0.462450 0.096988 -0.881325 0.000000
41.150700 1.876900 -730.914673 0.038144 0.752991 0.656924 0.000000
41.150299 0.202700 -731.025513 -0.564551 0.793465 -0.227367 0.000000
41.150200 60.647800 -733.572815 0.832692 0.031867 -0.552819 0.000000
41.149799 77.654602 -736.393372 -0.868736 0.106987 -0.483582 0.000000
41.149799 91.706596 -734.292114 -0.590006 0.012378 0.807304 0.000000
41.149399 41.465599 -735.160217 -0.791245 0.608100 0.064387 0.000000
41.147099 72.660400 -734.080872 0.668868 0.038181 -0.742401 0.000000
41.140701 102.764198 -733.647522 0.496736 0.023010 -0.867597 0.000000
41.140099 61.345501 -737.150513 -0.396950 0.350250 0.848384 1.000000
41.139900 47.825901 -735.298828 -0.305530 0.145296 0.941032 0.000000
41.136902 80.934898 -736.449707 0.782031 0.029379 0.622547 0.000000
41.136501 38.763199 -733.905701 -0.288118 0.957531 0.011034 0.000000
41.135101 68.256203 -734.025818 -0.754389 0.038215 0.655314 0.000000
41.134602 96.753700 -737.716675 0.673154 0.001382 0.739501 0.000000
41.134201 102.890297 -738.087280 0.623558 0.110560 0.773920 0.000000
41.133598 50.750500 -735.468384 0.295884 0.304717 -0.905318 0.000000
41.133202 71.933502 -734.191284 0.785247 0.012464 -0.619057 0.000000
41.132900 37.490700 -733.146790 0.284790 0.164878 0.944304 0.000000
41.131401 39.522598 -733.717773 -0.707090 0.707090 -0.006946 0.000000
41.130001 64.035500 -733.806885 -0.477670 0.036744 0.877770 0.000000
41.130001 31.685600 -733.177124 -0.973862 0.116863 -0.194772 0.000000
41.129902 62.759899 -733.776611 -0.433718 0.090069 0.896536 0.000000
41.128700 115.112099 -731.898682 0.330028 0.168495 -0.928812 0.000000
41.125401 76.580902 -734.252502 -0.713587 0.457428 0.530616 0.000000
41.124298 36.770199 -734.348877 -0.409704 0.063551 0.910002 0.000000
41.124199 101.603500 -733.778381 0.497332 0.074250 -0.864377 0.000000
41.123501 88.583099 -736.844116 0.789882 0.085510 0.607267 0.000000
41.123501 83.506699 -734.271973 0.623822 0.009682 -0.781506 0.000000
41.122601 66.458397 -736.122498 0.171397 0.091169 0.980975 0.000000
41.122299 116.834198 -731.702515 0.301637 0.142026 -0.942785 0.000000
41.116901 70.037498 -736.291687 0.230227 0.310306 0.922337 0.000000
41.113300 51.625401 -732.822998 -0.648975 0.754452 -0.098152 0.000000
41.110199 94.992996 -737.455017 0.673154 0.001382 0.739501 0.000000
41.110001 79.209000 -736.443909 0.869956 0.452022 0.197111 0.000000
41.109299 48.709202 -735.307373 -0.264584 0.110787 0.957978 0.000000
41.106602 64.691498 -735.995972 -0.063623 0.832749 0.549982 0.000000
41.105000 74.642998 -734.365173 0.733987 0.095228 -0.672455 0.000000
41.104801 99.902100 -737.783081 -0.574743 0.167445 -0.801020 0.000000
41.103401 125.083397 -729.931519 0.352118 0.315849 -0.881052 0.000000
41.099701 111.340599 -732.517578 -0.225723 0.523616 0.821508 0.000000
41.096001 69.696098 -734.106201 -0.794158 0.026518 0.607133 0.000000
41.095100 55.326302 -735.721130 -0.070344 0.040042 0.996719 0.000000
41.094200 61.920200 -732.502319 -0.128308 0.237175 -0.962956 1.000000
41.092999 96.283501 -734.116394 0.573061 0.075741 -0.816005 0.000000
41.091202 37.735901 -733.912720 0.989791 0.137503 0.037501 0.000000
41.090500 88.159203 -734.322815 0.604161 0.006881 -0.796832 0.000000
41.089901 40.061501 -735.158875 0.875171 0.042325 -0.481959 0.000000
41.088501 60.824001 -732.859192 -0.326794 0.265246 -0.907111 1.000000
41.087200 1.094700 -731.639771 0.409129 0.787532 -0.460876 0.000000
41.086201 31.058500 -733.290222 -0.714531 0.272126 -0.644510 0.000000
41.085999 93.378502 -737.252502 0.666260 0.076932 0.741741 0.000000
41.084702 79.945099 -734.313416 -0.728426 0.136674 0.671354 0.000000
41.080299 79.236298 -734.370178 -0.765978 0.055630 0.640455 0.000000
41.079800 38.053101 -733.045288 0.259384 0.074652 0.962885 0.000000
41.077599 61.299999 -733.719482 0.690708 0.223971 -0.687575 0.000000
41.076900 39.073601 -735.050903 0.598995 0.789247 0.135257 0.000000
41.076099 92.624901 -734.319580 0.614527 0.129452 -0.778202 0.000000
41.073399 97.477097 -737.640686 -0.679614 0.026734 -0.733083 0.000000
41.071602 89.286797 -734.341125 0.595721 0.015204 -0.803048 0.000000
41.071602 59.092899 -733.013794 -0.483473 0.817337 0.313391 0.000000
41.070900 68.058296 -736.176514 -0.038103 0.921040 0.387599 0.000000
41.068001 109.853203 -732.761719 0.368086 0.396280 -0.841115 0.000000
41.067699 115.425499 -740.022278 0.715782 0.516492 0.469991 0.000000
41.067001 118.024002 -731.532227 0.356478 0.800877 -0.481165 0.000000
41.065701 38.254002 -733.635681 -0.982939 0.168812 -0.073032 0.000000
41.063202 105.253899 -738.354370 0.520649 0.287852 0.803782 0.000000
41.062901 113.218102 -739.542786 0.522988 0.086927 0.847896 0.000000
41.061798 57.077702 -733.511780 0.058262 0.424095 0.903742 0.000000
41.061199 75.119797 -736.539001 0.387820 0.170297 0.905867 0.000000
41.058998 94.918503 -734.247925 0.584586 0.119273 -0.802517 0.000000
41.058899 114.046204 -739.595398 0.448149 0.055848 0.892212 0.000000
41.056999 50.095001 -732.812012 -0.179159 0.197468 -0.963799 0.000000
41.055599 63.475800 -735.935913 0.187380 0.105479 0.976608 0.000000
41.055099 104.065903 -738.151978 0.552445 0.407325 0.727249 0.000000
41.054699 29.204300 -733.990417 0.213824 0.841648 0.495890 0.000000
41.051601 117.646599 -739.470520 0.045956 0.368960 -0.928308 0.000000
41.049999 111.239197 -739.298279 0.651951 0.152777 0.742710 0.000000
41.048901 56.815300 -735.757813 0.019613 0.176515 -0.984102 0.000000
41.047501 73.345802 -736.398682 0.412448 0.092421 0.906281 0.000000
41.041801 129.945404 -727.523071 0.512859 0.539763 -0.667557 0.000000
41.037399 36.064301 -734.404175 -0.362048 0.125271 0.923704 0.000000
41.037201 27.129400 -733.949280 -0.466804 0.483299 -0.740619 0.000000
41.037102 46.705502 -733.123413 -0.242751 0.772106 0.587302 0.000000
41.037102 130.582901 -726.798096 0.653294 0.756814 -0.020984 0.000000
41.036400 27.977301 -733.887573 -0.468728 0.194931 0.861566 0.000000
41.035999 109.925903 -738.996277 0.628124 0.149123 0.763690 0.000000
41.034302 74.432297 -736.513428 -0.378731 0.059800 -0.923573 0.000000
41.033100 82.808800 -734.420593 -0.650191 0.046950 0.758319 0.000000
41.031200 105.516701 -733.412781 0.408602 0.355374 -0.840687 0.000000
41.030499 0.829200 -730.741577 0.939051 0.201126 0.278803 0.000000
41.029202 86.214699 -734.467224 -0.735535 0.092125 0.671194 0.000000
41.028198 99.304001 -737.705627 -0.610008 0.061429 -0.790010 0.000000
41.022499 92.657303 -737.193970 0.744029 0.089167 0.662171 0.000000
41.022400 46.446602 -735.212708 -0.316226 0.003720 0.948677 0.000000
41.021900 87.291298 -736.563293 -0.811489 0.006842 -0.584327 0.000000
41.021500 68.914497 -736.259521 0.160573 0.003369 0.987018 0.000000
41.020302 38.137199 -735.024414 -0.364742 0.924833 0.107920 0.000000
41.019402 91.429802 -737.008728 0.785979 0.035151 0.617253 0.000000
41.019402 34.386200 -733.065491 0.159586 0.673303 -0.721939 0.000000
41.014999 71.801300 -736.334229 -0.357931 0.011464 -0.933678 0.000000
41.014900 116.262001 -731.582397 -0.669340 0.568687 0.478100 0.000000
41.012100 76.400299 -736.317505 0.951081 0.307813 -0.026384 0.000000
41.010700 36.280399 -733.682678 0.070728 0.981806 0.176222 0.000000
41.009602 67.666801 -734.122070 -0.798304 0.085172 0.596202 0.000000
41.008999 56.222401 -733.477722 0.067488 0.618883 -0.782578 0.000000
41.007500 75.438202 -734.507080 -0.785075 0.067456 0.615717 0.000000
41.006401 48.336899 -732.981628 -0.285394 0.067829 -0.956007 0.000000
41.001099 108.894997 -738.786621 0.529519 0.089918 0.843519 0.000000
40.997398 98.608002 -737.642029 -0.689308 0.127096 -0.713232 0.000000
40.995300 42.484699 -733.198303 -0.665072 0.092087 -0.741080 0.000000
40.993099 119.186798 -731.349426 0.263542 0.091275 -0.960320 0.000000
40.992699 87.588799 -734.535278 0.663518 0.026653 -0.747685 0.000000
40.992001 120.319298 -731.178589 0.310908 0.152030 -0.938202 0.000000
40.991798 123.406303 -730.522888 0.365390 0.255921 -0.894983 0.000000
40.991600 60.764500 -736.934509 -0.129839 0.637257 0.759635 1.000000
40.991199 26.351101 -733.750122 -0.992193 0.096827 0.078601 0.000000
40.990200 40.803299 -733.054504 -0.342918 0.086730 -0.935353 0.000000
40.987900 25.764500 -733.813782 0.441822 0.665234 0.601878 0.000000
40.987301 54.292198 -735.677185 -0.056307 0.471053 0.880306 0.000000
40.985298 80.209900 -736.378784 -0.689733 0.061918 -0.721412 0.000000
40.984299 128.389099 -728.466187 0.451515 0.504440 -0.735986 0.000000
40.983799 81.099602 -734.379883 0.695044 0.041219 -0.717785 0.000000
40.983101 77.030403 -736.181213 0.731526 0.680390 0.044034 0.000000
40.980202 70.754898 -736.341919 -0.414995 0.137387 -0.899391 0.000000
40.978001 28.634001 -734.023987 -0.424083 0.321558 -0.846613 0.000000
40.977901 82.750801 -736.394409 -0.754228 0.020990 -0.656277 0.000000
40.974400 81.870300 -734.465820 -0.747738 0.023849 0.663565 0.000000
40.974300 93.300400 -734.412476 -0.629102 0.023713 0.776961 0.000000
40.973400 86.939598 -734.551575 0.621919 0.070379 -0.779912 0.000000
40.969200 78.550301 -734.510071 0.774681 0.026617 -0.631792 0.000000
40.965698 35.629398 -733.019226 0.203341 0.700052 0.684529 0.000000
40.964699 89.159401 -736.759521 -0.814648 0.004094 -0.579942 0.000000
40.964500 62.042702 -737.709717 -0.831815 0.452721 0.321134 1.000000
40.964001 66.634903 -734.065979 -0.741180 0.117341 0.660972 0.000000
40.962898 36.457001 -734.879700 0.848095 0.017697 -0.529549 0.000000
40.962700 40.157200 -733.063416 0.471583 0.188931 0.861345 0.000000
40.957100 33.467098 -734.210510 -0.064697 0.763421 0.642653 0.000000
40.956600 38.096199 -734.438721 0.917505 0.149882 -0.368403 0.000000
40.956299 52.672401 -735.616089 -0.125210 0.108515 0.986178 0.000000
40.956100 98.369499 -734.129089 0.531702 0.086954 -0.842456 0.000000
40.955399 58.396900 -733.043396 -0.588875 0.288852 -0.754845 0.000000
40.954399 25.142200 -733.750977 0.705670 0.648065 -0.286429 0.000000
40.953201 42.755402 -734.934082 0.014725 0.876827 0.480581 0.000000
40.947399 55.021099 -733.420898 -0.025269 0.009097 0.999639 0.000000
40.947300 82.090797 -736.244629 0.758230 0.029541 0.651318 0.000000
40.946602 125.655403 -729.825623 0.404972 0.291886 -0.866487 0.000000
40.946301 61.721001 -735.927612 -0.168724 0.939642 0.297668 0.000000
40.945000 86.310699 -736.468628 0.776154 0.049662 0.628585 0.000000
40.944302 132.638199 -726.225830 0.539344 0.449730 -0.711934 0.000000
40.943802 77.610497 -734.574524 0.798693 0.119142 -0.589826 0.000000
40.940300 72.648804 -736.317688 -0.458760 0.105868 -0.882231 0.000000
40.939999 96.169800 -737.479309 0.729145 0.080046 0.679662 0.000000
40.937401 34.783100 -733.716919 -0.617713 0.786305 -0.012437 0.000000
40.935600 68.928802 -734.335571 -0.865259 0.071290 0.496231 0.000000
40.934700 73.446503 -734.550781 0.812710 0.239943 -0.530971 0.000000
40.934502 91.162804 -734.460999 0.614199 0.094829 -0.783432 0.000000
40.933300 114.202301 -732.156921 0.423663 0.110460 -0.899060 0.000000
40.930401 103.353996 -733.694519 0.497119 0.101133 -0.861768 0.000000
40.928699 59.889400 -733.009583 -0.144428 0.424704 -0.893738 0.000000
40.928101 35.698200 -733.790283 0.995025 0.085035 0.051905 0.000000
40.927299 63.347198 -733.930603 -0.608100 0.064387 0.791245 0.000000
40.926300 24.243401 -733.719177 -0.092671 0.903200 0.419096 0.000000
40.925201 64.763100 -734.051880 -0.731810 0.130199 0.668956 0.000000
40.923801 34.463100 -734.309875 -0.309303 0.303384 0.901271 0.000000
40.922901 71.170799 -734.447388 0.848272 0.063095 -0.525788 0.000000
40.921902 33.788200 -732.984924 -0.244802 0.671230 -0.699659 0.000000
40.921001 41.515400 -733.216125 -0.525391 0.042974 -0.849775 0.000000
40.920300 106.090401 -733.370789 0.445479 0.123823 -0.886688 0.000000
40.916801 44.378601 -735.106323 0.173110 0.982549 0.068050 0.000000
40.915699 57.693100 -733.315430 0.305530 0.145296 -0.941032 0.000000
40.915600 106.323097 -738.375977 0.744925 0.058848 0.664548 0.000000
40.914101 64.080803 -735.909729 -0.252085 0.361175 -0.897778 0.000000
40.913399 45.381802 -735.149414 0.407429 0.146220 -0.901455 0.000000
40.911301 70.464897 -734.417725 -0.805735 0.125206 0.578892 0.000000
40.908501 84.304497 -734.547729 -0.756511 0.076664 0.649472 0.000000
40.907700 61.851002 -733.936523 -0.655217 0.098209 0.749029 0.000000
40.905300 80.459396 -734.551514 -0.813703 0.137840 0.564701 0.000000
40.904598 40.648300 -735.381714 -0.048270 0.867486 -0.495115 0.000000
40.903900 102.132896 -733.851074 0.532001 0.102363 -0.840533 0.000000
40.900700 74.053299 -734.598206 -0.757629 0.302731 0.578232 0.000000
40.899300 83.828300 -736.292114 0.720681 0.035397 0.692363 0.000000
40.896099 65.389900 -735.978394 0.177783 0.043563 0.983105 0.000000
40.894798 78.477303 -736.238220 -0.688092 0.064914 -0.722713 0.000000
40.892899 37.474300 -734.821716 -0.962475 0.028344 0.269887 0.000000
40.892502 49.422001 -732.737976 0.781269 0.472660 0.407689 0.000000
40.892300 20.243099 -733.321777 0.567538 0.678032 -0.467089 0.000000
40.891201 104.756599 -733.585571 0.460109 0.127569 -0.878650 0.000000
40.890701 19.686001 -733.471313 0.467257 0.674926 -0.571092 0.000000
40.890499 90.536301 -736.716309 0.799303 0.046520 0.599125 0.000000
40.887901 65.349701 -734.123291 -0.768294 0.026589 0.639545 0.000000
40.886700 100.819801 -737.700684 0.647647 0.079688 0.757762 0.000000
40.885502 111.900497 -732.564514 0.533446 0.424444 -0.731630 0.000000
40.881802 85.616798 -736.299072 -0.775059 0.001377 -0.631887 0.000000
40.881500 100.031403 -734.013306 0.563584 0.084609 -0.821714 0.000000
40.881401 88.027100 -736.515991 0.831891 0.078480 0.549362 0.000000
40.880600 116.254997 -739.909485 0.526468 0.236216 0.816721 0.000000
40.880199 23.249599 -733.838013 -0.304967 0.319843 0.897048 0.000000
40.879902 110.664703 -739.001709 0.666125 0.166150 0.727098 0.000000
40.879601 69.467903 -736.335693 0.653984 0.149525 0.741584 0.000000
40.877602 115.840202 -731.958191 0.269538 0.203190 -0.941309 0.000000
40.877499 103.483002 -737.948425 0.676372 0.172528 0.716069 0.000000
40.877102 107.761497 -738.645630 0.605280 0.088542 0.791073 0.000000
40.875000 51.775002 -735.533997 0.147497 0.094734 -0.984515 0.000000
40.874100 76.216003 -734.685486 0.784072 0.221149 -0.579935 0.000000
40.871700 94.412003 -737.201477 -0.767168 0.035191 -0.640480 0.000000
40.870701 52.357300 -733.063721 -0.264091 0.760647 0.593020 0.000000
40.866299 97.244499 -734.267029 0.557240 0.093593 -0.825060 0.000000
40.865398 62.714100 -735.828186 -0.248859 0.126384 -0.960258 0.000000
40.865200 72.485603 -734.612793 -0.792405 0.244416 0.558887 0.000000
40.859901 33.029202 -732.928528 0.382763 0.163635 0.909239 0.000000
40.859402 22.128799 -733.793274 0.003797 0.932685 0.360672 0.000000
40.859200 89.827003 -736.647705 0.801895 0.049500 0.595411 0.000000
40.857700 16.771299 -733.197571 -0.091216 0.986793 -0.133863 0.000000
40.856201 84.471901 -736.233398 -0.786715 0.106946 -0.607982 0.000000
40.856201 59.463299 -733.478027 -0.350900 0.920231 -0.173336 0.000000
40.853699 101.875198 -737.756409 -0.603682 0.015196 -0.797081 0.000000
40.853600 67.455902 -736.062683 -0.319267 0.105532 -0.941770 0.000000
40.853600 131.168594 -726.689514 0.955593 0.241231 -0.169261 0.000000
40.851501 81.398804 -736.166077 -0.764121 0.092045 -0.638472 0.000000
40.851002 109.329803 -732.923218 0.358685 0.663322 -0.656771 0.000000
40.848499 55.739300 -733.125122 -0.577394 0.393154 0.715574 0.000000
40.847301 61.381699 -732.585876 -0.246500 0.309927 -0.918250 1.000000
40.846699 112.848503 -732.397217 0.402165 0.080433 -0.912027 0.000000
40.844799 90.076599 -734.538391 0.637283 0.195968 -0.745297 0.000000
40.843800 21.042500 -733.743286 -0.477286 0.447763 0.756113 0.000000
40.842499 32.215599 -734.207825 -0.281871 0.182873 0.941863 0.000000
40.841499 43.070202 -732.877319 0.417262 0.041326 0.907846 0.000000
40.841202 36.239799 -732.982117 0.510613 0.158364 0.845101 0.000000
40.840698 51.002399 -733.097778 -0.066598 0.903824 -0.422691 0.000000
40.840099 117.492699 -731.644775 0.274289 0.481942 -0.832164 0.000000
40.838100 126.357300 -729.602478 0.437480 0.370664 -0.819280 0.000000
40.832001 6.347900 -732.216614 0.605328 0.215193 0.766336 0.000000
40.831799 18.670700 -733.426514 0.573920 0.284575 -0.767876 0.000000
40.827301 35.839802 -734.908630 0.590580 0.721457 -0.361546 0.000000
40.824402 121.787697 -730.953613 0.318389 0.345550 -0.882737 0.000000
40.824100 1.343000 -730.558594 -0.390423 0.132940 -0.910987 0.000000
40.821400 31.283199 -734.135925 0.356531 0.016613 -0.934136 0.000000
40.819199 88.749001 -734.630127 -0.657252 0.092220 0.748008 0.000000
40.817402 76.893501 -734.712891 0.673256 0.495288 -0.549014 0.000000
40.813499 53.725601 -735.673584 -0.049683 0.631682 -0.773634 0.000000
40.813301 32.712700 -733.774170 0.302732 0.949774 0.079256 0.000000
40.811199 0.616800 -731.968079 0.789878 0.125965 -0.600188 0.000000
40.810299 46.154598 -732.984924 -0.282127 0.451712 -0.846381 0.000000
40.810299 1.607500 -731.539429 0.496027 0.563285 -0.660809 0.000000
40.810200 104.808601 -738.035217 0.658367 0.061677 0.750166 0.000000
40.806801 122.442596 -730.787598 -0.283453 0.289268 0.914319 0.000000
40.806000 37.028900 -732.993286 -0.535353 0.054514 -0.842867 0.000000
40.804100 43.334599 -735.121826 0.291895 0.300695 -0.907954 0.000000
40.804001 6.962000 -732.128174 0.726204 0.686567 0.035390 0.000000
40.803398 105.737900 -738.136292 0.771162 0.135736 0.622001 0.000000
40.803200 18.009100 -733.213501 0.230557 0.835198 0.499287 0.000000
40.803001 54.834702 -735.650574 0.039588 0.487347 0.872310 0.000000
40.803001 15.747100 -732.459595 0.723377 0.107989 0.681956 0.000000
40.802799 83.207199 -736.070923 0.764307 0.085894 0.639106 0.000000
40.801701 106.775299 -733.328491 0.457243 0.190888 -0.868614 0.000000
40.800301 29.870399 -734.009583 -0.455109 0.014595 0.890316 0.000000
40.799099 130.514603 -727.369324 0.591980 0.419526 -0.688156 0.000000
40.796799 92.124702 -736.775085 0.826617 0.046156 0.560869 0.000000
40.796398 59.874802 -736.598328 -0.403501 0.267489 0.875007 1.000000
40.794701 59.255600 -736.056030 -0.451899 0.872887 0.183998 0.000000
40.793400 97.008698 -737.282227 0.787124 0.032271 0.615949 0.000000
40.792999 50.198700 -735.537415 0.111099 0.127823 -0.985555 0.000000
40.792900 17.164900 -732.522522 0.787400 0.070278 0.612423 0.000000
40.792400 52.953201 -733.352112 -0.094837 0.052439 0.994111 0.000000
40.789398 14.974400 -732.419495 0.927853 0.062388 0.367690 0.000000
40.785999 14.122100 -732.339172 0.768932 0.605592 0.204946 0.000000
40.785198 92.157204 -734.556213 0.635920 0.009698 -0.771694 0.000000
40.785198 38.547901 -733.107422 0.606146 0.191818 0.771877 0.000000
40.783600 107.181503 -738.355774 0.719567 0.192604 0.667179 0.000000
40.780998 129.008301 -728.268494 0.476603 0.463409 -0.747062 0.000000
40.780102 75.551102 -736.144592 0.917676 0.323125 -0.231214 0.000000
40.779999 0.090000 -732.257019 0.369402 0.548407 -0.750195 0.000000
40.779900 12.826200 -733.028076 -0.811217 0.160444 -0.562304 0.000000
40.778198 109.404503 -738.641479 0.577973 0.150841 0.801994 0.000000
40.777599 9.637300 -732.107910 -0.733291 0.079863 -0.675208 0.000000
40.776501 13.182800 -732.426086 -0.697613 0.049931 -0.714733 0.000000
40.775799 43.709599 -733.048279 0.080963 0.061000 0.994849 0.000000
40.775700 69.710701 -734.616211 0.821825 0.069791 -0.565450 0.000000
40.775600 60.053600 -735.898071 0.518533 0.834162 -0.187874 0.000000
40.775501 71.837601 -734.712891 -0.771365 0.168215 0.613758 0.000000
40.773701 112.553299 -739.255676 0.636820 0.168704 0.752329 0.000000
40.773701 85.565102 -734.759216 -0.421323 0.654467 0.627822 0.000000
40.773399 95.341103 -737.113525 0.822215 0.020659 0.568802 0.000000
40.772999 32.119701 -732.854370 0.361252 0.791542 -0.492908 0.000000
40.771999 115.654800 -739.592285 0.544394 0.118220 0.830457 0.000000
40.771801 129.612793 -727.951477 0.559554 0.440006 -0.702349 0.000000
40.769199 86.859200 -736.230591 -0.841291 0.006774 -0.540540 0.000000
40.768600 58.890701 -733.455383 -0.012489 0.986652 0.162361 0.000000
40.766300 5.482700 -731.901672 0.216835 0.722265 -0.656746 0.000000
40.766201 11.827300 -732.189270 -0.898947 0.033393 -0.436784 0.000000
40.764099 77.939201 -736.043274 0.733081 0.021025 0.679817 0.000000
40.764099 68.180298 -734.524902 0.795806 0.009654 -0.605475 0.000000
40.763901 124.596199 -730.237122 0.397768 0.273749 -0.875695 0.000000
40.763302 85.055298 -736.205322 -0.806711 0.097387 -0.582867 0.000000
40.762798 99.002502 -734.192078 0.475119 0.708511 -0.521798 0.000000
40.762600 0.115000 -730.543213 -0.712432 0.098418 -0.694805 0.000000
40.762299 127.518402 -729.146179 0.480100 0.408492 -0.776298 0.000000
40.762199 44.419701 -732.823730 0.055145 0.415604 0.907872 0.000000
40.761700 111.852699 -739.092529 0.723223 0.146456 0.674907 0.000000
40.761398 98.004303 -737.370117 0.802692 0.035021 0.595365 0.000000
40.760300 8.425100 -731.983582 0.272063 0.717546 -0.641178 0.000000
40.759701 100.764000 -734.034973 0.559237 0.078665 -0.825267 0.000000
40.758598 18.250799 -732.345825 -0.365229 0.137482 -0.920710 0.000000
40.757999 117.128502 -739.520630 0.391268 0.259346 -0.882977 0.000000
40.757900 53.934502 -732.928772 -0.541790 0.084342 0.836272 0.000000
40.757198 102.439697 -737.741272 -0.615076 0.026500 -0.788022 0.000000
40.754299 41.857300 -735.002686 0.354470 0.032225 -0.934512 0.000000
40.753601 10.889400 -732.200684 0.662254 0.070698 0.745937 0.000000
40.753201 83.241699 -734.738281 -0.788962 0.015252 0.614253 0.000000
40.750198 114.615501 -739.479614 0.560121 0.072687 0.825216 0.000000
40.748901 74.741798 -734.830627 -0.831107 0.156111 0.533752 0.000000
40.748402 31.227200 -736.520020 -0.801148 0.598464 0.001369 1.000000
40.748299 97.856102 -734.289124 0.540913 0.099528 -0.835169 0.000000
40.747799 33.361698 -733.639099 -0.690212 0.723542 0.009721 0.000000
40.746601 79.799301 -736.034180 0.747738 0.023849 0.663565 0.000000
40.745899 46.957600 -735.319824 -0.186543 0.081689 0.979045 0.000000
40.743599 88.688698 -736.422302 0.851360 0.057317 0.521441 0.000000
40.742901 84.941704 -734.729309 -0.742831 0.082860 0.664332 0.000000
40.741798 4.334600 -732.768921 0.171300 0.232384 0.957421 0.000000
40.740799 67.233498 -734.478516 0.723555 0.015335 -0.690096 0.000000
40.740002 93.057800 -736.800415 0.860556 0.025912 0.508696 0.000000
40.739899 55.841599 -735.718811 -0.122665 0.233710 -0.964538 0.000000
40.738701 94.414299 -734.515381 -0.553630 0.051859 0.831146 0.000000
40.738098 19.122000 -732.358521 0.352390 0.923457 -0.151820 0.000000
40.737701 44.994999 -732.953796 -0.670771 0.634513 -0.384004 0.000000
40.735600 2.207900 -731.829590 0.797446 0.575680 -0.180754 0.000000
40.735001 3.507500 -732.532715 -0.361891 0.692670 0.623894 0.000000
40.733299 47.163601 -732.646118 -0.631114 0.271840 -0.726497 0.000000
40.733200 4.307800 -732.121521 -0.866391 0.484202 0.122128 0.000000
40.728199 8.904600 -732.887024 0.687298 0.724449 -0.052869 0.000000
40.727299 7.548500 -731.997009 0.819719 0.015104 0.572567 0.000000
40.726700 60.264599 -734.180115 0.058898 0.994590 -0.085568 0.000000
40.724998 12.597500 -732.255127 0.898075 0.044432 0.437593 0.000000
40.721100 79.537498 -734.823730 0.818239 0.069728 -0.570633 0.000000
40.720402 16.360800 -732.363220 -0.792630 0.160932 -0.588080 0.000000
40.719299 93.654404 -736.875183 0.883424 0.062019 0.464452 0.000000
40.719299 17.369499 -733.148987 0.797122 0.598202 0.082163 0.000000
40.717400 19.723801 -732.422729 0.340464 0.882181 -0.325333 0.000000
40.716599 73.969299 -736.274780 -0.640291 0.104507 -0.760990 0.000000
40.715698 91.234596 -736.523010 0.847654 0.045782 0.528570 0.000000
40.715199 118.662697 -739.363403 -0.312380 0.568692 0.760926 0.000000
40.714802 121.180298 -731.126221 0.301997 0.258648 -0.917551 0.000000
40.714298 39.318001 -732.924500 -0.532841 0.078150 -0.842599 0.000000
40.712601 110.339798 -732.841370 0.454022 0.081918 -0.887217 0.000000
40.711800 47.735901 -732.653870 -0.190148 0.211424 -0.958720 0.000000
40.711601 50.370201 -733.309387 0.049394 0.080128 -0.995560 0.000000
40.711601 2.235800 -730.627930 -0.960055 0.249484 -0.126701 0.000000
40.710499 49.573299 -733.262085 0.110956 0.371222 -0.921891 0.000000
40.709702 80.623199 -735.995178 0.731603 0.038208 0.680660 0.000000
40.709202 108.331497 -738.564697 0.690325 0.050024 0.721768 0.000000
40.706799 57.417999 -735.779419 0.117072 0.370498 0.921426 0.000000
40.705002 10.305800 -732.107727 -0.750371 0.052883 -0.658898 0.000000
40.704601 79.105598 -736.004028 -0.761293 0.001377 -0.648407 0.000000
40.704498 30.699900 -734.111328 -0.201613 0.607917 0.767977 0.000000
40.702400 35.191601 -734.656128 -0.662066 0.258793 0.703346 0.000000
40.696701 45.494301 -732.646423 -0.147554 0.981658 0.120726 0.000000
40.696400 64.200996 -734.188782 -0.618652 0.097990 0.779531 0.000000
40.695202 89.239601 -736.242798 0.935364 0.032254 0.352213 0.000000
40.695202 66.019302 -735.988281 0.260503 0.091112 0.961164 0.000000
40.695099 41.984798 -732.935913 -0.393844 0.019497 -0.918970 0.000000
40.694000 123.898804 -730.491577 0.324279 0.183898 -0.927914 0.000000
40.693699 82.332397 -734.777710 -0.803760 0.032150 0.594084 0.000000
40.692902 100.110603 -737.375671 0.841689 0.012238 0.539823 0.000000
40.692699 73.003098 -734.841919 0.842743 0.028870 -0.537541 0.000000
40.691200 95.898804 -734.462219 0.552372 0.069579 -0.830689 0.000000
40.689999 71.277901 -736.114380 -0.624185 0.004134 -0.781265 0.000000
40.688000 132.170105 -726.443176 -0.113553 0.020947 0.993311 0.000000
40.686798 74.712402 -736.124512 0.964929 0.001199 0.262509 0.000000
40.684601 108.452599 -733.138428 0.355826 0.664100 -0.657541 0.000000
40.682899 87.588303 -736.116211 0.882162 0.003980 0.470929 0.000000
40.682800 113.651901 -739.335999 0.598391 0.103877 0.794441 0.000000
40.682701 39.587502 -734.844910 0.362371 0.008900 -0.931992 0.000000
40.682400 2.507100 -731.307312 0.912354 0.239330 0.332161 0.000000
40.681900 78.165298 -734.889771 -0.808560 0.112584 0.577543 0.000000
40.681801 61.484901 -737.494080 -0.862866 0.336841 0.376831 1.000000
40.680302 14.394500 -733.038330 0.842497 0.114556 -0.526379 0.000000
40.680302 5.040200 -732.783875 0.990757 0.053709 0.124559 0.000000
40.679600 9.939000 -732.947388 -0.240637 0.114528 0.963835 0.000000
40.676300 31.958799 -733.459900 -0.655172 0.755325 0.015301 0.000000
