ply
format ascii 1.0
element vertex 694
property float x
property float y
property float z
property float nx
property float ny
property float nz
property float label
element face 0
property list uchar int vertex_indices
end_header
40.137299 3.708800 -732.737183 0.431162 0.835671 -0.340226 0.000000
40.136902 46.732300 -736.200623 -0.215929 0.246187 0.944863 0.000000
40.136501 4.617900 -729.648010 -0.648407 0.001377 -0.761293 0.000000
40.135899 50.035999 -732.178528 -0.247041 0.182243 -0.951714 0.000000
40.131599 23.680901 -734.354370 -0.190026 0.071411 0.979179 0.000000
40.131001 20.031200 -732.618530 0.832085 0.020630 0.554265 0.000000
40.129700 25.598101 -734.412415 -0.860374 0.068550 0.505032 0.000000
40.129501 56.341000 -737.643799 0.089850 0.292988 0.951885 0.000000
40.127102 15.931300 -733.816895 -0.003122 0.997978 0.063479 0.000000
40.126598 32.404701 -733.128479 -0.928359 0.130658 -0.347963 0.000000
40.126301 4.483700 -733.294617 -0.676454 0.032481 0.735768 0.000000
40.124401 34.854000 -732.567078 -0.496096 0.144878 0.856095 0.000000
40.124001 30.472300 -733.288696 -0.936147 0.026967 -0.350574 0.000000
40.122601 14.199200 -732.166992 0.594028 0.034943 0.803685 0.000000
40.118698 54.755299 -737.341675 -0.032486 0.679387 0.733060 0.000000
40.117199 62.328098 -734.047180 0.048801 0.066152 -0.996616 0.000000
40.112499 25.297701 -733.164307 -0.698956 0.701962 -0.136785 0.000000
40.111698 46.632599 -732.403503 -0.096996 0.381152 -0.919410 0.000000
40.111698 45.542599 -732.288330 -0.429052 0.744676 0.511246 0.000000
40.110500 42.674599 -732.596008 0.533877 0.229244 0.813893 0.000000
40.109501 67.539597 -740.595398 -0.204158 0.281933 0.937461 0.000000
40.109501 29.605900 -735.977722 0.753709 0.569720 0.327630 1.000000
40.109001 28.551001 -733.992371 0.948357 0.297602 0.109782 0.000000
40.108601 5.770500 -729.881714 -0.992527 0.107514 0.057718 0.000000
40.105900 58.786800 -734.000488 0.067802 0.696771 -0.714082 0.000000
40.104801 29.055901 -733.363098 0.918054 0.006456 0.396403 0.000000
40.102402 41.579601 -732.646423 -0.492883 0.080041 -0.866406 0.000000
40.098999 31.328800 -733.166321 -0.943004 0.050311 -0.328955 0.000000
40.098701 39.724201 -735.423523 -0.017459 0.033891 -0.999273 0.000000
40.094200 65.830498 -734.276917 0.251753 0.063878 0.965681 0.000000
40.094200 12.332500 -731.730713 0.241894 0.506899 -0.827370 0.000000
40.091599 74.844498 -743.859680 0.875286 0.366859 -0.315103 0.000000
40.091099 5.352700 -731.599792 -0.651599 0.026624 -0.758097 0.000000
40.088799 31.223101 -734.615479 -0.741106 0.021014 0.671059 0.000000
40.084999 0.555300 -733.202515 -0.327359 0.055638 0.943260 0.000000
40.083500 8.702200 -733.313171 0.105107 0.263416 -0.958939 0.000000
40.082100 14.834900 -733.797119 0.118803 0.153097 -0.981044 0.000000
40.081001 43.793701 -732.262817 -0.117488 0.060455 -0.991232 0.000000
40.078499 34.670799 -734.991211 0.350081 0.059002 -0.934860 0.000000
40.078499 16.022600 -732.247620 0.731295 0.523297 0.437456 0.000000
40.077999 33.789799 -732.921997 0.726070 0.524292 0.444904 0.000000
40.077900 41.108799 -732.642822 -0.416228 0.063722 -0.907025 0.000000
40.077702 22.967899 -734.321899 -0.305658 0.021209 0.951905 0.000000
40.076500 40.583599 -732.707886 0.390728 0.016875 0.920352 0.000000
40.076500 42.026402 -732.648315 0.368689 0.035175 0.928887 0.000000
40.076099 71.637100 -742.396973 -0.443373 0.342391 0.828365 0.000000
40.074501 44.332199 -732.180786 -0.365654 0.293426 -0.883288 0.000000
40.074100 66.977898 -734.526306 0.739819 0.637023 0.216494 0.000000
40.073299 53.279499 -737.127380 -0.001271 0.929088 0.369856 0.000000
40.073101 15.196100 -732.167480 0.666830 0.459594 0.586610 0.000000
40.072201 47.154900 -736.319397 -0.191035 0.247939 0.949754 0.000000
40.071999 52.810699 -737.060791 0.112936 0.182435 0.976710 0.000000
40.070999 43.311001 -732.273682 -0.997559 0.068470 -0.013694 0.000000
40.070801 62.683601 -739.105530 -0.034550 0.112567 0.993043 0.000000
40.070801 4.686800 -732.871094 0.853526 0.209242 -0.477192 0.000000
40.070202 32.283600 -734.679810 -0.710761 0.223382 0.667022 0.000000
40.068901 59.224998 -733.960876 0.103913 0.134968 0.985386 0.000000
40.068298 61.268398 -734.052612 -0.211589 0.037058 0.976656 0.000000
40.066700 30.060101 -736.625488 0.881765 0.444502 0.157820 1.000000
40.066700 19.546400 -732.528625 0.822393 0.052015 0.566537 0.000000
40.064999 33.357800 -732.859192 -0.548741 0.835983 -0.004065 0.000000
40.064602 10.401300 -733.160217 -0.063048 0.916203 -0.395724 0.000000
40.064499 61.836399 -734.045288 -0.139458 0.094164 0.985741 0.000000
40.062698 7.109500 -731.355591 -0.236411 0.032734 0.971102 0.000000
40.062302 50.874100 -732.111511 -0.252438 0.043099 -0.966653 0.000000
40.062099 40.079700 -732.723328 -0.384343 0.001277 -0.923189 0.000000
40.061001 71.139000 -742.145020 -0.332442 0.391199 0.858164 0.000000
40.058601 11.838600 -733.086304 -0.848860 0.483986 0.212592 0.000000
40.055901 61.042900 -738.670227 -0.031498 0.083633 -0.995999 0.000000
40.055901 5.591100 -730.276184 0.736769 0.058884 0.673576 0.000000
40.054600 58.009899 -733.995117 0.082819 0.748279 -0.658195 0.000000
40.054199 3.491300 -729.870789 -0.295977 0.228002 -0.927584 0.000000
40.053799 26.870100 -733.232788 -0.759932 0.614446 -0.212038 0.000000
40.053699 20.706100 -732.628784 0.829469 0.099536 0.549613 0.000000
40.053101 5.490500 -729.574219 0.901327 0.134421 0.411752 0.000000
40.049000 47.969200 -732.273071 -0.169772 0.340947 -0.924626 0.000000
40.047600 49.275002 -736.620789 -0.115638 0.147286 0.982311 0.000000
40.046200 46.048599 -736.063416 -0.164455 0.284059 0.944598 0.000000
40.044899 4.319000 -731.375916 -0.162981 0.035833 0.985978 0.000000
40.044498 45.107498 -732.472107 0.509748 0.836471 0.201177 0.000000
40.044399 38.548401 -732.765076 -0.389326 0.060205 -0.919130 0.000000
40.043900 32.955502 -732.545288 -0.920280 0.391087 0.011616 0.000000
40.042702 25.056499 -734.481079 -0.375080 0.287712 0.881213 0.000000
40.042301 30.052900 -733.091919 0.914390 0.003880 0.404815 0.000000
40.041801 18.704901 -732.508118 0.786264 0.052607 0.615646 0.000000
40.040798 21.229601 -734.027893 0.400454 0.753506 -0.521407 0.000000
40.038799 57.654701 -737.867676 0.169041 0.161415 0.972302 0.000000
40.036999 75.404602 -744.026123 -0.093980 0.219286 0.971124 0.000000
40.036701 61.829102 -738.609375 0.303237 0.388570 0.870092 0.000000
40.036499 2.680700 -732.987183 0.935716 0.059056 -0.347777 0.000000
40.035000 65.931503 -740.175415 -0.148219 0.123720 0.981185 0.000000
40.034698 31.054300 -737.571777 0.488561 0.559075 0.669883 1.000000
40.034599 37.477600 -732.786621 0.503848 0.101341 0.857827 0.000000
40.034199 32.030998 -732.580627 0.175321 0.766837 -0.617433 0.000000
40.032700 10.991300 -731.730225 -0.508131 0.733232 0.451856 0.000000
40.032299 22.297400 -734.283813 0.320250 0.384606 -0.865747 0.000000
40.032200 42.194599 -732.263184 -0.052717 0.050566 -0.997328 0.000000
40.031399 15.617500 -732.203613 -0.525326 0.045741 -0.849670 0.000000
40.028599 5.893000 -731.534180 -0.403116 0.788423 0.464636 0.000000
40.028400 9.754500 -731.642883 0.107776 0.507266 0.855024 0.000000
40.027802 31.677601 -732.943970 -0.964411 0.006035 -0.264338 0.000000
40.027302 9.965000 -733.186829 0.888318 0.044755 -0.457043 0.000000
40.027100 31.169701 -732.581421 0.512158 0.410708 -0.754329 0.000000
40.025002 67.621696 -734.497314 -0.278877 0.419077 0.864061 0.000000
40.025002 25.846901 -733.086670 0.708564 0.237235 0.664573 0.000000
40.024799 21.174400 -732.626404 0.770372 0.101249 0.629504 0.000000
40.023899 43.030201 -735.627502 0.089894 0.195796 0.976516 0.000000
40.021198 29.736500 -734.525818 -0.347210 0.915891 -0.201467 0.000000
40.020901 21.860701 -732.710388 0.757143 0.146010 0.636723 0.000000
40.020302 6.343400 -731.292114 -0.800653 0.560918 -0.210536 0.000000
40.020100 26.269899 -734.618713 0.444977 0.196618 -0.873692 0.000000
40.018799 40.327702 -732.384277 0.158973 0.122002 0.979716 0.000000
40.018600 33.318600 -734.882874 -0.581434 0.793969 0.177618 0.000000
40.018200 37.820400 -735.315796 -0.488658 0.321028 0.811267 0.000000
40.018101 23.760500 -732.929688 -0.815422 0.183054 -0.549162 0.000000
40.017799 47.354099 -732.316711 -0.324358 0.044872 -0.944869 0.000000
40.017502 68.488297 -741.050720 -0.243941 0.221890 0.944064 0.000000
40.009201 13.705600 -733.731323 0.350869 0.761563 -0.544897 0.000000
40.008499 30.763599 -732.992676 0.822744 0.265953 0.502356 0.000000
40.008202 22.973400 -732.828430 -0.161374 0.121954 -0.979329 0.000000
40.007198 74.482201 -743.616028 -0.422781 0.228570 0.876933 0.000000
40.006802 7.897000 -733.344482 0.088658 0.133579 -0.987064 0.000000
40.006302 4.955000 -733.291016 0.392157 0.030166 -0.919404 0.000000
40.006302 5.210600 -730.554382 -0.442892 0.345172 -0.827468 0.000000
40.001999 44.328999 -735.846619 -0.188911 0.204764 0.960408 0.000000
40.000000 27.633200 -733.137695 0.428966 0.720464 0.544903 0.000000
39.999901 7.082000 -733.345520 -0.098670 0.980609 0.169323 0.000000
39.999802 34.248901 -734.896179 0.390154 0.065696 -0.918403 0.000000
39.999401 27.147301 -734.674011 0.596580 0.067240 -0.799732 0.000000
39.999100 8.299200 -733.136414 0.953359 0.031402 -0.300201 0.000000
39.997700 17.979601 -732.333496 0.595325 0.052321 0.801780 0.000000
39.997601 19.580099 -734.132813 -0.330146 0.184039 0.925815 0.000000
39.996899 19.009399 -734.045105 0.475036 0.085479 -0.875805 0.000000
39.994701 24.384300 -734.472473 -0.470263 0.152872 0.869185 0.000000
39.994400 56.128899 -733.952881 0.246013 0.176108 0.953133 0.000000
39.993801 64.887398 -739.699585 0.135859 0.042242 -0.989827 0.000000
39.993801 4.542400 -730.615601 -0.286593 0.693267 -0.661245 0.000000
39.992802 55.006500 -731.480530 -0.891562 0.076025 0.446472 0.000000
39.992298 50.132999 -736.687317 -0.049196 0.075433 0.995937 0.000000
39.989700 59.493099 -738.264587 0.118502 0.299583 0.946682 0.000000
39.989399 70.428497 -741.950928 -0.368924 0.256321 0.893418 0.000000
39.986900 1.241100 -733.080872 0.456831 0.058990 -0.887596 0.000000
39.986099 24.887100 -732.969177 0.398107 0.609549 0.685537 0.000000
39.985298 51.282902 -732.046021 -0.226693 0.116548 -0.966968 0.000000
39.983898 30.372900 -732.595581 -0.271196 0.907407 0.321037 0.000000
39.980000 39.508701 -732.363586 -0.168081 0.932086 0.320882 0.000000
39.979401 1.711200 -730.399780 0.512833 0.114123 0.850869 0.000000
39.979000 14.411600 -733.501709 -0.410088 0.908734 0.077658 0.000000
39.978802 2.350900 -733.250122 0.854364 0.023165 -0.519159 0.000000
39.977901 3.393700 -732.946411 -0.921341 0.247888 0.299471 0.000000
39.977402 36.770302 -735.189026 -0.323461 0.250936 0.912362 0.000000
39.975498 52.096100 -731.981812 0.289051 0.073226 0.954509 0.000000
39.974998 52.930000 -731.881775 -0.272778 0.151842 -0.950019 0.000000
39.974899 5.105800 -730.054382 0.960741 0.262953 0.088506 0.000000
39.974499 28.113899 -733.088928 0.947678 0.003726 0.319205 0.000000
39.974201 29.482599 -733.053223 -0.930810 0.006367 -0.365448 0.000000
39.973202 16.773199 -733.975220 -0.756676 0.073787 0.649613 0.000000
39.972801 9.175100 -733.275391 -0.912036 0.003881 0.410093 0.000000
39.971500 60.483200 -738.520386 -0.096243 0.040931 -0.994516 0.000000
39.970798 22.259001 -732.818420 0.728564 0.092353 0.678723 0.000000
39.969002 56.875900 -737.695313 0.044112 0.735668 0.675904 0.000000
39.967602 28.720301 -733.018677 -0.892127 0.075838 -0.445374 0.000000
39.966000 8.327500 -731.741882 0.371251 0.132093 0.919089 0.000000
39.962601 12.893400 -731.973389 -0.481959 0.042325 -0.875171 0.000000
39.961899 15.465100 -733.872070 -0.620627 0.094919 0.778339 0.000000
39.959801 13.778800 -732.018677 -0.324061 0.153067 -0.933571 0.000000
39.959702 38.027901 -732.746094 -0.325964 0.037070 -0.944655 0.000000
39.957500 58.663898 -738.082886 0.184696 0.219244 0.958029 0.000000
39.957199 30.316200 -736.945618 0.942569 0.273827 0.191266 1.000000
39.955200 11.266000 -733.419983 -0.975327 0.220763 -0.001168 0.000000
39.954899 64.764198 -734.254883 0.090300 0.029375 -0.995481 0.000000
39.954601 59.949001 -734.017517 0.007258 0.054952 0.998463 0.000000
39.954300 65.252098 -739.913086 0.038208 0.680660 0.731603 0.000000
39.953300 29.462999 -732.545471 -0.903171 0.027851 0.428376 0.000000
39.952999 45.366199 -735.978577 -0.236252 0.137052 0.961978 0.000000
39.951000 29.941700 -732.558289 -0.895137 0.123028 0.428478 0.000000
39.950802 66.243401 -734.182617 0.241851 0.089903 0.966139 0.000000
39.950600 52.081501 -736.935486 0.076735 0.193664 0.978062 0.000000
39.950001 30.604300 -737.450989 0.867658 0.473931 0.150200 1.000000
39.949902 64.047203 -734.188721 -0.031709 0.017389 0.999346 0.000000
39.949699 73.259003 -743.085815 -0.456773 0.300878 0.837157 0.000000
39.948799 74.094597 -743.461609 -0.529908 0.408505 0.743183 0.000000
39.947399 55.816898 -737.543274 0.081671 0.145587 0.985969 0.000000
39.946800 48.113098 -736.429077 0.156659 0.082515 -0.984200 0.000000
39.944901 60.519299 -734.025024 -0.029369 0.007089 0.999544 0.000000
39.943199 26.280001 -733.146423 0.849707 0.009486 0.527170 0.000000
39.941700 2.739300 -730.164307 -0.231601 0.094919 -0.968169 0.000000
39.940800 29.100901 -735.271912 0.627704 0.308204 0.714841 0.000000
39.939899 4.827800 -729.333313 0.577943 0.160623 0.800114 0.000000
39.936798 64.108101 -739.451782 0.043499 0.386216 0.921382 0.000000
39.936298 36.998001 -732.629028 -0.908505 0.190887 -0.371726 0.000000
39.934799 6.099800 -729.488281 -0.912294 0.196208 -0.359475 0.000000
39.931999 5.490100 -733.054321 -0.216622 0.934968 -0.280910 0.000000
39.931702 69.472099 -741.399475 -0.303878 0.418025 0.856103 0.000000
39.931599 11.792900 -733.523315 -0.960482 0.173072 0.217991 0.000000
39.930500 28.953899 -734.531799 0.534263 0.108590 -0.838315 0.000000
39.928902 72.058098 -742.607483 -0.460756 0.307691 0.832484 0.000000
39.926201 7.697100 -731.718994 -0.356121 0.037555 -0.933685 0.000000
39.925800 1.069800 -730.520081 0.026627 0.634843 -0.772182 0.000000
39.924999 29.960699 -736.184326 0.696498 0.604290 0.386943 1.000000
39.924500 6.552700 -731.633972 0.316641 0.047432 0.947359 0.000000
39.923500 54.259499 -731.700378 -0.195240 0.316035 -0.928441 0.000000
39.917900 44.752399 -735.942017 0.153460 0.173752 -0.972759 0.000000
39.914398 68.844398 -741.304810 -0.313497 0.266837 0.911328 0.000000
39.914398 16.476999 -732.194275 0.585546 0.800886 0.125369 0.000000
39.910400 31.797199 -734.934509 0.763798 0.298184 -0.572450 0.000000
39.910301 4.116100 -733.233826 -0.901048 0.275771 0.334759 0.000000
39.909599 11.352800 -731.940674 -0.262509 0.001199 -0.964929 0.000000
39.905998 3.031700 -733.154297 -0.917746 0.252128 0.306876 0.000000
39.901100 19.982599 -734.119995 0.798729 0.122541 -0.589081 0.000000
39.900600 62.198601 -738.751099 -0.063268 0.175480 -0.982448 0.000000
39.899700 39.195301 -732.645020 -0.342907 0.032107 -0.938820 0.000000
39.896900 46.046001 -732.370117 -0.319948 0.008715 -0.947395 0.000000
39.896500 57.049599 -733.922485 0.082978 0.749711 -0.656543 0.000000
39.896000 48.765598 -736.515930 -0.012415 0.156878 0.987540 0.000000
39.890400 13.031300 -733.742981 0.359651 0.335164 -0.870814 0.000000
39.889999 55.225899 -737.409607 0.150452 0.256967 0.954637 0.000000
39.889099 10.363700 -733.575195 0.467991 0.100385 -0.878013 0.000000
39.887501 27.921101 -734.843323 -0.351776 0.145994 0.924629 0.000000
39.886101 13.333500 -731.957520 0.431404 0.033390 0.901541 0.000000
39.885101 70.069504 -741.714783 -0.352994 0.337712 0.872551 0.000000
39.883099 23.365900 -734.459229 -0.533140 0.114763 0.838207 0.000000
39.883099 6.570900 -733.426575 0.845611 0.117486 -0.520711 0.000000
39.881100 63.259602 -739.097473 0.247664 0.225527 0.942231 0.000000
39.880501 58.089500 -737.943420 0.160884 0.186626 0.969168 0.000000
39.879902 39.182598 -735.317383 0.139162 0.091585 0.986025 0.000000
39.877701 50.383701 -732.091980 -0.229684 0.057728 -0.971552 0.000000
39.876999 36.175201 -732.799316 0.378210 0.019362 0.925517 0.000000
39.875801 32.620201 -734.857788 -0.409861 0.009108 0.912103 0.000000
39.875198 40.721001 -735.424805 0.081464 0.035844 0.996032 0.000000
39.875198 4.276300 -729.636475 -0.256393 0.314335 -0.914033 0.000000
39.873100 9.683100 -733.508118 0.550330 0.264974 -0.791786 0.000000
39.872700 48.764999 -732.200989 0.252372 0.003588 0.967624 0.000000
39.872200 17.827499 -734.105225 0.486326 0.157211 -0.859518 0.000000
39.871201 11.845100 -731.847717 -0.390361 0.120859 -0.912695 0.000000
39.870499 67.905998 -740.954102 -0.166785 0.080393 0.982710 0.000000
39.867699 5.943500 -733.370972 0.360444 0.128434 -0.923897 0.000000
39.867001 38.353699 -732.404480 0.951325 0.301702 0.062908 0.000000
39.866100 70.755501 -742.170288 -0.260316 0.345617 0.901546 0.000000
39.866001 72.647202 -742.848816 -0.444631 0.299003 0.844334 0.000000
39.865601 66.829002 -734.153198 -0.344872 0.008843 -0.938608 0.000000
39.864601 62.705502 -734.141479 -0.181259 0.050942 0.982115 0.000000
39.864399 5.249000 -731.269104 0.856721 0.290701 0.426054 0.000000
39.864101 14.192300 -733.839783 0.493683 0.209853 -0.843942 0.000000
39.862801 27.017300 -732.898071 -0.863105 0.009425 -0.504937 0.000000
39.862301 32.398602 -732.808411 -0.734556 0.673464 -0.082910 0.000000
39.861599 19.226101 -732.322510 0.605566 0.058419 0.793648 0.000000
39.860901 10.136500 -731.825378 -0.214867 0.214867 -0.952714 0.000000
39.860298 17.247200 -732.195313 0.420376 0.069382 0.904693 0.000000
39.860100 25.828699 -734.642883 -0.462930 0.115376 0.878854 0.000000
39.859001 51.055599 -736.816589 0.091401 0.136507 0.986414 0.000000
39.858601 16.220200 -733.973572 0.550533 0.015027 -0.834678 0.000000
39.855301 18.401300 -732.267273 0.523181 0.017666 0.852038 0.000000
39.851601 30.825399 -734.701111 -0.456422 0.076302 0.886486 0.000000
39.848000 14.840200 -732.046387 0.481846 0.360184 0.798807 0.000000
39.847099 3.709400 -733.201599 0.902351 0.014490 -0.430757 0.000000
39.842602 17.205799 -734.072571 -0.502845 0.071435 0.861420 0.000000
39.840698 29.645300 -735.620117 0.589390 0.592768 0.548859 1.000000
39.840401 5.716200 -729.075623 0.894805 0.445396 -0.030763 0.000000
39.840302 20.227501 -732.402588 0.666256 0.029580 0.745136 0.000000
39.836601 -0.045300 -733.294006 0.303064 0.145417 -0.941810 0.000000
39.835499 65.236603 -734.281982 -0.228306 0.008281 0.973554 0.000000
39.835201 8.795800 -731.706177 -0.138927 0.007780 -0.990272 0.000000
39.834999 53.846100 -737.198120 0.055096 0.580623 0.812307 0.000000
39.833401 21.516199 -732.501770 -0.739501 0.001382 -0.673154 0.000000
39.831799 1.728400 -733.258728 -0.793179 0.004124 0.608975 0.000000
39.829601 21.784599 -734.356384 -0.622140 0.032301 0.782239 0.000000
39.829201 35.456699 -732.774475 0.478154 0.639216 0.602306 0.000000
39.829102 31.555099 -737.866821 0.784319 0.279325 0.553915 1.000000
39.821800 38.564098 -735.256409 0.180189 0.010329 0.983578 0.000000
39.821800 49.504700 -732.131714 -0.214077 0.005849 -0.976799 0.000000
39.821201 12.212300 -733.670288 0.420038 0.022384 -0.907230 0.000000
39.821098 55.740200 -733.866089 0.201039 0.022338 0.979329 0.000000
39.819401 23.989700 -734.506714 -0.443369 0.070006 0.893601 0.000000
39.818901 25.391100 -734.665283 -0.550557 0.304801 0.777163 0.000000
39.816299 36.271301 -735.173279 -0.207949 0.112166 0.971687 0.000000
39.815399 58.457901 -733.965515 0.106305 0.337753 0.935212 0.000000
39.814701 51.638401 -736.864929 -0.156288 0.474707 -0.866157 0.000000
39.813702 0.540100 -730.658386 -0.205285 0.189392 -0.960203 0.000000
39.811901 54.333000 -737.288086 0.102926 0.192212 0.975941 0.000000
39.811699 34.195000 -732.667175 -0.325192 0.844878 0.424773 0.000000
39.811501 30.275101 -734.710510 -0.382655 0.014172 0.923783 0.000000
39.811298 73.691002 -743.525879 -0.377012 0.093913 0.921435 0.000000
39.811199 7.520500 -733.460999 -0.278130 0.119952 0.953024 0.000000
39.811100 67.191200 -740.561218 -0.038224 0.257705 0.965467 0.000000
39.810699 54.788502 -731.843323 -0.745725 0.426364 0.511966 0.000000
39.810501 66.753098 -740.518921 0.006330 0.353197 0.935528 0.000000
39.808498 41.966400 -735.537720 0.875445 0.143255 -0.461599 0.000000
39.807301 20.731001 -734.323486 0.474429 0.036704 -0.879528 0.000000
39.805698 52.500099 -731.890686 0.073886 0.743204 -0.664972 0.000000
39.803799 43.707001 -735.752808 -0.349075 0.034779 0.936449 0.000000
39.803699 59.109699 -738.132019 0.092066 0.661996 0.743832 0.000000
39.803501 5.366200 -733.471313 -0.362972 0.029709 0.931326 0.000000
39.803398 53.594200 -731.767517 -0.288064 0.152823 -0.945338 0.000000
39.801800 29.384199 -734.613770 -0.360544 0.107483 0.926529 0.000000
39.800400 60.939400 -734.091125 -0.146349 0.066735 0.986979 0.000000
39.800301 68.104103 -734.545593 0.853721 0.241964 0.461101 0.000000
39.797199 28.837000 -732.465088 -0.899068 0.312526 0.306601 0.000000
39.795700 0.120800 -730.737915 -0.131219 0.173708 -0.976016 0.000000
39.795399 35.980701 -732.443787 -0.980772 0.179748 -0.076001 0.000000
39.795200 42.975399 -732.489624 -0.286584 0.036292 -0.957367 0.000000
39.793900 9.302200 -731.731384 0.393373 0.097315 0.914214 0.000000
39.790901 44.718601 -732.410889 -0.181969 0.126751 -0.975101 0.000000
39.790600 27.484699 -732.808777 -0.836284 0.020598 -0.547910 0.000000
39.789200 4.790400 -730.360596 -0.085172 0.596202 -0.798304 0.000000
39.789001 30.799999 -737.066284 0.905834 0.348622 0.240681 1.000000
39.785599 18.468100 -734.156189 -0.546283 0.099455 0.831675 0.000000
39.785000 10.635900 -731.663025 0.960549 0.003643 0.278086 0.000000
39.784698 34.644600 -732.422302 0.967245 0.020580 0.253009 0.000000
39.784401 25.355200 -732.922424 -0.354374 0.858854 0.369849 0.000000
39.784000 42.426102 -732.499023 0.300617 0.046932 0.952589 0.000000
39.783001 63.733398 -739.356079 0.006412 0.380871 0.924606 0.000000
39.781101 28.149900 -732.715027 -0.885851 0.223311 -0.406693 0.000000
39.779800 67.211998 -734.357727 0.574597 0.150738 0.804435 0.000000
39.778099 30.433201 -736.554688 0.711215 0.589667 0.382709 1.000000
39.778099 42.551701 -735.576904 -0.168760 0.156071 0.973223 0.000000
39.776402 8.433800 -733.532715 -0.458824 0.067515 0.885958 0.000000
39.774300 21.237700 -734.356812 0.424720 0.041534 -0.904372 0.000000
39.774300 12.507300 -731.936707 0.373453 0.070943 0.924932 0.000000
39.773800 26.743799 -734.772400 0.274876 0.280633 -0.919613 0.000000
39.770802 14.381300 -731.974182 -0.175187 0.460787 -0.870049 0.000000
39.769001 71.367500 -742.336487 -0.390822 0.356567 0.848598 0.000000
39.768398 28.668400 -734.897827 0.105833 0.824916 -0.555260 0.000000
39.767300 23.459299 -732.720276 0.773639 0.116859 0.622757 0.000000
39.764900 63.490398 -734.244812 0.154194 0.343115 -0.926551 0.000000
39.764301 36.603802 -732.694214 0.283701 0.089385 0.954738 0.000000
39.763199 10.812200 -733.473389 -0.768907 0.129391 0.626131 0.000000
39.761700 5.451400 -729.906128 0.926702 0.056845 0.371474 0.000000
39.761398 33.672298 -732.474670 0.424112 0.238282 0.873700 0.000000
39.760700 0.960300 -733.296021 0.674853 0.035370 -0.737104 0.000000
39.760300 7.287000 -731.614929 0.225583 0.037396 0.973506 0.000000
39.757301 46.366402 -736.146484 -0.070305 0.354177 0.932532 0.000000
39.756199 3.797900 -729.769714 0.478864 0.166497 0.861956 0.000000
39.755299 46.788399 -732.270813 -0.123423 0.147864 -0.981276 0.000000
39.753799 39.802399 -732.596497 -0.228115 0.022692 -0.973370 0.000000
39.752399 51.637699 -731.978699 -0.217764 0.054745 -0.974465 0.000000
39.749500 31.668400 -732.505188 -0.182069 0.277895 -0.943200 0.000000
39.749001 57.707802 -733.950623 -0.003594 0.255199 -0.966882 0.000000
39.749001 2.695400 -733.433472 -0.464687 0.022766 0.885182 0.000000
39.746799 59.998901 -738.378906 0.057890 0.312608 0.948116 0.000000
39.746601 22.567699 -734.415222 -0.461298 0.053385 0.885638 0.000000
39.744801 22.090000 -732.471680 0.815057 0.081937 0.573558 0.000000
39.743698 20.656799 -732.337402 0.574601 0.119035 0.809731 0.000000
39.743000 44.226501 -732.431885 -0.155311 0.140401 -0.977837 0.000000
39.742599 5.207800 -729.288208 -0.619057 0.012464 -0.785247 0.000000
39.741600 41.740799 -732.503784 0.208177 0.003489 0.978085 0.000000
39.738602 61.567799 -734.105774 -0.143533 0.156014 0.977271 0.000000
39.737301 22.494801 -732.553406 0.858055 0.057018 0.510383 0.000000
39.733398 32.077000 -738.196594 -0.204876 0.589980 0.780992 1.000000
39.730301 25.913700 -732.728027 0.782399 0.296772 0.547520 0.000000
39.728802 8.098700 -731.291077 -0.519315 0.060190 -0.852461 0.000000
39.728500 67.616898 -734.194885 0.377813 0.135232 0.915953 0.000000
39.727600 30.732201 -732.689209 0.815779 0.049313 0.576258 0.000000
39.725899 19.757900 -732.304871 0.631117 0.230209 0.740740 0.000000
39.723900 0.436000 -733.481689 0.759524 0.046849 -0.648790 0.000000
39.722599 2.249100 -730.213623 -0.145271 0.204408 -0.968046 0.000000
39.722099 25.016800 -732.672913 0.913506 0.009096 0.406724 0.000000
39.720100 75.256104 -743.765686 0.158814 0.221814 -0.962069 0.000000
39.719799 62.206001 -734.158508 -0.161967 0.062659 0.984805 0.000000
39.719501 53.060600 -737.100525 0.099990 0.229091 0.968256 0.000000
39.718399 35.065399 -735.120178 -0.145504 0.610518 -0.778522 0.000000
39.717602 66.232101 -740.198730 -0.105660 0.124655 0.986558 0.000000
39.716801 64.537102 -739.625977 0.016260 0.313934 0.949306 0.000000
39.716702 52.588799 -736.993225 -0.030290 0.915283 0.401671 0.000000
39.716499 61.545898 -738.760376 0.074880 0.204999 0.975894 0.000000
39.716000 12.667600 -733.839294 -0.510995 0.174304 0.841726 0.000000
39.713001 41.246700 -732.516174 -0.183829 0.033956 -0.982372 0.000000
39.712601 47.478600 -736.388489 0.019417 0.384451 0.922941 0.000000
39.712601 24.742701 -734.648071 -0.428376 0.027851 0.903171 0.000000
39.712601 15.344000 -732.009521 0.432537 0.215525 0.875478 0.000000
39.712002 13.401800 -733.862671 -0.325660 0.393570 0.859679 0.000000
39.709999 4.448500 -733.452026 -0.583358 0.029238 0.811689 0.000000
39.709999 40.765499 -732.572693 -0.222219 0.075728 -0.972052 0.000000
39.707802 8.919700 -733.551514 0.557515 0.006816 -0.830139 0.000000
39.707001 50.635700 -736.741821 0.012366 0.575722 0.817552 0.000000
39.706600 65.675797 -740.097778 -0.032950 0.139754 0.989638 0.000000
39.705799 64.373802 -734.308228 -0.118991 0.075091 0.990052 0.000000
39.705200 56.515701 -737.598816 0.225317 0.047499 0.973127 0.000000
39.704498 6.154400 -731.584229 -0.087064 0.045185 -0.995177 0.000000
39.702301 54.851601 -737.351624 0.176251 0.068342 0.981970 0.000000
39.702301 59.558601 -733.998413 -0.129376 0.030375 0.991130 0.000000
39.701698 3.387200 -733.431213 0.581974 0.012382 -0.813113 0.000000
39.698299 5.147200 -730.854004 -0.645228 0.750510 0.142883 0.000000
39.698002 57.407902 -737.745117 0.046951 0.735573 0.675817 0.000000
39.695801 26.614000 -732.679626 -0.870651 0.365704 -0.328980 0.000000
39.694698 49.543701 -736.601379 -0.103226 0.064658 -0.992554 0.000000
39.694698 23.024401 -732.548218 0.863952 0.104245 0.492667 0.000000
39.694599 27.459000 -734.872803 -0.328945 0.008755 0.944309 0.000000
39.694000 33.750301 -734.975891 -0.505369 0.458975 0.730715 0.000000
39.693401 17.636499 -732.205383 0.381990 0.114459 0.917051 0.000000
39.692501 68.610397 -734.482605 0.747129 0.299172 0.593544 0.000000
39.691601 40.170200 -735.367920 -0.060442 0.026510 0.997820 0.000000
39.690800 4.824100 -731.364929 0.634511 0.714829 -0.293963 0.000000
39.688702 26.242599 -732.218018 -0.585640 0.091100 0.805436 0.000000
39.688599 62.895199 -738.930298 0.838549 0.133173 0.528300 0.000000
39.688000 35.751400 -735.174927 0.183394 0.001139 -0.983039 0.000000
39.686100 72.926201 -743.108704 -0.441389 0.295808 0.847156 0.000000
39.686001 24.658501 -732.133911 -0.498047 0.848910 0.176918 0.000000
39.685501 43.729099 -732.432190 -0.084527 0.358234 -0.929798 0.000000
39.685398 38.739700 -732.616577 -0.181194 0.121213 -0.975949 0.000000
39.684898 56.454399 -733.877197 0.118918 0.100080 0.987847 0.000000
39.683201 14.686900 -733.972107 -0.423226 0.116704 0.898476 0.000000
39.682400 11.427900 -733.719727 -0.755666 0.101245 0.647085 0.000000
39.681198 45.281700 -732.347900 -0.189346 0.081847 -0.978493 0.000000
39.679298 15.983900 -731.972595 0.362289 0.087542 0.927945 0.000000
39.678902 37.633801 -732.630127 0.200521 0.972336 -0.119808 0.000000
39.677898 5.665800 -729.511414 0.027207 0.928935 -0.369242 0.000000
39.677200 55.300098 -733.825989 -0.211983 0.022501 -0.977014 0.000000
39.675301 65.786797 -734.286316 0.170497 0.048209 -0.984178 0.000000
39.674801 33.091999 -734.921509 -0.372769 0.079398 0.924521 0.000000
39.672901 34.521000 -735.092529 -0.358655 0.650164 0.669816 0.000000
39.671299 5.964900 -728.788086 0.764843 0.393022 -0.510439 0.000000
39.670300 60.768501 -738.569519 0.092140 0.647903 0.756130 0.000000
39.670300 30.283300 -736.157288 0.688805 0.572058 0.445305 1.000000
39.669102 18.815100 -732.210205 0.473692 0.097566 0.875270 0.000000
39.668701 16.561501 -734.157715 -0.233697 0.220030 0.947086 0.000000
39.668701 27.136700 -732.263977 -0.632034 0.061627 0.772486 0.000000
39.668499 32.199699 -732.429688 -0.292729 0.859796 0.418403 0.000000
39.667900 15.708700 -734.054199 0.408292 0.197560 -0.891217 0.000000
39.667801 25.225201 -732.173523 -0.936131 0.034863 0.349919 0.000000
39.667599 19.365700 -734.253479 -0.393756 0.293416 0.871128 0.000000
39.667400 71.712303 -742.601013 -0.450948 0.349682 0.821199 0.000000
39.667301 67.554001 -740.698181 -0.074460 0.320049 0.944470 0.000000
39.666801 41.469501 -735.450623 -0.320597 0.114020 0.940328 0.000000
39.665298 74.708298 -743.834106 -0.559298 0.626887 -0.542401 0.000000
39.663101 50.962399 -732.016907 -0.196924 0.031838 -0.979902 0.000000
39.662601 46.787899 -736.266602 0.028056 0.131303 0.990945 0.000000
39.658798 31.182899 -737.361877 0.888423 0.433412 0.151190 1.000000
39.658699 1.350400 -733.463623 -0.808283 0.009606 0.588716 0.000000
39.658600 59.074200 -733.886719 0.148667 0.181704 0.972050 0.000000
39.657001 6.932500 -733.553406 0.559732 0.283830 -0.778550 0.000000
39.654598 6.575100 -731.276978 0.520873 0.259659 0.813184 0.000000
39.652199 38.024700 -735.215515 -0.525943 0.178311 -0.831619 0.000000
39.651699 6.869300 -731.563721 0.279963 0.128703 0.951344 0.000000
39.651501 73.321800 -743.361328 -0.335773 0.296973 0.893903 0.000000
39.651299 32.695599 -738.543396 0.638117 0.677487 0.365810 1.000000
39.650799 68.236504 -741.098328 -0.172218 0.371479 0.912329 0.000000
39.650600 10.308700 -731.441711 0.206598 0.362631 -0.908744 0.000000
39.646702 15.176500 -733.949280 -0.312787 0.107812 0.943685 0.000000
39.645302 23.013700 -734.499390 -0.280733 0.114666 0.952912 0.000000
39.643600 2.310800 -733.552429 0.592509 0.076036 -0.801967 0.000000
39.642601 74.275299 -743.689026 0.273924 0.001207 0.961751 0.000000
39.640202 48.397099 -736.429016 0.003140 0.070131 0.997533 0.000000
39.639198 8.022400 -733.581177 -0.553126 0.004077 0.833087 0.000000
39.638401 18.075001 -732.131226 0.388961 0.032741 0.920672 0.000000
39.637501 26.176399 -734.820984 -0.502004 0.190312 0.843667 0.000000
39.636101 3.359000 -729.879272 -0.069728 0.570633 -0.818239 0.000000
39.635799 11.195200 -731.658020 -0.272061 0.102836 -0.956769 0.000000
39.634602 40.331501 -732.538574 -0.171260 0.019540 -0.985032 0.000000
39.633999 20.247700 -734.383484 0.382697 0.268638 -0.883955 0.000000
39.633499 69.702698 -741.757385 -0.257892 0.383112 0.886971 0.000000
39.632500 21.138700 -732.280884 0.567150 0.093803 0.818255 0.000000
39.631699 27.868999 -732.337524 -0.844664 0.263092 0.466181 0.000000
39.629700 25.560400 -732.435425 0.708532 0.624222 0.329135 0.000000
39.629501 9.374600 -733.670471 -0.497434 0.071462 0.864554 0.000000
39.623901 29.990801 -735.780396 0.552765 0.686364 0.472606 1.000000
39.622299 70.261299 -742.076721 -0.205892 0.244071 0.947649 0.000000
39.620701 49.866402 -732.078125 -0.132437 0.154716 -0.979042 0.000000
39.616699 63.031502 -734.256714 -0.229508 0.086536 0.969452 0.000000
39.613602 72.187698 -742.921204 -0.424112 0.238282 0.873700 0.000000
39.613499 60.203800 -734.034119 -0.127967 0.041901 0.990893 0.000000
39.612202 58.439400 -737.973694 0.225527 0.206620 0.952074 0.000000
39.611500 18.934601 -734.241211 -0.288518 0.023527 0.957185 0.000000
39.610500 16.953501 -732.001282 0.670362 0.192633 0.716594 0.000000
39.608501 5.778000 -730.134583 -0.070305 0.354177 -0.932532 0.000000
39.606602 3.897200 -733.501526 0.621876 0.085526 -0.778432 0.000000
39.603500 31.134800 -734.862793 -0.243361 0.013187 0.969846 0.000000
39.599499 4.938600 -733.506592 0.335757 0.011318 -0.941881 0.000000
39.599300 58.095402 -733.955017 -0.010538 0.209597 -0.977731 0.000000
39.598900 69.269501 -741.595581 -0.284444 0.513885 0.809329 0.000000
39.596401 49.141499 -736.515381 0.095954 0.095954 0.990750 0.000000
39.596001 13.024100 -731.832581 -0.190068 0.146697 -0.970749 0.000000
39.595100 48.121899 -732.183899 -0.100490 0.124134 -0.987164 0.000000
39.594002 13.910400 -731.877075 0.198123 0.781739 0.591296 0.000000
39.592800 66.454102 -734.261475 0.197002 0.001152 -0.980402 0.000000
39.591400 19.798000 -734.367493 -0.465926 0.184891 0.865291 0.000000
39.590801 43.101601 -735.730774 -0.118931 0.025565 0.992573 0.000000
39.590698 5.495300 -731.071716 0.595421 0.645738 -0.478014 0.000000
39.590500 9.699900 -731.739014 0.361297 0.062201 0.930374 0.000000
39.590199 12.118600 -731.686218 0.288949 0.926630 0.240554 0.000000
39.589600 9.998100 -733.718384 -0.515782 0.054220 0.855002 0.000000
39.588799 22.162500 -734.432190 -0.307156 0.060403 0.949740 0.000000
39.588299 5.290000 -730.422119 0.933978 0.138114 -0.329559 0.000000
39.588200 1.866600 -730.285278 0.047064 0.683136 -0.728773 0.000000
39.587101 11.847700 -733.784180 -0.442336 0.019925 0.896628 0.000000
39.586700 28.216900 -735.003296 0.347305 0.819893 -0.455143 0.000000
39.586102 44.498699 -735.878418 -0.112124 0.107403 0.987873 0.000000
39.582298 5.729900 -733.583008 -0.479767 0.036696 0.876628 0.000000
39.580502 6.209600 -733.555725 0.630464 0.043920 -0.774975 0.000000
39.577499 45.116199 -736.015686 0.091527 0.176953 -0.979954 0.000000
39.574402 47.445999 -732.219910 -0.101752 0.022976 -0.994544 0.000000
39.573700 16.440201 -731.907471 0.184955 0.089415 0.978671 0.000000
39.573502 8.401600 -731.601624 0.078601 0.096827 0.992193 0.000000
39.572701 6.229600 -729.271484 0.809329 0.513885 0.284444 0.000000
39.571400 39.726700 -735.342407 -0.118518 0.152730 0.981136 0.000000
39.569500 4.644800 -729.406616 -0.209247 0.356441 -0.910585 0.000000
39.568699 64.938797 -739.756104 -0.012508 0.167151 0.985852 0.000000
39.567799 69.147102 -734.351379 0.032379 0.660250 -0.750348 0.000000
39.567001 33.708599 -739.105713 -0.107317 0.357270 0.927815 1.000000
39.565102 59.448601 -738.186584 0.195754 0.236255 0.951769 0.000000
39.564098 52.972599 -731.780518 -0.143632 0.131356 -0.980875 0.000000
39.563599 -0.183900 -733.722595 -0.931824 0.220658 0.288121 0.000000
39.561901 54.424999 -731.597229 0.324765 0.846875 -0.421107 0.000000
39.561600 52.010899 -731.888000 -0.129420 0.098549 -0.986681 0.000000
39.561298 30.884701 -736.716675 0.695752 0.593290 0.404891 1.000000
39.559299 45.752899 -732.320496 -0.102820 0.009741 -0.994652 0.000000
39.558498 56.121101 -737.501587 0.240524 0.199757 0.949866 0.000000
39.553398 31.221300 -737.832520 0.769873 0.569865 0.287314 1.000000
39.552601 10.984000 -733.801575 -0.515191 0.083736 0.852975 0.000000
39.552200 55.658901 -737.414490 0.207834 0.235002 0.949515 0.000000
39.551998 45.652199 -736.026428 -0.475402 0.059253 0.877771 0.000000
39.548302 62.330101 -738.968201 -0.185461 0.010367 -0.982597 0.000000
39.547298 53.505100 -737.082581 0.181151 0.452142 0.873356 0.000000
39.546700 38.032299 -732.602478 -0.134263 0.122167 -0.983386 0.000000
39.544899 49.994598 -736.666077 -0.113039 0.041410 -0.992727 0.000000
39.544498 2.794600 -730.021729 -0.190183 0.108143 -0.975774 0.000000
39.543098 56.934200 -737.668213 0.232779 0.336879 0.912319 0.000000
39.542500 63.912800 -734.290771 -0.194740 0.017492 0.980699 0.000000
39.541901 17.597900 -734.276123 -0.247041 0.182243 0.951714 0.000000
39.541000 68.641403 -741.331116 -0.245940 0.160858 0.955844 0.000000
39.540798 23.637600 -734.573730 0.197749 0.200404 -0.959549 0.000000
39.540600 1.783200 -733.562195 -0.842099 0.001352 0.539322 0.000000
39.540501 34.454601 -739.508911 -0.644734 0.315096 -0.696442 1.000000
39.538898 19.398199 -732.072388 0.351014 0.142903 0.925401 0.000000
39.537800 3.036900 -733.581970 -0.599854 0.052469 0.798387 0.000000
39.536201 5.680200 -730.681702 -0.643030 0.435924 -0.629668 0.000000
39.533401 7.852400 -731.602722 -0.169475 0.117519 -0.978503 0.000000
39.532299 24.334299 -734.603271 -0.187929 0.152133 0.970329 0.000000
39.531399 21.735201 -732.232727 -0.614145 0.035134 -0.788411 0.000000
39.528500 5.325700 -728.878296 0.801454 0.281847 0.527479 0.000000
39.524601 51.312000 -736.792419 0.191398 0.251124 0.948843 0.000000
39.524399 13.832900 -733.998718 0.214490 0.067411 -0.974397 0.000000
39.523899 5.808500 -731.436279 0.415835 0.591446 0.690849 0.000000
39.523602 11.587800 -731.759888 0.110842 0.734511 -0.669484 0.000000
39.522800 34.874901 -739.757080 0.356572 0.744080 0.564979 1.000000
39.521702 56.076801 -733.818176 0.118316 0.556521 0.822366 0.000000
39.520802 69.725800 -734.421509 -0.374600 0.132294 0.917700 0.000000
39.520199 71.029404 -742.345093 -0.480835 0.396648 0.781964 0.000000
39.518501 13.459500 -731.821472 -0.313920 0.018760 -0.949264 0.000000
39.518299 31.963800 -734.959412 -0.158628 0.286072 0.944987 0.000000
39.518299 64.895500 -734.302917 -0.165244 0.033511 0.985683 0.000000
39.518200 27.087099 -734.916077 -0.228084 0.789761 -0.569435 0.000000
39.516998 39.432999 -732.547180 -0.086632 0.141222 -0.986180 0.000000
39.512699 46.249298 -732.265320 -0.055309 0.163575 -0.984979 0.000000
39.511501 53.864201 -731.657776 -0.146333 0.156339 -0.976803 0.000000
39.508202 31.696199 -738.155579 0.170198 0.977705 -0.122990 1.000000
39.508099 16.972601 -734.242310 -0.222949 0.052387 0.973422 0.000000
39.507401 1.144700 -730.472778 0.026569 0.633471 -0.773310 0.000000
39.507099 35.759399 -740.173279 0.269850 0.169504 -0.947866 1.000000
39.501900 52.042599 -736.907227 0.251114 0.135417 0.958438 0.000000
39.501801 43.330101 -732.410278 0.149329 0.067022 0.986513 0.000000
39.500999 30.657900 -736.314270 0.792295 0.408250 0.453432 1.000000
39.500198 29.903500 -734.729126 0.313091 0.227313 0.922118 0.000000
39.498699 60.660599 -734.078918 -0.162477 0.106282 0.980972 0.000000
39.497898 31.688000 -737.593079 0.879286 0.381577 0.285052 1.000000
39.497700 21.508801 -734.543518 -0.164440 0.583837 -0.795044 0.000000
39.495701 0.768800 -733.581421 -0.653549 0.018115 0.756667 0.000000
39.495499 18.475500 -732.026978 -0.464714 0.020088 -0.885233 0.000000
39.494400 64.100304 -739.478882 0.029470 0.342109 0.939198 0.000000
39.492699 29.389999 -735.445496 -0.221286 0.781465 -0.583391 1.000000
39.492298 49.261398 -732.107483 0.046620 0.611707 -0.789710 0.000000
39.491402 37.904301 -740.854004 0.149796 0.709640 0.688457 1.000000
39.490002 61.883400 -738.830811 0.148713 0.306975 0.940027 0.000000
39.488701 67.965698 -734.299194 0.042372 0.074966 0.996285 0.000000
39.488499 32.445400 -734.894775 -0.003239 0.106876 0.994267 0.000000
39.486000 10.821100 -731.405029 0.327467 0.013801 -0.944762 0.000000
39.484402 72.860901 -743.463318 -0.066099 0.131039 0.989171 0.000000
39.483601 13.062900 -733.929077 0.456052 0.087863 -0.885605 0.000000
39.482399 63.147900 -739.251221 -0.040473 0.248968 0.967666 0.000000
39.482201 30.580000 -734.822693 0.164544 0.101164 -0.981168 0.000000
39.480400 57.251999 -733.829712 -0.003339 0.145782 0.989311 0.000000
39.479198 57.852501 -737.788818 0.277509 0.197432 0.940218 0.000000
39.474201 27.807600 -734.974426 0.322895 0.037012 -0.945711 0.000000
39.474098 20.140301 -732.098328 -0.344740 0.157715 -0.925354 0.000000
39.473499 37.257900 -740.702515 -0.799527 0.049528 -0.598584 1.000000
39.472801 36.955898 -732.598877 0.083453 0.855747 -0.510619 0.000000
39.472301 68.415604 -734.175598 -0.016149 0.089359 -0.995869 0.000000
39.472198 25.595800 -734.754883 -0.109515 0.339362 0.934259 0.000000
39.469501 36.713200 -740.522217 -0.299142 0.917658 0.261569 1.000000
39.467999 25.154200 -734.824524 -0.230446 0.411829 0.881641 0.000000
39.465199 33.078999 -738.754578 0.664612 0.399430 0.631464 1.000000
39.465099 35.288700 -739.925171 -0.445754 0.535236 0.717514 1.000000
39.465099 7.223400 -731.312683 0.753149 0.123297 -0.646193 0.000000
39.464298 61.875000 -734.181030 -0.162994 0.033524 0.986057 0.000000
39.463501 12.259600 -733.940979 0.426015 0.125964 -0.895904 0.000000
39.463100 16.082300 -734.073181 -0.060102 0.297954 0.952686 0.000000
39.462200 60.432800 -738.425171 0.213191 0.181411 0.960021 0.000000
39.462101 23.141800 -732.229187 0.795875 0.085221 0.599434 0.000000
39.460400 50.243301 -732.033081 -0.022262 0.402024 -0.915358 0.000000
39.457199 3.821000 -731.078186 -0.691292 0.394317 0.605499 0.000000
39.456902 6.060500 -729.687988 0.318386 0.911542 -0.260233 0.000000
39.456402 4.110700 -729.587097 -0.264258 0.298915 -0.916961 0.000000
39.454899 31.311600 -736.977783 0.747416 0.534803 0.394151 1.000000
39.454700 18.299000 -734.374084 -0.167743 0.223217 0.960227 0.000000
39.453899 36.183300 -732.619873 -0.003774 0.937301 -0.348500 0.000000
39.451401 21.016800 -734.529419 -0.472426 0.459258 0.752261 0.000000
39.449299 22.635500 -732.293884 0.427544 0.101664 0.898260 0.000000
39.448502 40.900700 -735.446228 -0.203060 0.114773 0.972417 0.000000
39.446899 42.688999 -732.444702 -0.099159 0.020703 -0.994856 0.000000
39.445999 56.810001 -733.853882 0.104562 0.305745 0.946354 0.000000
39.444000 48.782101 -732.132629 -0.107227 0.029847 -0.993786 0.000000
39.444000 12.598000 -731.499878 -0.491338 0.776735 0.394043 0.000000
39.441799 65.449600 -734.363770 0.210736 0.059688 -0.975719 0.000000
39.441200 66.466797 -740.448425 -0.025851 0.507505 0.861261 0.000000
39.440899 22.139999 -732.188293 0.554839 0.054782 0.830152 0.000000
39.440498 7.427700 -733.666626 0.360726 0.029737 -0.932198 0.000000
39.439400 67.890404 -740.927795 -0.152942 0.285581 0.946072 0.000000
39.436699 4.244700 -733.721924 0.550634 0.001353 -0.834745 0.000000
39.434502 66.868401 -734.272827 0.251054 0.074433 -0.965107 0.000000
39.433899 32.323101 -738.497498 0.960116 0.056774 0.273778 1.000000
39.432999 44.912601 -732.352417 0.037689 0.007130 0.999264 0.000000
39.432400 15.068100 -731.747070 -0.089626 0.233532 0.968210 0.000000
39.430901 72.570396 -743.176880 -0.245195 0.299683 0.921992 0.000000
39.430599 10.484100 -733.789429 -0.413804 0.089360 0.905970 0.000000
39.427799 61.279202 -734.120422 -0.180989 0.017292 0.983333 0.000000
39.427502 43.920601 -735.853821 -0.238288 0.148765 0.959733 0.000000
39.427502 0.715900 -730.527222 0.049938 0.660607 -0.749069 0.000000
39.423901 65.304901 -739.877930 0.046500 0.399897 -0.915380 0.000000
39.423100 36.141399 -740.327393 0.854703 0.254430 -0.452490 1.000000
39.422699 70.582603 -742.242615 -0.495212 0.318011 0.808477 0.000000
39.422699 14.290000 -734.002075 -0.217170 0.255901 0.941993 0.000000
39.419201 54.174599 -737.167114 0.292754 0.192857 0.936537 0.000000
39.418800 67.008698 -740.531189 -0.067079 0.340657 0.937792 0.000000
39.418301 9.107100 -731.611389 0.184815 0.053656 0.981308 0.000000
39.415501 23.278500 -734.739990 0.270543 0.128013 -0.954159 0.000000
39.415199 53.849998 -733.547729 0.367772 0.076229 -0.926786 0.000000
39.415001 40.002602 -741.438110 -0.184310 0.266226 0.946126 1.000000
39.414799 73.893700 -743.607971 -0.505296 0.174394 0.845141 0.000000
39.414700 54.714298 -733.750793 0.354197 0.302952 0.884740 0.000000
39.412899 32.004002 -737.844910 0.920602 0.305910 0.242717 1.000000
39.411301 61.275200 -738.638306 0.092339 0.675687 0.731383 0.000000
39.410301 15.641200 -731.970093 0.326749 0.018924 0.944922 0.000000
39.408901 -0.016500 -733.380371 0.091815 0.619387 -0.779699 0.000000
39.407700 50.922501 -736.724792 0.232626 0.100423 0.967368 0.000000
39.407600 48.059502 -736.394226 0.073606 0.373381 0.924753 0.000000
39.407200 38.308102 -740.955688 0.101918 0.428616 0.897720 1.000000
39.407001 26.710400 -735.078674 -0.313696 0.948707 0.039371 0.000000
39.405701 27.483601 -732.469727 0.498806 0.132336 0.856551 0.000000
39.405499 51.381199 -731.930481 -0.109537 0.107181 -0.988187 0.000000
39.404499 3.761200 -733.832703 0.781407 0.116694 -0.613013 0.000000
39.404202 4.976400 -729.228027 -0.187938 0.247429 -0.950504 0.000000
39.403500 5.778300 -729.054688 -0.436358 0.049985 -0.898384 0.000000
39.403198 8.630700 -733.786682 -0.506218 0.200976 0.838660 0.000000
39.401001 28.933599 -735.014282 -0.059900 0.862278 0.502880 0.000000
39.398102 38.445801 -732.566223 -0.170815 0.003394 -0.985297 0.000000
39.397499 0.258100 -730.637817 -0.188911 0.204764 -0.960408 0.000000
39.396400 55.663799 -733.675415 0.058388 0.602389 -0.796064 0.000000
39.394501 17.647900 -731.870422 0.489521 0.183012 0.852570 0.000000
39.393600 39.032700 -732.564819 -0.011283 0.329715 -0.944013 0.000000
39.393200 22.710100 -734.787170 -0.631126 0.139417 0.763048 0.000000
39.392502 2.599400 -733.732971 0.184063 0.969226 0.163468 0.000000
39.389702 55.147999 -737.281616 0.284185 0.161809 0.945017 0.000000
39.387901 38.833500 -741.114014 0.006258 0.942486 0.334188 1.000000
39.387501 59.823601 -734.081421 -0.122084 0.077901 0.989458 0.000000
39.386299 4.250100 -731.182800 0.278961 0.741240 0.610527 0.000000
39.384102 59.059399 -738.039429 0.079888 0.652173 0.753849 0.000000
39.383801 6.704800 -733.758301 -0.842099 0.001352 0.539322 0.000000
39.382900 52.132198 -733.485779 -0.370386 0.181618 -0.910950 0.000000
39.380001 46.154400 -736.150818 -0.023654 0.138543 0.990074 0.000000
39.380001 5.145600 -733.812500 -0.696235 0.322962 0.641056 0.000000
39.379902 53.174500 -733.506714 0.657651 0.431219 -0.617693 0.000000
39.378101 58.644001 -733.989990 -0.135139 0.018986 0.990645 0.000000
39.375099 9.043100 -733.795471 -0.396478 0.164603 0.903167 0.000000
39.373699 24.938200 -732.267578 0.086037 0.718916 0.689751 0.000000
39.373100 37.387600 -732.491089 -0.119946 0.108070 -0.986881 0.000000
39.373001 29.823700 -735.320618 0.865345 0.153223 0.477180 1.000000
39.371498 20.618900 -732.025879 -0.447131 0.795796 0.408390 0.000000
39.370399 71.364197 -742.594788 -0.445040 0.419147 0.791363 0.000000
39.369202 40.620602 -741.508118 -0.443877 0.295403 0.845996 1.000000
39.369099 41.560398 -732.457581 0.091691 0.016181 0.995656 0.000000
39.367802 40.405701 -735.475586 -0.281971 0.020932 0.959194 0.000000
39.367802 70.134102 -734.437378 0.661943 0.026703 0.749078 0.000000
39.367001 19.737801 -731.761475 0.977422 0.054368 -0.204183 0.000000
39.366299 39.381500 -741.251770 -0.341305 0.664647 0.664647 1.000000
39.365799 5.482900 -729.747681 0.254552 0.738360 -0.624523 0.000000
39.365601 51.402100 -733.387390 0.716935 0.616596 -0.325291 0.000000
39.364799 42.011902 -732.438904 -0.202126 0.111734 -0.972965 0.000000
39.361401 62.467098 -734.244690 -0.233232 0.216865 0.947931 0.000000
39.360401 39.973999 -732.548523 -0.162739 0.132924 -0.977674 0.000000
39.360199 32.363400 -738.087280 0.919590 0.283504 0.271991 1.000000
39.360199 52.843102 -737.012024 -0.289081 0.529193 -0.797739 0.000000
39.357498 42.299702 -735.664795 -0.166661 0.139093 0.976155 0.000000
39.355999 9.655300 -733.862915 0.314554 0.031582 -0.948714 0.000000
39.354000 34.114799 -739.281128 0.581819 0.448451 0.678512 1.000000
39.353401 18.961000 -731.906921 -0.919277 0.001282 -0.393609 0.000000
39.352600 6.414800 -731.508484 -0.096585 0.018449 -0.995154 0.000000
39.350300 67.346603 -734.304199 0.230024 0.003539 -0.973179 0.000000
39.348801 66.040802 -740.279175 0.003469 0.202337 0.979310 0.000000
39.345501 40.976002 -732.482483 -0.150994 0.059695 -0.986731 0.000000
39.345299 44.403599 -732.361511 -0.031617 0.090490 -0.995395 0.000000
39.345001 69.976196 -741.944824 -0.335174 0.293463 0.895286 0.000000
39.344398 54.660999 -737.215088 0.277593 0.348846 0.895125 0.000000
39.343700 22.283800 -734.785522 -0.498528 0.167162 0.850604 0.000000
39.340199 15.538200 -734.337280 -0.347611 0.713174 0.608728 0.000000
