ply
format ascii 1.0
element vertex 685
property float x
property float y
property float z
property float nx
property float ny
property float nz
property float label
element face 0
property list uchar int vertex_indices
end_header
30.216999 102.127899 -730.885498 0.512228 0.498880 -0.699100 1.000000
30.212400 96.643799 -736.398071 0.653389 0.569405 -0.498860 1.000000
30.139000 94.236504 -738.474792 0.498102 0.468315 -0.729777 1.000000
30.138700 98.192902 -734.801270 0.890490 0.278931 -0.359478 1.000000
30.127600 91.162697 -741.912720 0.414130 0.777914 -0.472595 1.000000
30.106600 106.097801 -726.847473 0.255786 0.823167 -0.506922 1.000000
30.087400 101.808601 -731.549377 0.249234 0.587815 -0.769646 1.000000
30.080500 106.729202 -725.679688 0.570011 0.787454 -0.234528 1.000000
30.077000 91.648102 -741.409607 0.462680 0.745886 -0.479146 1.000000
30.069300 92.397903 -740.417908 0.318898 0.675027 -0.665314 1.000000
30.058399 95.838600 -737.392822 0.502351 0.410717 -0.760890 1.000000
30.049801 105.393097 -727.809387 0.168049 0.776657 -0.607094 1.000000
30.042299 104.283096 -728.909790 0.348548 0.669278 -0.656187 1.000000
30.015499 97.408401 -735.796570 0.874759 0.357510 -0.327084 1.000000
29.982599 100.645798 -732.746582 0.363089 0.665389 -0.652245 1.000000
29.980301 103.322197 -729.921997 0.265235 0.732175 -0.627352 1.000000
29.951599 100.077003 -733.189026 0.263015 0.472196 -0.841340 1.000000
29.920401 93.889503 -739.057983 0.314891 0.861725 -0.397837 1.000000
29.876101 95.329903 -737.825073 0.397638 0.697930 -0.595633 1.000000
29.869699 101.354797 -732.082275 0.373176 0.701966 -0.606617 1.000000
29.844601 106.437103 -726.265625 0.303428 0.815954 -0.492088 1.000000
29.819201 104.782600 -728.494690 0.276003 0.678043 -0.681234 1.000000
29.818800 97.974998 -735.367004 0.389495 0.843124 -0.370724 1.000000
29.795200 102.783203 -730.574585 0.387941 0.609151 -0.691691 1.000000
29.791599 98.309601 -734.088501 0.191176 0.199087 0.961154 1.000000
29.765900 105.871803 -727.416016 0.204260 0.784789 -0.585136 1.000000
29.752300 96.539703 -736.999023 0.141804 0.855209 -0.498507 1.000000
29.751699 92.087898 -740.980530 0.320329 0.795245 -0.514758 1.000000
29.718399 93.475700 -739.624878 0.503835 0.477230 -0.720002 1.000000
29.691299 97.165100 -736.526672 0.444907 0.371553 -0.814866 1.000000
29.683001 94.907303 -738.351685 0.429772 0.508811 -0.745927 1.000000
29.676901 99.432297 -733.587097 -0.152636 0.052432 -0.986891 1.000000
29.674601 107.010902 -725.147583 0.830621 0.550412 0.084349 1.000000
29.663300 92.999603 -740.156677 0.447408 0.696892 -0.560507 1.000000
29.651199 98.930603 -734.377319 -0.960258 0.248859 0.126384 1.000000
29.625601 102.356102 -731.157471 0.376001 0.701102 -0.605870 1.000000
29.607401 98.546501 -735.047913 0.502432 0.827081 -0.251989 1.000000
29.591801 104.048500 -729.466980 0.406583 0.541562 -0.735800 1.000000
29.539101 91.559097 -741.835205 0.380291 0.676621 -0.630526 1.000000
29.498899 97.855103 -736.154419 0.569395 0.462529 -0.679600 1.000000
29.431400 101.071999 -732.615173 0.310482 0.731966 -0.606486 1.000000
29.421801 101.858101 -731.828674 0.469014 0.505475 -0.724238 1.000000
29.416599 105.306801 -728.170715 0.329890 0.761160 -0.558398 1.000000
29.406300 95.959602 -737.681091 0.488665 0.416754 -0.766501 1.000000
29.402100 103.484001 -730.279907 0.227663 0.499636 -0.835783 1.000000
29.400600 104.551598 -728.997620 0.421281 0.657732 -0.624429 1.000000
29.392900 106.284203 -726.752502 0.206743 0.846591 -0.490449 1.000000
29.385700 106.838203 -725.830811 0.289936 0.857536 -0.424933 1.000000
29.364100 92.711403 -740.700500 0.420768 0.778177 -0.466256 1.000000
29.340599 98.362000 -735.672119 0.711606 0.376346 -0.593279 1.000000
29.335899 107.432999 -724.705322 0.685079 0.694442 -0.220037 1.000000
29.333099 100.455803 -732.923523 -0.218964 0.616517 -0.756281 1.000000
29.327299 94.361801 -739.033997 0.212018 0.598911 -0.772240 1.000000
29.313999 99.564301 -734.478516 0.900758 0.349394 -0.257991 1.000000
29.269600 99.160103 -735.085327 0.817773 0.466621 -0.336916 1.000000
29.246599 100.130302 -733.540222 0.635796 0.088750 -0.766738 1.000000
29.175800 102.854897 -730.893372 0.432039 0.662238 -0.612195 1.000000
29.129900 92.272102 -741.217224 0.410570 0.730451 -0.545777 1.000000
29.117901 96.935097 -736.945313 0.707401 0.244203 -0.663287 1.000000
29.114799 95.389503 -738.326599 0.307541 0.490488 -0.815377 1.000000
29.101101 105.838097 -727.578674 0.178878 0.861865 -0.474543 1.000000
29.087400 93.576698 -739.857422 0.226478 0.732538 -0.641947 1.000000
29.016500 107.310402 -725.361511 0.304691 0.852207 -0.425330 1.000000
29.014999 102.349197 -731.559998 0.391974 0.623520 -0.676445 1.000000
28.992901 103.948799 -729.880676 0.351403 0.707710 -0.612913 1.000000
28.966801 105.139503 -728.806885 0.287423 0.895032 -0.341036 1.000000
28.948299 106.662598 -726.385071 0.307541 0.815377 -0.490488 1.000000
28.946800 101.571899 -732.367676 0.385659 0.472795 -0.792295 1.000000
28.935499 107.830803 -724.250183 0.627738 0.729448 -0.271755 1.000000
28.930000 97.541000 -736.593079 0.427241 0.603457 -0.673279 1.000000
28.911301 100.859100 -733.274719 0.933659 0.129486 -0.333937 1.000000
28.869499 100.240402 -734.506287 0.868793 0.419993 -0.262306 1.000000
28.853701 104.477798 -729.445496 0.297809 0.769207 -0.565359 1.000000
28.840099 98.225403 -736.291321 0.505795 0.562928 -0.653669 1.000000
28.827499 93.149399 -740.318604 0.227188 0.840139 -0.492495 1.000000
28.804300 106.299301 -727.174927 0.332886 0.804341 -0.492161 1.000000
28.797899 94.868401 -738.703613 0.227414 0.679105 -0.697925 1.000000
28.779499 103.368103 -730.654419 0.401687 0.686009 -0.606663 1.000000
28.779200 94.075401 -739.487976 0.126792 0.840909 -0.526114 1.000000
28.776100 96.270103 -737.877380 0.456359 0.600120 -0.656956 1.000000
28.771799 99.657303 -734.955505 0.727217 0.485364 -0.485364 1.000000
28.738600 100.666603 -733.971680 0.848007 0.512307 -0.135740 1.000000
28.738001 98.947403 -735.573975 0.403518 0.564925 -0.719745 1.000000
28.725100 105.479103 -728.234009 0.301248 0.769855 -0.562648 1.000000
28.613800 102.880997 -731.283691 0.390864 0.707513 -0.588770 1.000000
28.597700 102.085800 -732.073120 0.307916 0.723844 -0.617444 1.000000
28.553400 107.609398 -724.865784 0.248125 0.902942 -0.350899 1.000000
28.532200 101.477600 -733.077026 0.101756 0.985237 -0.137670 1.000000
28.529499 107.095100 -725.858887 0.438099 0.793752 -0.421933 1.000000
28.518999 97.252602 -737.108398 0.520204 0.408615 -0.749948 1.000000
28.518299 92.785301 -740.865784 0.164908 0.874160 -0.456781 1.000000
28.456100 106.015297 -727.747681 0.346275 0.805847 -0.480317 1.000000
28.429800 103.886902 -730.298584 0.320840 0.749701 -0.578801 1.000000
28.400400 108.165703 -723.994080 0.382832 0.833408 -0.398586 1.000000
28.381800 95.829399 -738.221375 0.388401 0.472206 -0.791307 1.000000
28.360300 93.648201 -740.020325 0.158991 0.743473 -0.649592 1.000000
28.341200 106.702904 -726.734619 0.338470 0.781208 -0.524549 1.000000
28.329800 104.975197 -729.063477 0.343019 0.777832 -0.526607 1.000000
28.322001 100.672501 -734.632080 0.427329 0.430554 -0.794993 1.000000
28.313000 96.821701 -737.671387 0.331113 0.566930 -0.754291 1.000000
28.313000 98.094902 -736.730713 0.388613 0.388613 -0.835440 1.000000
28.311399 101.205200 -733.752319 0.872112 0.423253 -0.245517 1.000000
28.296400 99.615196 -735.530518 0.365535 0.598297 -0.713039 1.000000
28.295700 98.943703 -736.106079 0.497141 0.601625 -0.625218 1.000000
28.271900 94.733803 -739.129700 0.366900 0.505901 -0.780672 1.000000
28.245300 104.475304 -729.904419 0.280122 0.812197 -0.511731 1.000000
28.206400 101.811501 -732.580811 0.708058 0.606673 -0.361388 1.000000
28.205299 102.697701 -731.847778 0.464786 0.544750 -0.698013 1.000000
28.182301 100.105400 -735.063721 0.485411 0.569393 -0.663451 1.000000
28.179300 108.401604 -723.365723 0.520278 0.819785 -0.239297 1.000000
28.153900 105.475800 -728.609985 0.351797 0.750608 -0.559309 1.000000
28.125799 103.704399 -730.885681 0.353992 0.729191 -0.585637 1.000000
28.120800 107.606400 -725.396606 0.413968 0.800553 -0.433297 1.000000
28.101400 95.358299 -738.672302 0.273202 0.513619 -0.813361 1.000000
28.046301 94.155602 -739.672424 0.037904 0.596645 -0.801610 1.000000
28.042000 106.450104 -727.376587 0.447371 0.734613 -0.510102 1.000000
28.017401 101.848099 -733.358521 0.797477 0.543663 -0.261648 1.000000
27.983400 103.164101 -731.393677 0.319803 0.517095 -0.793939 1.000000
27.970200 107.234100 -726.249329 0.179010 0.906506 -0.382365 1.000000
27.946899 101.168098 -734.343079 0.540969 0.551081 -0.635344 1.000000
27.898800 106.154701 -728.135681 0.136211 0.884653 -0.445911 1.000000
27.888500 102.380699 -732.383179 0.475208 0.812144 -0.338526 1.000000
27.865999 97.509804 -737.355225 0.318238 0.459329 -0.829301 1.000000
27.861700 98.615799 -736.553772 0.472390 0.549174 -0.689388 1.000000
27.858000 96.366501 -738.155701 0.190116 0.498492 -0.845790 1.000000
27.834801 105.184303 -729.487610 0.244417 0.319622 -0.915479 1.000000
27.796400 107.910500 -724.836670 0.378902 0.849802 -0.366428 1.000000
27.779499 99.524200 -735.963318 0.482825 0.486143 -0.728385 1.000000
27.739901 108.165802 -724.190491 0.559122 0.787783 -0.258418 1.000000
27.738100 104.180603 -730.350220 0.457563 0.611759 -0.645280 1.000000
27.734800 101.865898 -734.019226 0.686555 0.566283 -0.456033 1.000000
27.723301 107.122002 -726.990417 0.717604 0.613932 -0.328834 1.000000
27.704201 100.614700 -735.048889 0.486122 0.492758 -0.721717 1.000000
27.703699 108.765800 -722.956726 0.533609 0.843355 -0.063357 1.000000
27.687901 102.433296 -733.080811 0.861656 0.464428 -0.204587 1.000000
27.617399 94.917702 -739.157715 0.148717 0.510938 -0.846655 1.000000
27.587799 100.102097 -735.518921 0.493240 0.533368 -0.687192 1.000000
27.578501 103.153397 -732.329224 -0.003525 0.973948 -0.226745 1.000000
27.561199 104.741096 -729.983398 0.306758 0.786763 -0.535634 1.000000
27.540199 98.231300 -737.059204 0.293999 0.458888 -0.838443 1.000000
27.528999 105.634399 -728.897278 0.375612 0.710219 -0.595403 1.000000
27.513901 95.755402 -738.534729 0.189206 0.546426 -0.815855 1.000000
27.503099 103.525200 -731.763611 -0.340166 0.906622 0.249649 1.000000
27.475700 107.627296 -725.694092 0.464785 0.796084 -0.387589 1.000000
27.452801 96.911102 -737.886414 0.247419 0.487154 -0.837535 1.000000
27.439600 106.509598 -727.772217 0.405246 0.769804 -0.493130 1.000000
27.432800 103.945000 -730.993591 0.282872 0.887531 -0.363693 1.000000
27.414000 101.451202 -734.712830 0.536965 0.523499 -0.661527 1.000000
27.375799 102.352501 -733.693481 0.659705 0.562344 -0.498556 1.000000
27.350100 108.648300 -723.592590 0.170983 0.951850 -0.254455 1.000000
27.336599 106.298798 -728.496216 0.319776 0.867525 -0.380977 1.000000
27.331800 107.403000 -726.473877 0.493167 0.780982 -0.383215 1.000000
27.320200 99.122498 -736.589111 0.436656 0.549556 -0.712264 1.000000
27.301300 109.105400 -722.405823 0.037145 0.976545 -0.212084 1.000000
27.236700 103.079697 -732.995483 0.769332 0.499334 -0.398491 1.000000
27.220600 105.454803 -729.601013 0.150180 0.945726 -0.288182 1.000000
27.212601 108.067200 -725.198303 0.444436 0.790287 -0.421810 1.000000
27.190599 97.779602 -737.460999 0.300467 0.538933 -0.786938 1.000000
27.178200 102.026802 -734.414429 0.742658 0.442960 -0.502241 1.000000
27.167400 99.835999 -736.025696 0.479085 0.495662 -0.724429 1.000000
27.140200 94.598099 -739.580994 0.300640 0.641473 -0.705781 1.000000
27.134800 96.328102 -738.303406 0.198034 0.521539 -0.829927 1.000000
27.130699 100.754799 -735.411804 0.539887 0.486400 -0.686977 1.000000
27.127100 103.794403 -732.417725 0.901935 0.332136 -0.276042 1.000000
27.122700 104.673798 -730.573730 -0.228891 0.065574 0.971241 1.000000
27.074100 95.364403 -739.010620 0.032741 0.388961 -0.920672 1.000000
27.069201 108.458900 -724.205627 0.335192 0.878173 -0.341259 1.000000
27.047501 107.168198 -727.521790 -0.323674 0.031733 0.945636 1.000000
26.969900 98.634399 -736.946716 0.371243 0.523632 -0.766804 1.000000
26.967400 108.943298 -723.025024 0.383892 0.861831 -0.331473 1.000000
26.932400 104.320000 -731.656311 0.978433 0.197138 -0.061681 1.000000
26.929600 106.036797 -729.047180 0.403829 0.726893 -0.555471 1.000000
26.917000 102.875198 -733.900879 0.824523 0.469586 -0.315675 1.000000
26.896900 105.020401 -730.024170 0.353646 0.578545 -0.734997 1.000000
26.895201 109.270599 -721.851990 0.563187 0.762147 0.319300 1.000000
26.882000 108.027397 -726.023682 -0.386439 0.447371 0.806551 1.000000
26.863899 103.669998 -731.397827 -0.406263 0.494368 -0.768473 1.000000
26.836300 106.673302 -728.104187 0.596504 0.679583 -0.427024 1.000000
26.796301 101.373398 -735.165527 0.498511 0.542152 -0.676431 1.000000
26.760000 96.912598 -738.111084 0.285005 0.445223 -0.848851 1.000000
26.753099 100.389999 -735.982788 0.417738 0.556434 -0.718245 1.000000
26.727100 99.612801 -736.518799 0.399991 0.477722 -0.782169 1.000000
26.719999 103.407799 -733.321777 0.705483 0.528695 -0.471990 1.000000
26.690001 102.500702 -734.466675 0.748296 0.206053 -0.630552 1.000000
26.681200 107.679497 -726.575195 0.508607 0.742336 -0.436184 1.000000
26.669600 108.434700 -724.756287 0.306146 0.935062 -0.178701 1.000000
26.659100 95.835403 -738.628174 -0.081311 0.434119 -0.897179 1.000000
26.656099 104.018600 -732.965210 0.826949 0.437983 -0.352600 1.000000
26.639799 108.786697 -723.647827 0.291636 0.907150 -0.303360 1.000000
26.632700 109.246498 -722.489319 0.365934 0.868135 -0.335312 1.000000
26.631100 97.566597 -737.792297 0.223494 0.442489 -0.868478 1.000000
26.586201 104.314301 -732.320679 0.780960 0.541402 -0.311426 1.000000
26.567400 104.851700 -730.928284 0.829483 0.540711 -0.139966 1.000000
26.549801 102.001503 -734.916077 0.761432 0.267530 -0.590466 1.000000
26.537901 105.607903 -729.984070 0.953234 0.273675 -0.128244 1.000000
26.532400 98.380898 -737.420593 0.286367 0.424191 -0.859102 1.000000
26.501600 106.513199 -728.688477 0.314774 0.774951 -0.548058 1.000000
26.474100 99.114304 -737.015808 0.365459 0.377900 -0.850665 1.000000
26.456301 104.830902 -731.600525 0.925227 0.363823 -0.107648 1.000000
26.453300 101.040199 -735.681030 0.551220 0.329446 -0.766565 1.000000
26.435101 107.729599 -727.274902 -0.039906 0.941021 0.335987 1.000000
26.430099 108.356003 -725.557617 0.509540 0.801613 -0.312708 1.000000
26.396099 109.705299 -721.475830 0.719141 0.679943 -0.143225 1.000000
26.358601 103.284103 -733.934387 0.727145 0.475377 -0.495254 1.000000
26.355499 96.474503 -738.464722 0.167627 0.399727 -0.901177 1.000000
26.336599 107.309502 -727.914185 0.404514 0.823305 -0.398168 1.000000
26.321501 106.096497 -729.378479 0.408225 0.821215 -0.398695 1.000000
26.258301 109.122101 -723.127686 0.538846 0.778688 -0.321389 1.000000
26.246201 105.370399 -730.583801 0.874939 0.452858 -0.171470 1.000000
26.229000 108.116600 -726.283325 0.407359 0.876349 -0.257042 1.000000
26.223000 103.860001 -733.482727 0.666405 0.569046 -0.481759 1.000000
26.222000 108.811798 -724.219116 0.409376 0.895419 -0.175033 1.000000
26.211700 100.126099 -736.452026 0.402275 0.427918 -0.809358 1.000000
26.203199 102.992599 -734.624023 0.537412 0.229440 -0.811508 1.000000
26.187599 101.779297 -735.517090 0.515568 0.291682 -0.805674 1.000000
26.157101 104.980797 -732.201172 0.704018 0.578123 -0.412472 1.000000
26.114799 105.361198 -731.312988 0.874830 0.465519 -0.134035 1.000000
26.083401 104.567101 -733.094116 0.757475 0.549859 -0.351975 1.000000
26.065001 97.953499 -737.678223 0.215807 0.436080 -0.873648 1.000000
26.017401 100.771400 -736.135376 0.370195 0.385816 -0.845045 1.000000
26.001499 99.610100 -736.904602 0.253160 0.432039 -0.865594 1.000000
25.984699 105.994301 -730.932129 0.859998 0.490388 -0.141150 1.000000
25.965000 108.808098 -724.899414 0.466414 0.848720 -0.249264 1.000000
25.959499 97.058098 -738.240417 0.199463 0.876158 -0.438818 1.000000
25.954000 98.765602 -737.289612 0.294678 0.404609 -0.865711 1.000000
25.936199 102.386200 -735.296570 0.343015 0.424461 -0.837958 1.000000
25.927999 106.905800 -728.956970 0.721707 0.652824 -0.230132 1.000000
25.924900 110.080498 -721.064270 0.587434 0.809262 -0.004108 1.000000
25.912399 103.698303 -734.285828 0.291459 0.568585 -0.769261 1.000000
25.877600 106.087303 -730.013428 0.755613 0.646616 0.104578 1.000000
25.849001 107.862900 -727.640930 0.525132 0.773964 -0.353858 1.000000
25.840099 109.694603 -721.969116 0.207466 0.943900 -0.256928 1.000000
25.818899 108.503700 -725.894226 0.582607 0.717181 -0.382387 1.000000
25.775200 107.241600 -728.357727 0.714836 0.535713 -0.449468 1.000000
25.775200 108.089104 -726.980713 0.440047 0.818138 -0.370148 1.000000
25.772699 109.485802 -722.748230 0.338247 0.870871 -0.356613 1.000000
25.770000 105.442200 -732.521423 0.846613 0.424083 -0.321558 1.000000
25.766399 101.372704 -735.921509 0.336578 0.549153 -0.764949 1.000000
25.758301 104.391403 -733.877014 0.859066 0.402543 -0.316173 1.000000
25.749800 105.655502 -731.847229 0.747423 0.552018 -0.369641 1.000000
25.713900 109.248100 -723.579773 0.389251 0.903464 -0.179544 1.000000
25.622000 106.474998 -729.494812 0.883319 0.446687 -0.142193 1.000000
25.616501 103.144402 -735.023193 0.748025 0.264102 -0.608858 1.000000
25.584600 106.479301 -730.542603 0.729832 0.669886 -0.136375 1.000000
25.574200 105.014702 -733.165771 0.746024 0.560737 -0.359197 1.000000
25.568300 100.426201 -736.529724 0.303144 0.382358 -0.872872 1.000000
25.547800 110.396500 -720.580872 0.559310 0.793005 -0.241485 1.000000
25.534500 109.236198 -724.312012 0.553205 0.823205 -0.127663 1.000000
25.507900 106.216202 -731.465881 0.574798 0.765866 -0.288195 1.000000
25.468300 99.355698 -737.335083 0.322107 0.399166 -0.858437 1.000000
25.441200 109.216698 -725.290588 0.400952 0.878490 -0.259793 1.000000
25.412001 102.216003 -735.772278 0.404562 0.515940 -0.755073 1.000000
25.393299 110.033699 -721.512024 0.820622 0.202491 -0.534394 1.000000
25.372400 98.476501 -737.654724 0.472033 0.410393 -0.780233 1.000000
25.366301 108.623100 -726.737122 0.625741 0.678574 -0.384690 1.000000
25.360600 107.217903 -729.757874 -0.901212 0.369541 0.226399 1.000000
25.346701 99.951797 -736.998413 0.302628 0.407088 -0.861798 1.000000
25.328699 105.734703 -733.004211 0.750170 0.641054 -0.162158 1.000000
25.305901 107.672501 -728.116211 0.142546 0.879754 -0.453556 1.000000
25.303499 103.691399 -734.687805 0.554962 0.432373 -0.710683 1.000000
25.301100 106.239799 -732.206604 0.838856 0.424916 -0.340246 1.000000
25.299999 106.849098 -731.130371 0.966849 0.172605 -0.188179 1.000000
25.276300 104.874496 -733.885315 0.705841 0.446756 -0.549725 1.000000
25.272699 101.070999 -736.530029 0.341477 0.468538 -0.814780 1.000000
25.251101 109.866600 -722.334290 0.069144 0.943235 -0.324849 1.000000
25.238501 109.607201 -723.180603 0.294023 0.946512 -0.132914 1.000000
25.215900 108.242798 -727.575684 0.285295 0.921833 -0.262357 1.000000
25.173000 108.996498 -726.193726 0.500978 0.795483 -0.340921 1.000000
25.163401 107.050903 -730.473816 0.260428 0.965401 0.013324 1.000000
25.161600 107.269203 -728.749817 0.871833 0.196866 -0.448498 1.000000
25.084700 110.793800 -720.192505 0.748209 0.641540 0.169147 1.000000
25.080200 104.323196 -734.335876 0.548100 0.497816 -0.672135 1.000000
25.078501 102.987099 -735.507813 0.230195 0.343121 -0.910647 1.000000
25.013800 101.679001 -736.203918 0.359205 0.464572 -0.809410 1.000000
24.994200 110.406700 -721.063110 0.323849 0.877282 -0.354258 1.000000
24.993200 100.578598 -737.212585 -0.278584 0.829527 -0.484020 1.000000
24.985001 106.789299 -731.757996 0.815686 0.502563 -0.286508 1.000000
24.983200 109.646698 -723.843994 0.567845 0.810995 -0.140849 1.000000
24.963499 109.490601 -724.612915 0.419582 0.889978 -0.178576 1.000000
24.951401 107.582199 -729.350830 0.960258 0.267236 0.080554 1.000000
24.917400 106.462799 -732.772522 0.886433 0.220498 -0.406960 1.000000
24.853300 107.619598 -730.105408 0.901772 0.427011 -0.066848 1.000000
24.850599 107.413597 -731.257080 0.644166 0.673670 -0.362241 1.000000
24.819201 109.304298 -725.607422 0.417612 0.824110 -0.382679 1.000000
24.806299 105.635201 -733.507507 0.936041 0.058912 -0.346924 1.000000
24.738800 108.751099 -727.093872 0.549047 0.714923 -0.432935 1.000000
24.732401 103.823700 -735.062988 0.519684 0.489606 -0.700153 1.000000
24.731400 102.330200 -736.083679 0.368631 0.604555 -0.706133 1.000000
24.722099 107.969101 -728.600708 0.866524 0.498826 0.017574 1.000000
24.686300 110.285599 -721.684998 0.123730 0.976089 -0.178721 1.000000
24.675200 105.140999 -734.131897 0.814664 0.273640 -0.511315 1.000000
24.643700 109.944901 -723.251221 0.627848 0.777403 -0.038094 1.000000
24.625299 101.039200 -736.791382 0.486400 0.539887 -0.686977 1.000000
24.594000 108.130898 -729.556030 0.926726 0.375561 -0.011536 1.000000
24.576099 111.216400 -719.982788 0.519748 0.827633 -0.211862 1.000000
24.566401 107.175697 -732.157776 0.769771 0.544786 -0.332657 1.000000
24.559401 107.775902 -730.760315 0.819930 0.532878 -0.209181 1.000000
24.551399 104.509399 -734.743225 0.545934 0.436415 -0.715190 1.000000
24.541100 110.745201 -720.684998 0.358194 0.831579 -0.424468 1.000000
24.525600 108.432999 -727.661987 -0.717967 0.651693 0.244582 1.000000
24.505100 109.134903 -726.548523 0.508460 0.795366 -0.329941 1.000000
24.494200 103.377502 -735.648315 0.505388 0.315273 -0.803234 1.000000
24.479799 110.193703 -722.405823 0.400261 0.885335 -0.236585 1.000000
24.471901 109.889000 -724.315674 0.421921 0.880853 -0.214662 1.000000
24.437201 106.645401 -733.245300 0.794527 0.299732 -0.528099 1.000000
24.418501 108.246002 -730.237671 0.869199 0.475818 -0.134502 1.000000
24.400499 101.682404 -736.601990 0.205657 0.433506 -0.877370 1.000000
24.380400 108.011398 -731.764893 0.871980 0.430737 -0.232628 1.000000
24.352501 108.519897 -728.379700 -0.759009 0.632256 0.155423 1.000000
24.322399 106.100197 -733.906311 0.755690 0.434399 -0.490133 1.000000
24.314301 109.719101 -725.122986 0.482350 0.832869 -0.271419 1.000000
24.298201 107.478600 -732.729370 0.912930 0.230041 -0.337104 1.000000
24.263500 111.598801 -719.362000 0.342404 0.804251 -0.485736 1.000000
24.256399 108.743896 -729.285217 0.874156 0.485642 -0.001331 1.000000
24.216999 105.496101 -734.541809 0.739124 0.467946 -0.484482 1.000000
24.215799 110.618301 -721.303101 0.326954 0.884434 -0.332981 1.000000
24.204100 108.313599 -731.013611 0.903980 0.410645 -0.119129 1.000000
24.200701 102.898697 -736.082520 0.755411 0.338075 -0.561301 1.000000
24.177299 104.174500 -735.326172 0.782623 0.142159 -0.606046 1.000000
24.174900 109.577202 -725.812012 0.571935 0.799496 -0.183565 1.000000
24.161501 108.946999 -727.400085 -0.992469 0.117485 -0.034686 1.000000
24.155199 110.243301 -723.622620 0.538710 0.836228 -0.102543 1.000000
24.099001 104.898697 -735.124573 0.500546 0.383914 -0.775928 1.000000
24.066099 108.809799 -730.014893 0.891655 0.449241 -0.055984 1.000000
24.029800 108.899101 -731.968628 -0.360343 0.817519 -0.449239 1.000000
24.008400 111.089302 -720.438171 0.396735 0.842083 -0.365373 1.000000
23.984600 108.258698 -732.395996 0.747303 0.565746 -0.348525 1.000000
23.958000 109.230400 -728.845215 0.902404 0.429143 -0.038770 1.000000
23.951500 110.422096 -722.780090 0.592010 0.803137 -0.067047 1.000000
23.947800 110.538803 -721.932678 0.512598 0.827807 -0.227991 1.000000
23.939899 107.052696 -733.473816 0.531712 0.770902 -0.350704 1.000000
23.932501 108.924004 -730.714905 0.816643 0.575712 -0.040622 1.000000
23.927700 103.691299 -735.913330 0.791310 0.337306 -0.509955 1.000000
23.882200 108.929298 -728.046997 0.751758 0.657966 0.044054 1.000000
23.861000 110.183296 -724.505920 0.430028 0.864615 -0.259840 1.000000
23.860399 109.522202 -726.493774 0.362697 0.840013 -0.403520 1.000000
23.840700 106.186996 -734.444397 0.852898 0.148266 -0.500582 1.000000
23.773899 107.737503 -733.393799 0.930854 0.297141 -0.212646 1.000000
23.769300 109.235603 -729.564819 0.798841 0.601528 -0.004111 1.000000
23.719900 111.561897 -719.780518 0.324006 0.834277 -0.446096 1.000000
23.685400 112.187798 -718.600891 0.973647 0.098487 -0.205700 1.000000
23.681499 110.970001 -721.056580 0.327282 0.885319 -0.330298 1.000000
23.677401 109.616402 -730.132019 0.936264 0.345354 -0.064344 1.000000
23.672199 104.962196 -735.680176 0.877900 0.433769 0.202820 1.000000
23.660999 109.613998 -727.827026 0.991390 0.053496 0.119513 1.000000
23.660801 105.678001 -734.990295 0.244507 0.877525 -0.412512 1.000000
23.642401 110.136101 -725.148987 0.193426 0.976984 -0.089937 1.000000
23.629101 112.099403 -719.297180 0.749569 0.565010 0.344834 1.000000
23.620199 109.420799 -731.154114 0.911980 0.388047 -0.133085 1.000000
23.610001 109.935204 -725.986084 0.520801 0.755895 -0.396723 1.000000
23.592899 107.030998 -734.234070 0.901426 0.113202 -0.417871 1.000000
23.550100 110.598396 -723.722229 0.532132 0.828927 -0.172381 1.000000
23.535700 108.362900 -732.953674 0.877412 0.348227 -0.329980 1.000000
23.479200 109.804398 -728.913879 0.915358 0.402024 0.022262 1.000000
23.458000 109.604599 -727.046387 0.626370 0.769200 -0.126464 1.000000
23.453699 109.570702 -732.002319 0.813601 0.558883 -0.160323 1.000000
23.451000 110.767799 -722.357605 0.548850 0.828370 -0.112099 1.000000
23.423000 109.006302 -732.413879 -0.948558 0.016247 0.316186 1.000000
23.412600 110.898804 -721.686279 0.559233 0.807781 -0.186411 1.000000
23.381100 109.087502 -727.492981 0.723386 0.644585 -0.247433 1.000000
23.353399 111.418900 -720.387207 0.411385 0.821182 -0.395502 1.000000
23.333200 109.974701 -729.556030 0.815326 0.577581 -0.040557 1.000000
23.317101 109.972298 -730.626770 0.813695 0.580815 -0.023565 1.000000
23.312000 106.494301 -734.878113 0.386847 0.816677 -0.428238 1.000000
23.300400 110.392303 -731.918213 -0.912092 0.377564 0.159793 1.000000
23.288900 110.560600 -724.481995 0.560974 0.802483 -0.203296 1.000000
23.276899 107.955597 -733.956787 -0.757597 0.001380 0.652721 1.000000
23.262100 110.832298 -723.047302 0.557388 0.825279 -0.090738 1.000000
23.240101 108.682999 -733.483215 0.902119 0.374547 -0.214235 1.000000
23.215900 110.171799 -728.000916 0.791606 0.590325 0.157720 1.000000
23.188999 110.389999 -725.616028 0.545331 0.815719 -0.192917 1.000000
23.185499 110.069702 -731.328003 0.860315 0.460937 -0.217706 1.000000
23.163601 110.025299 -726.518494 0.688511 0.649631 -0.322385 1.000000
23.148001 110.231796 -727.273682 0.882055 0.467777 0.056243 1.000000
23.135300 109.316101 -733.050415 0.872868 0.187571 -0.450465 1.000000
23.074100 111.916100 -719.652527 0.146538 0.919700 -0.364251 1.000000
23.059401 107.336998 -734.577881 0.751459 0.394557 -0.528804 1.000000
23.055500 110.346802 -728.697815 0.779775 0.625225 0.032315 1.000000
23.047001 111.326599 -721.005371 0.448034 0.838307 -0.310657 1.000000
23.041401 110.456001 -730.214172 0.872617 0.486309 0.045206 1.000000
23.038401 112.337700 -718.807617 -0.678844 0.703699 0.209712 1.000000
23.012300 109.815903 -732.499084 0.813283 0.570904 -0.112429 1.000000
22.999399 112.807098 -718.025574 0.345037 0.568582 -0.746769 1.000000
22.972601 108.681602 -734.395630 -0.349112 0.865860 -0.358340 1.000000
22.966000 110.705902 -730.854980 0.929239 0.367252 -0.040515 1.000000
22.956400 110.868599 -723.962097 0.519836 0.833244 -0.188346 1.000000
22.931900 111.195602 -722.065918 0.582032 0.804875 -0.115820 1.000000
22.869499 110.746300 -725.090271 0.579334 0.799029 -0.161010 1.000000
22.855499 110.608803 -729.558472 0.845501 0.528261 0.077894 1.000000
22.799101 110.717300 -731.591919 0.847585 0.497788 -0.183868 1.000000
22.757700 111.232002 -722.789673 0.587730 0.808304 -0.034901 1.000000
22.749399 110.471397 -726.135376 0.694495 0.697562 -0.176307 1.000000
22.746700 110.461800 -732.313904 0.849098 0.431509 -0.304685 1.000000
22.736900 110.712097 -728.099609 0.856721 0.515126 0.025961 1.000000
22.720800 109.727097 -733.465210 0.877528 0.365258 -0.310696 1.000000
22.711901 110.724701 -726.833374 0.853249 0.521203 0.017691 1.000000
22.703400 110.919296 -728.955872 0.865021 0.500369 0.037014 1.000000
22.702700 111.142303 -730.062195 0.840695 0.539551 0.046008 1.000000
22.685600 111.787399 -720.299988 0.867287 0.125131 -0.481826 1.000000
22.585400 111.043098 -724.509399 0.619300 0.775973 -0.119722 1.000000
22.578400 111.495903 -721.486877 0.529218 0.835841 -0.145940 1.000000
22.570601 110.363098 -732.980774 0.852377 0.454499 -0.258621 1.000000
22.559999 111.249298 -723.511230 0.519255 0.836494 -0.175080 1.000000
22.551701 111.283203 -730.792480 0.854457 0.516030 -0.060134 1.000000
22.508699 111.313004 -731.968018 0.741883 0.647044 -0.175910 1.000000
22.491501 110.981300 -727.485718 0.665379 0.746285 0.018134 1.000000
22.429199 113.005501 -717.503723 -0.132447 0.948537 0.287638 1.000000
22.415899 112.870399 -718.420227 0.221887 0.821748 -0.524878 1.000000
22.385599 110.901001 -725.564819 0.466179 0.865761 -0.182032 1.000000
22.384600 112.445602 -719.125977 0.315769 0.912383 -0.260473 1.000000
22.377199 111.533997 -722.287415 0.583894 0.805220 -0.103383 1.000000
22.372400 110.966202 -732.713318 0.840974 0.470637 -0.266951 1.000000
22.356899 111.373596 -729.510071 0.831883 0.496670 0.247566 1.000000
22.311701 111.125603 -726.426086 0.920677 0.351070 0.170600 1.000000
22.292500 111.216301 -728.463196 0.828828 0.543228 0.133967 1.000000
22.268700 111.625099 -731.316528 0.980037 0.136835 -0.144232 1.000000
22.264500 112.048599 -732.352600 -0.510206 0.655017 0.557354 1.000000
22.249001 112.248001 -720.034912 0.600415 0.714936 -0.358286 1.000000
22.234200 111.642197 -730.157593 0.826406 0.561622 0.040414 1.000000
22.210800 111.580498 -723.010193 0.352044 0.921486 -0.164100 1.000000
22.189301 111.382103 -725.015625 0.467212 0.868517 -0.165502 1.000000
22.178101 111.882103 -721.061523 0.550476 0.817465 -0.169493 1.000000
22.106001 111.361397 -727.070801 0.791951 0.609733 0.032239 1.000000
22.093901 111.814697 -729.056519 0.845217 0.496921 0.196667 1.000000
22.090500 111.522797 -727.815674 0.800760 0.595217 0.067087 1.000000
22.055599 112.030899 -730.687378 0.880570 0.472269 -0.039469 1.000000
22.007500 111.539101 -732.775391 0.875805 0.475036 -0.085479 1.000000
21.993799 111.585403 -723.727478 -0.491743 0.850460 0.186832 1.000000
21.922501 112.104698 -729.754578 0.840334 0.532930 0.099116 1.000000
21.907900 113.487503 -717.191711 0.316916 0.919200 0.233743 1.000000
21.891899 112.124702 -731.666321 0.821218 0.556783 -0.124872 1.000000
21.890600 111.386597 -725.635376 0.867647 0.496765 -0.020304 1.000000
21.885599 113.182404 -717.913025 0.330983 0.863634 -0.380245 1.000000
21.868401 111.878899 -728.394104 0.825256 0.541714 0.159679 1.000000
21.848200 111.638397 -726.498718 0.818426 0.573871 0.029180 1.000000
21.835899 112.864799 -718.796021 0.122665 0.964538 -0.233710 1.000000
21.824301 111.669403 -724.432373 0.942869 0.316068 -0.105356 1.000000
21.813999 112.561600 -719.578491 0.388389 0.855694 -0.341968 1.000000
21.776699 112.035004 -721.670593 0.345861 0.938035 -0.021696 1.000000
21.712500 112.382103 -729.076111 0.871483 0.457051 0.177824 1.000000
21.705900 112.607697 -730.383972 0.842743 0.537541 -0.028870 1.000000
21.699200 112.286797 -720.471680 0.668975 0.691327 -0.273018 1.000000
21.633200 111.847900 -727.380310 0.637049 0.765333 0.091840 1.000000
21.629801 111.944397 -722.971680 0.580395 0.803053 -0.135079 1.000000
21.608400 112.657898 -731.130920 0.856657 0.515087 -0.028692 1.000000
21.605200 112.227501 -732.481873 0.485364 0.727217 -0.485364 1.000000
21.556700 112.709099 -729.672791 0.889117 0.450800 0.079063 1.000000
21.491699 111.964500 -725.731323 0.844214 0.513034 0.155241 1.000000
21.481701 113.773804 -716.668518 -0.809195 0.454873 0.371879 1.000000
21.472500 112.113503 -722.294495 -0.118544 0.992943 -0.003263 1.000000
21.461901 112.718697 -731.856018 0.771898 0.623741 -0.122970 1.000000
21.426800 112.427902 -728.443115 0.865026 0.468741 0.178920 1.000000
21.408300 112.340698 -721.166870 0.545965 0.821191 -0.166033 1.000000
21.354700 112.362701 -727.767578 0.791963 0.601658 0.103936 1.000000
21.352100 112.191299 -726.780212 0.784474 0.605846 0.132482 1.000000
21.328899 111.871002 -725.042419 0.635901 0.771670 0.012469 1.000000
21.297400 113.487900 -717.566772 0.098658 0.948432 -0.301236 1.000000
21.296400 113.136902 -730.730103 0.838921 0.543156 -0.034552 1.000000
21.281900 112.070099 -724.260193 0.587404 0.805706 -0.076118 1.000000
21.268801 113.260300 -718.268372 -0.593405 0.778362 0.204994 1.000000
21.254900 112.697098 -719.945129 0.160352 0.980473 -0.113838 1.000000
21.245600 113.110497 -729.158875 0.778783 0.623315 0.070537 1.000000
21.196100 113.004799 -719.080322 0.325890 0.913941 -0.241883 1.000000
21.168699 112.184898 -723.571411 0.560869 0.826617 -0.046156 1.000000
21.153601 113.158997 -730.010376 0.833818 0.546882 0.075285 1.000000
21.104799 112.339798 -726.151978 0.572520 0.818885 -0.040594 1.000000
21.079500 113.045601 -728.346619 0.913043 0.381255 0.144905 1.000000
21.067499 113.309700 -731.412170 0.655268 0.723752 -0.216347 1.000000
21.049200 112.411400 -722.900085 0.386291 0.915190 -0.114918 1.000000
21.023701 112.392799 -725.450195 0.775876 0.605153 0.178345 1.000000
21.016100 112.688797 -720.653015 0.600232 0.773050 -0.205221 1.000000
20.998800 112.610298 -727.242493 0.791332 0.580920 0.190591 1.000000
20.991100 112.508797 -722.019775 0.523403 0.837741 -0.155686 1.000000
20.912201 114.040604 -716.350708 -0.440878 0.520137 -0.731494 1.000000
20.896601 113.662102 -730.561523 0.788634 0.611797 -0.061322 1.000000
20.870501 113.615997 -729.524719 0.800760 0.595217 0.067087 1.000000
20.847099 113.808601 -717.010620 -0.640296 0.728395 0.243847 1.000000
20.813101 112.710602 -721.366821 0.398296 0.912932 -0.088966 1.000000
20.809200 112.345596 -724.751404 0.416277 0.905368 0.083805 1.000000
20.784300 113.579399 -728.787170 0.797147 0.580154 0.167265 1.000000
20.707899 113.275299 -727.805603 0.872600 0.343844 0.346901 1.000000
20.703600 114.040001 -731.292480 0.553544 0.730941 -0.399143 1.000000
20.702700 112.604401 -723.938171 0.434129 0.900850 0.001304 1.000000
20.672501 113.327599 -718.736023 0.033082 0.966735 -0.253630 1.000000
20.669201 113.107803 -719.535095 0.009314 0.998670 -0.050710 1.000000
20.668600 112.794998 -726.470886 0.774524 0.626303 0.088642 1.000000
20.597000 114.050400 -730.069885 0.837041 0.543441 0.063519 1.000000
20.587700 112.858200 -725.753479 0.666987 0.744964 0.012532 1.000000
20.529600 113.165199 -727.135803 0.793865 0.577495 0.190467 1.000000
20.528200 113.736099 -717.633728 0.110000 0.977641 -0.179214 1.000000
20.513000 112.724602 -723.216370 0.624493 0.778830 -0.058591 1.000000
20.493099 112.741402 -722.478210 0.545191 0.836707 -0.051856 1.000000
20.458900 113.074799 -720.766296 0.508885 0.850086 -0.135606 1.000000
20.431801 112.925903 -724.881409 0.789503 0.581013 0.197759 1.000000
20.426100 113.855904 -728.113770 0.783025 0.613248 0.103916 1.000000
20.425100 114.060402 -729.194275 0.897328 0.437090 0.061274 1.000000
20.352900 114.152901 -715.856018 0.379905 0.924128 -0.040751 1.000000
20.325500 114.213402 -730.678284 0.765018 0.630805 -0.129740 1.000000
20.293600 114.074799 -716.690125 0.261951 0.944944 -0.196120 1.000000
20.292500 112.969299 -721.836609 0.325356 0.938269 -0.117452 1.000000
20.249800 113.797798 -727.455505 0.979085 0.156802 0.129639 1.000000
20.190500 114.543602 -729.824097 0.816718 0.574936 0.049200 1.000000
20.184700 113.645401 -718.267212 0.805085 0.422629 -0.416201 1.000000
20.180201 113.278099 -726.513794 0.730432 0.667179 0.146086 1.000000
20.166500 112.936096 -724.247009 0.904535 0.418639 0.080983 1.000000
20.150900 114.347900 -728.608887 0.762715 0.634852 0.123402 1.000000
20.139601 113.351303 -720.197876 0.483880 0.865207 -0.131442 1.000000
20.077600 113.494202 -719.345276 0.531546 0.820927 -0.208659 1.000000
20.064400 113.367897 -725.738586 0.593253 0.801963 0.070047 1.000000
20.004000 114.319702 -727.819397 0.770457 0.585296 0.252635 1.000000
20.002501 113.113197 -723.492798 0.508387 0.857638 0.077455 1.000000
19.991699 113.994598 -717.294800 0.249134 0.939471 -0.235216 1.000000
19.975500 114.854202 -730.665771 0.821007 0.185974 0.539778 1.000000
19.950399 114.708199 -729.167725 0.832502 0.539883 0.124363 1.000000
19.917601 113.902397 -726.863281 0.932207 0.291051 0.215125 1.000000
19.912600 113.467499 -725.075684 0.635230 0.760781 0.133025 1.000000
19.898600 113.044502 -722.770691 0.413957 0.910183 0.014364 1.000000
19.826700 113.316597 -721.354614 0.492817 0.864915 -0.095155 1.000000
19.768499 115.047798 -730.032227 0.778596 0.626538 -0.035199 1.000000
19.739300 114.349197 -716.096924 0.178529 0.965621 -0.188954 1.000000
19.733601 113.523598 -724.354675 0.770133 0.615195 0.168609 1.000000
19.728201 113.295898 -722.127197 0.501327 0.864687 -0.031418 1.000000
19.694099 114.799400 -728.258484 0.811786 0.559697 0.166559 1.000000
19.631399 113.925797 -726.138428 0.639025 0.758190 0.129592 1.000000
19.630400 113.417000 -720.673523 0.201015 0.969224 -0.142119 1.000000
19.615601 114.499001 -715.094604 0.608971 0.787135 -0.097844 1.000000
19.595100 113.761902 -718.694275 0.486121 0.863409 -0.134953 1.000000
19.574600 114.506104 -727.013611 0.744491 0.579766 0.331064 1.000000
19.552799 113.589798 -719.768311 -0.639315 0.730422 0.240332 1.000000
19.527201 115.285400 -729.236389 0.827312 0.551057 0.109048 1.000000
19.467800 114.022697 -717.784119 0.389061 0.886939 -0.248939 1.000000
19.466600 113.484901 -723.719727 0.312887 0.921516 0.230022 1.000000
19.435900 113.986298 -725.075928 0.692906 0.707936 0.136777 1.000000
19.431499 115.001900 -727.638428 0.759521 0.629144 0.165245 1.000000
19.382799 114.344101 -716.682312 0.209227 0.965561 -0.154646 1.000000
19.311199 115.575798 -729.937500 0.583807 0.811835 0.009616 1.000000
19.309099 113.617599 -723.051208 0.452734 0.858528 0.240751 1.000000
19.299299 115.354103 -728.435120 0.797773 0.572017 0.190672 1.000000
19.267799 114.529800 -726.269409 0.791260 0.531206 0.302867 1.000000
19.245100 113.955399 -724.160400 0.784581 0.588818 0.194233 1.000000
19.218599 113.985100 -719.275574 0.527995 0.828847 -0.185024 1.000000
19.189800 114.555702 -715.622620 0.250875 0.964023 -0.087870 1.000000
19.173700 113.604599 -721.860596 0.497119 0.861004 -0.107446 1.000000
19.142200 115.064499 -726.929626 0.733890 0.584183 0.346605 1.000000
19.119400 114.385696 -725.619629 0.769892 0.610710 0.185203 1.000000
19.109699 113.631599 -721.064880 0.546426 0.815855 -0.189206 1.000000
19.096901 115.824699 -729.244873 0.815934 0.577665 0.023550 1.000000
19.071400 114.134003 -718.415771 0.769609 0.637836 -0.029439 1.000000
19.028400 113.770401 -720.212280 0.439774 0.869041 -0.226641 1.000000
18.968000 115.555801 -727.653687 0.804546 0.569949 0.166924 1.000000
18.926600 114.061798 -723.525879 0.788868 0.506097 0.348644 1.000000
18.909201 114.411301 -724.784973 0.683214 0.707779 0.179632 1.000000
18.878000 115.932899 -728.589111 0.812881 0.568870 0.124946 1.000000
18.859100 114.361198 -717.468628 0.307790 0.944689 -0.113256 1.000000
18.824100 115.122704 -726.323120 0.744209 0.603973 0.285254 1.000000
18.777000 113.801598 -722.457275 -0.933241 0.271667 0.235070 1.000000
18.772900 114.826202 -714.577087 -0.050292 0.970270 -0.236741 1.000000
18.729700 114.561600 -716.159424 0.324534 0.938591 -0.117155 1.000000
18.711700 116.320801 -729.527588 0.811259 0.156873 0.563250 1.000000
18.663900 114.802002 -725.308716 0.819067 0.522907 0.236002 1.000000
18.655399 115.753197 -727.056702 0.792355 0.604044 0.085464 1.000000
18.627100 113.964798 -721.546082 0.598460 0.801142 -0.004108 1.000000
18.605700 114.753502 -715.311218 0.281648 0.959093 -0.028537 1.000000
18.603100 114.006401 -720.784485 0.484710 0.868498 -0.103765 1.000000
18.590000 114.559097 -724.116821 0.647647 0.757762 0.079688 1.000000
18.570299 116.083298 -727.875671 0.781122 0.607206 0.145430 1.000000
18.561100 114.183601 -719.801514 0.599103 0.798330 -0.061191 1.000000
18.532400 113.693703 -723.086487 0.811314 0.392055 0.433661 1.000000
18.508301 116.488899 -728.871094 0.785956 0.610975 0.094781 1.000000
18.484200 114.254997 -718.801880 0.385370 0.914036 -0.126602 1.000000
18.479601 114.387604 -718.043518 0.441917 0.888097 -0.126465 1.000000
18.449400 114.550400 -716.850891 -0.635092 0.732798 0.244266 1.000000
18.423599 114.582298 -723.424927 0.502954 0.859981 0.086423 1.000000
18.408701 115.284500 -725.716125 0.730316 0.663510 0.162461 1.000000
18.364901 114.362801 -722.615112 0.573767 0.817863 0.043488 1.000000
18.313400 115.897301 -726.449219 0.874822 0.414073 0.251455 1.000000
18.312700 114.859497 -724.679871 0.574460 0.817662 0.037738 1.000000
18.257601 116.630096 -728.202881 0.779368 0.595627 0.194459 1.000000
18.185101 116.330200 -727.052673 0.796473 0.557376 0.234440 1.000000
18.130699 114.391403 -721.833618 0.681335 0.560804 0.470406 1.000000
18.084000 114.879601 -714.759583 0.234659 0.969676 -0.068287 1.000000
18.069700 117.019798 -729.004517 0.135144 0.990684 0.016753 1.000000
18.068300 114.784698 -716.171509 0.451148 0.864825 -0.220328 1.000000
18.068100 114.419296 -719.378784 0.477692 0.877366 -0.045169 1.000000
18.056000 114.351601 -720.454712 0.421998 0.906171 0.027780 1.000000
18.022100 115.933601 -725.770630 0.814367 0.547461 0.192597 1.000000
17.984301 116.738800 -727.579285 0.787454 0.570011 0.234528 1.000000
17.980700 115.473503 -724.903992 0.812288 0.435667 0.387792 1.000000
17.980400 115.047699 -713.910217 -0.658161 0.510032 0.553797 1.000000
17.973301 115.181396 -724.138000 0.704552 0.670031 0.233805 1.000000
17.960199 114.820602 -722.982788 0.741628 0.490565 0.457530 1.000000
17.949100 114.412598 -721.155212 0.443325 0.890845 -0.099294 1.000000
17.885500 114.579803 -718.396973 0.405951 0.899405 -0.162094 1.000000
17.883200 114.929100 -715.425781 0.292172 0.953742 -0.070791 1.000000
17.882500 116.440300 -726.445923 0.763628 0.604993 0.225511 1.000000
17.859400 114.760803 -717.132385 0.295621 0.953410 -0.060148 1.000000
17.851200 117.282303 -728.389893 0.795517 0.597003 0.103636 1.000000
17.776699 114.023201 -722.662476 -0.516253 0.855857 -0.031496 1.000000
17.730301 115.264198 -723.507385 0.628994 0.768112 0.119879 1.000000
17.720400 114.829399 -722.321472 0.826818 0.476710 0.298530 1.000000
17.671400 116.882698 -726.966003 0.781030 0.560133 0.276122 1.000000
17.663300 116.037498 -725.118225 0.709286 0.624886 0.326239 1.000000
17.591200 117.283302 -727.724609 0.799938 0.572252 0.180631 1.000000
17.552200 114.820702 -717.817871 -0.353147 0.922649 0.154938 1.000000
17.551600 114.821503 -721.555786 0.436744 0.894419 0.096279 1.000000
17.542101 115.774101 -724.456604 0.745482 0.495343 0.445973 1.000000
17.519501 114.680397 -720.167908 0.517177 0.853552 -0.063070 1.000000
17.513800 116.424400 -725.703918 0.729298 0.637939 0.247300 1.000000
17.491600 114.785896 -719.278687 0.351246 0.877355 -0.326917 1.000000
17.469601 115.295502 -722.801514 0.627164 0.763175 0.155658 1.000000
17.436001 114.917999 -716.546997 -0.633627 0.734252 0.243703 1.000000
17.435801 115.118103 -714.744873 0.312471 0.949861 -0.011204 1.000000
17.411301 114.774101 -720.839294 0.585387 0.806885 0.079106 1.000000
17.391800 116.891502 -726.221680 0.799967 0.540095 0.261437 1.000000
17.343500 115.075401 -715.860413 -0.175035 0.984136 0.028979 1.000000
17.325600 115.238503 -713.422913 0.595903 0.788033 0.154605 1.000000
17.265699 114.845100 -718.582825 -0.306787 0.934244 0.181851 1.000000
17.250200 115.817101 -723.786194 0.739276 0.654267 0.159392 1.000000
17.247000 117.521103 -727.164429 0.769978 0.584175 0.256659 1.000000
17.242599 116.472504 -724.798828 0.768130 0.553246 0.322326 1.000000
17.225100 117.782501 -728.071228 0.468262 0.835404 -0.287802 1.000000
17.216000 115.255302 -722.144409 0.795092 0.462863 0.391901 1.000000
17.068100 115.225998 -714.118713 0.284249 0.958573 0.018458 1.000000
17.040600 116.999397 -725.612976 0.681366 0.661945 0.312360 1.000000
17.016800 115.771004 -723.056885 0.687660 0.696974 0.203349 1.000000
16.994801 117.487701 -726.530701 0.786678 0.520714 0.331655 1.000000
16.987801 115.022499 -719.868774 0.530774 0.847328 0.017738 1.000000
16.975300 115.104698 -717.036377 0.302957 0.951971 -0.044366 1.000000
16.973200 116.323303 -724.184082 0.710355 0.480779 0.514051 1.000000
16.962400 115.210800 -721.332275 0.504627 0.781930 0.365975 1.000000
16.949600 115.223396 -715.276978 0.258662 0.957182 -0.129988 1.000000
16.938700 115.084000 -717.978699 0.375586 0.925029 -0.057068 1.000000
16.875299 115.115799 -720.541626 0.543991 0.837662 0.048945 1.000000
16.854601 118.056396 -727.518311 0.779252 0.608087 0.151646 1.000000
16.816999 115.146797 -719.165527 0.354281 0.934942 0.019185 1.000000
16.807699 115.790100 -722.328613 0.722751 0.654066 0.223225 1.000000
16.779800 116.971603 -724.851196 0.793418 0.484420 0.368545 1.000000
16.737801 116.237297 -723.494995 0.617587 0.782470 0.079549 1.000000
16.686399 118.043198 -726.851990 0.749275 0.628274 0.209425 1.000000
16.658001 115.230904 -716.049011 0.366969 0.920884 -0.131555 1.000000
16.647400 115.358704 -713.572083 0.261777 0.961553 -0.083003 1.000000
16.593300 117.557899 -725.757813 0.742193 0.570043 0.352420 1.000000
16.521400 115.389397 -714.509888 0.304080 0.952284 0.026279 1.000000
16.501801 116.224403 -722.763794 0.649280 0.732958 0.202997 1.000000
16.488600 115.235397 -718.487671 0.422798 0.902061 -0.086763 1.000000
16.466801 116.756599 -723.874878 0.711490 0.478214 0.514872 1.000000
16.466101 115.580200 -721.724670 0.805595 0.538615 0.246801 1.000000
16.425900 115.429497 -712.862427 0.098916 0.972879 0.209100 1.000000
16.385799 115.356598 -719.664429 0.483135 0.873520 0.059527 1.000000
16.373501 118.601097 -727.116516 0.666002 0.712794 0.219921 1.000000
16.355801 115.360603 -717.213013 0.530556 0.843485 -0.083922 1.000000
16.352400 115.468498 -720.991821 0.325940 0.945350 0.008742 1.000000
16.336800 118.122902 -726.049683 0.728905 0.606074 0.318391 1.000000
16.316000 117.246597 -724.351013 0.722019 0.608443 0.329371 1.000000
16.300699 115.459801 -715.163879 0.256324 0.962807 -0.085441 1.000000
16.285101 116.164101 -722.097717 0.626821 0.731555 0.268184 1.000000
16.272900 117.637398 -725.098694 0.739147 0.629295 0.240105 1.000000
16.211700 115.451599 -716.549011 0.399425 0.916173 0.032956 1.000000
16.168900 116.693497 -723.184387 0.648993 0.747916 0.139391 1.000000
16.159100 115.417297 -717.887695 0.538173 0.839208 -0.078099 1.000000
16.153601 115.630096 -720.327515 0.500708 0.860991 -0.089362 1.000000
16.064100 118.565102 -726.507202 0.764943 0.584397 0.270818 1.000000
16.055901 115.545403 -713.957092 0.219035 0.975699 -0.005857 1.000000
16.048201 115.603203 -719.040771 0.416784 0.897580 0.143670 1.000000
16.020599 117.249802 -723.717529 0.392788 0.834477 0.386478 1.000000
16.007000 115.472397 -715.837280 -0.287877 0.956656 0.043999 1.000000
15.997900 116.137100 -721.461975 0.731258 0.616049 0.292823 1.000000
15.980800 116.602402 -722.528076 0.653101 0.691803 0.308006 1.000000
15.881900 118.388496 -725.555603 0.813184 0.520873 0.259659 1.000000
15.860800 117.878197 -724.595581 0.745657 0.657064 0.110741 1.000000
15.834000 115.656403 -712.615479 0.139598 0.988722 0.054224 1.000000
15.795600 115.610298 -714.641479 0.260274 0.965534 0.001199 1.000000
15.773600 115.697800 -719.716370 0.516145 0.852700 0.080603 1.000000
15.757000 116.039200 -720.824097 0.794190 0.509752 0.330779 1.000000
15.755600 115.721497 -718.413818 0.462205 0.884399 -0.064847 1.000000
15.747600 118.920097 -726.995789 0.357710 0.912233 -0.199686 1.000000
15.744200 115.628502 -713.335815 0.009715 0.675881 -0.736947 1.000000
15.709500 115.606796 -717.002319 0.488514 0.871069 -0.050916 1.000000
15.656200 117.092300 -722.919617 0.746831 0.639484 0.182491 1.000000
15.646300 116.610703 -721.828308 0.636606 0.695219 0.333770 1.000000
15.617100 118.834900 -726.044983 0.699884 0.674719 0.234343 1.000000
15.615900 117.863098 -723.879883 0.696363 0.617715 0.365386 1.000000
15.558300 115.729401 -716.314026 0.337344 0.941279 -0.013898 1.000000
15.558200 115.698502 -717.664978 0.458269 0.888805 -0.003962 1.000000
15.556000 115.633301 -715.323730 0.387064 0.922009 0.009001 1.000000
