ply
format ascii 1.0
element vertex 695
property float x
property float y
property float z
property float nx
property float ny
property float nz
property float label
element face 0
property list uchar int vertex_indices
end_header
41.111301 28.773899 -735.570496 -0.391780 0.826386 -0.404469 1.000000
41.103699 42.079800 -745.482178 -0.199377 0.718686 0.666137 1.000000
41.102501 55.118999 -756.452698 -0.486415 0.872239 -0.050984 1.000000
41.101299 27.244699 -734.726318 0.136408 0.646065 -0.750995 0.000000
41.098000 31.029400 -737.191589 -0.271826 0.385963 0.881557 1.000000
41.093399 35.532200 -739.519470 -0.543844 0.490296 0.681060 1.000000
41.092999 46.909901 -750.220520 0.082910 0.673464 0.734556 1.000000
41.092098 44.309101 -747.704529 -0.058786 0.755611 0.652378 1.000000
41.088501 31.575300 -737.536987 -0.483931 0.386821 0.784972 1.000000
41.087601 34.943001 -739.142029 -0.532395 0.324553 0.781806 1.000000
41.077202 32.080399 -737.880371 -0.970071 0.070799 0.232271 1.000000
41.074600 53.839100 -756.256775 0.173330 0.391067 0.903894 1.000000
41.065201 40.991600 -744.376282 -0.485247 0.639720 0.596065 1.000000
41.064701 45.859100 -749.276489 0.026725 0.673762 0.738465 1.000000
41.060101 35.936100 -740.076477 -0.905251 0.210018 0.369342 1.000000
41.052799 53.017502 -755.843811 0.166618 0.119718 0.978727 1.000000
41.048100 39.896198 -743.396179 -0.485073 0.701773 0.521746 1.000000
41.047199 51.646400 -754.657898 0.152074 0.396530 0.905338 1.000000
41.045898 29.150999 -736.249878 -0.498245 0.751479 0.432470 1.000000
41.042999 45.054600 -748.506287 0.009562 0.566909 0.823725 1.000000
41.034698 38.635300 -742.217224 -0.458673 0.685508 0.565419 1.000000
41.034302 37.271301 -740.930481 -0.455419 0.448889 0.768825 1.000000
41.010201 32.963100 -738.425171 -0.659034 0.203137 0.724162 1.000000
41.007900 26.406601 -734.251526 0.196114 0.687171 -0.699525 0.000000
41.006802 34.041500 -738.876587 0.710298 0.301192 0.636208 1.000000
41.005299 36.767200 -740.565918 -0.457714 0.412428 0.787656 1.000000
40.999901 28.239599 -735.963013 0.608747 0.354150 -0.709933 1.000000
40.997299 39.342602 -742.919678 -0.493138 0.489818 0.718953 1.000000
40.996201 48.646099 -751.839172 -0.041502 0.113291 -0.992695 1.000000
40.990799 50.572701 -753.784973 -0.104204 0.617887 -0.779331 1.000000
40.988602 43.675800 -747.243225 0.052666 0.998586 0.007229 1.000000
40.980701 35.063301 -739.538513 -0.954069 0.262136 0.145040 1.000000
40.978401 29.779301 -736.762329 -0.885403 0.011983 0.464670 1.000000
40.977100 30.578899 -737.175415 -0.437983 0.352600 0.826949 1.000000
40.976501 43.453201 -746.843689 -0.077752 0.521643 0.849614 1.000000
40.967899 41.390099 -744.852905 -0.229898 0.639648 0.733483 1.000000
40.967400 35.519402 -740.043274 0.762288 0.440979 0.473766 1.000000
40.965900 49.677799 -752.962280 -0.181992 0.471995 0.862612 1.000000
40.961899 27.749701 -735.696716 -0.858633 0.396174 0.325263 1.000000
40.960300 28.702299 -736.377625 -0.482563 0.257470 0.837163 1.000000
40.955299 37.407700 -741.298279 -0.879215 0.231372 0.416470 1.000000
40.955002 42.945900 -746.307678 0.001381 0.694569 0.719425 1.000000
40.953899 54.186100 -756.491577 0.054514 0.535353 0.842867 1.000000
40.943401 54.796600 -756.669373 -0.247332 0.267119 -0.931383 1.000000
40.937199 29.405500 -736.641724 -0.494072 0.275870 0.824493 1.000000
40.928398 52.454399 -755.276428 0.204793 0.514258 0.832825 1.000000
40.921101 26.118099 -734.559875 0.196114 0.687171 -0.699525 0.000000
40.920700 51.993198 -754.900085 -0.037869 0.928440 -0.369548 1.000000
40.906700 44.684601 -748.060486 0.051398 0.857094 0.512590 1.000000
40.905399 36.230202 -740.450989 -0.950550 0.289528 -0.112374 1.000000
40.904900 47.926899 -751.147217 -0.018179 0.672631 0.739754 1.000000
40.902199 45.554199 -749.011414 0.110892 0.752587 0.649088 1.000000
40.900700 31.165701 -737.568726 -0.524415 0.273948 0.806190 1.000000
40.891201 47.183800 -750.501221 -0.054779 0.835738 0.546390 1.000000
40.886902 46.653400 -749.956116 -0.029562 0.694015 0.719354 1.000000
40.884602 40.609501 -744.589783 -0.595662 0.652711 -0.468140 1.000000
40.875198 47.570900 -750.856628 0.026208 0.558641 0.828995 1.000000
40.872200 50.136299 -753.508118 -0.074353 0.495219 0.865581 1.000000
40.864300 40.269402 -743.794800 -0.445285 0.595381 0.668762 1.000000
40.862598 41.553501 -745.332581 -0.294438 0.677368 -0.674150 1.000000
40.857899 49.057598 -752.268188 -0.001305 0.432009 0.901868 1.000000
40.857498 40.659500 -744.196228 -0.408948 0.683787 0.604315 1.000000
40.854900 34.513199 -739.262085 -0.459376 0.234994 0.856593 1.000000
40.853699 38.935501 -742.572021 -0.484154 0.510774 0.710425 1.000000
40.853500 42.497101 -746.140015 -0.321291 0.728152 -0.605448 1.000000
40.847900 53.328400 -755.978882 0.037546 0.552061 0.832958 1.000000
40.847900 38.064098 -741.782593 -0.677183 0.473192 0.563483 1.000000
40.845200 39.592701 -743.183716 -0.453424 0.526503 0.719167 1.000000
40.826000 32.448601 -738.001770 -0.334880 0.296182 0.894501 1.000000
40.819599 33.666698 -738.914429 -0.310482 0.731966 -0.606486 1.000000
40.813099 31.802700 -737.765930 -0.539975 0.226143 0.810732 1.000000
40.804100 42.312199 -745.687622 0.032367 0.637493 0.769776 1.000000
40.799599 44.043098 -747.601318 -0.096009 0.846887 -0.523035 1.000000
40.799599 38.267200 -742.118286 -0.669468 0.535239 0.515104 1.000000
40.798698 36.924198 -740.874023 -0.735238 0.467578 0.490709 1.000000
40.796700 51.114700 -754.207886 0.149115 0.458928 0.875871 1.000000
40.791199 37.719898 -741.595276 -0.831527 0.291737 0.472707 1.000000
40.784599 27.831699 -736.040283 -0.077942 0.939265 0.334225 1.000000
40.781502 46.276199 -749.668579 -0.118502 0.299583 -0.946682 1.000000
40.780602 35.139999 -739.920898 -0.610720 0.020867 -0.791571 1.000000
40.776299 32.635899 -738.437622 -0.860457 0.309395 0.404831 1.000000
40.774601 45.312000 -748.658325 0.088750 0.766738 0.635796 1.000000
40.771702 51.353901 -754.548828 -0.009023 0.921622 0.387984 1.000000
40.770199 33.244202 -738.747620 -0.332044 0.058596 0.941442 1.000000
40.760399 30.118601 -737.074829 -0.484006 0.346632 0.803483 1.000000
40.758701 28.330099 -736.390930 -0.975224 0.126441 -0.181524 1.000000
40.757999 52.914200 -755.542786 0.236892 0.641647 0.729501 1.000000
40.752102 49.871498 -753.243286 -0.151578 0.349047 -0.924765 1.000000
40.749802 41.043098 -744.905029 -0.204923 0.317983 -0.925685 1.000000
40.747200 30.884199 -737.340027 -0.701070 0.301380 0.646274 1.000000
40.746601 48.264999 -751.448486 0.060663 0.557255 0.828123 1.000000
40.739601 27.356400 -735.854492 -0.818525 0.510996 0.262487 1.000000
40.728298 41.987000 -745.402222 0.125876 0.608647 0.783393 1.000000
40.724998 49.342602 -752.536682 0.042193 0.883332 0.466846 1.000000
40.720901 38.533798 -742.444519 -0.564868 0.305637 0.766492 1.000000
40.718601 29.056400 -736.569580 -0.742708 0.377067 0.553358 1.000000
40.706200 53.804298 -756.118774 0.171152 0.513455 0.840875 1.000000
40.700199 43.261902 -746.614319 -0.026744 0.724916 0.688318 1.000000
40.694599 54.514000 -756.532288 0.055481 0.235484 0.970293 1.000000
40.688999 31.343901 -737.907898 0.293523 0.293523 -0.909774 1.000000
40.687901 29.657000 -737.045288 -0.764459 0.301634 0.569753 1.000000
40.687698 32.070499 -738.210876 -0.899189 0.143472 -0.413371 1.000000
40.686798 46.907001 -750.256470 0.020687 0.575097 0.817824 1.000000
40.685200 44.937500 -748.350525 0.111045 0.846540 0.520615 1.000000
40.685200 39.884201 -743.613892 -0.347223 0.598267 0.722159 1.000000
40.680401 38.638500 -743.070374 0.754039 0.337461 0.563511 1.000000
40.679901 34.731602 -739.741577 -0.993758 0.061620 0.092990 1.000000
40.668999 50.782398 -753.889587 0.103975 0.344332 0.933073 1.000000
40.665100 34.188400 -739.071289 -0.748377 0.391383 0.535491 1.000000
40.664398 35.742001 -740.150513 -0.542152 0.498511 0.676431 1.000000
40.661400 36.564098 -740.745483 -0.720480 0.410525 0.558908 1.000000
40.660999 44.430901 -747.846130 0.038225 0.692291 0.720605 1.000000
40.660500 37.030399 -741.244629 -0.852452 0.281079 0.440818 1.000000
40.659000 39.086601 -742.972412 -0.432373 0.710683 0.554962 1.000000
40.657700 40.922600 -744.512329 -0.006866 0.591826 0.806037 1.000000
40.657200 4.979400 -736.104187 -0.716419 0.123623 -0.686630 0.000000
40.654499 45.855598 -749.200684 -0.004159 0.702929 0.711248 1.000000
40.653900 40.159698 -744.178223 0.179282 0.424155 -0.887666 1.000000
40.653801 35.914600 -740.516785 0.477187 0.570951 -0.668063 1.000000
40.652401 39.209599 -743.421326 -0.940325 0.335178 -0.058689 1.000000
40.652401 37.876499 -742.064270 0.999261 0.007145 0.037766 1.000000
40.643299 30.881201 -737.744202 -0.538023 0.219194 0.813932 1.000000
40.641499 41.597599 -745.007385 0.069415 0.551072 0.831566 1.000000
40.638802 43.858601 -747.258484 0.026690 0.686915 0.726248 1.000000
40.624699 51.785500 -754.721130 0.029323 0.791712 0.610191 1.000000
40.622299 48.545799 -751.896423 -0.056251 0.935330 -0.349277 1.000000
40.613499 43.571499 -746.976624 0.034495 0.536735 0.843046 1.000000
40.612400 6.442300 -735.986023 0.987191 0.140019 0.076481 0.000000
40.610001 37.268200 -741.658813 0.391298 0.777725 -0.491964 1.000000
40.609901 30.379299 -737.324829 -0.586877 0.379744 0.715102 1.000000
40.609402 52.214199 -755.020874 0.133237 0.259878 0.956405 1.000000
40.607399 6.445500 -737.050293 -0.898431 0.165311 -0.406810 0.000000
40.599300 5.706500 -736.093384 0.967043 0.001195 0.254611 0.000000
40.598000 28.756901 -736.789612 -0.788258 0.467775 -0.399794 1.000000
40.597099 49.553200 -752.926208 -0.110181 0.993810 0.014182 1.000000
40.595501 4.437300 -736.096680 0.972263 0.017938 0.233200 0.000000
40.592098 54.110001 -756.349182 0.311321 0.500959 0.807539 1.000000
40.587799 38.128101 -742.630920 0.999036 0.001020 0.043880 1.000000
40.581501 13.706200 -737.002686 0.469482 0.277351 -0.838250 0.000000
40.576500 13.137500 -736.601013 0.986010 0.132342 0.101343 0.000000
40.572102 50.374401 -753.682190 -0.159587 0.971565 -0.174907 1.000000
40.570999 12.451700 -736.556274 0.977107 0.029754 0.210655 0.000000
40.565201 25.187300 -733.771484 -0.939471 0.235216 -0.249134 0.000000
40.561600 53.264599 -755.709229 0.246242 0.478719 0.842729 1.000000
40.560501 27.653099 -736.312012 0.594130 0.260030 -0.761179 1.000000
40.559898 47.671200 -751.063416 -0.094052 0.920070 -0.380296 1.000000
40.555500 42.910000 -746.309082 -0.009582 0.817196 0.576280 1.000000
40.549099 11.819800 -736.760681 -0.930426 0.011487 0.366299 0.000000
40.548801 42.540298 -745.885071 0.043986 0.764796 0.642769 1.000000
40.548599 3.989900 -736.035522 -0.971776 0.114996 -0.205981 0.000000
40.544998 26.896099 -735.990417 -0.878053 0.279587 0.388399 1.000000
40.544800 32.834599 -738.754395 -0.879767 0.291244 0.375749 1.000000
40.539501 2.857200 -736.081970 0.965205 0.040783 0.258294 0.000000
40.535500 47.300098 -750.634277 0.041434 0.904858 0.423693 1.000000
40.535400 34.369202 -739.538818 -0.471226 0.875942 -0.103302 1.000000
40.535400 6.595600 -735.581970 0.974240 0.093318 0.205300 0.000000
40.534401 3.461700 -736.143311 -0.973591 0.034987 -0.225603 0.000000
40.533501 6.007400 -735.745605 0.986495 0.105908 0.124948 0.000000
40.532398 4.690400 -735.804688 -0.961313 0.033405 -0.273424 0.000000
40.531601 32.320301 -738.494324 0.406364 0.043967 -0.912653 1.000000
40.529499 11.220400 -736.819824 -0.722229 0.077018 -0.687353 0.000000
40.524101 52.610100 -755.259583 0.208225 0.468881 0.858367 1.000000
40.523102 37.502201 -742.023621 -0.812514 0.462703 0.354580 1.000000
40.522701 31.677200 -738.036011 -0.281871 0.182873 0.941863 1.000000
40.522202 7.332000 -735.778870 -0.999072 0.040210 0.015466 0.000000
40.515499 48.931599 -752.117920 0.057571 0.537801 0.841104 1.000000
40.515301 9.655600 -736.859070 0.979150 0.147306 0.139879 0.000000
40.511501 10.838300 -736.704773 -0.986475 0.040572 -0.158810 0.000000
40.511200 45.559799 -748.946899 0.052755 0.754260 0.654453 1.000000
40.504799 46.493500 -749.861389 0.057317 0.521441 0.851360 1.000000
40.502300 6.859000 -735.961426 0.986876 0.161284 0.007895 0.000000
40.500801 2.022300 -736.260620 -0.983897 0.067814 -0.165371 0.000000
40.500198 10.403600 -736.798218 0.983552 0.012624 0.180184 0.000000
40.499001 36.791801 -741.715820 -0.944658 0.029242 -0.326752 1.000000
40.496899 28.009399 -736.572021 -0.427050 0.318346 0.846336 1.000000
40.496498 11.512100 -736.468323 0.982763 0.017363 0.184051 0.000000
40.496399 5.705900 -736.970581 0.140646 0.984521 0.104583 0.000000
40.496300 39.581600 -743.402283 -0.241873 0.578934 0.778674 1.000000
40.495201 36.266998 -741.028381 -0.567764 0.821356 -0.054945 1.000000
40.495098 5.258800 -735.757324 -0.946376 0.129842 -0.295826 0.000000
40.494400 7.823000 -736.688599 0.998844 0.048051 -0.001022 0.000000
40.493801 8.838800 -736.830078 0.986763 0.140292 0.081346 0.000000
40.488800 40.558498 -744.477600 -0.245417 0.919957 -0.305695 1.000000
40.487801 13.503200 -736.278015 0.966893 0.015692 0.254700 0.000000
40.486099 6.919500 -736.851318 0.977227 0.097353 0.188545 0.000000
40.485600 48.037800 -751.240417 0.066218 0.841113 0.536791 1.000000
40.479599 35.268799 -740.264282 0.666826 0.326112 -0.670071 1.000000
40.479599 10.246000 -737.282288 -0.263015 0.433291 -0.862022 0.000000
40.479301 2.473400 -736.306824 0.856352 0.515989 -0.020422 0.000000
40.479198 24.898399 -734.079529 -0.904712 0.408172 -0.122031 0.000000
40.478901 4.739300 -736.380920 -0.982375 0.160708 -0.095458 0.000000
40.477402 7.371700 -736.701416 -0.710021 0.412110 -0.570996 0.000000
40.476799 33.803398 -739.059021 -0.767901 0.298540 0.566746 1.000000
40.472698 9.471600 -737.316772 -0.721938 0.041132 0.690734 0.000000
40.471100 11.908100 -736.201782 0.932433 0.095531 0.348485 0.000000
40.467098 29.233900 -737.046021 -0.833928 0.277976 0.476752 1.000000
40.466900 12.841600 -736.232727 -0.983845 0.033765 -0.175811 0.000000
40.465801 9.070100 -737.315979 0.815843 0.340595 -0.467328 0.000000
40.459801 4.321200 -735.652588 -0.917863 0.085667 -0.387542 0.000000
40.457401 8.343900 -736.741211 0.961753 0.203928 0.182878 0.000000
40.456001 28.376900 -736.872314 0.555289 0.280017 -0.783099 1.000000
40.454800 9.960000 -736.533386 -0.931568 0.179630 -0.316093 0.000000
40.454399 7.739800 -735.929077 0.978582 0.198605 -0.054165 0.000000
40.453098 6.972600 -735.433716 -0.968154 0.035405 -0.247838 0.000000
40.452599 46.103100 -749.510681 0.055144 0.306498 0.950273 1.000000
40.451099 35.564301 -740.519592 0.920398 0.371195 -0.122812 1.000000
40.449100 11.084700 -736.408875 -0.985991 0.019423 -0.165665 0.000000
40.448700 38.534100 -742.757019 0.475520 0.277258 0.834871 1.000000
40.446899 41.252800 -744.734619 0.032205 0.603491 0.796720 1.000000
40.436699 7.364100 -736.158875 0.979897 0.124178 -0.156144 0.000000
40.436199 12.741000 -737.182312 0.074652 0.259384 -0.962885 0.000000
40.436100 29.951401 -737.367676 -0.374046 0.277906 0.884792 1.000000
40.429901 9.057600 -736.295715 0.996789 0.024678 0.076181 0.000000
40.428299 38.179199 -742.234619 -0.362713 0.690960 0.625311 1.000000
40.425400 36.268200 -741.427612 -0.838683 0.412287 0.355852 1.000000
40.424702 45.154202 -748.555481 -0.004115 0.802456 0.596698 1.000000
40.424099 11.441100 -737.140381 -0.109830 0.978602 -0.174001 0.000000
40.423901 44.706200 -748.050781 0.006946 0.704306 0.709863 1.000000
40.423302 8.671200 -736.395874 -0.542128 0.552262 -0.633328 0.000000
40.421299 51.226299 -754.250427 0.066786 0.817069 0.572659 1.000000
40.420700 4.696100 -737.104126 -0.126787 0.912590 0.388722 0.000000
40.420601 3.648000 -735.759888 0.877635 0.003983 0.479313 0.000000
40.415699 8.342400 -737.332214 -0.163029 0.865082 0.474400 0.000000
40.415298 33.306198 -739.110474 0.685575 0.528010 -0.501191 1.000000
40.413101 50.097000 -753.417908 0.231439 0.025182 0.972523 1.000000
40.412800 13.187900 -736.045593 0.909065 0.049537 0.413698 0.000000
40.411800 0.287300 -736.285706 0.927997 0.008960 0.372479 0.000000
40.410500 8.576200 -735.859680 0.991711 0.106377 -0.072062 0.000000
40.408401 12.419400 -736.152527 -0.987488 0.141739 -0.069112 0.000000
40.407902 1.559900 -736.392517 -0.830691 0.301927 -0.467753 0.000000
40.405300 24.444599 -734.545715 -0.978191 0.207706 0.001160 0.000000
40.404900 27.099100 -736.335693 0.719024 0.046986 -0.693395 1.000000
40.404598 44.121601 -747.502075 0.178643 0.218342 0.959382 1.000000
40.404400 6.065400 -737.156982 0.254589 0.875243 -0.411259 0.000000
40.403301 8.109800 -736.378418 0.906323 0.115909 0.406379 0.000000
40.397099 13.124700 -737.115417 -0.354066 0.202119 0.913118 0.000000
40.395000 9.516700 -736.150330 -0.915891 0.201467 -0.347210 0.000000
40.393799 7.384500 -735.349304 0.955408 0.186258 0.229137 0.000000
40.390999 10.549200 -736.300293 -0.936607 0.213563 -0.277772 0.000000
40.388100 8.157700 -735.802490 0.990366 0.116446 0.074940 0.000000
40.383900 48.258701 -751.601013 0.188204 0.377844 0.906539 1.000000
40.383598 11.895900 -737.206177 0.986410 0.160364 -0.035765 0.000000
40.383499 7.779300 -735.397217 0.991406 0.058050 0.117239 0.000000
40.382801 31.806801 -738.407227 -0.383568 0.778465 -0.496858 1.000000
40.382500 0.892100 -736.324829 -0.857115 0.367335 -0.361135 0.000000
40.381199 42.206402 -745.540771 -0.009717 0.653842 0.756569 1.000000
40.381001 4.928100 -735.507324 -0.641366 0.159204 -0.750535 0.000000
40.379501 33.951401 -739.489685 -0.618601 0.724647 0.303677 1.000000
40.375801 40.478600 -744.107483 0.110233 0.604075 0.789266 1.000000
40.374802 5.540700 -735.418396 0.963363 0.117357 0.241163 0.000000
40.374100 36.717098 -741.200317 -0.742505 0.505430 0.439576 1.000000
40.370998 54.561798 -756.241699 -0.645523 0.748323 -0.152688 1.000000
40.370899 30.462900 -737.763428 0.824117 0.472494 0.312380 1.000000
40.369301 5.314900 -736.550171 0.968119 0.063381 0.242340 0.000000
40.368801 39.726700 -743.839478 -0.189525 0.657946 -0.728826 1.000000
40.365799 3.216900 -735.810791 0.988525 0.102019 0.111400 0.000000
40.365398 11.331300 -736.105713 -0.936240 0.050784 -0.347672 0.000000
40.363800 2.447000 -735.923889 -0.902028 0.137358 -0.409240 0.000000
40.359901 51.526001 -754.494812 0.148332 0.306190 0.940343 1.000000
40.357498 13.641800 -735.924683 -0.416514 0.538340 -0.732603 0.000000
40.357101 52.895100 -755.556274 -0.393683 0.170357 -0.903323 1.000000
40.354000 41.816799 -745.173218 0.037967 0.606072 0.794503 1.000000
40.353500 53.688599 -755.945923 0.231088 0.378277 0.896384 1.000000
40.353100 5.940000 -735.348877 0.871588 0.140206 0.469762 0.000000
40.348301 26.541901 -736.179626 -0.851473 0.209477 0.480743 1.000000
40.347099 46.701401 -750.167419 -0.134705 0.812668 -0.566943 1.000000
40.344299 35.646900 -741.009705 -0.395006 0.659445 -0.639612 1.000000
40.344101 4.979400 -736.762329 -0.905111 0.405546 0.127698 0.000000
40.343899 27.307199 -735.922913 -0.837017 0.108422 0.536327 1.000000
40.336601 6.402900 -735.259888 0.660752 0.738664 0.133349 0.000000
40.335999 9.932400 -736.093384 -0.915492 0.214142 -0.340615 0.000000
40.335201 34.618900 -739.966370 0.341552 0.790540 -0.508319 1.000000
40.334599 43.230701 -746.763611 0.057715 0.062071 0.996402 1.000000
40.333401 -1.040400 -736.454285 0.997519 0.066784 -0.022261 0.000000
40.331299 40.170502 -743.869629 0.122688 0.595704 0.793779 1.000000
40.330502 12.665600 -735.828674 -0.937251 0.284647 -0.201336 0.000000
40.329800 39.249699 -743.124512 -0.089586 0.516186 0.851778 1.000000
40.327900 27.466299 -736.583984 -0.982812 0.178157 0.048374 1.000000
40.324299 6.053500 -736.280701 0.943169 0.254725 -0.213418 0.000000
40.321400 -0.205600 -736.365723 0.993549 0.029840 -0.109412 0.000000
40.320900 10.782900 -737.229675 0.121771 0.991236 0.051212 0.000000
40.320900 5.195600 -736.111877 0.941810 0.303064 0.145417 0.000000
40.319401 49.372601 -752.564819 0.080874 0.906065 0.415337 1.000000
40.317001 7.934600 -737.115173 -0.356311 0.877891 0.319922 0.000000
40.316002 8.309300 -735.421021 0.967967 0.076386 0.239174 0.000000
40.315102 7.301500 -737.056091 -0.529701 0.175567 0.829815 0.000000
40.313801 31.012699 -738.098328 0.325561 0.258405 -0.909526 1.000000
40.306499 29.514000 -737.374573 -0.137663 0.950274 0.279335 1.000000
40.306499 1.485700 -736.009521 0.931205 0.159121 0.327928 0.000000
40.304501 49.819199 -753.122620 -0.086439 0.178966 -0.980051 1.000000
40.303101 2.807500 -735.715820 -0.692720 0.165948 -0.701855 0.000000
40.300999 -1.503000 -736.453979 -0.998569 0.036751 -0.038851 0.000000
40.300098 51.996399 -754.917908 -0.263284 0.401695 -0.877110 1.000000
40.299099 19.903099 -736.741577 0.162279 0.152215 0.974934 0.000000
40.298698 10.863400 -735.922913 0.993805 0.041085 0.103267 0.000000
40.298302 37.822800 -742.476990 0.212813 0.546578 -0.809915 1.000000
40.297699 31.399700 -738.331421 -0.389069 0.723964 -0.569650 1.000000
40.294701 -0.588700 -736.494812 -0.864213 0.197832 -0.462599 0.000000
40.294300 38.873100 -742.879272 -0.148266 0.500582 0.852898 1.000000
40.290100 11.869800 -735.854675 -0.993801 0.079729 -0.077483 0.000000
40.289600 32.471901 -738.833191 -0.378313 0.281851 0.881725 1.000000
40.289101 28.805799 -737.195007 0.439285 0.359992 -0.823064 1.000000
40.285599 4.240900 -736.332886 -0.989067 0.063624 0.133032 0.000000
40.285301 5.614600 -735.842896 -0.997722 0.020060 0.064403 0.000000
40.284199 3.253200 -736.402222 -0.965941 0.229619 0.119300 0.000000
40.278500 6.873000 -736.319580 0.983661 0.138799 -0.114660 0.000000
40.277802 35.959301 -740.739197 -0.846062 0.383152 0.370641 1.000000
40.277699 5.705000 -736.453186 -0.992091 0.014346 0.124701 0.000000
40.276798 8.699100 -735.426392 0.960073 0.240347 0.143157 0.000000
40.276501 6.481700 -736.323914 0.896224 0.443506 0.009212 0.000000
40.274502 1.952900 -735.943787 -0.925449 0.035243 -0.377228 0.000000
40.272701 1.002600 -735.960510 0.869293 0.006697 0.494251 0.000000
40.271301 50.915199 -753.918213 0.036280 0.442075 0.896244 1.000000
40.268501 8.957700 -735.780396 0.957913 0.121536 0.260061 0.000000
40.265301 4.581200 -736.762085 0.844301 0.507772 -0.171243 0.000000
40.263802 43.750099 -747.141907 0.040622 0.575712 0.816643 1.000000
40.262901 3.973400 -736.664917 0.989422 0.049299 -0.136432 0.000000
40.262501 13.898400 -736.308899 0.995622 0.077937 -0.051592 0.000000
40.262100 40.927502 -744.423584 0.055566 0.631173 0.773650 1.000000
40.261501 10.468300 -735.912720 -0.896525 0.286947 -0.337498 0.000000
40.260201 37.817600 -742.071411 -0.384273 0.467880 0.795879 1.000000
40.259899 -2.089300 -736.498291 -0.999720 0.005024 0.023109 0.000000
40.259899 3.667400 -736.403625 0.434618 0.899994 0.033432 0.000000
40.258301 54.049000 -756.155090 0.252213 0.333854 0.908257 1.000000
40.257801 14.669700 -736.582825 0.990130 0.089379 -0.107951 0.000000
40.257500 41.445400 -745.090515 -0.221282 0.898318 -0.379550 1.000000
40.255501 14.965500 -736.147278 0.988023 0.121295 0.095387 0.000000
40.252998 32.792999 -739.081787 -0.879562 0.103063 0.464488 1.000000
40.252602 47.082199 -750.370300 0.094186 0.586849 0.804200 1.000000
40.252102 12.634600 -736.687317 -0.995698 0.001065 0.092648 0.000000
40.251701 3.562900 -736.906921 0.982597 0.010367 -0.185461 0.000000
40.249199 37.085800 -741.521423 -0.325864 0.344052 0.880591 1.000000
40.248100 3.968100 -735.521729 -0.854712 0.166809 -0.491570 0.000000
40.247601 34.881401 -740.267090 0.551353 0.494375 -0.672014 1.000000
40.246201 13.695000 -736.663025 0.984167 0.128893 -0.121666 0.000000
40.243900 50.584099 -753.641113 -0.030596 0.965600 -0.258227 1.000000
40.242001 15.628800 -736.150574 0.500304 0.846783 0.180707 0.000000
40.241501 2.793500 -736.682678 0.987374 0.143724 -0.066604 0.000000
40.240101 12.002400 -736.553223 -0.999913 0.002973 0.012883 0.000000
40.239300 20.296900 -736.786072 0.986622 0.014760 -0.162355 0.000000
40.238899 0.601800 -736.088379 0.980792 0.148530 0.126435 0.000000
40.238701 24.059799 -734.713013 -0.765942 0.061562 0.639955 0.000000
40.238400 7.611600 -735.056519 -0.748935 0.015341 -0.662466 0.000000
40.237099 8.018900 -735.092407 0.684610 0.318837 0.655478 0.000000
40.236801 6.508600 -737.159790 -0.592530 0.100453 0.799260 0.000000
40.236500 14.289100 -736.456909 0.998693 0.050606 -0.007229 0.000000
40.235199 13.236700 -735.696716 -0.907704 0.086513 -0.410595 0.000000
40.234100 45.838799 -749.140076 0.196538 0.688657 0.697943 1.000000
40.232800 48.610401 -751.739319 0.163059 0.210020 0.964004 1.000000
40.231499 27.888399 -736.856384 0.504942 0.276702 -0.817600 1.000000
40.227200 6.891500 -735.120117 -0.357933 0.053755 -0.932199 0.000000
40.226101 15.270000 -736.458679 0.993482 0.036713 -0.107915 0.000000
40.224098 14.571400 -736.143372 0.993656 0.043493 0.103715 0.000000
40.220901 21.664600 -736.716125 -0.799794 0.122252 -0.587694 0.000000
40.220402 13.875000 -735.625183 0.513292 0.749439 -0.418177 0.000000
40.218201 16.059601 -736.223877 -0.990473 0.126808 0.053693 0.000000
40.216900 6.608800 -735.852112 0.995910 0.083809 -0.033741 0.000000
40.213799 15.670200 -736.611084 0.617960 0.784823 -0.046665 0.000000
40.211601 12.300900 -735.690430 0.943908 0.042380 0.327478 0.000000
40.211399 14.198600 -736.013611 0.971453 0.104579 0.212938 0.000000
40.211201 35.964401 -741.243286 -0.937806 0.006311 0.347102 1.000000
40.210300 16.441500 -736.361511 -0.891562 0.446472 0.076025 0.000000
40.209400 32.049099 -738.763428 -0.974736 0.172308 0.142123 1.000000
40.209400 15.142300 -735.714172 0.918405 0.170702 0.356922 0.000000
40.209202 12.275600 -736.838928 0.970003 0.052865 -0.237276 0.000000
40.209099 20.791901 -736.784729 0.880711 0.161052 0.445433 0.000000
40.201900 52.385502 -755.199280 0.119537 0.131612 0.984068 1.000000
40.201500 6.158200 -735.915100 -0.992236 0.117990 0.039330 0.000000
40.200401 37.281502 -741.865784 -0.342578 0.479609 0.807846 1.000000
40.200001 17.495399 -736.080994 -0.697513 0.709311 0.101751 0.000000
40.198799 13.326000 -736.831726 -0.909861 0.386302 0.151408 0.000000
40.198002 8.747100 -737.400085 -0.178085 0.412635 0.893319 0.000000
40.197800 47.510399 -750.700317 0.043023 0.842423 0.537097 1.000000
40.197498 9.472300 -736.701721 -0.995304 0.090681 0.033869 0.000000
40.196602 34.247799 -739.967407 0.595467 0.369091 -0.713576 1.000000
40.195599 13.125200 -736.425476 -0.964032 0.261790 0.045906 0.000000
40.193501 2.787000 -736.265686 -0.999091 0.042013 0.007173 0.000000
40.193199 9.507100 -735.731995 0.511288 0.362902 0.779029 0.000000
40.192699 44.436699 -747.783325 -0.061604 0.646127 0.760740 1.000000
40.192001 33.500000 -739.416077 -0.402039 0.620430 0.673373 1.000000
40.191700 47.854900 -751.042786 0.083073 0.671870 0.735996 1.000000
40.190399 9.957900 -736.831299 -0.996295 0.003183 0.085942 0.000000
40.189899 42.725899 -746.132019 0.085221 0.599434 0.795875 1.000000
40.189800 7.778500 -736.303711 -0.998306 0.055403 0.017771 0.000000
40.188599 13.777400 -737.128418 0.465140 0.082412 -0.881392 0.000000
40.188599 0.084700 -736.025513 -0.793715 0.015237 -0.608099 0.000000
40.188000 14.099400 -736.823914 0.986316 0.059812 -0.153635 0.000000
40.188000 4.499300 -735.390625 -0.710469 0.083156 -0.698798 0.000000
40.186600 53.427700 -755.673096 0.257749 0.486174 0.834985 1.000000
40.185398 1.922700 -736.551575 0.773381 0.617807 -0.142111 0.000000
40.184502 16.349600 -735.922729 -0.987738 0.123614 -0.095360 0.000000
40.182899 28.336599 -737.183289 -0.648855 0.318764 -0.690925 1.000000
40.181999 38.254200 -742.536194 -0.171640 0.523876 0.834322 1.000000
40.181000 15.957100 -735.788818 -0.980536 0.191353 -0.043976 0.000000
40.178501 6.339800 -736.717590 -0.985043 0.074678 0.155284 0.000000
40.178501 10.300100 -736.521179 0.999085 0.025829 -0.034095 0.000000
40.177502 26.232599 -736.351318 -0.739555 0.095190 0.666331 1.000000
40.176498 3.174800 -737.012512 0.974515 0.015393 -0.223795 0.000000
40.176201 11.358500 -735.709229 -0.570867 0.100229 -0.814902 0.000000
40.175900 8.467800 -735.045288 0.781190 0.055494 0.621822 0.000000
40.175499 9.931300 -737.329285 0.380303 0.546788 -0.745917 0.000000
40.175301 7.137400 -735.958313 0.998267 0.028402 -0.051544 0.000000
40.174000 16.926300 -736.075317 -0.998883 0.036380 -0.030143 0.000000
40.173500 -1.337000 -736.112915 -0.903596 0.060962 -0.424026 0.000000
40.173302 4.228000 -736.982605 -0.964411 0.006035 0.264338 0.000000
40.172901 -0.618200 -736.095276 -0.929331 0.192034 -0.315384 0.000000
40.172699 9.031600 -736.671326 0.651004 0.751386 0.107763 0.000000
40.170502 33.108101 -739.390930 -0.173601 0.801582 -0.572127 1.000000
40.168900 16.081600 -736.691528 0.679785 0.698537 -0.223469 0.000000
40.167801 7.100300 -736.686523 0.995084 0.074326 -0.065451 0.000000
40.167599 14.620700 -735.739685 -0.950701 0.039243 -0.307617 0.000000
40.166302 -3.281000 -735.997681 -0.149796 0.709640 -0.688457 0.000000
40.165600 42.468201 -745.828979 0.055511 0.789971 0.610626 1.000000
40.164001 34.903000 -740.772217 -0.777709 0.609231 0.154940 1.000000
40.163502 -2.746300 -736.437378 -0.353271 0.571420 -0.740729 0.000000
40.160999 9.022200 -735.132324 0.914122 0.214495 0.344055 0.000000
40.160000 17.890600 -736.156128 -0.399875 0.914192 0.065973 0.000000
40.158501 14.975600 -736.860413 -0.899805 0.397185 0.180539 0.000000
40.157299 7.522000 -735.631897 0.998291 0.045329 0.036896 0.000000
40.156898 12.361800 -737.235107 0.942031 0.047812 -0.332101 0.000000
40.155602 17.541000 -736.695190 -0.697513 0.709311 0.101751 0.000000
40.155602 78.457298 -732.011414 0.747443 0.223141 0.625730 0.000000
40.154999 26.895500 -736.606201 -0.792333 0.049609 0.608069 1.000000
40.153999 5.490800 -737.232605 0.551555 0.206260 -0.808235 0.000000
40.152401 36.470600 -741.694214 0.226604 0.042412 -0.973063 1.000000
40.150101 9.279700 -737.041870 -0.970784 0.104779 0.215870 0.000000
40.149899 6.956700 -737.181885 -0.997837 0.054196 -0.037193 0.000000
40.148102 49.092201 -752.204895 0.128359 0.568025 0.812940 1.000000
40.147900 18.618099 -736.006287 -0.694805 0.712432 0.098418 0.000000
40.145699 1.138300 -736.626770 -0.975280 0.075022 0.207847 0.000000
40.145401 46.365799 -749.701904 0.126229 0.628173 0.767767 1.000000
40.144100 8.435100 -736.205872 -0.996050 0.085252 0.024820 0.000000
40.144001 29.586800 -737.745300 -0.354515 0.790841 0.498888 1.000000
40.144001 10.352900 -737.057922 0.995616 0.007502 -0.093238 0.000000
40.143398 11.693000 -736.810486 0.704686 0.707545 -0.052887 0.000000
40.143101 3.481800 -735.513123 -0.780502 0.107301 -0.615876 0.000000
40.142101 11.158500 -736.841980 -0.979146 0.081494 0.186098 0.000000
40.137901 45.467701 -748.831787 0.073759 0.669616 0.739036 1.000000
40.137901 77.943703 -731.911987 -0.985160 0.166719 0.040805 0.000000
40.135399 5.196600 -735.286682 -0.659924 0.038154 -0.750363 0.000000
40.135101 14.622100 -737.081116 0.934959 0.034915 -0.353034 0.000000
40.134602 10.704000 -736.656677 -0.996101 0.085257 0.022663 0.000000
40.133499 8.719500 -736.983826 -0.958132 0.160351 0.237214 0.000000
40.133400 18.270901 -736.297485 -0.374307 0.924364 0.073788 0.000000
40.133400 17.368299 -735.657715 -0.699023 0.707853 0.101542 0.000000
40.132702 10.729300 -735.586121 0.575589 0.112774 0.809925 0.000000
40.131001 7.699100 -737.366089 0.594725 0.651685 -0.470754 0.000000
40.128502 30.068001 -737.703796 -0.753777 0.376074 0.538877 1.000000
40.127499 17.796900 -735.720093 -0.889126 0.457226 -0.019995 0.000000
40.125599 18.999800 -736.154114 -0.695003 0.712635 0.095508 0.000000
40.123798 2.395000 -736.484680 -0.987570 0.021592 0.155693 0.000000
40.123600 -1.776600 -736.199524 -0.781906 0.132552 -0.609142 0.000000
40.123001 8.283200 -736.967773 -0.936097 0.321143 0.143489 0.000000
40.122101 35.332699 -740.523682 -0.378392 0.305449 0.873797 1.000000
40.121899 18.198200 -735.853394 -0.774935 0.627741 0.073597 0.000000
40.121300 17.907499 -736.544495 0.097263 0.993871 -0.052544 0.000000
40.120998 16.797001 -736.512329 0.988722 0.054224 -0.139598 0.000000
40.119801 11.189800 -737.247803 -0.971123 0.040210 0.235165 0.000000
40.116901 5.931000 -736.819702 0.931830 0.252341 -0.260800 0.000000
40.115898 44.935200 -748.285706 -0.060884 0.816980 0.573443 1.000000
40.115799 2.115100 -736.968201 -0.525143 0.817745 0.235621 0.000000
40.115799 9.237700 -736.088623 -0.997388 0.041781 -0.058922 0.000000
40.115501 1.548600 -736.849121 -0.978910 0.127469 0.159645 0.000000
40.114300 7.987200 -736.660522 0.982251 0.156626 -0.103203 0.000000
40.113998 9.899000 -735.649719 0.955920 0.113769 0.270691 0.000000
40.113701 18.928499 -735.710327 -0.695003 0.712635 0.095508 0.000000
40.113499 39.772400 -743.530823 0.073183 0.604115 0.793529 1.000000
40.113499 31.586700 -738.680115 0.595335 0.435245 -0.675380 1.000000
40.111900 2.497200 -737.272400 0.932837 0.350982 -0.081406 0.000000
40.111000 30.273600 -738.071228 -0.771943 0.088679 -0.629475 1.000000
40.109798 36.850101 -741.848328 -0.532542 0.452909 0.715033 1.000000
40.108799 52.853901 -755.246521 0.248618 0.465206 0.849572 1.000000
40.105499 1.242700 -737.114380 0.987830 0.003356 -0.155502 0.000000
40.104900 0.457800 -736.767273 -0.980724 0.061071 0.185607 0.000000
40.104099 36.332802 -741.129517 -0.393899 0.448563 0.802268 1.000000
40.101299 7.396900 -736.436584 0.992440 0.041492 -0.115504 0.000000
40.100899 2.244300 -735.671509 -0.586461 0.106762 -0.802911 0.000000
40.100700 43.096100 -746.455627 0.110892 0.649088 0.752587 1.000000
40.100201 43.529499 -746.863098 -0.012475 0.625153 0.780402 1.000000
40.098400 5.629300 -735.156311 -0.702830 0.089132 -0.705752 0.000000
40.098301 9.802000 -736.377686 0.993923 0.068353 0.086282 0.000000
40.097599 -0.801900 -736.818970 0.947931 0.003717 -0.318455 0.000000
40.096699 27.500700 -736.905579 0.759741 0.126376 -0.637826 1.000000
40.096298 14.998200 -737.571899 -0.747439 0.607790 -0.268189 0.000000
40.096001 16.782900 -735.712830 -0.961168 0.008506 -0.275834 0.000000
40.092800 7.899500 -735.771912 0.982947 0.127577 0.132437 0.000000
40.091099 18.626600 -736.476379 -0.697773 0.709525 0.098423 0.000000
40.087700 13.666600 -737.528809 -0.801649 0.240340 -0.547354 0.000000
40.083698 18.497400 -735.581970 -0.694805 0.712432 0.098418 0.000000
40.081402 10.354900 -737.456177 -0.981158 0.183293 0.061098 0.000000
40.081299 37.374699 -742.233582 0.265139 0.491514 -0.829527 1.000000
40.080601 19.578699 -735.970398 0.992093 0.123317 0.023330 0.000000
40.079700 23.542101 -736.661926 0.307108 0.110346 0.945256 1.000000
40.078400 50.309101 -753.340515 0.155058 0.600662 0.784323 1.000000
40.077801 3.877800 -737.265320 -0.958677 0.243955 0.146373 0.000000
40.076500 34.529900 -740.308228 0.767104 0.332894 -0.548391 1.000000
40.076500 4.803800 -737.292419 0.281045 0.913033 -0.295607 0.000000
40.076302 7.631800 -736.853210 -0.978236 0.051739 0.200941 0.000000
40.075600 12.118600 -737.605530 -0.900357 0.001307 -0.435151 0.000000
40.073399 11.625900 -737.620422 0.154126 0.800558 0.579095 0.000000
40.073299 54.364300 -755.980225 -0.765155 0.643833 -0.004136 1.000000
40.072899 48.240700 -751.350830 0.076125 0.598948 0.797161 1.000000
40.071201 16.391600 -736.937317 -0.449799 0.892963 -0.017249 0.000000
40.070599 0.675200 -737.486389 0.276941 0.268332 -0.922660 0.000000
40.070400 28.920300 -737.527283 -0.937099 0.294833 0.186866 1.000000
40.066799 32.294998 -739.111084 -0.922513 0.211794 0.322666 1.000000
40.066502 13.481500 -735.404114 0.815741 0.144129 0.560172 0.000000
40.065601 7.254500 -735.033386 0.770367 0.097940 0.630034 0.000000
40.065399 51.750301 -754.669678 -0.223552 0.974304 0.027496 1.000000
40.064701 0.832400 -736.916199 -0.986983 0.014765 0.160143 0.000000
40.064400 -1.145600 -737.532715 0.174944 0.211774 -0.961533 0.000000
40.064098 12.725600 -737.374817 0.994233 0.005409 -0.107105 0.000000
40.064098 -0.226200 -736.667725 -0.978521 0.127418 0.162056 0.000000
40.063499 5.111400 -737.019775 -0.915050 0.238520 0.325255 0.000000
40.062698 6.068200 -735.111572 -0.655112 0.082797 -0.750982 0.000000
40.059502 20.166000 -735.785522 -0.693549 0.714077 0.095308 0.000000
40.058701 15.582200 -737.044983 0.821879 0.424452 -0.379940 0.000000
40.058498 5.804300 -737.481812 -0.980673 0.118758 -0.155488 0.000000
40.058300 10.285100 -735.536072 -0.832543 0.165317 -0.528717 0.000000
40.056999 12.705900 -735.509521 0.798820 0.029276 0.600857 0.000000
40.055500 14.313400 -735.527283 -0.902362 0.009168 -0.430881 0.000000
40.055302 7.240800 -737.488403 -0.023987 0.324457 0.945596 0.000000
40.054001 11.769200 -735.531494 -0.876819 0.094297 -0.471484 0.000000
40.051498 39.209000 -743.425171 -0.306601 0.899068 -0.312526 1.000000
40.051201 15.592100 -735.547424 0.903292 0.019780 0.428569 0.000000
40.051102 16.146099 -735.448425 -0.955449 0.094895 -0.279485 0.000000
40.050999 0.178800 -736.445129 -0.988098 0.026213 0.151577 0.000000
40.050400 14.215800 -737.206726 0.895889 0.084466 -0.436175 0.000000
40.049999 0.733600 -735.752319 -0.760803 0.064719 -0.645748 0.000000
40.049599 76.829002 -732.250000 0.959767 0.156670 0.233030 0.000000
40.047699 77.467903 -731.895874 0.978290 0.001158 0.207235 0.000000
40.047401 8.227500 -737.420715 -0.361405 0.161718 0.918278 0.000000
40.046799 41.202801 -744.692078 0.004158 0.688853 0.724889 1.000000
40.046799 9.439600 -737.435425 0.880643 0.176713 -0.439591 0.000000
40.046799 9.596100 -735.265625 0.980579 0.155862 -0.119044 0.000000
40.046600 1.695700 -737.255981 -0.981954 0.038901 0.185074 0.000000
40.046001 3.077000 -735.483521 -0.561321 0.075700 -0.824129 0.000000
40.044601 31.039900 -738.426575 -0.398137 0.495640 0.771899 1.000000
40.044601 11.039100 -737.600098 -0.799631 0.167154 -0.576758 0.000000
40.044399 1.659000 -735.691406 -0.779922 0.004127 -0.625863 0.000000
40.044102 19.604300 -736.432800 -0.695003 0.712635 0.095508 0.000000
40.042801 2.887600 -737.264099 0.953051 0.033993 -0.300897 0.000000
40.042801 6.544600 -735.004700 -0.844326 0.126868 -0.520595 0.000000
40.042301 -0.596600 -737.383972 -0.218726 0.852278 0.475164 0.000000
40.041801 -1.007600 -735.949219 -0.832127 0.048949 -0.552421 0.000000
40.040699 20.207899 -736.240906 -0.693549 0.714077 0.095308 0.000000
40.039398 30.689100 -738.203186 -0.496273 0.843212 0.206655 1.000000
40.037998 19.479900 -735.538391 0.975530 0.067320 0.209305 0.000000
40.037399 49.698299 -752.775391 0.220508 0.683418 0.695929 1.000000
40.036499 13.314700 -737.268188 0.467756 0.006625 -0.883833 0.000000
40.035599 20.865999 -735.884521 -0.696518 0.711181 0.095313 0.000000
40.034801 35.176701 -741.109375 0.811167 0.584538 -0.017965 1.000000
40.033501 51.265701 -754.124817 0.257970 0.720100 0.644133 1.000000
40.033001 1.218600 -735.722412 -0.759622 0.044015 -0.648874 0.000000
40.031799 18.052200 -735.438477 -0.891371 0.446377 -0.078772 0.000000
40.029999 -2.458100 -736.110413 0.975695 0.047153 0.214000 0.000000
40.028099 -1.518100 -736.751587 -0.908180 0.240529 0.342572 0.000000
40.027199 26.490700 -736.676025 -0.877044 0.180697 0.445133 1.000000
40.026001 42.084000 -745.421326 0.095118 0.636562 0.765338 1.000000
40.025501 40.627102 -744.208313 0.095255 0.496178 0.862980 1.000000
40.020401 52.263100 -754.839905 0.209870 0.223410 0.951863 1.000000
40.018902 32.604900 -739.362305 -0.869426 0.094718 0.484899 1.000000
40.018101 78.625900 -731.685486 0.001289 0.406019 -0.913864 0.000000
40.017899 21.625799 -735.931030 -0.993504 0.099686 0.054884 0.000000
40.014099 76.642097 -731.785522 -0.996521 0.064116 0.053249 0.000000
40.012600 17.626400 -735.314209 -0.924130 0.324082 -0.202374 0.000000
40.010899 28.754101 -737.964722 -0.033556 0.895262 0.444275 1.000000
40.009300 44.014900 -747.426514 -0.123923 0.841216 0.526307 1.000000
40.007999 75.520599 -732.449829 -0.692196 0.276559 -0.666618 0.000000
40.007900 20.780600 -735.447083 -0.696518 0.711181 0.095313 0.000000
40.006699 18.215300 -736.794800 0.177088 0.916608 -0.358426 0.000000
40.005001 13.083900 -735.417419 -0.611864 0.168528 -0.772801 0.000000
40.004398 9.031400 -737.715698 0.705666 0.386553 -0.593812 0.000000
40.004002 15.164100 -737.219604 0.008222 0.976071 -0.217296 0.000000
40.001598 2.686000 -735.478516 -0.544221 0.237225 -0.804703 0.000000
40.001400 9.078200 -735.496887 -0.994860 0.047479 -0.089438 0.000000
40.001400 18.764000 -735.303772 -0.696518 0.711181 0.095313 0.000000
40.001301 46.884701 -750.140808 0.073808 0.727953 0.681642 1.000000
40.000900 15.982100 -737.130005 0.951833 0.084405 -0.294770 0.000000
40.000401 46.072201 -749.388916 0.168133 0.610430 0.774019 1.000000
39.999901 2.060100 -737.387695 0.902140 0.398886 -0.164415 0.000000
39.999901 -0.269300 -735.998230 -0.979467 0.051425 -0.194937 0.000000
39.998001 3.364500 -737.302979 -0.926619 0.001275 0.376001 0.000000
39.996399 53.870899 -755.906372 0.234158 0.410149 0.881447 1.000000
39.996399 33.862202 -739.960388 0.673490 0.670260 -0.311711 1.000000
39.996201 27.991600 -737.273926 0.028677 0.861685 -0.506633 1.000000
39.995899 15.264000 -735.340881 0.358136 0.698284 0.619788 0.000000
39.995098 23.947901 -736.807800 0.116419 0.362954 0.924506 1.000000
39.992401 4.793100 -735.136719 -0.412875 0.086416 -0.906679 0.000000
39.991199 25.299500 -737.065613 0.611770 0.412821 0.674771 1.000000
39.990799 21.164700 -736.137207 0.984185 0.104547 -0.143001 0.000000
39.990601 14.876600 -735.455017 -0.910220 0.057813 -0.410070 0.000000
39.989601 6.257400 -737.397705 0.971192 0.164630 -0.172288 0.000000
39.989101 21.539499 -735.494629 -0.993168 0.080222 -0.084741 0.000000
39.988899 28.354601 -737.856873 0.600281 0.405148 -0.689578 1.000000
39.986301 35.666302 -740.834778 -0.489365 0.456411 0.743109 1.000000
39.986000 20.038700 -735.365112 -0.696518 0.711181 0.095313 0.000000
39.985699 22.055799 -735.714722 -0.693549 0.714077 0.095308 0.000000
39.985401 38.613300 -742.735474 0.064206 0.592121 0.803287 1.000000
39.983299 25.922100 -737.127319 0.979240 0.193921 -0.059019 1.000000
39.982800 45.141899 -748.637390 0.066422 0.906865 0.416155 1.000000
39.982700 16.616199 -735.354675 0.898631 0.075458 0.432166 0.000000
39.982101 77.062401 -731.667908 0.990745 0.088810 0.102650 0.000000
39.981899 -3.296700 -735.512573 0.815127 0.505347 0.283182 0.000000
39.980999 36.635799 -741.383484 -0.390425 0.749813 0.534180 1.000000
39.978802 18.934000 -736.733887 -0.699229 0.708062 0.098628 0.000000
39.978298 38.727600 -743.112000 -0.333681 0.289191 -0.897232 1.000000
39.976700 -1.199800 -736.524597 -0.988868 0.066079 0.133318 0.000000
39.975601 34.554298 -740.695496 -0.517335 0.834070 0.191550 1.000000
39.974800 40.325100 -743.933411 0.046708 0.624186 0.779878 1.000000
39.973701 36.156399 -741.487122 -0.386133 0.526249 0.757603 1.000000
39.972698 23.143101 -736.722229 0.172779 0.048190 -0.983781 0.000000
39.972000 4.394700 -737.479980 0.910220 0.057813 -0.410070 0.000000
39.971901 54.345299 -756.384888 -0.338460 0.787601 0.514908 1.000000
39.970600 17.151400 -735.269104 -0.697301 0.709095 0.104669 0.000000
39.969200 75.981598 -732.388184 0.743806 0.038253 0.667300 0.000000
39.968399 0.350200 -735.759705 -0.808017 0.088174 -0.582524 0.000000
39.967602 -3.254400 -736.383301 0.984401 0.174261 -0.024235 0.000000
39.967400 37.950500 -742.292114 -0.042334 0.476604 0.878098 1.000000
39.966702 6.635400 -737.509521 0.958443 0.043850 -0.281895 0.000000
39.966400 17.408701 -737.066284 -0.697301 0.709095 0.104669 0.000000
39.966301 31.853800 -739.039490 -0.924361 0.151969 0.349947 1.000000
39.965900 11.274100 -735.374817 0.902009 0.247869 0.353470 0.000000
39.965599 25.799601 -736.565125 -0.975347 0.131804 0.176993 1.000000
39.963001 22.716000 -736.690918 -0.541590 0.043160 0.839534 0.000000
39.962502 15.549300 -737.458008 0.959941 0.272638 -0.064672 0.000000
39.960400 -2.517600 -736.706726 0.955482 0.147099 -0.255767 0.000000
39.959702 8.197100 -734.839905 0.838029 0.060563 0.542254 0.000000
39.958099 -0.012400 -737.487000 -0.683808 0.286655 0.670996 0.000000
39.957199 -2.946800 -736.001770 0.953091 0.142233 0.267184 0.000000
39.956902 16.967800 -736.854187 -0.886856 0.022740 0.461486 0.000000
39.956402 48.725201 -752.004883 -0.237329 0.696270 -0.677409 1.000000
39.955700 41.746498 -745.153015 0.088542 0.605280 0.791073 1.000000
39.954700 21.967699 -735.279297 -0.693549 0.714077 0.095308 0.000000
39.953999 20.860500 -736.439087 0.952299 0.062803 -0.298635 0.000000
39.953499 76.475197 -731.400085 -0.980187 0.193661 -0.041584 0.000000
39.953300 4.181200 -735.329590 -0.409936 0.035820 -0.911411 0.000000
39.952000 10.894200 -735.207886 0.807667 0.385441 0.446216 0.000000
39.950001 22.092501 -736.250793 -0.693549 0.714077 0.095308 0.000000
39.948200 -0.133200 -737.062073 -0.952143 0.098227 0.289441 0.000000
39.947601 12.278400 -735.380615 -0.826714 0.124373 -0.548704 0.000000
39.947498 32.931099 -739.673828 -0.460366 0.886981 -0.036451 1.000000
39.946400 49.998600 -753.015015 0.280450 0.575160 0.768465 1.000000
39.944901 17.796600 -736.985901 -0.360648 0.926797 -0.104792 0.000000
39.942902 3.124000 -737.815979 0.951080 0.063062 0.302441 0.000000
39.941799 76.037102 -731.539673 0.995875 0.077615 -0.047006 0.000000
39.938400 0.338400 -737.116821 -0.969727 0.139262 0.200589 0.000000
39.938000 53.181702 -755.435120 0.222994 0.403161 0.887544 1.000000
39.937698 1.337900 -737.517578 -0.927897 0.070557 0.366100 0.000000
39.936100 21.600401 -736.336121 -0.970875 0.008339 0.239443 0.000000
39.934799 7.757600 -737.763489 0.980821 0.193352 -0.024608 0.000000
39.933998 16.328899 -737.416016 -0.902238 0.403370 0.152511 0.000000
39.933399 5.573600 -737.818115 0.737558 0.076799 -0.670902 0.000000
39.933102 34.189999 -740.458130 -0.270955 0.933603 0.234454 1.000000
39.931999 78.248398 -731.750427 0.958573 0.086207 0.271488 0.000000
39.930302 44.680801 -748.026917 0.079783 0.639712 0.764463 1.000000
39.930302 8.625200 -737.665588 -0.561331 0.804726 0.193195 0.000000
39.929001 -1.475900 -735.838318 -0.701681 0.055962 -0.710290 0.000000
39.928299 51.580399 -754.343384 0.256209 0.130076 0.957829 1.000000
39.927101 27.146099 -737.063599 -0.834884 0.194756 0.514820 1.000000
39.927101 9.340600 -734.881775 0.443369 0.070006 0.893601 0.000000
39.925701 6.089300 -737.789978 0.913705 0.195896 -0.356045 0.000000
39.925400 7.738700 -734.849976 0.401697 0.003875 0.915765 0.000000
39.924599 8.771900 -734.901611 0.918690 0.094190 0.383584 0.000000
39.921700 50.794601 -753.744690 0.217170 0.255901 0.941993 1.000000
39.920200 -2.929900 -736.701721 -0.966120 0.151726 0.208786 0.000000
39.919102 21.242901 -735.248474 0.953712 0.001227 0.300720 0.000000
39.918098 6.910500 -737.802429 0.501742 0.012106 0.864933 0.000000
39.917900 47.308601 -750.512329 0.151197 0.439190 0.885580 1.000000
39.917400 30.546600 -738.574524 -0.972470 0.032617 0.230735 1.000000
39.916801 27.515499 -737.609680 -0.100896 0.952613 -0.286963 1.000000
39.910301 13.850800 -735.259827 0.798533 0.076256 0.597101 0.000000
39.907902 76.086098 -731.958801 -0.984243 0.089913 0.152252 0.000000
39.907398 24.830900 -736.990784 -0.627386 0.175546 -0.758664 1.000000
39.906101 18.260900 -735.124329 -0.697972 0.709727 0.095512 0.000000
39.904202 6.942000 -734.820801 0.835878 0.069303 0.544523 0.000000
39.900398 3.754200 -737.635986 0.365633 0.686997 -0.627971 0.000000
39.900398 9.832200 -734.964111 0.947893 0.305476 0.090463 0.000000
39.898800 49.336800 -752.386230 0.175512 0.645577 0.743253 1.000000
39.897701 26.113400 -736.786926 -0.923234 0.099258 0.371197 1.000000
39.896198 19.289000 -735.143005 0.850756 0.071954 0.520612 0.000000
39.895100 26.271400 -737.352722 0.920245 0.251237 0.300049 1.000000
39.894600 22.001801 -736.715393 0.934043 0.208654 0.289875 0.000000
39.894199 5.030200 -737.803894 -0.332693 0.709203 0.621567 0.000000
39.893101 -4.114000 -736.539429 0.890341 0.309749 -0.333691 0.000000
39.892300 78.142601 -731.353821 -0.944171 0.170305 0.282025 0.000000
39.891701 10.696400 -737.420288 0.167885 0.031261 -0.985311 0.000000
39.890099 18.511400 -737.078186 -0.742769 0.659745 0.114158 0.000000
39.889000 43.649300 -747.189697 -0.016835 0.920747 0.389796 1.000000
39.888100 29.857599 -737.935608 0.531105 0.441761 -0.723031 1.000000
39.884899 26.691700 -737.024414 -0.933182 0.081204 0.350110 1.000000
39.884499 19.496099 -736.793701 -0.696518 0.711181 0.095313 0.000000
39.884499 3.586000 -735.183228 0.038552 0.095830 0.994651 0.000000
39.884201 -1.856900 -736.909973 -0.888407 0.298133 0.349070 0.000000
39.883598 31.404499 -738.956970 -0.376091 0.915760 -0.141209 1.000000
