ply
format ascii 1.0
element vertex 697
property float x
property float y
property float z
property float nx
property float ny
property float nz
property float label
element face 0
property list uchar int vertex_indices
end_header
36.671501 8.913700 -739.300903 0.374600 0.132294 0.917700 0.000000
36.670898 1.587700 -736.951599 -0.455523 0.102951 0.884251 0.000000
36.669899 43.678101 -749.941711 0.409080 0.140135 -0.901674 0.000000
36.669300 0.917400 -738.527222 0.137024 0.872629 0.468768 0.000000
36.668900 18.602699 -741.534424 -0.691617 0.632756 0.348261 0.000000
36.667801 6.817700 -738.914185 -0.200240 0.153733 -0.967611 0.000000
36.667702 18.111601 -741.479980 0.656519 0.018120 -0.754091 0.000000
36.667400 21.583799 -737.409119 0.499505 0.062612 -0.864046 0.000000
36.667301 6.328300 -738.913391 0.101664 0.898260 0.427544 0.000000
36.666901 12.692000 -740.288879 0.559398 0.004083 -0.828889 0.000000
36.666599 12.264800 -737.438171 0.057488 0.055318 0.996812 0.000000
36.666302 7.742400 -739.403992 0.553793 0.700141 0.450684 0.000000
36.665501 19.525900 -741.699524 -0.877417 0.155180 0.453937 0.000000
36.664299 39.755001 -748.980896 -0.070670 0.289104 0.954686 0.000000
36.664101 3.276700 -736.821716 -0.060563 0.030813 0.997689 0.000000
36.664001 40.570000 -749.336609 0.001227 0.300720 0.953712 0.000000
36.663502 33.704498 -738.939026 -0.742318 0.663255 0.095169 0.000000
36.663101 24.434900 -742.755920 -0.041719 0.201444 0.978611 0.000000
36.662498 26.061001 -737.064819 0.445626 0.006573 -0.895195 0.000000
36.661999 5.537400 -736.743225 -0.094430 0.020623 0.995318 0.000000
36.661201 0.017100 -737.065125 -0.413723 0.107262 0.904062 0.000000
36.659401 24.884899 -737.156921 0.450887 0.003944 -0.892572 0.000000
36.659302 1.436200 -738.598389 0.557348 0.057851 0.828261 0.000000
36.658901 9.142000 -736.737793 -0.151245 0.023881 -0.988208 0.000000
36.658699 25.213200 -737.107727 0.449775 0.105746 -0.886860 0.000000
36.658699 6.180500 -736.698914 0.313624 0.880268 -0.356046 0.000000
36.658199 3.224400 -738.655518 -0.393455 0.027450 -0.918934 0.000000
36.657799 3.914600 -736.887085 -0.236127 0.103385 0.966207 0.000000
36.657799 8.941500 -736.596924 0.341605 0.879064 -0.332496 0.000000
36.657600 26.574699 -743.384888 0.131407 0.318358 0.938818 0.000000
36.656502 24.367800 -737.110413 0.409895 0.038469 -0.911321 0.000000
36.655998 18.862101 -741.584595 0.423738 0.038765 -0.904955 0.000000
36.655499 20.083000 -741.821899 -0.820832 0.296629 0.488105 0.000000
36.654202 11.425800 -737.340027 0.297873 0.084549 0.950854 0.000000
36.653400 33.989799 -738.682922 -0.869655 0.091915 -0.485027 0.000000
36.653198 28.042101 -743.999023 0.273352 0.394170 0.877444 0.000000
36.652699 26.484900 -737.052490 0.476403 0.020130 -0.878997 0.000000
36.652599 0.862600 -735.955383 0.224194 0.921050 -0.318441 0.000000
36.649502 37.945000 -748.324524 -0.033291 0.267559 0.962966 0.000000
36.649399 4.030900 -738.683594 0.532372 0.028888 0.846017 0.000000
36.649300 -0.558800 -738.463379 0.526215 0.078010 0.846766 0.000000
36.649300 0.999200 -736.430420 0.801613 0.312708 0.509540 0.000000
36.648998 2.753100 -738.569397 0.489226 0.017520 0.871981 0.000000
36.648701 37.652000 -748.206482 0.044470 0.207926 0.977133 0.000000
36.648499 19.783001 -741.770691 0.016621 0.127426 -0.991709 0.000000
36.648499 9.890500 -737.094727 -0.824491 0.475849 0.306239 0.000000
36.648300 2.309200 -736.941711 0.353001 0.037498 -0.934871 0.000000
36.647499 19.577400 -741.460693 -0.039047 0.190502 0.980910 0.000000
36.646801 43.735001 -749.599670 -0.594852 0.431559 0.678165 0.000000
36.646400 10.677600 -739.574280 -0.122527 0.992361 0.014350 0.000000
36.646301 14.191700 -737.586426 -0.182211 0.022051 0.983012 0.000000
36.646099 16.601601 -741.103577 -0.384642 0.145121 0.911587 0.000000
36.645500 3.504500 -738.675476 -0.546557 0.105832 -0.830708 0.000000
36.644299 29.233299 -744.476685 0.302627 0.356829 0.883793 0.000000
36.643902 39.107101 -735.846619 0.663175 0.508714 0.549008 0.000000
36.643501 10.676600 -737.294128 -0.048910 0.549190 0.834265 0.000000
36.642502 32.978001 -746.198730 0.326392 0.347646 0.878982 0.000000
36.640900 26.171700 -743.214478 0.093919 0.318796 0.943159 0.000000
36.640499 4.295100 -736.803589 0.070741 0.086461 -0.993741 0.000000
36.640400 24.223301 -742.602905 -0.133389 0.226632 0.964803 0.000000
36.640099 32.721100 -736.635010 -0.320681 0.001238 0.947186 0.000000
36.639999 6.530100 -736.719421 0.339594 0.777365 -0.529509 0.000000
36.639400 12.262500 -740.234070 -0.380802 0.497474 0.779429 0.000000
36.639198 36.090599 -747.596680 0.116704 0.423226 0.898476 0.000000
36.637600 17.450300 -741.369324 -0.748757 0.232912 0.620577 0.000000
36.637402 31.006300 -745.173889 0.340695 0.331610 0.879751 0.000000
36.637299 -0.470000 -736.024475 0.029546 0.999476 -0.013245 0.000000
36.636600 30.325199 -736.749878 0.505178 0.074581 -0.859787 0.000000
36.636002 5.920900 -738.838196 0.092671 0.903200 0.419096 0.000000
36.635899 31.457399 -745.417480 0.327828 0.333871 0.883776 0.000000
36.635399 -0.027700 -736.124084 0.248640 0.076990 0.965531 0.000000
36.635201 37.697300 -735.674011 -0.603360 0.215597 -0.767772 0.000000
36.635101 8.089100 -739.146729 -0.391075 0.183271 -0.901927 0.000000
36.633999 28.572800 -744.218689 0.319001 0.241055 0.916587 0.000000
36.633598 34.418800 -746.851318 0.253942 0.372745 0.892510 0.000000
36.632900 34.112099 -746.690796 0.268778 0.354906 0.895433 0.000000
36.632801 13.445600 -740.181702 -0.384372 0.160273 -0.909159 0.000000
36.632599 11.757400 -737.333191 0.090584 0.207227 0.974090 0.000000
36.632301 34.785099 -746.897217 0.245256 0.326524 0.912815 0.000000
36.630402 10.192400 -739.918579 0.080874 0.849890 -0.520717 0.000000
36.630402 36.210701 -736.060425 0.187548 0.022133 0.982006 0.000000
36.630199 1.035900 -736.772400 0.928861 0.340904 -0.144919 0.000000
36.629501 4.994800 -738.777283 -0.624010 0.165492 -0.763691 0.000000
36.629002 36.013401 -736.237000 -0.049204 0.073259 -0.996099 0.000000
36.627998 14.716300 -737.602478 0.347583 0.104140 -0.931848 0.000000
36.626900 18.681900 -737.576782 0.543477 0.020534 -0.839173 0.000000
36.626499 37.149300 -748.190796 -0.011362 0.339592 0.940504 0.000000
36.626499 15.692900 -740.716614 0.190288 0.169576 0.966972 0.000000
36.626301 13.434200 -737.532715 -0.016850 0.142659 0.989628 0.000000
36.626202 33.807400 -746.517883 0.281253 0.473935 0.834436 0.000000
36.624901 17.851601 -741.550720 -0.683205 0.127073 0.719085 0.000000
36.623798 35.728699 -736.260925 -0.060981 0.180551 -0.981673 0.000000
36.623699 42.259899 -749.955994 0.223287 0.012996 -0.974666 0.000000
36.623501 25.806499 -743.181580 0.129175 0.324977 0.936858 0.000000
36.623299 43.084801 -750.012573 -0.273596 0.140135 0.951581 0.000000
36.622002 29.395000 -736.868225 0.505833 0.045484 -0.861432 0.000000
36.621498 19.410801 -737.532471 0.554341 0.069470 -0.829385 0.000000
36.620899 17.859100 -737.580688 0.147644 0.953698 -0.262034 0.000000
36.620300 35.017502 -738.808777 -0.705342 0.468561 0.531925 0.000000
36.619900 32.568199 -745.876282 0.365459 0.377900 0.850665 0.000000
36.619900 0.650000 -736.645874 0.179787 0.932385 -0.313583 0.000000
36.618698 37.495899 -748.433777 -0.025067 0.003008 0.999681 0.000000
36.618599 30.491800 -745.030212 0.303878 0.418025 0.856103 0.000000
36.618599 21.879999 -737.408020 0.511740 0.110997 -0.851940 0.000000
36.617298 33.414101 -746.294983 0.294187 0.320797 0.900302 0.000000
36.616600 10.237100 -736.294189 0.719167 0.453424 0.526503 0.000000
36.616501 38.913300 -748.801880 -0.203190 0.269538 0.941309 0.000000
36.616402 41.250000 -749.550171 -0.010646 0.228301 0.973532 0.000000
36.616402 0.969000 -737.013489 0.486448 0.125582 -0.864637 0.000000
36.615898 34.511002 -736.375488 0.142431 0.096949 -0.985045 0.000000
36.614201 16.170099 -737.546875 0.435939 0.639711 -0.633030 0.000000
36.609200 44.385899 -749.723511 0.413396 0.825207 -0.384886 0.000000
36.608200 30.137100 -744.917725 0.289864 0.393062 0.872629 0.000000
36.608200 -0.102300 -738.414673 0.496208 0.080124 0.864499 0.000000
36.607700 9.996600 -736.211121 -0.455705 0.881411 -0.124283 0.000000
36.607300 9.149100 -739.276123 0.474330 0.056370 0.878541 0.000000
36.607201 34.196800 -738.490723 -0.758008 0.427300 0.492787 0.000000
36.605701 16.816299 -741.232483 -0.477938 0.199266 0.855493 0.000000
36.605598 17.113701 -737.558472 0.573173 0.006840 -0.819406 0.000000
36.605301 35.619701 -747.312805 0.211220 0.377282 0.901690 0.000000
36.605000 7.619600 -739.089722 0.329440 0.637783 0.696206 0.000000
36.604801 7.993900 -736.766113 0.310869 0.296136 0.903141 0.000000
36.604698 12.928100 -740.393799 -0.610518 0.145504 0.778522 0.000000
36.603199 37.737499 -735.940613 -0.967776 0.251789 0.003580 0.000000
36.603100 1.311700 -736.412109 0.910987 0.132940 0.390423 0.000000
36.602901 4.328300 -738.691711 0.600188 0.079161 0.795932 0.000000
36.602299 40.322399 -749.188782 -0.135307 0.332118 0.933483 0.000000
36.602299 38.225399 -748.439514 -0.058173 0.321891 0.944988 0.000000
36.601898 20.359699 -741.658813 -0.003514 0.219037 0.975710 0.000000
36.600399 44.368198 -749.297913 -0.543102 0.834101 -0.096519 0.000000
36.599400 33.596001 -738.662170 -0.804519 0.589407 -0.073138 0.000000
36.596401 31.681000 -745.565186 0.336277 0.348450 0.874929 0.000000
36.595699 32.995998 -736.543579 -0.365448 0.006367 0.930810 0.000000
36.595501 23.168800 -742.360596 -0.108143 0.190183 0.975774 0.000000
36.595501 9.486100 -736.851318 -0.936900 0.241555 0.252726 0.000000
36.595001 3.451100 -736.982117 -0.254123 0.138253 0.957240 0.000000
36.594700 10.280600 -737.651611 -0.368922 0.239579 0.898053 0.000000
36.594200 29.868200 -736.890991 0.568018 0.040473 -0.822021 0.000000
36.591900 32.737900 -737.840271 -0.863348 0.071363 0.499538 0.000000
36.591400 17.448400 -737.556519 0.592121 0.064206 -0.803287 0.000000
36.591301 3.759300 -738.642517 0.505224 0.017608 0.862809 0.000000
36.590698 21.083000 -737.492981 -0.328160 0.055774 0.942974 0.000000
36.589699 25.293100 -742.996887 0.006273 0.334978 0.942205 0.000000
36.589699 0.753500 -736.419373 -0.944000 0.077248 -0.320777 0.000000
36.589199 33.726398 -738.133972 -0.271064 0.800658 0.534294 0.000000
36.587898 14.266900 -740.316406 -0.117811 0.839221 -0.530876 0.000000
36.587299 37.345901 -736.015930 0.117207 0.080072 -0.989874 0.000000
36.587200 15.929600 -740.998413 -0.810647 0.206097 0.548065 0.000000
36.586800 25.799801 -737.054016 0.527904 0.060212 -0.847167 0.000000
36.586102 0.603300 -738.444885 -0.386253 0.711691 -0.586775 0.000000
36.585899 40.908401 -749.451721 0.085538 0.261721 0.961346 0.000000
36.585602 34.031601 -736.461670 0.117049 0.163868 -0.979514 0.000000
36.585300 3.638100 -736.735474 -0.304103 0.084836 -0.948854 0.000000
36.585098 24.651300 -737.124023 0.450303 0.139551 -0.881903 0.000000
36.583698 31.929399 -745.643372 0.351705 0.407978 0.842530 0.000000
36.583698 21.272400 -742.101501 -0.114996 0.205981 0.971776 0.000000
36.583199 9.905200 -736.445923 -0.483208 0.725642 -0.489850 0.000000
36.582699 28.690701 -736.940918 0.553553 0.026228 -0.832401 0.000000
36.582298 19.284100 -741.708984 -0.444008 0.108535 0.889425 0.000000
36.579899 10.280900 -736.660217 -0.302107 0.950405 -0.073906 0.000000
36.578602 22.322500 -742.362427 -0.244523 0.247318 0.937573 0.000000
36.577900 22.014700 -742.070801 -0.062744 0.115221 0.991356 0.000000
36.577900 20.870001 -741.788879 0.008310 0.233859 0.972235 0.000000
36.577801 8.655900 -736.711914 0.058748 0.669154 0.740798 0.000000
36.576302 10.395600 -737.388489 0.006873 0.608965 0.793167 0.000000
36.576199 6.972500 -739.105774 0.785194 0.142083 0.602730 0.000000
36.575699 9.730800 -736.632507 -0.799483 0.416632 -0.432718 0.000000
36.573898 25.837000 -739.391418 0.934471 0.294729 0.199745 0.000000
36.572701 2.591900 -736.966370 0.310464 0.049828 -0.949278 0.000000
36.572201 38.436100 -735.800415 -0.454041 0.003948 -0.890972 0.000000
36.571899 22.800600 -742.232971 -0.001067 0.097074 0.995277 0.000000
36.570702 2.937800 -736.713318 0.126880 0.009930 0.991868 0.000000
36.570301 33.304699 -738.798523 0.535256 0.732889 0.419970 0.000000
36.570099 11.718200 -740.002319 0.608688 0.372432 0.700566 0.000000
36.569500 37.342400 -735.666870 -0.641986 0.283371 0.712429 0.000000
36.569401 33.498600 -736.551392 -0.219035 0.005857 0.975699 0.000000
36.569000 32.749100 -746.029907 0.387972 0.378548 0.840345 0.000000
36.568802 14.128400 -740.573120 0.987585 0.133012 -0.083574 0.000000
36.567299 39.914101 -749.132813 -0.105411 0.271987 0.956510 0.000000
36.566799 27.752899 -736.993591 0.420406 0.656364 -0.626454 0.000000
36.566502 30.610600 -736.825500 0.503732 0.116912 -0.855912 0.000000
36.566101 13.476600 -740.481018 0.757077 0.358274 -0.546328 0.000000
36.565498 1.245600 -738.478088 0.498938 0.286224 0.818008 0.000000
36.565201 21.835300 -742.245789 -0.444199 0.145191 0.884085 0.000000
36.565201 0.384600 -736.295471 0.419147 0.445040 0.791363 0.000000
36.564899 20.989700 -742.066528 0.135350 0.081210 -0.987464 0.000000
36.564098 9.966800 -739.389526 0.465694 0.218529 0.857540 0.000000
36.563900 15.020800 -737.654785 -0.478619 0.067978 0.875387 0.000000
36.563099 16.113600 -740.822083 0.292638 0.129616 0.947398 0.000000
36.562901 1.316300 -737.026123 0.470136 0.235829 -0.850504 0.000000
36.562401 9.620100 -737.109680 -0.918250 0.246500 0.309927 0.000000
36.561100 5.848000 -736.752014 -0.016498 0.115485 -0.993172 0.000000
36.561001 23.317600 -737.337585 0.489615 0.071141 -0.869032 0.000000
36.561001 35.210999 -736.223206 0.012392 0.154331 -0.987942 0.000000
36.560799 27.528999 -743.789490 0.195575 0.319392 0.927221 0.000000
36.560699 10.034900 -737.520874 -0.371974 0.329113 0.867940 0.000000
36.560299 13.833700 -737.652771 -0.056443 0.083005 0.994949 0.000000
36.560200 32.475498 -736.606384 0.339848 0.055990 -0.938812 0.000000
36.559399 35.046799 -747.074829 0.222935 0.397150 0.890265 0.000000
36.558201 11.154800 -739.602722 -0.297711 0.706461 -0.642091 0.000000
36.558201 -0.477500 -736.360596 -0.005901 0.973694 -0.227785 0.000000
36.557999 9.564000 -739.327271 0.128138 0.868171 0.479438 0.000000
36.557701 11.409100 -739.894470 0.684644 0.290212 0.668610 0.000000
36.557400 0.642000 -737.043884 -0.411986 0.172022 0.894805 0.000000
36.556900 43.326801 -750.037903 -0.242378 0.060905 0.968268 0.000000
36.556599 33.872501 -738.345276 -0.767531 0.517637 0.378086 0.000000
36.556000 16.983101 -741.032410 0.092290 0.152219 0.984028 0.000000
36.555500 20.298901 -741.924316 -0.646193 0.123297 0.753149 0.000000
36.555401 26.921400 -743.549927 0.129603 0.331511 0.934507 0.000000
36.554401 36.293800 -747.713074 0.123729 0.387870 0.913372 0.000000
36.554401 18.319201 -737.623230 -0.638815 0.035255 0.768552 0.000000
36.554298 27.342100 -737.054016 0.479655 0.533136 -0.696920 0.000000
36.553902 24.010000 -742.715576 -0.200660 0.136755 0.970069 0.000000
36.552799 41.566200 -749.653687 -0.091275 0.263542 0.960320 0.000000
36.552299 -0.115800 -735.914124 -0.162094 0.405951 0.899405 0.000000
36.552200 26.972601 -737.096924 0.501698 0.491697 -0.711711 0.000000
36.551701 7.002200 -736.747986 0.217918 0.378796 0.899458 0.000000
36.550900 38.579498 -748.727417 -0.168760 0.156071 0.973223 0.000000
36.550800 29.901600 -744.647095 0.307133 0.316035 0.897659 0.000000
36.550800 17.537001 -741.153015 -0.205742 0.821445 -0.531882 0.000000
36.550800 15.194700 -740.545471 0.327928 0.159121 0.931205 0.000000
36.550301 22.717400 -742.466980 0.246003 0.050684 -0.967943 0.000000
36.549599 32.430199 -737.842529 -0.766490 0.358127 0.533140 0.000000
36.549099 42.190102 -749.721680 -0.112735 0.144252 0.983098 0.000000
36.549099 18.299500 -741.729126 -0.893418 0.256321 0.368924 0.000000
36.548801 15.243900 -737.564209 -0.498835 0.251734 0.829333 0.000000
36.547901 12.071300 -737.337708 0.061123 0.083350 -0.994644 0.000000
36.547401 2.388700 -738.567627 -0.534800 0.152588 -0.831087 0.000000
36.544800 33.198502 -738.578674 -0.984795 0.077216 -0.155619 0.000000
36.543999 12.885800 -737.541077 0.061198 0.130479 0.989561 0.000000
36.543900 -0.359100 -738.369873 0.464590 0.006618 0.885501 0.000000
36.543701 5.233100 -736.774780 -0.092065 0.185358 0.978349 0.000000
36.543400 39.537899 -748.908997 -0.131407 0.318358 0.938818 0.000000
36.543301 42.669201 -750.002380 -0.076164 0.096626 0.992402 0.000000
36.541199 20.579599 -737.525574 0.568151 0.026265 -0.822505 0.000000
36.540798 37.696999 -736.245300 -0.625871 0.372894 0.685008 0.000000
36.540100 10.920200 -737.423706 0.425186 0.027816 -0.904679 0.000000
36.539700 33.051201 -738.908630 0.227991 0.827807 0.512598 0.000000
36.539200 31.156700 -745.340393 0.276381 0.458576 0.844583 0.000000
36.538502 24.642300 -742.802429 -0.242408 0.391125 0.887840 0.000000
36.537498 7.610500 -736.771118 0.390606 0.422492 0.817880 0.000000
36.536499 14.466100 -737.624573 -0.201714 0.072128 0.976785 0.000000
36.536400 4.683900 -736.936523 0.084011 0.007444 -0.996437 0.000000
36.536098 36.920601 -747.960388 0.060375 0.395790 0.916354 0.000000
36.536098 9.015800 -736.359680 0.255177 0.963581 0.079981 0.000000
36.535999 19.788099 -737.561218 0.609864 0.012446 -0.792408 0.000000
36.535400 16.463900 -737.703186 0.314973 0.805635 -0.501741 0.000000
36.534500 31.023500 -737.714600 -0.922867 0.167155 0.346953 0.000000
36.532501 33.191799 -746.136230 0.401538 0.330222 0.854237 0.000000
36.532299 16.878000 -737.603577 0.588844 0.113070 -0.800299 0.000000
36.532001 26.701900 -737.101929 0.584600 0.046486 -0.809989 0.000000
36.530399 22.341299 -737.383179 0.545426 0.063422 -0.835756 0.000000
36.529598 10.286700 -739.465576 0.254598 0.713191 0.653099 0.000000
36.528999 27.211901 -743.678589 0.161398 0.395639 0.904113 0.000000
36.528400 28.913700 -744.225281 0.252796 0.307689 0.917290 0.000000
36.527802 5.690800 -738.789185 -0.613713 0.188246 -0.766759 0.000000
36.527599 18.912300 -737.614075 -0.614591 0.032200 0.788189 0.000000
36.527302 28.296600 -744.050415 0.267633 0.350437 0.897533 0.000000
36.525902 4.679500 -738.665527 0.658898 0.052883 0.750371 0.000000
36.525799 8.714300 -739.189087 0.246884 0.743796 0.621141 0.000000
36.525700 0.203000 -737.135376 0.478486 0.082788 -0.874184 0.000000
36.525299 43.565399 -749.758484 -0.517504 0.806928 0.284706 0.000000
36.525101 2.827200 -736.958923 0.177303 0.024336 -0.983855 0.000000
36.524101 23.605900 -742.446777 -0.076664 0.245073 0.966469 0.000000
36.523602 33.142899 -738.015076 0.968274 0.055648 -0.243614 0.000000
36.523300 12.476700 -737.422119 0.007414 0.081553 0.996641 0.000000
36.522598 22.971300 -742.519775 -0.161199 0.024008 0.986630 0.000000
36.520599 3.127200 -736.946228 -0.132081 0.012209 0.991164 0.000000
36.520401 1.596100 -736.761719 -0.485849 0.009369 -0.873993 0.000000
36.520302 24.098499 -737.278381 0.532735 0.037361 -0.845457 0.000000
36.520199 39.191200 -748.930298 -0.139019 0.300984 0.943442 0.000000
36.519798 31.121000 -736.794128 0.478715 0.050752 -0.876502 0.000000
36.519699 31.492599 -736.753723 0.450192 0.061576 -0.890806 0.000000
36.519100 9.460700 -736.473328 0.164630 0.971192 0.172288 0.000000
36.518002 2.114200 -736.794373 0.431404 0.033390 0.901541 0.000000
36.517502 -0.212300 -737.119019 -0.556497 0.040447 0.829864 0.000000
36.515800 1.853000 -736.786926 0.993020 0.106595 0.050493 0.000000
36.515400 36.811100 -735.937317 -0.141434 0.066626 -0.987703 0.000000
36.513100 21.516300 -742.196411 -0.207676 0.210356 0.955312 0.000000
36.513000 14.825000 -740.812378 0.428555 0.655340 0.621989 0.000000
36.512798 37.992802 -748.592224 0.049543 0.032677 0.998237 0.000000
36.512001 34.801498 -736.342102 0.054668 0.147720 -0.987517 0.000000
36.511398 9.256100 -736.963806 -0.912987 0.298504 0.278119 0.000000
36.511101 21.732700 -742.015625 0.140314 0.104336 0.984594 0.000000
36.510502 37.700500 -748.497803 0.112087 0.029964 0.993247 0.000000
36.510201 19.119101 -741.543579 0.034936 0.358413 0.932909 0.000000
36.509602 18.551500 -741.744690 -0.322351 0.828679 0.457582 0.000000
36.509201 15.533700 -740.991028 0.253202 0.403026 0.879465 0.000000
36.508099 22.696199 -737.450317 0.626469 0.070568 -0.776245 0.000000
36.507801 9.883600 -737.334717 -0.845735 0.239244 0.476964 0.000000
36.507198 28.108000 -737.036987 0.319228 0.798865 -0.509812 0.000000
36.506500 20.749701 -742.031006 -0.621733 0.158837 0.766955 0.000000
36.505001 31.939600 -736.716614 0.416621 0.055280 -0.907398 0.000000
36.504902 33.645401 -746.314026 0.346490 0.447747 0.824298 0.000000
36.503700 -0.684000 -738.282715 -0.586827 0.331403 -0.738787 0.000000
36.503101 20.848499 -737.408081 -0.763045 0.079635 -0.641421 0.000000
36.502300 32.886600 -738.571716 0.594430 0.703107 0.390249 0.000000
36.502102 11.341700 -737.130676 -0.416228 0.063722 -0.907025 0.000000
36.499699 19.156300 -737.641724 -0.642214 0.004143 0.766514 0.000000
36.498600 26.186100 -739.413696 0.864943 0.405681 0.295459 0.000000
36.498501 19.540100 -741.917419 -0.425662 0.175785 0.887644 0.000000
36.498501 13.221000 -737.466980 -0.198037 0.122354 -0.972528 0.000000
36.498402 36.622799 -747.783630 0.093634 0.445808 0.890218 0.000000
36.498001 15.469700 -740.647095 0.118752 0.810740 0.573236 0.000000
36.497501 32.191700 -738.648010 -0.957698 0.113360 -0.264507 0.000000
36.497299 43.845901 -749.973022 0.291181 0.234365 -0.927517 0.000000
36.497200 33.528801 -738.405212 0.982930 0.134864 0.125144 0.000000
36.497002 37.042000 -736.003418 -0.061620 0.092990 -0.993758 0.000000
36.496899 28.937799 -736.911682 0.595329 0.064244 -0.800910 0.000000
36.496201 1.712700 -737.076477 0.385249 0.003840 -0.922805 0.000000
36.495800 36.525101 -736.003418 -0.062133 0.100542 -0.992991 0.000000
36.494900 25.855900 -742.979370 0.132809 0.296473 0.945762 0.000000
36.494701 2.959200 -738.527588 0.536327 0.108422 0.837017 0.000000
36.492500 1.336400 -736.730286 0.697944 0.585212 0.412798 0.000000
36.491798 29.604300 -736.954773 0.573991 0.066942 -0.816121 0.000000
36.490898 30.095900 -736.872681 0.557751 0.109220 -0.822791 0.000000
36.490799 26.323799 -743.331787 0.134824 0.371113 0.918748 0.000000
36.490299 14.567700 -740.416626 -0.147384 0.016876 -0.988935 0.000000
36.489399 27.763000 -743.855225 0.163308 0.341970 0.925412 0.000000
36.487999 26.282700 -737.158386 -0.636440 0.064650 0.768612 0.000000
36.486500 25.056400 -737.266724 0.653561 0.064638 -0.754109 0.000000
36.485901 20.058701 -741.631226 -0.097542 0.191380 0.976657 0.000000
36.485699 21.243700 -741.866089 0.124207 0.339864 0.932237 0.000000
36.484699 23.228399 -742.573730 0.211016 0.020041 -0.977277 0.000000
36.484501 1.577600 -738.430115 -0.632829 0.301117 -0.713341 0.000000
36.483501 -0.515000 -736.655518 0.166105 0.963931 -0.207958 0.000000
36.483200 15.741100 -737.709717 -0.286124 0.913562 0.289028 0.000000
36.482700 25.600700 -743.104309 0.079586 0.306601 0.948505 0.000000
36.481800 31.305099 -737.761780 0.912319 0.336879 -0.232779 0.000000
36.481400 33.411800 -738.179504 -0.994811 0.001071 0.101730 0.000000
36.480900 18.260799 -741.313477 -0.003213 0.099609 -0.995021 0.000000
36.480499 32.980499 -746.005920 0.363043 0.293748 0.884258 0.000000
36.479900 7.352500 -738.960388 0.560448 0.034767 0.827460 0.000000
36.479099 32.777302 -738.349976 -0.741615 0.639430 0.202822 0.000000
36.478802 23.664900 -737.279602 0.546413 0.031816 -0.836911 0.000000
36.477699 31.676500 -737.731018 -0.867554 0.146772 0.475193 0.000000
36.477402 35.987801 -736.047729 -0.048722 0.121237 -0.991427 0.000000
36.477200 28.422100 -737.030029 0.618487 0.040857 -0.784732 0.000000
36.476799 37.449001 -748.148987 0.039593 0.320574 0.946396 0.000000
36.476601 32.550400 -738.585205 0.905971 0.385002 0.176042 0.000000
36.476002 17.919901 -741.247498 0.023294 0.999613 0.015192 0.000000
36.474998 32.068298 -737.747192 -0.984064 0.136107 0.114426 0.000000
36.474098 0.944200 -736.225891 0.304322 0.136607 0.942723 0.000000
36.473202 0.313200 -738.445679 0.517240 0.110940 0.848620 0.000000
36.473000 11.900700 -739.752502 0.433412 0.151190 0.888423 0.000000
36.472900 30.789900 -737.709473 -0.870767 0.158984 0.465284 0.000000
36.472301 16.491699 -740.891724 0.209303 0.037077 0.977148 0.000000
36.471802 8.327200 -736.715088 0.048346 0.005143 -0.998817 0.000000
36.470299 16.292500 -741.152588 0.617391 0.165345 0.769084 0.000000
36.470001 33.100899 -738.306580 -0.996978 0.018088 -0.075545 0.000000
36.469898 1.514400 -736.363586 0.546420 0.823352 0.153355 0.000000
36.469799 6.075000 -736.815796 -0.191150 0.058908 0.979792 0.000000
36.469601 19.683399 -741.589478 0.001299 0.419470 0.907768 0.000000
36.469101 10.522800 -739.633789 -0.384537 0.812156 -0.438787 0.000000
36.469002 32.608398 -738.042603 -0.902561 0.161631 0.399072 0.000000
36.468498 2.046400 -737.023071 0.478685 0.059318 -0.875980 0.000000
36.468102 34.367001 -736.506470 0.142472 0.172732 -0.974610 0.000000
36.467999 30.877399 -745.045776 0.312678 0.131298 0.940741 0.000000
36.467400 4.221600 -736.580627 -0.952418 0.131505 -0.274966 0.000000
36.467201 21.447201 -737.554871 0.664627 0.032455 -0.746470 0.000000
36.467201 5.460200 -736.875671 0.253962 0.268149 -0.929301 0.000000
36.467098 44.255001 -749.870972 0.385308 0.300022 -0.872654 0.000000
36.466099 3.964100 -736.686523 0.688060 0.035321 0.724794 0.000000
36.465801 30.120100 -744.723816 0.256659 0.438902 0.861099 0.000000
36.465801 32.427299 -738.356995 0.963601 0.205272 0.171278 0.000000
36.464901 1.984400 -738.521729 0.939425 0.137311 0.314048 0.000000
36.464500 7.283200 -736.633118 -0.072401 0.207387 0.975576 0.000000
36.463799 24.533001 -737.299377 0.595939 0.029308 -0.802494 0.000000
36.463799 -0.449900 -737.044983 -0.687277 0.530089 0.496645 0.000000
36.463200 25.558500 -737.217529 0.637008 0.132772 -0.759337 0.000000
36.462399 23.104300 -737.436829 0.585640 0.091100 -0.805436 0.000000
36.462101 29.681400 -744.596375 0.223807 0.315040 0.922312 0.000000
36.461800 30.351801 -744.902222 0.290351 0.368580 0.883088 0.000000
36.461201 4.009800 -738.535278 -0.655172 0.015301 -0.755325 0.000000
36.460499 33.269901 -736.653625 0.256431 0.167821 -0.951882 0.000000
36.460098 41.827400 -749.737122 -0.063381 0.242340 0.968119 0.000000
36.460098 26.001400 -743.219116 0.089241 0.230017 0.969086 0.000000
36.459499 0.869800 -738.377380 -0.582028 0.309453 -0.751986 0.000000
36.459499 4.728500 -736.682678 -0.317771 0.125756 -0.939791 0.000000
36.459400 8.940300 -736.746521 0.813853 0.091071 -0.573889 0.000000
36.458302 22.103100 -737.515991 0.658512 0.110985 -0.744341 0.000000
36.458099 37.467899 -736.243530 -0.768632 0.343226 0.539815 0.000000
36.457802 13.647800 -737.526184 0.123423 0.147864 0.981276 0.000000
36.456902 1.415500 -736.104919 0.680892 0.463408 0.567132 0.000000
36.456600 30.848600 -736.857727 0.529016 0.211911 -0.821728 0.000000
36.455898 32.212399 -737.971008 0.989468 0.144228 0.012298 0.000000
36.455101 21.770000 -737.552673 0.681087 0.058789 -0.729839 0.000000
36.454601 32.304199 -745.661621 0.324886 0.298183 0.897516 0.000000
36.454399 35.938400 -747.497314 0.187917 0.374400 0.908027 0.000000
36.454300 17.205200 -741.342224 0.487167 0.233657 0.841470 0.000000
36.454102 6.290500 -738.782776 0.101784 0.899328 0.425264 0.000000
36.453201 43.592098 -750.040283 0.173391 0.150610 -0.973269 0.000000
36.452999 38.279301 -748.712708 0.034077 0.095636 -0.994833 0.000000
36.452702 4.453700 -736.862122 -0.336569 0.077873 0.938433 0.000000
36.451599 20.506500 -742.039490 -0.512430 0.167839 0.842167 0.000000
36.451000 31.985500 -738.228699 0.996372 0.064388 0.055657 0.000000
36.449600 24.974899 -742.969177 -0.250603 0.152484 0.956006 0.000000
36.449501 8.668900 -736.475403 -0.632633 0.609140 -0.478251 0.000000
36.449299 30.418100 -736.912170 0.571345 0.087788 -0.816001 0.000000
36.447899 33.732899 -736.630676 0.218048 0.193969 -0.956468 0.000000
36.447800 9.533800 -737.318481 -0.863292 0.272538 0.424794 0.000000
36.447498 3.657500 -736.972229 0.379846 0.073822 -0.922099 0.000000
36.447300 24.270700 -742.743896 -0.126367 0.213164 0.968810 0.000000
36.446999 34.562698 -746.765381 0.311039 0.362626 0.878497 0.000000
36.446400 7.901700 -739.158813 -0.700445 0.189351 -0.688130 0.000000
36.446400 17.633600 -737.675903 -0.697020 0.023842 0.716655 0.000000
36.445999 14.035700 -740.255188 0.091384 0.875882 0.473792 0.000000
36.445999 31.854900 -737.996277 0.773761 0.538898 0.332991 0.000000
36.445999 4.993600 -736.743286 0.242886 0.066015 -0.967806 0.000000
36.445599 16.080000 -737.768921 0.443026 0.653672 -0.613549 0.000000
36.445400 26.547100 -739.552795 0.892600 0.347205 0.287599 0.000000
36.445301 42.460899 -749.810730 -0.176440 0.107345 0.978441 0.000000
36.444901 12.794300 -739.924683 -0.345171 0.937992 -0.032079 0.000000
36.443401 17.352900 -737.747925 0.666961 0.015316 -0.744935 0.000000
36.443100 4.920200 -738.585022 0.744619 0.188842 0.640219 0.000000
36.442799 6.714200 -738.880188 -0.733473 0.501676 -0.458627 0.000000
36.442101 35.247501 -747.152405 0.263284 0.401695 0.877110 0.000000
36.441399 44.473202 -749.472412 0.464488 0.879562 0.103063 0.000000
36.441200 23.515699 -742.669800 -0.204314 0.125634 0.970810 0.000000
36.441002 35.422100 -736.202209 -0.075091 0.118991 -0.990052 0.000000
36.440899 12.778500 -737.301270 0.052072 0.039320 -0.997869 0.000000
36.438599 11.167000 -737.415100 0.371225 0.045911 -0.927407 0.000000
36.438599 5.758100 -736.946106 0.471811 0.326639 -0.818964 0.000000
36.438202 34.000301 -746.575623 0.345520 0.382706 0.856827 0.000000
36.438099 11.640100 -737.446777 0.332742 0.008789 -0.942977 0.000000
36.435398 26.709000 -743.435120 0.145761 0.348438 0.925929 0.000000
36.434200 35.496799 -747.196228 0.253141 0.396937 0.882248 0.000000
36.434101 6.954700 -738.893921 0.795893 0.184136 0.576756 0.000000
36.432800 18.095301 -741.623474 -0.665205 0.149332 -0.731575 0.000000
36.432598 37.984600 -735.843872 0.178540 0.086233 0.980147 0.000000
36.428001 37.193600 -735.804871 0.014710 0.155016 -0.987802 0.000000
36.427898 31.807699 -745.439514 0.304487 0.393232 0.867558 0.000000
36.427399 26.045700 -737.228821 -0.687475 0.001383 0.726206 0.000000
36.427200 22.105499 -742.359070 0.279942 0.140641 -0.949659 0.000000
36.426498 34.235500 -746.656982 0.346535 0.346535 0.871681 0.000000
36.426498 35.752102 -736.102417 -0.056671 0.201363 -0.977876 0.000000
36.426300 28.005899 -743.903625 0.210987 0.379777 0.900696 0.000000
36.425800 0.060900 -738.297485 0.539495 0.090154 0.837148 0.000000
36.425598 2.721800 -738.449829 0.626455 0.018057 0.779249 0.000000
36.425400 18.922501 -741.703613 0.001022 0.048051 0.998844 0.000000
36.424702 31.616501 -738.109619 -0.982581 0.110525 0.149391 0.000000
36.424599 31.517500 -738.413574 0.837609 0.266863 0.476650 0.000000
36.424400 4.117700 -736.951782 0.522942 0.214970 -0.824815 0.000000
36.424301 29.427500 -744.471375 0.289462 0.307094 0.906590 0.000000
36.424301 0.355300 -736.012817 0.703716 0.706618 -0.073999 0.000000
36.422699 18.665001 -741.413025 0.339747 0.077996 0.937277 0.000000
36.422501 3.686500 -736.522217 0.977609 0.003487 -0.210401 0.000000
36.420898 36.186600 -736.183594 -0.003219 0.101947 -0.994785 0.000000
36.420399 0.823600 -737.124573 -0.479767 0.036696 0.876628 0.000000
36.419998 22.306000 -742.174011 0.161652 0.843851 0.511649 0.000000
36.419399 9.021500 -737.001587 -0.950877 0.278728 0.134696 0.000000
36.417702 31.104900 -745.130005 0.268233 0.379122 0.885617 0.000000
36.417301 4.296100 -738.475281 0.668303 0.047023 0.742401 0.000000
36.417198 37.191002 -748.071777 0.112723 0.349034 0.930306 0.000000
36.416901 29.141300 -737.034485 0.643266 0.076614 -0.761800 0.000000
36.416698 1.077600 -737.182312 0.487441 0.056615 -0.871318 0.000000
36.416500 30.919300 -737.907227 -0.770799 0.322101 0.549655 0.000000
36.416100 38.852200 -748.680786 -0.087115 0.289951 0.953068 0.000000
36.416100 13.972600 -737.506226 0.151340 0.151340 0.976828 0.000000
36.415901 22.606800 -742.206787 -0.059208 0.005194 0.998232 0.000000
36.415401 15.369900 -737.750488 -0.230183 0.801779 0.551513 0.000000
36.415199 32.167500 -736.749084 0.431728 0.172982 -0.885261 0.000000
36.413799 0.459200 -737.153076 0.502657 0.113782 -0.856965 0.000000
36.412899 41.102001 -749.474121 -0.035301 0.239806 0.970179 0.000000
36.411900 17.209600 -741.037720 0.199512 0.397568 0.895620 0.000000
36.411701 23.781300 -742.736023 -0.221057 0.291457 0.930691 0.000000
36.411598 40.609699 -749.373230 -0.083534 0.276306 0.957433 0.000000
36.410301 2.297200 -737.058228 0.452388 0.096640 -0.886569 0.000000
36.409698 32.933998 -736.716003 0.394766 0.022149 -0.918515 0.000000
36.409199 -0.120600 -736.111023 -0.960457 0.080357 -0.266581 0.000000
36.408298 19.585199 -737.665283 0.674739 0.085982 -0.733031 0.000000
36.407600 18.496099 -737.695313 0.665410 0.015345 -0.746320 0.000000
36.406300 13.428800 -740.089111 0.143425 0.873591 0.465046 0.000000
36.406200 37.921299 -748.351318 0.040358 0.363219 0.930829 0.000000
36.405899 3.641700 -738.521484 0.643655 0.165859 0.747127 0.000000
36.405800 10.235500 -737.455322 -0.288147 0.092572 0.953101 0.000000
36.404999 2.326100 -736.749390 0.585083 0.397197 0.707044 0.000000
36.404099 30.613001 -745.020874 0.271007 0.404240 0.873582 0.000000
36.403000 44.509899 -749.901672 0.252497 0.430908 0.866351 0.000000
36.402599 20.598801 -741.706726 0.215271 0.199226 0.956017 0.000000
36.402199 28.532101 -744.130310 0.266323 0.339893 0.901967 0.000000
36.401402 21.849199 -742.425110 -0.353821 0.040177 0.934450 0.000000
36.401001 17.715200 -741.485107 -0.526304 0.168477 -0.833439 0.000000
36.401001 15.930400 -740.718018 -0.283223 0.046574 -0.957923 0.000000
36.400700 2.654100 -736.765503 -0.097968 0.975959 -0.194696 0.000000
36.400600 9.727100 -736.374695 -0.905296 0.390436 -0.167330 0.000000
36.400501 24.300100 -737.356079 0.734307 0.006941 -0.678782 0.000000
36.400101 31.388901 -745.232971 0.295562 0.355574 0.886685 0.000000
36.398800 37.704899 -748.243896 0.011231 0.320697 0.947115 0.000000
36.398602 43.012699 -750.079224 0.011151 0.303543 0.952753 0.000000
36.398201 34.799400 -746.952881 0.284189 0.374408 0.882641 0.000000
36.397701 9.105400 -739.136597 0.626857 0.009687 0.779074 0.000000
36.393799 14.272100 -737.613586 0.209301 0.120507 0.970397 0.000000
36.392601 18.133900 -737.724915 -0.709247 0.213553 0.671836 0.000000
36.392399 31.331800 -738.052124 -0.931826 0.109866 0.345874 0.000000
36.391800 8.170400 -738.995605 0.515013 0.120411 0.848683 0.000000
36.391300 39.632702 -749.157776 -0.192597 0.144129 0.970636 0.000000
36.391102 33.388901 -746.125671 0.405367 0.352153 0.843603 0.000000
36.390400 10.704400 -737.424011 -0.468509 0.619641 0.629717 0.000000
36.390202 6.618600 -736.753174 -0.210570 0.904726 0.370313 0.000000
36.389999 9.796900 -739.277588 -0.599311 0.009644 -0.800459 0.000000
36.389900 31.790600 -738.362488 -0.909261 0.297230 0.291374 0.000000
36.388802 11.452100 -739.724670 0.591706 0.694468 0.409388 0.000000
36.388599 5.821200 -738.580811 -0.853914 0.167231 -0.492813 0.000000
36.388199 17.100901 -737.726929 -0.692944 0.015337 0.720829 0.000000
36.388000 18.348499 -741.521118 0.876773 0.267106 0.399905 0.000000
36.385899 29.383600 -737.025024 0.642124 0.070706 -0.763333 0.000000
36.384800 31.679899 -736.825073 0.475463 0.042233 -0.878721 0.000000
36.384701 6.793100 -736.539490 0.971242 0.013141 -0.237733 0.000000
36.381699 25.333500 -737.299500 0.699023 0.101542 -0.707853 0.000000
36.380199 6.340400 -736.535095 0.520841 0.588264 -0.618604 0.000000
36.379902 32.593800 -745.758728 0.314265 0.365883 0.875995 0.000000
36.379799 19.207199 -741.846191 -0.490388 0.141150 -0.859998 0.000000
36.379799 15.695100 -740.663025 0.331424 0.174802 0.927148 0.000000
36.378899 3.139700 -736.603882 0.714836 0.449468 0.535713 0.000000
36.378700 8.242800 -736.498474 -0.864797 0.388621 -0.317963 0.000000
36.377300 16.828800 -740.943970 0.340661 0.154340 0.927432 0.000000
36.377201 24.852501 -737.381104 -0.755552 0.055702 0.652717 0.000000
36.376701 36.200100 -747.542908 0.239227 0.428803 0.871148 0.000000
36.376598 37.175598 -736.274719 0.731560 0.001383 -0.681775 0.000000
36.374802 9.328300 -736.759277 -0.022133 0.998073 0.057966 0.000000
36.374599 19.949200 -741.944397 -0.054543 0.212113 -0.975722 0.000000
36.374298 9.211000 -737.196472 -0.938545 0.169021 0.300939 0.000000
36.373901 31.579300 -745.380981 0.287236 0.319642 0.902953 0.000000
36.372700 23.996599 -742.533020 0.088625 0.215945 0.972375 0.000000
36.369999 34.573200 -736.406189 0.105220 0.148759 -0.983260 0.000000
36.368801 33.779900 -746.468079 0.344066 0.504097 0.792152 0.000000
36.368599 10.617300 -739.388306 0.765018 0.129740 0.630805 0.000000
36.368000 41.355598 -749.546570 -0.052844 0.323509 0.944748 0.000000
36.368000 21.167500 -742.189270 -0.585760 0.122464 0.801179 0.000000
36.367699 25.552000 -742.895996 -0.001251 0.336415 0.941713 0.000000
36.367001 5.582200 -736.672485 -0.285936 0.820310 -0.495311 0.000000
36.365898 7.050100 -736.492981 0.994927 0.083188 -0.056568 0.000000
36.365700 0.589000 -736.249390 -0.325861 0.325861 0.887484 0.000000
36.365601 16.875401 -737.832581 0.742208 0.055773 -0.667844 0.000000
36.365501 0.569000 -738.316223 -0.521995 0.014914 -0.852818 0.000000
36.365398 32.809601 -745.869629 0.367480 0.367480 0.854352 0.000000
36.365200 33.927898 -736.474426 0.162309 0.230927 -0.959337 0.000000
36.363998 5.969200 -736.603027 -0.654045 0.460006 -0.600517 0.000000
36.363800 23.904800 -737.437988 0.723027 0.089100 -0.685050 0.000000
36.363701 19.326401 -741.546082 0.290656 0.106530 0.950879 0.000000
36.363201 29.851400 -737.052979 0.606834 0.061397 -0.792454 0.000000
36.361198 27.706800 -737.191589 0.496161 0.620622 -0.607167 0.000000
36.360001 35.733898 -747.336426 0.235549 0.389618 0.890345 0.000000
36.359100 12.198100 -737.485718 0.385802 0.032695 -0.922002 0.000000
36.358398 35.045700 -746.939575 0.281215 0.402822 0.871007 0.000000
36.358299 23.404900 -742.433716 0.112793 0.117542 0.986642 0.000000
36.358002 5.056600 -736.461670 -0.913582 0.068822 0.400789 0.000000
36.357800 28.666599 -737.112976 -0.650875 0.009715 0.759123 0.000000
36.356499 17.812500 -737.823303 0.235452 0.874320 -0.424413 0.000000
36.353401 1.408600 -737.176208 0.543036 0.108607 -0.832656 0.000000
36.352798 23.495001 -737.489380 0.745562 0.082840 -0.661268 0.000000
36.352798 3.353600 -736.816284 -0.982959 0.182201 -0.024371 0.000000
36.352600 40.862900 -749.416382 -0.065574 0.228891 0.971241 0.000000
36.352600 4.488600 -736.592224 0.041797 0.893915 0.446283 0.000000
36.352501 37.497700 -748.372498 0.258722 0.195753 0.945909 0.000000
36.352402 3.210200 -738.458191 0.706951 0.020999 0.706951 0.000000
36.352402 1.201900 -738.335327 0.552372 0.069579 0.830689 0.000000
36.352100 9.724200 -737.544922 0.789247 0.135257 -0.598995 0.000000
36.351700 20.887300 -742.156616 -0.296904 0.840968 -0.452351 0.000000
36.351700 9.516700 -739.181824 0.677749 0.216568 0.702677 0.000000
36.351002 22.360399 -737.590515 0.765121 0.098017 -0.636382 0.000000
36.350800 23.056200 -742.329285 0.166057 0.297804 0.940073 0.000000
36.350601 14.271700 -740.408691 0.302790 0.384954 0.871853 0.000000
36.349602 14.832300 -740.551025 0.368020 0.016670 0.929668 0.000000
36.349499 39.384300 -749.050110 -0.142903 0.351014 0.925401 0.000000
36.348801 32.649399 -736.679504 -0.403545 0.035724 0.914262 0.000000
36.348499 16.296801 -740.806396 0.397437 0.276544 0.874967 0.000000
36.348202 32.394798 -736.702515 0.428478 0.123028 -0.895137 0.000000
36.348099 25.274200 -742.914429 -0.153918 0.042819 0.987155 0.000000
36.346901 25.825701 -737.315186 0.774168 0.009694 -0.632906 0.000000
36.346298 21.528099 -741.981689 0.383390 0.169604 0.907880 0.000000
36.345901 22.798300 -742.349182 0.065451 0.074326 0.995084 0.000000
36.345299 40.069599 -749.184570 -0.142333 0.264713 0.953765 0.000000
36.345200 27.299101 -737.248413 0.648857 0.344858 -0.678276 0.000000
36.345001 -0.186800 -738.181274 -0.622490 0.006901 -0.782598 0.000000
36.344398 24.480700 -742.888672 -0.324265 0.274378 0.905301 0.000000
36.343800 7.179000 -738.831177 0.772477 0.113730 0.624776 0.000000
36.343700 11.071200 -739.510010 -0.470620 0.776767 -0.418510 0.000000
36.343102 -0.682100 -736.895874 -0.354817 0.883268 -0.306501 0.000000
36.341999 8.907500 -737.260925 -0.964493 0.231117 0.127824 0.000000
36.341900 4.607400 -738.471985 0.776403 0.004137 0.630224 0.000000
36.341702 26.637800 -737.321472 0.799256 0.037926 -0.599793 0.000000
36.341499 26.931101 -737.289978 0.601878 0.441822 -0.665234 0.000000
36.341099 43.240799 -749.964783 -0.018269 0.084899 0.996222 0.000000
36.341099 11.941000 -737.471619 -0.374576 0.096709 0.922139 0.000000
36.341000 39.074501 -748.812683 -0.075707 0.283579 0.955956 0.000000
36.340801 32.009399 -745.559875 0.322893 0.377984 0.867680 0.000000
36.340401 21.986700 -742.036621 0.188534 0.201718 0.961127 0.000000
36.340000 8.552100 -736.734924 -0.722340 0.139662 0.677288 0.000000
36.339699 42.050201 -749.772705 0.003495 0.210880 0.977506 0.000000
36.339401 11.396700 -737.494812 -0.459374 0.014647 0.888122 0.000000
36.339100 7.756700 -738.961914 0.776657 0.168049 0.607094 0.000000
36.339100 2.558500 -737.084900 0.495292 0.164112 -0.853085 0.000000
36.336300 8.646600 -739.007507 -0.829144 0.057716 -0.556047 0.000000
36.335999 25.559999 -739.073181 -0.214971 0.771730 0.598516 0.000000
36.334900 22.879299 -737.564392 0.754698 0.091965 -0.649595 0.000000
36.334702 0.073300 -737.248413 -0.680776 0.086008 0.727425 0.000000
36.334499 31.397699 -736.883118 0.548438 0.051898 -0.834579 0.000000
36.334000 26.737499 -739.389771 0.846313 0.347565 0.403674 0.000000
36.333801 22.358801 -742.474792 0.497257 0.045456 -0.866412 0.000000
36.333599 7.933000 -736.640320 -0.939831 0.094382 -0.328343 0.000000
36.333401 13.225700 -737.290405 -0.458998 0.058916 0.886482 0.000000
36.332600 6.725000 -738.647095 -0.919342 0.176525 -0.351638 0.000000
36.332298 12.615900 -737.480713 -0.296167 0.087415 0.951128 0.000000
36.331001 36.811298 -747.896423 0.160423 0.429240 0.888829 0.000000
36.330898 44.028500 -750.005676 0.333754 0.213430 -0.918181 0.000000
36.330101 38.212502 -748.445007 0.008816 0.338795 0.940819 0.000000
36.329800 10.112000 -737.252014 -0.478251 0.632633 -0.609140 0.000000
36.329700 10.194100 -739.263306 0.294267 0.699488 0.651247 0.000000
36.328800 24.011600 -742.823914 0.235142 0.042642 -0.971025 0.000000
36.325901 20.550800 -737.707581 0.303116 0.818257 -0.488442 0.000000
36.325500 18.973400 -737.759521 -0.719831 0.095293 0.687578 0.000000
36.325401 3.880400 -737.046021 -0.447723 0.009245 0.894125 0.000000
36.323898 26.343300 -739.244812 0.701517 0.192724 0.686099 0.000000
36.323502 13.776500 -737.288086 -0.472650 0.094530 0.876166 0.000000
36.322399 13.435000 -737.475281 0.029209 0.183434 0.982598 0.000000
36.320900 20.875700 -741.807678 0.348866 0.237929 0.906467 0.000000
36.320599 2.912100 -737.064026 0.495239 0.237653 -0.835619 0.000000
36.320301 35.135101 -736.325012 -0.034745 0.122166 -0.991901 0.000000
36.319698 36.387901 -736.098328 0.087563 0.120253 -0.988874 0.000000
36.318699 40.313900 -749.213928 -0.079123 0.299629 0.950769 0.000000
36.318699 29.019199 -744.304688 0.235425 0.303913 0.923153 0.000000
36.318699 27.425100 -743.655090 0.150986 0.336602 0.929464 0.000000
36.318298 37.476398 -735.903015 -0.364086 0.011497 -0.931294 0.000000
36.317501 9.256100 -737.438293 -0.936623 0.075300 0.342151 0.000000
36.317299 17.525600 -741.073120 -0.355916 0.742711 -0.567190 0.000000
36.317200 21.574301 -737.725281 0.791081 0.061291 -0.608633 0.000000
36.316299 6.263300 -736.854919 0.237891 0.915519 -0.324396 0.000000
36.316200 16.433701 -737.890076 0.082178 0.948305 -0.306536 0.000000
36.315800 27.118500 -743.570496 0.159755 0.299028 0.940777 0.000000
36.315800 3.444900 -737.097473 0.427731 0.009156 -0.903860 0.000000
36.315498 25.783400 -743.133179 0.032206 0.211131 0.976927 0.000000
36.315201 14.917500 -737.634888 0.188972 0.345264 0.919284 0.000000
36.314701 15.184700 -740.469788 0.446950 0.187335 0.874724 0.000000
36.314499 21.940800 -737.682190 0.801869 0.058189 -0.594660 0.000000
36.314201 36.783501 -736.109009 0.365548 0.035124 -0.930130 0.000000
36.313900 33.702999 -738.421997 0.965445 0.141253 -0.219007 0.000000
36.312500 5.288900 -736.516296 0.843428 0.456534 0.283206 0.000000
36.311699 20.259501 -741.663818 -0.114740 0.012020 -0.993323 0.000000
36.311100 42.688900 -749.857300 -0.078161 0.169548 0.982418 0.000000
36.310101 33.167400 -746.001709 0.354822 0.254706 0.899570 0.000000
36.309799 9.244300 -736.523499 -0.958029 0.219244 -0.184696 0.000000
36.309101 36.854698 -735.813416 -0.580344 0.174255 -0.795510 0.000000
36.307899 28.055599 -737.242371 0.377256 0.749613 -0.543837 0.000000
36.307499 38.632702 -748.657593 0.001208 0.271689 0.962384 0.000000
36.307301 10.021600 -737.601013 -0.589407 0.073138 0.804519 0.000000
36.307098 26.207500 -737.391418 0.832972 0.017840 -0.553028 0.000000
36.306702 7.075000 -736.788574 0.146925 0.817732 0.556532 0.000000
36.305901 30.213200 -737.058289 0.638391 0.041050 -0.768617 0.000000
36.304199 19.359600 -737.816284 0.769852 0.113779 -0.627998 0.000000
36.304001 8.980600 -737.530273 -0.985656 0.017132 0.167893 0.000000
36.302502 8.059900 -736.851807 -0.454090 0.431304 0.779602 0.000000
36.302399 -0.232500 -737.268616 -0.844879 0.001347 0.534955 0.000000
36.302299 -0.579700 -738.191711 0.573474 0.147465 0.805842 0.000000
36.302101 28.905001 -737.095398 0.678262 0.023873 -0.734433 0.000000
36.300598 1.880900 -738.281494 -0.696700 0.183018 -0.693624 0.000000
36.299999 19.011299 -741.439514 0.415158 0.009110 0.909704 0.000000
36.299000 6.964200 -738.618103 0.908575 0.157335 0.386959 0.000000
36.298500 33.524502 -736.657410 0.240875 0.042795 -0.969612 0.000000
36.297199 28.257601 -743.959412 0.261230 0.230497 0.937353 0.000000
36.296398 13.056800 -737.498596 -0.249549 0.005970 0.968344 0.000000
36.296200 29.902599 -744.657593 0.250061 0.343651 0.905192 0.000000
36.296101 18.103201 -741.356323 0.839908 0.184151 0.510532 0.000000
36.296101 -0.521700 -737.214905 -0.786037 0.369615 0.495510 0.000000
36.294998 26.171400 -743.276917 0.068125 0.296923 0.952468 0.000000
36.294399 22.854900 -742.597229 -0.378356 0.320148 0.868534 0.000000
36.293701 19.715599 -741.807678 0.520597 0.770354 0.368148 0.000000
36.292599 1.891200 -737.115417 0.602377 0.012406 -0.798115 0.000000
36.291698 18.648800 -737.841675 -0.760666 0.026616 0.648597 0.000000
36.291401 39.862400 -749.072510 -0.094564 0.225693 0.969598 0.000000
36.291401 25.136299 -737.456726 0.821795 0.034763 -0.568721 0.000000
36.291100 11.825400 -739.559570 0.774816 0.040928 0.630861 0.000000
36.290600 44.582901 -749.690186 0.486401 0.871063 -0.068291 0.000000
36.288898 6.198600 -738.549683 0.586327 0.572809 0.572809 0.000000
36.288200 41.611599 -749.674377 -0.008512 0.273587 0.961810 0.000000
36.287300 2.970400 -738.336182 0.745738 0.079952 0.661425 0.000000
36.286098 7.501600 -738.908875 0.744573 0.162259 0.647521 0.000000
36.285500 25.024300 -738.987976 0.929333 0.110214 0.352412 0.000000
36.285099 31.109200 -736.948486 0.574517 0.131445 -0.807869 0.000000
36.285099 -0.691400 -736.532776 -0.130399 0.299782 0.945054 0.000000
36.284599 4.041900 -738.360229 0.735007 0.070757 0.674358 0.000000
36.284401 15.434100 -740.524780 0.495091 0.329530 0.803925 0.000000
36.283199 21.239799 -737.729370 -0.833302 0.023415 0.552321 0.000000
36.283001 1.149800 -736.258484 -0.435639 0.535024 0.723856 0.000000
36.282299 4.814200 -738.339417 0.746082 0.064689 0.662705 0.000000
36.281502 4.314800 -736.990417 0.515204 0.224733 -0.827079 0.000000
36.281399 4.856400 -736.872314 0.508312 0.291139 -0.810467 0.000000
36.280602 42.448601 -749.997314 0.054571 0.209797 0.976221 0.000000
36.279598 13.737300 -740.192322 0.499906 0.380188 0.778172 0.000000
36.279202 30.589399 -737.027100 0.598411 0.178153 -0.781131 0.000000
36.278198 -0.427700 -736.555115 0.484495 0.790322 -0.375041 0.000000
36.278000 23.690300 -742.555481 0.188588 0.223364 0.956317 0.000000
36.277100 7.395800 -736.529114 0.809879 0.584522 -0.049297 0.000000
36.276901 25.921301 -739.101624 -0.499367 0.806913 0.315473 0.000000
36.276798 28.768801 -744.229797 0.267285 0.139626 0.953448 0.000000
36.276699 14.763800 -740.320801 0.495720 0.154453 0.854638 0.000000
