ply
format ascii 1.0
element vertex 694
property float x
property float y
property float z
property float nx
property float ny
property float nz
property float label
element face 0
property list uchar int vertex_indices
end_header
38.136700 35.460899 -741.370178 -0.983930 0.112277 -0.138837 0.000000
38.133701 25.790199 -740.995117 -0.847394 0.129807 -0.514854 0.000000
38.129101 8.654300 -740.801575 -0.452351 0.296904 -0.840968 0.000000
38.121300 42.507702 -747.904297 0.001379 0.765161 0.643838 1.000000
38.119400 29.007900 -738.053284 -0.237160 0.658081 0.714622 0.000000
38.113899 183.077896 -761.498108 0.998859 0.011339 -0.046387 0.000000
38.111000 185.491898 -759.125122 0.919484 0.201003 -0.337857 0.000000
38.109600 28.956400 -740.818787 0.871352 0.468297 0.146434 0.000000
38.108601 16.057800 -737.269775 -0.105877 0.127290 0.986198 0.000000
38.106998 30.570299 -739.229187 0.914080 0.162472 -0.371566 0.000000
38.106300 186.266098 -758.484802 0.931756 0.246683 -0.266417 0.000000
38.099602 20.407600 -737.580322 -0.451737 0.517926 0.726420 0.000000
38.098801 5.029100 -736.268127 0.435141 0.236391 -0.868776 0.000000
38.098400 31.738199 -739.539673 0.946369 0.024007 -0.322195 0.000000
38.095901 47.897598 -761.861694 0.410499 0.884722 0.220810 1.000000
38.090698 31.299900 -740.780090 0.124429 0.979418 -0.158924 0.000000
38.089699 38.345100 -743.686584 0.909144 0.282552 0.305976 1.000000
38.088001 8.850300 -734.868225 -0.064963 0.284052 -0.956606 0.000000
38.086498 2.827900 -739.994995 0.076571 0.466386 -0.881261 0.000000
38.083801 0.481900 -739.847412 0.278846 0.387370 -0.878743 0.000000
38.082802 19.237900 -740.543579 0.775022 0.049772 0.629972 0.000000
38.082401 5.566400 -740.214417 0.045240 0.032615 0.998444 0.000000
38.081600 33.970299 -740.794922 -0.997690 0.026506 -0.062554 0.000000
38.080898 27.745300 -738.706909 0.415245 0.892705 -0.175069 0.000000
38.077499 183.006500 -762.584717 0.992760 0.115022 0.034618 0.000000
38.075901 13.236000 -740.572021 -0.783676 0.004132 -0.621156 0.000000
38.073299 46.598900 -754.562500 0.665785 0.726726 0.169112 1.000000
38.070999 40.518501 -746.454407 -0.044620 0.949758 0.309787 1.000000
38.067799 183.708893 -760.304626 0.915673 0.362010 -0.174617 0.000000
38.067699 25.942400 -738.364807 -0.889023 0.053259 0.454754 0.000000
38.063202 13.655700 -737.129211 0.001061 0.088049 0.996116 0.000000
38.061100 10.129100 -735.243286 -0.834452 0.383312 -0.395931 0.000000
38.059700 28.905500 -738.853821 0.516151 0.825535 -0.228209 0.000000
38.058102 15.253000 -740.462524 0.880445 0.079533 0.467431 0.000000
38.055500 24.677000 -740.779907 -0.914870 0.011679 -0.403581 0.000000
38.053600 17.766199 -740.668579 -0.866018 0.042546 -0.498200 0.000000
38.053299 7.566500 -736.779419 0.406134 0.024973 -0.913472 0.000000
38.050800 10.145500 -734.497375 0.810227 0.354972 -0.466398 0.000000
38.048599 33.307499 -740.577698 -0.991655 0.126333 -0.025714 0.000000
38.046600 28.087900 -740.665222 -0.638842 0.638842 -0.428675 0.000000
38.045601 37.566601 -742.604309 0.827011 0.548901 0.121490 1.000000
38.044899 39.282902 -745.676575 -0.407917 0.748666 0.522592 1.000000
38.043701 12.228100 -737.004700 0.100209 0.034137 -0.994381 0.000000
38.042099 32.345200 -739.867310 0.972770 0.057655 -0.224485 0.000000
38.041801 27.032000 -740.698975 0.940844 0.332753 0.063941 0.000000
38.041199 4.329500 -740.218384 -0.068409 0.921509 0.382285 0.000000
38.034698 9.592800 -740.407715 0.257524 0.192121 0.946980 0.000000
38.033798 39.040401 -744.447388 0.855563 0.391424 0.338821 1.000000
38.028000 25.021799 -738.310730 -0.871573 0.103793 0.479152 0.000000
38.027500 29.818001 -740.773010 0.931708 0.040396 0.360955 0.000000
38.027401 18.573000 -740.528381 0.801766 0.043681 0.596040 0.000000
38.026600 32.549198 -740.521179 -0.980673 0.155488 -0.118758 0.000000
38.025700 9.396800 -737.037781 0.270193 0.924948 0.267334 0.000000
38.020500 24.008400 -738.150574 -0.812652 0.153584 0.562146 0.000000
38.019100 47.695202 -758.763611 0.735722 0.676864 0.023823 1.000000
38.018002 189.235992 -767.412415 0.318346 0.427050 0.846336 0.000000
38.016800 183.485001 -760.916077 0.957757 0.287450 0.008562 0.000000
38.015499 19.883400 -740.589783 -0.818720 0.150074 -0.554234 0.000000
38.011398 185.005997 -759.604675 0.951266 0.016208 -0.307946 0.000000
38.009499 -0.477900 -740.315186 -0.047241 0.948641 0.312809 0.000000
38.005299 11.329500 -736.946777 -0.347683 0.142675 0.926693 0.000000
38.002800 1.438000 -739.728699 0.015148 0.576995 -0.816607 0.000000
38.002701 22.875999 -740.614624 -0.606901 0.589996 -0.532518 0.000000
38.001900 9.394300 -736.174927 -0.989196 0.142289 -0.035288 0.000000
37.998798 22.286501 -737.910522 -0.824921 0.115343 0.553354 0.000000
37.998699 183.446503 -762.021179 0.971526 0.231549 -0.050230 0.000000
37.998600 47.962200 -760.062927 0.603204 0.789032 0.116511 1.000000
37.994900 7.662200 -740.335999 0.119938 0.427542 0.896004 0.000000
37.989899 18.974300 -737.556519 -0.778622 0.082647 0.622027 0.000000
37.985901 23.692699 -740.619080 0.918458 0.051838 0.392106 0.000000
37.978600 15.100100 -736.630676 0.837839 0.519371 0.168163 0.000000
37.976398 36.540798 -741.575623 0.114270 0.973180 -0.199659 1.000000
37.975601 183.611603 -763.221008 0.938496 0.319170 0.131743 0.000000
37.974400 29.413900 -739.306396 -0.921961 0.184957 0.340264 0.000000
37.971199 10.536300 -740.574707 -0.858156 0.250612 -0.448064 0.000000
37.970699 185.927902 -765.256104 0.904252 0.283774 0.319061 0.000000
37.970699 2.504200 -736.455994 -0.005295 0.083658 0.996481 0.000000
37.969299 190.959793 -768.406677 0.454942 0.276050 0.846655 0.000000
37.964401 16.765699 -737.353394 -0.363256 0.037758 0.930924 0.000000
37.964100 184.966705 -764.509888 0.867443 0.449398 0.213502 0.000000
37.957500 30.649799 -740.492615 0.364742 0.924833 -0.107920 0.000000
37.949799 184.459000 -763.991882 0.963009 0.218212 0.158106 0.000000
37.949501 29.909401 -740.088379 -0.233615 0.961866 -0.142257 0.000000
37.948799 46.458599 -753.536499 0.539139 0.792108 0.286171 1.000000
37.948399 25.927601 -740.384827 -0.232614 0.914561 -0.330860 0.000000
37.947498 31.421499 -740.098206 0.999827 0.011009 0.015012 0.000000
37.946701 13.841000 -740.343201 -0.860978 0.051298 -0.506050 0.000000
37.943401 21.475599 -740.515320 0.838138 0.105308 0.535196 0.000000
37.941898 28.341499 -739.156311 -0.819179 0.527164 0.225928 0.000000
37.940201 16.604000 -740.478271 0.795674 0.043656 0.604149 0.000000
37.939800 47.664001 -757.875916 0.639367 0.760449 0.113698 1.000000
37.935799 48.070301 -761.224121 0.750045 0.661315 -0.009705 1.000000
37.935501 184.477402 -760.351379 0.945853 0.315284 -0.077186 0.000000
37.931000 3.575800 -740.138489 -0.040417 0.929594 0.366362 0.000000
37.924599 18.301901 -737.497925 -0.607909 0.035099 0.793230 0.000000
37.923801 27.139000 -738.854675 0.901455 0.146220 -0.407429 0.000000
37.920101 186.249207 -759.162476 0.947707 0.118297 -0.296408 0.000000
37.918598 184.156494 -761.346985 0.998536 0.052882 0.011406 0.000000
37.917000 -0.746200 -735.671021 -0.040053 0.849406 0.526218 0.000000
37.915901 29.096001 -740.214783 0.941478 0.291899 0.168562 0.000000
37.914398 45.961601 -752.514587 0.524958 0.762245 0.378685 1.000000
37.912601 0.224100 -736.444580 0.357609 0.029693 0.933399 0.000000
37.905899 15.106500 -737.277283 -0.410888 0.417283 0.810584 0.000000
37.901699 23.128700 -738.089111 -0.821445 0.205742 0.531882 0.000000
37.896301 186.967499 -765.894409 0.893394 0.317684 0.317684 0.000000
37.891499 187.217102 -758.270630 0.933691 0.237284 -0.268173 0.000000
37.886299 21.648800 -737.967224 -0.832895 0.214695 0.510091 0.000000
37.883801 12.167100 -740.257324 0.657236 0.620631 0.427619 0.000000
37.881001 42.755501 -748.556030 0.276143 0.876717 -0.393844 1.000000
37.874699 47.368900 -756.777527 0.499723 0.827714 0.255276 1.000000
37.872799 25.241100 -740.519775 -0.986024 0.007924 -0.166413 0.000000
37.872299 28.226000 -739.974609 0.242299 0.960027 -0.140140 0.000000
37.863602 39.919701 -746.025330 0.976427 0.215817 0.003500 1.000000
37.862000 38.206799 -743.007080 0.823180 0.388592 0.413969 1.000000
37.861301 37.127300 -742.163818 0.877715 0.253562 0.406599 1.000000
37.860298 24.454901 -738.644775 -0.941021 0.080508 0.328631 0.000000
37.853699 5.896600 -736.150208 0.341642 0.147999 -0.928104 0.000000
37.851898 10.613500 -737.109070 -0.090306 0.027201 0.995543 0.000000
37.849800 45.446301 -751.561523 0.464505 0.759949 0.454657 1.000000
37.846401 26.202400 -738.932800 -0.807441 0.567755 0.160290 0.000000
37.844799 184.046005 -762.338623 0.997827 0.005213 -0.065688 0.000000
37.844398 17.335501 -740.222778 -0.789375 0.026545 -0.613337 0.000000
37.843601 188.722000 -766.908997 0.783196 0.217812 0.582376 0.000000
37.841999 25.483601 -738.792114 -0.936845 0.032128 0.348265 0.000000
37.840401 27.547100 -740.285217 -0.935919 0.244822 -0.253216 0.000000
37.836498 47.083000 -755.437317 0.667452 0.722689 0.179522 1.000000
37.835499 27.731100 -739.360229 0.412846 0.893776 -0.175279 0.000000
37.828899 44.783501 -750.565979 0.446050 0.673252 0.589722 1.000000
37.827499 5.079200 -740.657410 0.587995 0.756904 -0.285233 0.000000
37.824100 9.540800 -735.523193 -0.944135 0.199272 -0.262489 0.000000
37.823101 185.683807 -759.759827 -0.966752 0.040641 0.252464 0.000000
37.821899 4.439100 -736.382080 0.056550 0.039478 -0.997619 0.000000
37.819801 184.271698 -763.369629 0.898001 0.406615 0.168106 0.000000
37.817902 6.897200 -735.960571 0.508312 0.291139 -0.810467 0.000000
37.814301 39.850201 -744.891724 0.813519 0.491271 0.311191 1.000000
37.813801 19.763000 -737.845825 -0.823729 0.108959 0.556416 0.000000
37.811798 22.064600 -740.205811 0.886571 0.408619 0.216848 0.000000
37.805000 8.292000 -740.345093 0.105918 0.549905 0.828484 0.000000
37.802601 23.830299 -740.005920 -0.945059 0.263960 -0.192841 0.000000
37.799000 8.950000 -740.333679 -0.494655 0.196960 -0.846477 0.000000
37.796700 39.000702 -743.768372 0.771085 0.514597 0.374991 1.000000
37.795300 8.524400 -735.538818 0.919404 0.030166 -0.392157 0.000000
37.792900 2.238500 -740.258728 0.566025 0.586300 0.579542 0.000000
37.790798 -0.880600 -739.820679 -0.008947 0.369392 -0.929231 0.000000
37.787201 24.868700 -739.992676 -0.976981 0.110485 -0.182486 0.000000
37.786499 48.201000 -762.389709 0.494074 0.867743 0.053974 1.000000
37.781502 8.567300 -736.793030 -0.607227 0.405370 0.683338 0.000000
37.781200 26.056200 -739.776672 0.714219 0.696904 -0.064929 0.000000
37.779900 40.545700 -745.826416 0.448325 0.726253 0.521116 1.000000
37.773499 17.524099 -737.585022 -0.623386 0.037994 0.780991 0.000000
37.767502 194.142303 -768.977173 0.182373 0.982462 0.038828 0.000000
37.766602 0.376900 -740.413513 -0.763566 0.475798 -0.436557 0.000000
37.765202 185.183899 -760.303772 0.889315 0.392127 -0.235276 0.000000
37.761600 23.043900 -739.998230 0.008660 0.951334 -0.308039 0.000000
37.760700 27.007200 -739.905518 -0.951850 0.254455 -0.170983 0.000000
37.758400 42.058201 -747.357178 0.064772 0.726882 0.683701 1.000000
37.755901 47.996700 -759.265320 0.721192 0.689396 0.067928 1.000000
37.755100 186.900894 -759.001770 0.949515 0.235002 -0.207834 0.000000
37.753899 16.015400 -740.109314 0.805199 0.040752 0.591603 0.000000
37.752399 20.471600 -740.199524 0.889798 0.172734 0.422400 0.000000
37.750000 23.685499 -738.693115 0.463515 0.862943 -0.201204 0.000000
37.748199 24.965500 -739.232178 0.988811 0.028381 -0.146448 0.000000
37.742802 21.002100 -738.155884 0.905911 0.075151 -0.416746 0.000000
37.742100 6.927400 -740.245789 0.267799 0.056577 0.961812 0.000000
37.737801 185.566803 -764.602722 0.591446 0.690849 0.415835 0.000000
37.736099 14.737400 -740.134521 -0.760471 0.012512 -0.649251 0.000000
37.728001 187.989395 -766.394897 0.897675 0.313073 0.310106 0.000000
37.727501 39.553398 -744.186279 0.590919 0.706140 0.390105 1.000000
37.724300 3.452600 -736.440430 -0.173497 0.017235 -0.984684 0.000000
37.722301 184.752197 -761.607422 -0.995481 0.090300 0.029375 0.000000
37.714699 12.776100 -740.155884 0.812555 0.078819 0.577530 0.000000
37.711498 18.150200 -740.089783 -0.738314 0.092107 -0.668138 0.000000
37.706902 192.977798 -768.536621 -0.572590 0.807575 -0.141289 0.000000
37.692902 36.167999 -740.512512 0.182513 0.962460 0.200896 1.000000
37.692001 189.998398 -767.521423 0.372617 0.541840 0.753370 0.000000
37.684299 11.518900 -740.270691 -0.890694 0.190967 -0.412547 0.000000
37.679298 184.933701 -760.928528 0.977237 0.163080 -0.135693 0.000000
37.676498 22.857599 -738.641479 -0.914502 0.100389 0.391929 0.000000
37.673302 8.842300 -736.159729 -0.901412 0.372545 -0.220605 0.000000
37.672401 1.926700 -736.411377 -0.137805 0.948578 -0.284975 0.000000
37.672298 41.181702 -746.516113 0.315675 0.469586 0.824523 1.000000
37.669899 47.293499 -756.159607 0.716740 0.667203 0.202792 1.000000
37.667500 47.720501 -757.275879 0.566839 0.773251 0.284213 1.000000
37.667500 22.187401 -739.591614 -0.888694 0.393162 -0.235897 0.000000
37.666599 21.405399 -739.940918 -0.628523 0.712542 -0.311838 0.000000
37.663399 48.249599 -760.566711 0.634356 0.757913 0.152185 1.000000
37.662899 10.742800 -740.003784 0.859353 0.009443 0.511295 0.000000
37.662899 7.590400 -735.634705 0.342170 0.336087 -0.877476 0.000000
37.660999 24.202801 -739.244324 -0.990429 0.070333 0.118759 0.000000
37.660500 186.646194 -759.623779 0.928236 0.257291 -0.268662 0.000000
37.656101 186.586594 -765.337524 0.930700 0.150737 0.333282 0.000000
37.653900 43.897999 -749.383118 0.129888 0.736032 0.664369 1.000000
37.650799 191.436996 -768.089111 0.263611 0.249514 0.931800 0.000000
37.649502 184.658798 -762.701782 -0.997609 0.024384 0.064670 0.000000
37.649300 22.072599 -738.403381 -0.921058 0.134755 0.365367 0.000000
37.642101 14.238000 -737.325623 -0.393476 0.094599 0.914455 0.000000
37.641499 187.776993 -758.523621 0.949433 0.185553 -0.253272 0.000000
37.637001 19.507000 -739.995422 0.927598 0.172088 0.331585 0.000000
37.632801 5.951200 -740.547913 -0.325172 0.898308 -0.295476 0.000000
37.630199 46.418098 -752.979919 0.561211 0.734646 0.381231 1.000000
37.630100 184.985596 -763.733704 0.929623 0.329328 0.165359 0.000000
37.629002 48.384300 -761.709778 0.754913 0.650185 -0.085819 1.000000
37.627800 23.165701 -739.299927 0.878997 0.476403 0.020130 0.000000
37.626801 44.410801 -749.971680 0.192239 0.742811 0.641309 1.000000
37.619598 13.050800 -737.349487 0.522313 0.054321 -0.851022 0.000000
37.610500 46.932499 -754.240784 0.560046 0.785947 0.261982 1.000000
37.608002 11.831500 -737.264099 0.515191 0.083736 -0.852975 0.000000
37.605999 15.742500 -737.627380 -0.910831 0.115418 0.396316 0.000000
37.601299 0.064000 -739.689575 -0.226048 0.762327 -0.606432 0.000000
37.598900 186.040802 -760.256226 0.931568 0.316093 -0.179630 0.000000
37.595699 186.212097 -764.757080 0.928749 0.292620 0.227593 0.000000
37.594398 9.945400 -737.128174 -0.280979 0.003649 0.959707 0.000000
37.593399 43.320202 -748.773376 0.061877 0.735323 0.674886 1.000000
37.587799 190.594101 -767.745728 0.427480 0.339792 0.837736 0.000000
37.580399 42.185398 -748.052490 -0.145291 0.928481 0.341781 1.000000
37.579498 19.061399 -738.065613 -0.937128 0.072492 0.341373 0.000000
37.577099 9.724000 -734.872070 0.998488 0.005163 -0.054726 0.000000
37.571098 38.749500 -743.182190 0.691581 0.514081 0.507383 1.000000
37.570900 13.409400 -739.977112 -0.747488 0.061693 -0.661405 0.000000
37.568802 10.523400 -734.987793 0.722640 0.677569 -0.136716 0.000000
37.565399 41.377998 -747.159424 -0.212967 0.874206 -0.436358 1.000000
37.563999 187.572693 -765.893799 0.407791 0.345294 0.845268 0.000000
37.563801 1.617200 -740.506714 0.211134 0.462698 -0.861007 0.000000
37.562698 9.983400 -740.040527 0.726569 0.123830 0.675843 0.000000
37.562599 40.383499 -745.213989 0.809129 0.467603 0.355889 1.000000
37.562302 185.084198 -762.160889 0.980874 0.189041 -0.046369 0.000000
37.562000 45.238899 -750.999329 0.309854 0.756173 0.576361 1.000000
37.560600 38.363098 -742.452087 0.753475 0.587102 -0.295951 1.000000
37.559799 16.630800 -739.962219 0.685875 0.012521 0.727612 0.000000
37.559502 48.150902 -758.655273 0.664264 0.725628 0.179489 1.000000
37.558201 21.781099 -739.102722 -0.998599 0.052667 -0.005163 0.000000
37.553799 195.033203 -769.340881 -0.863477 0.246492 -0.440056 0.000000
37.553799 16.401899 -737.704529 -0.877490 0.127401 0.462364 0.000000
37.553501 20.469400 -738.506775 -0.944000 0.077248 0.320777 0.000000
37.551102 47.180099 -754.869019 0.611794 0.758127 0.225726 1.000000
37.546101 187.523499 -759.143677 0.984742 0.099554 -0.142734 0.000000
37.545601 0.972100 -740.124084 0.202559 0.876771 -0.436168 0.000000
37.542702 18.015100 -737.954529 -0.855724 0.113617 0.504805 0.000000
37.542400 21.187401 -738.742676 0.444371 0.892870 -0.072915 0.000000
37.542000 15.348600 -739.897888 -0.780785 0.023745 -0.624349 0.000000
37.536400 14.180200 -739.887390 -0.641026 0.126421 -0.757036 0.000000
37.531399 20.632000 -739.576477 0.916611 0.382958 0.114749 0.000000
37.530399 5.331100 -735.931213 -0.463621 0.028220 0.885584 0.000000
37.522099 45.894501 -751.975891 0.528724 0.724302 0.442537 1.000000
37.515499 5.096900 -739.987488 0.318402 0.023912 0.947654 0.000000
37.514301 10.400900 -734.229370 0.599624 0.760153 0.250237 0.000000
37.513500 -0.229100 -736.024902 0.328629 0.275577 0.903361 0.000000
37.504601 0.955000 -736.357422 0.119426 0.487777 0.864761 0.000000
37.500999 18.830999 -739.938721 0.840403 0.072277 0.537121 0.000000
37.500599 48.343498 -759.869385 0.710113 0.698400 0.089313 1.000000
37.493198 185.775208 -760.888184 0.974431 0.155052 -0.162615 0.000000
37.490002 189.464706 -767.014709 0.845451 0.319185 0.428175 0.000000
37.488701 185.525803 -761.684570 0.989903 0.125610 -0.065686 0.000000
37.480000 185.582199 -763.997925 -0.538615 0.805595 -0.246801 0.000000
37.478600 8.000100 -736.854492 -0.933124 0.326662 0.150237 0.000000
37.469101 3.059700 -739.844910 0.521810 0.120641 0.844488 0.000000
37.469002 36.937901 -741.277588 0.274853 0.754654 0.595779 1.000000
37.468201 37.752701 -742.126526 0.548770 0.468706 0.692218 1.000000
37.465900 6.282300 -740.019592 -0.532328 0.031637 -0.845947 0.000000
37.451099 185.409897 -763.178589 0.993746 0.105481 -0.036641 0.000000
37.449699 9.150300 -736.780212 0.816122 0.239128 0.526082 0.000000
37.449200 19.731400 -738.406982 -0.945644 0.118706 0.302766 0.000000
37.447201 2.869500 -736.399780 -0.313934 0.016260 -0.949306 0.000000
37.445400 187.264999 -759.768616 0.954838 0.268094 -0.128104 0.000000
37.443901 20.314899 -737.642395 -0.142238 0.624350 0.768085 0.000000
37.441200 192.344803 -768.308777 -0.584042 0.584042 -0.563728 0.000000
37.441200 48.081001 -757.959717 0.514258 0.832825 0.204793 1.000000
37.441101 10.121500 -735.546387 -0.082315 0.947277 -0.309662 0.000000
37.438099 48.628799 -761.146729 0.641361 0.764755 0.061697 1.000000
37.438000 19.658100 -739.372375 0.982922 0.046019 0.178177 0.000000
37.432899 3.925600 -739.882690 -0.264032 0.030701 -0.964025 0.000000
37.431702 8.841700 -735.093628 -0.207025 0.568936 -0.795897 0.000000
37.430801 11.049800 -737.361694 0.813727 0.004103 -0.581233 0.000000
37.422901 12.445500 -737.205383 -0.112538 0.252240 0.961098 0.000000
37.421001 17.301500 -739.669983 -0.939831 0.094382 -0.328343 0.000000
37.420200 18.347900 -739.459717 -0.966453 0.063763 -0.248802 0.000000
37.415798 6.403700 -736.134521 -0.197771 0.309982 0.929945 0.000000
37.415199 8.025100 -736.075317 -0.956804 0.228192 0.180151 0.000000
37.411201 48.560799 -762.920105 0.022297 0.979883 0.198324 1.000000
37.410000 11.915800 -739.758911 -0.829391 0.105664 -0.548585 0.000000
37.407001 46.798302 -753.478088 0.610776 0.711758 0.346921 1.000000
37.401600 186.657394 -760.334778 0.840132 0.462614 -0.283138 0.000000
37.397999 47.564899 -755.622803 0.717851 0.671736 0.182921 1.000000
37.396500 188.583099 -766.380005 0.817456 0.282905 0.501727 0.000000
37.386002 187.223007 -765.307190 0.960686 0.172634 0.217439 0.000000
37.378700 188.417999 -758.774597 0.970324 0.238004 -0.042719 0.000000
37.375099 7.543300 -740.151917 -0.820750 0.222446 -0.526201 0.000000
37.365200 47.822498 -756.717285 0.650054 0.748683 0.130011 1.000000
37.363701 16.267000 -739.471375 0.980259 0.071138 0.184477 0.000000
37.361599 19.116800 -738.715027 -0.989988 0.068156 0.123604 0.000000
37.354801 17.252001 -738.157227 -0.920407 0.088110 0.380905 0.000000
37.351700 40.027699 -744.411926 0.713174 0.608728 0.347611 1.000000
37.351101 14.558100 -737.820618 0.871947 0.159200 -0.462994 0.000000
37.347900 186.035004 -762.241882 0.950175 0.297503 -0.093052 0.000000
37.347900 186.402603 -761.047424 0.964540 0.149693 -0.217380 0.000000
37.347401 41.114498 -745.884521 0.743639 0.578386 0.335367 1.000000
37.343498 14.811000 -739.588013 0.928660 0.320759 0.186292 0.000000
37.342701 8.840000 -739.737122 -0.840421 0.020565 -0.541544 0.000000
37.339802 18.473101 -738.398987 0.976984 0.089937 -0.193426 0.000000
37.339600 187.908401 -759.655212 0.983565 0.161731 -0.080267 0.000000
37.339401 48.653198 -762.273987 0.811217 0.562304 -0.160444 1.000000
37.336102 2.438100 -739.737671 0.178573 0.068313 0.981552 0.000000
37.333599 39.313702 -743.428772 0.622347 0.622347 0.474729 1.000000
37.330399 4.654900 -735.952881 0.439927 0.821091 0.363694 0.000000
37.327202 48.470501 -759.204773 0.716419 0.686630 0.123623 1.000000
37.324699 42.890499 -748.263184 0.048822 0.843917 0.534248 1.000000
37.322300 13.726700 -737.624084 -0.760200 0.546241 0.351734 0.000000
37.319099 15.233900 -737.998230 0.916785 0.243995 -0.316183 0.000000
37.318501 186.212097 -764.159912 0.984068 0.131612 0.119537 0.000000
37.310799 8.699600 -737.269104 -0.735674 0.009735 0.677265 0.000000
37.305901 -0.455400 -735.397522 -0.193352 0.024608 0.980821 0.000000
37.304501 17.971600 -738.905823 -0.999110 0.036162 -0.021697 0.000000
37.300800 16.827900 -739.154175 -0.748111 0.576838 -0.328006 0.000000
37.299500 4.436300 -740.334229 0.305974 0.929203 -0.207273 0.000000
37.291100 11.247100 -739.604370 -0.808053 0.196307 -0.555441 0.000000
37.289902 7.376300 -736.867676 0.748472 0.076729 0.658713 0.000000
37.289101 187.323303 -760.476929 0.952019 0.228214 -0.203908 0.000000
37.283600 12.540700 -739.523621 -0.923046 0.197087 -0.330368 0.000000
37.283199 16.585100 -738.314087 -0.964266 0.056280 0.258889 0.000000
37.281300 1.656400 -739.873291 -0.894039 0.087325 -0.439396 0.000000
37.277199 -0.492600 -739.659424 0.325857 0.050231 0.944084 0.000000
37.276501 186.003799 -763.512512 0.983356 0.157674 0.090271 0.000000
37.271198 46.309898 -752.432373 0.569967 0.733281 0.370724 1.000000
37.271198 15.538400 -739.263672 -0.977523 0.032148 -0.208364 0.000000
37.270302 41.683899 -746.606079 0.740662 0.606287 0.289546 1.000000
37.268600 186.746399 -764.585999 0.977725 0.105065 0.181701 0.000000
37.265598 13.988200 -739.336304 -0.558850 0.780490 -0.280217 0.000000
37.263500 12.430000 -737.845581 -0.930544 0.016686 0.365800 0.000000
37.253201 9.428800 -737.410278 -0.794751 0.070167 0.602865 0.000000
37.239899 0.658100 -739.654419 -0.277868 0.443668 -0.852026 0.000000
37.235699 7.178800 -736.103516 -0.192948 0.967329 0.164459 0.000000
37.234299 13.106300 -737.957825 0.885617 0.268233 -0.379122 0.000000
37.233898 4.062800 -736.247375 -0.454020 0.025447 -0.890628 0.000000
37.225899 45.680401 -751.414612 0.234612 0.793950 0.560892 1.000000
37.224499 -1.154700 -739.968018 -0.280959 0.161517 -0.946031 0.000000
37.224300 10.400900 -737.429321 -0.960380 0.075050 0.268398 0.000000
37.223000 15.751500 -738.421692 -0.993091 0.027678 0.114034 0.000000
37.214699 13.158300 -739.338623 -0.991134 0.081731 -0.104754 0.000000
37.212200 44.808201 -750.343323 0.233874 0.685925 0.689064 1.000000
37.203800 187.074905 -761.102112 -0.998655 0.038691 0.034509 0.000000
37.203499 11.543200 -737.780579 0.938252 0.013928 -0.345672 0.000000
37.202900 36.524700 -740.801575 0.253389 0.590193 0.766464 1.000000
37.201500 7.993100 -739.708984 0.666532 0.052809 0.743604 0.000000
37.198700 188.007599 -760.315979 0.986949 0.079003 -0.140319 0.000000
37.196800 6.879700 -739.829407 0.742091 0.061721 0.667451 0.000000
37.196499 193.494598 -768.757385 -0.069570 0.261838 0.962601 0.000000
37.193501 188.091095 -765.784607 0.919578 0.319916 0.228101 0.000000
37.192902 14.358500 -738.746826 -0.999120 0.003062 -0.041843 0.000000
37.192501 10.509800 -739.466919 -0.899122 0.227347 -0.374023 0.000000
37.191898 42.546001 -747.661072 0.721467 0.570271 0.392780 1.000000
37.189602 186.489395 -761.743408 0.990592 0.126823 -0.051415 0.000000
37.188301 48.694599 -760.499023 0.697128 0.711743 0.086228 1.000000
37.186298 9.796100 -739.449585 -0.965885 0.074299 -0.248083 0.000000
37.184101 12.093200 -739.023071 -0.771751 0.594730 -0.225159 0.000000
37.179798 195.778595 -769.415222 0.670715 0.114007 0.732901 0.000000
37.178200 42.159599 -747.032288 0.735528 0.575702 0.357163 1.000000
37.177502 188.626297 -759.598694 0.995536 0.075903 -0.056102 0.000000
37.171600 189.006500 -759.005371 0.965575 0.242984 -0.092868 0.000000
37.169601 5.627700 -739.767395 -0.810840 0.015143 -0.585072 0.000000
37.167599 190.190399 -767.184875 0.769432 0.370947 0.519974 0.000000
37.164200 48.916199 -761.695984 0.658481 0.750295 0.058819 1.000000
37.162601 13.811200 -738.275696 -0.883061 0.454996 0.114812 0.000000
37.159801 14.984800 -738.599182 0.997746 0.011541 -0.066097 0.000000
37.157200 186.456802 -763.015076 0.964818 0.262692 -0.010895 0.000000
37.152699 16.223499 -738.856689 0.999884 0.014924 -0.002985 0.000000
37.150501 47.940102 -756.122620 0.707807 0.689620 0.153080 1.000000
37.144699 47.406200 -754.418579 0.593724 0.771373 0.229075 1.000000
37.144600 191.017899 -767.975403 0.384286 0.873377 0.299227 0.000000
37.144199 194.352295 -768.904419 -0.548770 0.698890 -0.458699 0.000000
37.143101 7.854900 -737.433716 -0.886579 0.148003 0.438260 0.000000
37.141300 0.427100 -740.262329 0.491419 0.329203 -0.806308 0.000000
37.141102 38.908199 -742.686096 0.801613 0.509540 0.312708 1.000000
37.137798 48.139801 -757.326172 0.615036 0.763014 0.198846 1.000000
37.136700 13.257300 -738.614197 -0.990839 0.131587 0.030366 0.000000
37.122200 3.432500 -736.210999 0.401697 0.003875 0.915765 0.000000
37.120800 6.955400 -737.334412 0.948682 0.188651 -0.253796 0.000000
37.119499 10.834500 -737.916016 -0.966714 0.006004 0.255789 0.000000
37.115299 40.960999 -745.299377 0.621890 0.605037 0.497175 1.000000
37.114899 5.790400 -736.214111 -0.994107 0.102839 -0.034280 0.000000
37.110500 0.484600 -735.659485 -0.986688 0.136217 -0.088837 0.000000
37.106701 11.394000 -738.958130 -0.983703 0.131886 -0.122207 0.000000
37.102600 49.206600 -762.793884 0.924733 0.326127 -0.196241 1.000000
37.101898 40.533699 -744.738708 0.626995 0.616910 0.475710 1.000000
37.100899 39.865700 -743.737000 0.650488 0.607011 0.456512 1.000000
37.098301 47.656300 -755.023010 0.560102 0.814014 0.153841 1.000000
37.094700 186.958496 -762.221375 0.998995 0.019629 -0.040290 0.000000
37.088001 6.656900 -736.759216 -0.919404 0.392157 -0.030166 0.000000
37.081001 191.788193 -767.957703 0.271431 0.413970 0.868881 0.000000
37.079601 4.449100 -739.548523 -0.860556 0.025912 -0.508696 0.000000
37.075401 186.811600 -763.955017 0.950532 0.278627 0.137314 0.000000
37.073101 11.846700 -738.379822 -0.953234 0.273675 0.128244 0.000000
37.064999 17.009199 -737.603027 0.423881 0.297487 0.855469 0.000000
37.059799 189.340698 -766.477295 0.843168 0.130055 0.521683 0.000000
37.059200 43.276901 -749.229492 -0.640892 0.576971 -0.506322 1.000000
37.058899 48.454399 -758.358521 0.584908 0.775198 0.238643 1.000000
37.058701 1.906600 -736.182373 -0.292619 0.144287 -0.945281 0.000000
37.054798 44.201199 -749.661499 0.304357 0.697282 0.648972 1.000000
37.051998 10.047500 -737.951172 -0.975327 0.001168 0.220763 0.000000
37.049099 48.790501 -759.781311 0.728564 0.678723 0.092353 1.000000
37.048801 46.850700 -752.912720 0.557074 0.751969 0.352435 1.000000
37.046101 8.943500 -739.101013 -0.720405 0.647892 -0.247492 0.000000
37.044899 10.388600 -738.797974 -0.993712 0.070899 -0.086654 0.000000
37.043598 14.994700 -737.422180 0.655434 0.058803 -0.752960 0.000000
37.041500 6.255000 -737.342285 -0.976199 0.136243 0.168741 0.000000
37.039398 187.702499 -760.967773 0.928212 0.339928 -0.151233 0.000000
37.038300 37.370300 -741.564575 0.311656 0.718585 0.621697 1.000000
37.028198 6.271200 -739.532776 -0.829281 0.111829 -0.547529 0.000000
37.026001 8.397200 -737.822388 -0.954919 0.062639 0.290183 0.000000
37.022701 9.051000 -737.898804 -0.831973 0.538508 0.133527 0.000000
37.022499 189.328705 -759.673523 -0.977274 0.202739 0.061914 0.000000
37.020000 5.157700 -736.355225 0.917306 0.043681 -0.395779 0.000000
37.017799 187.442200 -761.771118 0.993514 0.101928 -0.050404 0.000000
37.014400 188.675095 -760.407593 -0.988023 0.095387 0.121295 0.000000
37.009800 -0.008700 -739.135071 -0.388857 0.912909 -0.124044 0.000000
37.007702 3.459500 -739.640686 0.782458 0.043863 0.621156 0.000000
37.000702 187.348007 -764.719116 0.967329 0.192948 0.164459 0.000000
36.996601 0.147200 -736.263977 -0.328842 0.135084 -0.934674 0.000000
36.991699 43.403400 -748.538025 0.640012 0.688868 0.340362 1.000000
36.989700 9.720100 -738.819092 -0.989833 0.110498 -0.089562 0.000000
36.988800 5.686500 -737.019226 -0.987767 0.155010 0.016972 0.000000
36.986000 1.336000 -739.398682 0.912036 0.003881 0.410093 0.000000
36.985001 48.821499 -763.350708 0.821320 0.570092 -0.020706 1.000000
36.981300 7.544700 -735.616516 0.390709 0.019471 0.920308 0.000000
36.976799 47.296902 -753.735718 0.553029 0.786215 0.275727 1.000000
36.971199 6.971300 -739.172729 0.999735 0.009061 0.021142 0.000000
36.966499 189.886002 -759.355408 0.986471 0.156859 0.047639 0.000000
36.965401 187.850601 -765.179688 0.989908 0.105854 0.094222 0.000000
36.962200 9.783300 -736.732300 0.310871 0.815840 -0.487610 0.000000
36.960999 2.545400 -736.016479 0.293331 0.115474 0.949012 0.000000
36.955200 187.056702 -762.894714 0.951885 0.292988 -0.089850 0.000000
36.938599 38.319199 -742.150513 -0.018018 0.799704 0.600124 1.000000
36.938000 192.830994 -768.957581 -0.139724 0.533891 -0.833929 0.000000
36.937801 188.691696 -765.861572 0.884792 0.277906 0.374046 0.000000
36.932999 8.476800 -738.615112 0.999257 0.031902 -0.021611 0.000000
36.932201 5.665500 -737.671997 -0.960277 0.239742 0.142797 0.000000
36.931301 7.739100 -739.155701 0.983965 0.045739 0.172399 0.000000
36.927502 41.654400 -745.993713 0.590048 0.637117 0.495909 1.000000
36.926601 190.863205 -767.368713 0.809726 0.180107 0.558484 0.000000
36.926201 -0.969200 -739.325806 -0.811014 0.294485 -0.505506 0.000000
36.924301 188.423294 -761.035400 0.962500 0.185147 -0.198278 0.000000
36.921700 7.449400 -737.923401 -0.964141 0.117139 0.238139 0.000000
36.919399 45.238400 -750.765991 0.260788 0.757075 0.599022 1.000000
36.909698 187.569901 -762.475830 0.992110 0.118242 -0.041666 0.000000
36.906799 5.560900 -739.167175 -0.990714 0.005522 -0.135850 0.000000
36.905800 189.569901 -760.266174 0.962496 0.225932 -0.150186 0.000000
36.888500 196.376099 -769.595215 0.755690 0.434399 0.490133 0.000000
36.888302 6.356600 -738.037170 0.982239 0.026863 -0.185703 0.000000
36.885601 190.502502 -759.742676 0.994915 0.009701 -0.100246 0.000000
36.884701 48.306599 -756.737671 0.749107 0.650814 0.123610 1.000000
36.881901 3.978700 -739.151917 -0.977270 0.008193 -0.211839 0.000000
36.876301 6.657400 -735.833923 -0.324797 0.336883 -0.883751 0.000000
36.876202 195.184906 -769.210815 0.288949 0.240554 0.926630 0.000000
36.872101 49.033501 -761.093018 0.685050 0.723027 0.089100 1.000000
36.870098 46.126202 -751.835815 0.226932 0.734008 0.640105 1.000000
36.869900 -0.583000 -735.918701 -0.257963 0.910886 0.322089 0.000000
36.866798 43.099899 -747.849915 0.775255 0.523821 0.352975 1.000000
36.866402 48.015999 -755.514771 0.651091 0.734209 0.192403 1.000000
36.865299 6.302300 -738.875427 0.964077 0.244540 -0.103706 0.000000
36.853001 2.955500 -739.200073 0.987116 0.054775 0.150340 0.000000
36.847099 4.626600 -738.891602 0.931403 0.354120 -0.084187 0.000000
36.845402 187.447601 -763.397888 0.990560 0.109805 -0.082065 0.000000
36.845299 39.399300 -742.985229 0.724429 0.495662 0.479085 1.000000
36.842899 7.838400 -738.502686 -0.991496 0.123230 0.041831 0.000000
36.842499 7.092700 -738.516174 -0.999137 0.011272 -0.039965 0.000000
36.840401 4.393700 -737.720581 0.994820 0.100673 -0.014073 0.000000
36.835201 4.772300 -737.106995 -0.999382 0.031645 0.015312 0.000000
36.831799 187.432007 -764.077209 0.990430 0.127096 0.053815 0.000000
36.831299 2.010000 -739.462585 0.877475 0.012020 0.479472 0.000000
36.827599 188.165497 -761.668579 0.992316 0.074053 -0.099118 0.000000
36.826000 1.098400 -736.121887 0.041003 0.100846 -0.994057 0.000000
36.820301 189.050797 -760.909424 0.909800 0.380151 -0.166583 0.000000
36.819401 3.574900 -737.736816 -0.995847 0.024869 -0.087583 0.000000
36.814800 49.320099 -762.121277 0.703366 0.709072 0.049935 1.000000
36.808399 4.070200 -738.488586 -0.998123 0.051755 -0.032743 0.000000
36.807999 4.234000 -736.732483 -0.986578 0.113058 0.117818 0.000000
36.805500 40.308498 -744.132813 0.449144 0.796868 0.404068 1.000000
36.800800 5.138900 -738.103882 0.973172 0.188071 -0.132533 0.000000
36.799801 2.529700 -738.399597 -0.984091 0.121955 0.129200 0.000000
36.798698 5.671500 -738.508423 -0.998556 0.049041 -0.021912 0.000000
36.785801 192.351807 -768.200073 -0.553824 0.293574 -0.779162 0.000000
36.780701 48.864201 -759.111511 0.571173 0.801461 0.177261 1.000000
36.777000 -0.594600 -738.811584 0.984600 0.138253 0.106996 0.000000
36.776798 44.001701 -749.090698 0.771110 0.557179 0.308125 1.000000
36.771599 42.234600 -746.530579 0.522257 0.676751 0.518898 1.000000
36.771099 190.233902 -760.379272 0.979126 0.119767 -0.164217 0.000000
36.769299 49.149799 -760.302185 0.693845 0.716925 0.067798 1.000000
36.768501 190.092194 -766.632202 0.771236 0.301788 0.560463 0.000000
36.763199 188.216904 -762.755615 0.993663 0.038858 -0.105473 0.000000
36.759499 3.278100 -738.341187 -0.999852 0.002985 0.016913 0.000000
36.754002 48.553299 -757.750977 0.733196 0.667492 0.129915 1.000000
36.750099 2.609400 -737.732117 -0.960150 0.028421 -0.278036 0.000000
36.749001 3.665500 -737.072388 -0.991515 0.093062 -0.090764 0.000000
36.743698 0.756000 -738.448730 -0.969075 0.152742 0.193815 0.000000
36.736900 193.017899 -768.301208 0.187404 0.408222 0.893440 0.000000
36.732101 191.071594 -760.051514 0.985829 0.038228 -0.163339 0.000000
36.721901 42.699299 -747.158020 0.679680 0.508502 0.528640 1.000000
36.720501 49.207001 -763.836121 0.661583 0.749042 -0.035266 1.000000
36.720001 188.479202 -765.227173 0.979174 0.034336 0.200097 0.000000
36.716400 1.548500 -738.574585 -0.978430 0.206415 -0.008163 0.000000
36.699501 11.189900 -737.567017 -0.890077 0.300682 -0.342568 0.000000
36.690300 4.707700 -736.028198 0.467539 0.112266 -0.876814 0.000000
36.690102 189.764496 -760.901611 0.975650 0.123674 -0.181139 0.000000
36.687199 2.027300 -738.008118 -0.969488 0.126123 -0.210204 0.000000
36.685200 9.895000 -737.401184 -0.289992 0.819815 0.493770 0.000000
36.682400 -0.477200 -735.240295 -0.273073 0.247606 -0.929582 0.000000
36.673698 -0.037700 -738.409729 -0.959907 0.110111 -0.257789 0.000000
36.671299 3.021700 -736.524414 -0.956751 0.070255 0.282299 0.000000
36.670601 188.964706 -761.747375 0.976321 0.213906 -0.032265 0.000000
36.668800 44.498100 -750.113770 -0.648304 0.760808 -0.029532 1.000000
36.662201 49.654701 -763.284424 0.929435 0.368984 -0.001268 1.000000
36.658901 194.035904 -769.191772 0.427134 0.300690 -0.852726 0.000000
36.657501 188.099594 -764.576416 0.985554 0.120949 0.118554 0.000000
36.653702 47.873699 -754.544312 0.557471 0.781723 0.279525 1.000000
36.653099 46.565300 -752.313416 0.252114 0.787659 0.562167 1.000000
36.634998 188.114304 -763.586914 -0.995071 0.054236 0.083015 0.000000
36.627899 1.199800 -737.911316 0.968656 0.001189 0.248404 0.000000
36.618401 191.672195 -760.275391 0.954252 0.256863 -0.153053 0.000000
36.616699 41.435902 -745.423218 0.480149 0.677562 0.557106 1.000000
36.615601 48.387100 -756.095398 0.639263 0.751628 0.162473 1.000000
36.614799 190.799393 -760.690491 0.977023 0.117938 -0.177528 0.000000
36.604198 189.431793 -765.912170 0.935602 0.167220 0.310946 0.000000
36.594398 2.691100 -737.087708 -0.984572 0.160334 -0.070072 0.000000
36.593300 39.931900 -743.311523 0.678413 0.504203 0.534355 1.000000
36.592999 45.662102 -751.146973 0.114011 0.852919 0.509442 1.000000
36.583599 2.201700 -736.591309 -0.927129 0.006394 0.374688 0.000000
36.578201 191.607101 -767.446228 0.392158 0.730169 0.559523 0.000000
36.570099 37.946701 -741.738770 0.390168 0.447970 0.804420 1.000000
36.569099 47.266399 -753.213806 0.382137 0.769152 0.512226 1.000000
36.555199 40.846901 -744.573303 0.484299 0.717295 0.500942 1.000000
36.554699 0.771800 -739.111816 -0.828565 0.550931 -0.099775 0.000000
36.546902 3.774600 -736.053528 0.188360 0.061187 0.980192 0.000000
36.543900 49.629002 -762.647827 0.707925 0.705088 0.041142 1.000000
36.540699 1.735200 -737.423584 -0.988834 0.078035 -0.126953 0.000000
36.538399 0.599900 -736.491272 -0.929334 0.076000 0.361334 0.000000
36.535599 188.821594 -762.717224 0.994590 0.085568 0.058898 0.000000
36.533401 43.868000 -748.450195 0.634444 0.600786 0.486351 1.000000
36.532799 48.825199 -758.483704 0.699762 0.690535 0.183015 1.000000
36.528198 0.149100 -735.348511 -0.596626 0.094357 -0.796953 0.000000
36.526001 189.571701 -761.576782 0.953713 0.219260 -0.205808 0.000000
36.525101 48.708698 -757.133911 0.644695 0.756816 0.107695 1.000000
36.521000 190.348602 -761.162720 0.925314 0.238101 -0.295131 0.000000
36.517502 49.458599 -761.482422 0.689733 0.721412 0.061918 1.000000
36.516300 190.755798 -766.818970 0.522184 0.357284 0.774385 0.000000
36.513100 39.143398 -742.467773 0.577220 0.200573 0.791573 1.000000
36.505402 49.205002 -759.602722 0.568972 0.809633 0.144100 1.000000
36.503799 -0.257600 -736.406982 -0.869057 0.042560 0.492878 0.000000
36.501301 37.202999 -741.229675 0.165370 0.635687 0.754025 1.000000
36.498199 0.721000 -737.505005 -0.957978 0.110787 -0.264584 0.000000
36.494099 192.442001 -760.365417 0.986948 0.160138 -0.017036 0.000000
36.483398 195.832001 -769.243103 0.004043 0.521609 0.853175 0.000000
36.481998 189.089600 -765.219482 0.987847 0.118918 0.100080 0.000000
36.481400 188.752106 -763.387817 0.999632 0.027126 -0.001005 0.000000
36.477798 188.759201 -764.618225 0.924164 0.368849 0.099358 0.000000
36.471401 193.480301 -768.819885 0.044439 0.950996 -0.305995 0.000000
36.466900 197.167206 -769.870483 -0.093842 0.945024 0.313246 0.000000
36.465199 1.387400 -736.664673 -0.938235 0.083605 0.335747 0.000000
36.464699 -1.269800 -738.989075 -0.493225 0.826190 -0.272285 0.000000
36.462502 48.304501 -755.098694 0.645247 0.729614 0.226540 1.000000
36.459900 188.494705 -762.132813 0.975866 0.164106 -0.144062 0.000000
36.457802 47.734798 -753.938110 0.508544 0.768502 0.388313 1.000000
36.457100 49.463001 -760.820679 0.738407 0.673708 0.029536 1.000000
36.454700 -0.037600 -737.725830 -0.987765 0.078506 -0.134748 0.000000
36.451801 44.636002 -749.505676 0.768434 0.560749 0.308332 1.000000
36.443401 45.102798 -750.237427 0.735111 0.564840 0.374923 1.000000
36.437099 191.618301 -760.888184 0.914801 0.285604 -0.285604 0.000000
36.435600 -0.594300 -738.146179 -0.814090 0.474489 -0.334840 0.000000
36.420300 189.447006 -762.210388 0.946207 0.201292 -0.253326 0.000000
36.417500 5.084300 -739.077271 0.951504 0.054919 -0.302693 0.000000
36.392300 194.438705 -768.763428 0.227627 0.412110 0.882242 0.000000
36.389702 191.039307 -761.247681 0.943235 0.069144 -0.324849 0.000000
36.371799 43.235001 -747.403870 0.429211 0.717561 0.548528 1.000000
36.355598 41.925999 -745.846313 0.422936 0.691624 0.585476 1.000000
36.352901 1.565000 -739.205505 -0.340489 0.614183 0.711931 0.000000
36.348598 192.335693 -767.664429 0.313064 0.383312 0.868943 0.000000
36.344299 49.773399 -763.882080 0.863489 0.452018 -0.223756 1.000000
36.343601 189.180801 -763.913879 -0.994547 0.070321 0.077019 0.000000
36.335899 40.429401 -743.639771 0.516405 0.749197 0.414764 1.000000
36.334202 49.035999 -757.877380 0.744737 0.655190 0.126859 1.000000
36.329700 39.743500 -742.714172 0.797265 0.430040 0.423597 1.000000
36.319401 -0.061000 -737.029724 -0.997384 0.072214 -0.003140 0.000000
36.312401 189.464005 -762.913208 0.821714 0.563584 -0.084609 0.000000
36.298801 190.225693 -766.125977 0.951146 0.162785 0.262339 0.000000
36.284901 49.780899 -762.062317 0.741341 0.665605 0.085931 1.000000
36.284100 192.353806 -761.031372 0.944292 0.202054 -0.259783 0.000000
36.280499 45.806000 -751.875427 0.908175 0.417840 0.025044 1.000000
36.271999 49.596802 -760.151428 0.638636 0.735447 0.226411 1.000000
36.264702 42.670300 -746.618591 0.385197 0.739250 0.552388 1.000000
36.257301 38.774502 -741.875000 -0.891748 0.447929 0.064381 1.000000
36.256001 190.154907 -762.025696 0.984028 0.092290 -0.152219 0.000000
36.253899 44.490799 -748.893616 0.666830 0.586610 0.459594 1.000000
36.252800 188.411606 -764.082825 -0.860923 0.501852 0.083406 0.000000
36.249901 49.267799 -758.933411 0.663834 0.730673 0.159502 1.000000
36.240700 193.012299 -760.873718 0.986914 0.115199 -0.112824 0.000000
36.236900 48.844799 -756.522888 0.689788 0.716376 0.104871 1.000000
36.228298 47.028500 -752.706421 0.269105 0.819760 0.505545 1.000000
36.225800 1.796300 -736.150330 -0.498257 0.866115 -0.039806 0.000000
36.213299 195.188095 -769.156372 -0.140620 0.081536 -0.986701 0.000000
36.209702 189.664597 -765.367981 0.831211 0.529766 0.168630 0.000000
36.202202 49.761200 -764.581177 0.758150 0.651645 0.023824 1.000000
36.196499 45.638302 -750.540527 0.760294 0.571421 0.308919 1.000000
36.191898 50.034599 -763.006714 0.729391 0.680088 0.073954 1.000000
36.178799 48.683601 -755.686279 0.725443 0.643614 0.243912 1.000000
36.173401 43.782398 -747.873474 0.456343 0.715214 0.529358 1.000000
36.171001 46.474201 -751.885071 0.402458 0.840934 0.361743 1.000000
36.160500 193.338303 -768.106506 -0.533557 0.408787 -0.740413 0.000000
36.157200 189.635101 -764.728882 0.956466 0.243440 0.160963 0.000000
36.152500 191.832001 -761.481079 0.922010 0.175956 -0.344874 0.000000
36.146801 190.877701 -761.850220 0.923951 0.235629 -0.301319 0.000000
36.145699 190.087006 -762.737671 0.997237 0.031063 -0.067482 0.000000
36.145599 48.287102 -754.517822 0.586228 0.735627 0.339395 1.000000
36.138500 46.181999 -751.300781 0.755099 0.536561 0.376734 1.000000
36.121101 191.462799 -766.913330 0.212688 0.876035 0.432812 0.000000
36.119499 189.852005 -763.456116 0.989318 0.120023 -0.082734 0.000000
36.118000 41.417099 -744.985901 0.305437 0.769189 0.561300 1.000000
36.113201 196.597794 -769.495789 0.111404 0.375472 0.920114 0.000000
36.104900 40.277100 -743.047974 0.625127 0.681207 0.381014 1.000000
36.104000 197.762894 -770.033813 0.411955 0.418366 0.809483 0.000000
36.095699 50.546799 -764.209717 -0.624375 0.597448 0.503202 1.000000
36.085300 189.861893 -764.098328 0.956973 0.288215 -0.033687 0.000000
36.085300 49.177399 -757.212219 0.658345 0.741944 0.126892 1.000000
36.071499 49.999500 -761.484680 0.732843 0.678558 0.049999 1.000000
36.065300 193.586807 -761.139404 0.818902 0.515490 -0.252327 0.000000
36.040100 190.906403 -766.291077 0.934773 0.158319 0.318016 0.000000
36.032101 47.625500 -753.447571 0.390530 0.756549 0.524519 1.000000
36.029701 49.970501 -760.830078 0.653947 0.738915 0.162349 1.000000
36.027500 45.265900 -749.732727 0.588841 0.672247 0.448721 1.000000
36.013699 49.435101 -758.358215 0.730235 0.677763 0.085996 1.000000
36.000099 50.293701 -763.628723 0.801148 0.598464 0.001369 1.000000
35.991798 193.016693 -761.477112 0.896382 0.283929 -0.340417 0.000000
35.984699 41.046700 -744.252930 0.421964 0.816859 0.393303 1.000000
35.981800 193.914093 -768.515381 0.365934 0.335312 0.868135 0.000000
35.973598 49.535702 -759.468506 0.680357 0.716723 0.153042 1.000000
35.971500 42.373001 -746.125305 0.284388 0.761017 0.583075 1.000000
35.969299 191.536697 -762.051819 0.875243 0.254589 -0.411259 0.000000
35.964298 190.454407 -765.609680 0.898705 0.363306 0.245636 0.000000
35.959999 190.725693 -762.775818 0.926436 0.365450 -0.090351 0.000000
35.959400 1.011800 -737.859497 0.012903 0.977116 0.212315 0.000000
35.941200 44.307999 -748.309814 0.421454 0.715646 0.556981 1.000000
35.940601 190.494797 -763.492371 -0.990994 0.007734 0.133679 0.000000
35.933998 50.274502 -762.429016 0.748959 0.660511 0.052784 1.000000
35.929401 39.269600 -742.130127 0.485559 0.660293 0.572926 1.000000
35.921101 198.496902 -770.142395 -0.090667 0.554075 0.827515 0.000000
35.919201 44.955002 -749.182800 0.547087 0.680931 0.486857 1.000000
35.918098 48.122002 -753.916870 0.442960 0.749245 0.492361 1.000000
35.907799 48.761700 -755.105530 0.597226 0.763384 0.246101 1.000000
35.892399 192.192795 -767.129517 0.013990 0.934819 0.354850 0.000000
35.878700 195.782593 -769.529724 0.111818 0.538760 -0.835006 0.000000
35.873501 190.294296 -764.965271 0.982705 0.153889 0.102996 0.000000
35.873402 190.511398 -764.250183 0.982208 0.184237 0.036378 0.000000
35.863602 43.123901 -746.917297 0.372926 0.708067 0.599639 1.000000
35.858898 50.145302 -764.994629 0.846644 0.470018 -0.249553 1.000000
35.857800 192.441803 -761.915283 0.925359 0.269480 -0.266629 0.000000
35.848499 47.014801 -752.181519 0.717859 0.621069 0.314567 1.000000
35.834702 41.843700 -745.409119 0.247797 0.730765 0.636065 1.000000
35.792301 46.202999 -750.751770 0.599128 0.694857 0.397768 1.000000
35.790901 49.299198 -756.649719 0.775715 0.596822 0.205109 1.000000
35.777901 194.658096 -768.749512 0.248195 0.381952 0.890231 0.000000
35.777500 49.521801 -757.715027 0.674394 0.730471 0.107726 1.000000
35.757900 192.613205 -767.775024 -0.506769 0.621255 -0.597685 0.000000
35.752899 50.009102 -760.228271 0.589878 0.782930 0.197648 1.000000
35.749802 49.807800 -758.866028 0.635957 0.766933 0.085862 1.000000
35.745602 46.680500 -751.409607 0.722289 0.615642 0.315093 1.000000
35.738602 191.471603 -762.742310 0.942783 0.262878 -0.205073 0.000000
35.736198 45.890701 -750.170105 0.602207 0.685156 0.409766 1.000000
35.733601 40.820999 -743.689026 0.416632 0.799483 0.432718 1.000000
35.732700 197.237000 -769.642700 -0.219312 0.745037 0.629938 0.000000
35.726799 49.196602 -755.936096 0.655412 0.729436 0.195853 1.000000
35.720299 47.488201 -752.816711 0.789487 0.535326 0.300227 1.000000
35.717499 50.512100 -763.044128 0.717319 0.691022 0.089117 1.000000
35.717400 9.482100 -735.254883 -0.675513 0.737050 -0.020979 0.000000
35.714500 191.238007 -763.460327 0.975239 0.199509 -0.095417 0.000000
35.712399 50.457901 -761.760681 0.713765 0.683457 0.153058 1.000000
35.699501 43.645401 -747.399719 0.463741 0.674684 0.574235 1.000000
35.684898 50.810001 -764.829285 0.861722 0.485539 -0.147266 1.000000
35.684799 193.699707 -767.859192 -0.292411 0.956196 -0.013572 0.000000
35.666401 195.408707 -768.860229 0.349809 0.115696 0.929649 0.000000
35.665501 191.154694 -765.748230 0.944664 0.269318 0.187292 0.000000
35.656200 193.662796 -761.723083 0.876116 0.299125 -0.378081 0.000000
35.654598 191.706406 -766.472473 -0.614766 0.744356 -0.260762 0.000000
35.650600 192.097397 -762.597107 0.986983 0.014765 -0.160143 0.000000
35.646900 193.019699 -762.095520 0.838122 0.366383 -0.404123 0.000000
35.630901 190.987503 -765.121277 0.960520 0.277755 0.015907 0.000000
35.621399 194.378296 -761.312378 -0.804939 0.557500 -0.203144 0.000000
35.599701 191.272202 -764.111877 0.991760 0.064903 -0.110449 0.000000
35.590599 50.381500 -761.136719 0.583380 0.774191 0.245552 1.000000
35.586700 50.491501 -765.462280 0.828565 0.550931 0.099775 1.000000
35.568901 50.776100 -763.836304 0.753846 0.652561 0.076687 1.000000
35.567501 40.721001 -743.054993 0.139432 0.962995 0.230650 1.000000
35.561298 41.352501 -744.640076 0.206870 0.841068 0.499809 1.000000
35.548401 49.898499 -758.230713 0.745562 0.661268 0.082840 1.000000
35.542599 50.045700 -759.540222 0.640824 0.762886 0.085734 1.000000
35.529499 193.121506 -767.435181 0.301550 0.803608 0.513109 0.000000
35.523899 48.008301 -753.274475 0.764412 0.565697 0.309291 1.000000
35.523701 191.814697 -763.252197 0.883366 0.457885 -0.100030 0.000000
