ply
format ascii 1.0
element vertex 693
property float x
property float y
property float z
property float nx
property float ny
property float nz
property float label
element face 0
property list uchar int vertex_indices
end_header
46.277000 94.901604 -754.704529 0.340657 0.067079 -0.937792 1.000000
46.264198 71.114098 -754.303284 -0.440878 0.520137 -0.731494 0.000000
46.263302 65.327599 -752.938110 0.208459 0.971546 -0.112442 0.000000
46.258999 109.428001 -762.970276 0.870461 0.452284 -0.194260 0.000000
46.255600 110.451698 -764.249329 -0.273549 0.889409 -0.366227 0.000000
46.253101 102.920303 -762.759583 0.797233 0.055423 0.601122 0.000000
46.248901 90.053497 -759.057129 0.497489 0.387296 0.776213 0.000000
46.242599 101.737602 -759.770325 -0.888272 0.232819 0.395941 0.000000
46.241798 69.651497 -750.168701 0.758248 0.058768 0.649312 0.000000
46.230598 65.307999 -749.413879 0.725631 0.602258 0.332784 0.000000
46.227100 87.683899 -758.447205 0.308834 0.799801 0.514723 0.000000
46.220901 59.417301 -749.595093 0.987835 0.001119 0.155503 0.000000
46.195099 98.933197 -761.618286 0.811045 0.267223 0.520382 0.000000
46.193199 105.671898 -761.325012 -0.957315 0.003659 0.289024 0.000000
46.190300 92.386597 -754.811584 0.564570 0.118780 -0.816794 1.000000
46.188202 75.868103 -751.207214 -0.398974 0.915918 0.043741 0.000000
46.188000 58.362202 -749.793213 -0.991596 0.127984 -0.018919 0.000000
46.184502 108.048302 -763.602600 0.931200 0.351727 -0.095680 0.000000
46.181599 70.176399 -754.694702 -0.933019 0.229385 -0.277232 0.000000
46.180901 57.356201 -750.884583 0.933874 0.217017 0.284223 0.000000
46.180801 60.307999 -748.497070 -0.950862 0.120681 0.285126 0.000000
46.173302 106.622704 -763.543274 0.811689 0.583358 -0.029238 0.000000
46.171200 100.382202 -759.430725 0.726434 0.575571 -0.375515 0.000000
46.162601 107.503601 -762.574890 -0.865628 0.491608 -0.094922 0.000000
46.154400 93.934196 -760.006775 -0.522379 0.345574 -0.779550 0.000000
46.154301 106.610001 -762.101624 -0.993350 0.095623 0.064123 0.000000
46.150902 74.681602 -751.023682 -0.575726 0.732298 -0.363702 0.000000
46.150200 82.234703 -757.183716 0.721039 0.573217 0.389262 0.000000
46.147999 70.688698 -750.357605 0.606287 0.289546 0.740662 0.000000
46.139198 102.698700 -760.409729 -0.697122 0.703145 0.140027 0.000000
46.130501 90.385002 -755.813782 0.730715 0.458975 -0.505369 0.000000
46.120998 83.888397 -753.293579 0.493770 0.819815 -0.289992 0.000000
46.113098 93.925797 -754.773987 0.295648 0.174639 -0.939198 1.000000
46.112499 80.052002 -756.391418 0.497660 0.017533 0.867195 0.000000
46.109699 91.110603 -759.172729 0.645867 0.524450 0.554804 0.000000
46.107700 100.349998 -754.649475 0.448088 0.261512 -0.854885 1.000000
46.104301 97.890800 -761.073792 -0.766759 0.188246 -0.613713 0.000000
46.103600 105.824997 -763.111023 0.992579 0.111538 0.048446 0.000000
46.095798 84.143402 -757.413086 -0.374187 0.863863 -0.337230 0.000000
46.091301 55.818199 -750.499878 0.840497 0.541774 -0.006789 0.000000
46.089802 57.413300 -749.592285 -0.997828 0.054311 -0.037272 0.000000
46.085701 103.792702 -761.003296 -0.971080 0.068037 0.228853 0.000000
46.068199 96.822899 -758.253906 -0.818077 0.192757 0.541843 0.000000
46.068001 82.564201 -753.083679 0.363513 0.572166 -0.735176 0.000000
46.062901 104.403503 -762.770874 0.973145 0.122115 0.195133 0.000000
46.060200 95.367500 -757.742981 0.463020 0.858171 -0.221707 0.000000
46.056801 58.566898 -748.913330 -0.939530 0.003763 -0.342446 0.000000
46.047298 59.294300 -748.356384 -0.970487 0.144486 0.193075 0.000000
46.042400 104.749603 -761.682190 -0.975919 0.044634 0.213520 0.000000
46.025398 86.932602 -754.372314 -0.506709 0.399176 0.764137 0.000000
46.024700 92.763603 -756.967407 -0.798265 0.055297 0.599762 0.000000
46.021999 105.499298 -762.223511 -0.997192 0.022397 0.071457 0.000000
46.021400 92.175697 -759.391785 0.691464 0.497252 0.524040 0.000000
46.016998 78.518501 -755.937927 0.027446 0.974941 0.220764 0.000000
46.000000 88.611298 -758.428711 0.853341 0.186156 0.486985 0.000000
45.998798 109.602997 -763.830505 -0.344028 0.910151 -0.230804 0.000000
45.998199 85.258102 -757.624390 0.721707 0.230132 0.652824 0.000000
45.995800 60.277901 -751.988220 -0.550916 0.822681 0.140314 0.000000
45.994598 56.267399 -749.620178 -0.999657 0.007061 -0.025218 0.000000
45.988400 61.620701 -748.599915 -0.132167 0.032759 -0.990686 0.000000
45.984901 100.951797 -760.193420 0.567706 0.776445 -0.273574 0.000000
45.980801 68.572502 -753.686218 0.131305 0.902194 0.410858 0.000000
45.980202 59.029701 -751.364624 -0.918138 0.131956 0.373645 0.000000
45.980099 94.397797 -757.524475 0.731295 0.523297 -0.437456 0.000000
45.978699 98.457298 -758.986084 -0.887382 0.226660 0.401470 0.000000
45.976200 103.580299 -761.908386 -0.362561 0.904220 -0.225691 0.000000
45.966400 89.181297 -756.665527 0.231798 0.934215 -0.271133 0.000000
45.960300 58.346901 -748.025696 0.384905 0.030010 0.922468 0.000000
45.958599 99.874603 -761.435486 0.902845 0.124966 0.411405 0.000000
45.950401 66.949203 -753.336121 0.255865 0.331893 0.907954 0.000000
45.948799 74.823601 -754.959412 0.394330 0.186332 0.899880 0.000000
45.946800 80.128403 -752.541077 0.014815 0.985757 0.167522 0.000000
45.942699 99.531502 -759.729797 -0.956945 0.143872 0.252106 0.000000
45.937000 88.763496 -755.028992 -0.749853 0.110925 0.652239 0.000000
45.935299 102.400597 -761.770508 0.713253 0.669743 -0.206673 0.000000
45.933498 54.387402 -750.260315 0.282975 0.268611 -0.920746 0.000000
45.931000 56.942600 -748.762512 -0.966141 0.053467 -0.252415 0.000000
45.925701 101.588799 -760.858582 0.444660 0.837833 -0.316723 0.000000
45.921700 55.398300 -748.974487 0.950242 0.248066 0.188422 0.000000
45.919300 68.866699 -749.858521 0.647941 0.035291 0.760872 0.000000
45.903000 86.959099 -757.888672 0.784323 0.155058 0.600662 0.000000
45.901901 63.879601 -752.561523 0.035427 0.245544 0.968738 0.000000
45.897400 121.502899 -766.548828 -0.349340 0.441021 -0.826718 0.000000
45.897301 126.579102 -768.792175 -0.775802 0.578325 -0.252332 0.000000
45.894901 96.926399 -760.531799 0.122779 0.856562 -0.501226 0.000000
45.893101 76.079201 -755.265686 -0.405021 0.049458 -0.912969 0.000000
45.889500 85.635399 -754.120728 0.449051 0.599290 -0.662725 0.000000
45.888802 67.265404 -749.550415 0.679606 0.233860 0.695302 0.000000
45.875000 57.366901 -747.765686 0.137312 0.239315 0.961183 0.000000
45.874500 97.554298 -758.863586 -0.911766 0.041262 0.408631 0.000000
45.860600 63.984100 -749.018311 0.814628 0.023512 0.579506 0.000000
45.846802 91.877098 -756.969421 -0.902440 0.063974 0.426039 0.000000
45.843399 91.162300 -754.977112 -0.241548 0.032773 0.969835 1.000000
45.842800 83.316803 -756.955688 0.628310 0.601359 0.493552 0.000000
45.820702 93.178703 -759.351501 -0.825156 0.188564 -0.532505 0.000000
45.814201 87.717102 -754.973572 -0.876575 0.183537 0.444895 0.000000
45.810799 98.834602 -754.819580 -0.353344 0.198845 0.914116 1.000000
45.809101 95.184898 -759.849976 0.903565 0.127876 0.408923 0.000000
45.805901 100.980904 -761.543213 -0.896239 0.271094 -0.351089 0.000000
45.804901 73.561699 -750.400574 -0.316184 0.349467 0.881987 0.000000
45.803699 96.621498 -754.749023 -0.244207 0.203278 0.948178 1.000000
45.802799 70.097603 -753.854004 0.381613 0.323375 0.865910 0.000000
45.801800 54.327599 -748.979919 -0.999159 0.039966 -0.009223 0.000000
45.799500 89.490997 -758.472412 0.887573 0.248282 0.388034 0.000000
45.793098 62.873798 -748.780884 0.784863 0.164836 0.597343 0.000000
45.790298 101.286003 -754.826599 0.225371 0.941583 -0.250259 1.000000
45.781399 56.109501 -748.422729 -0.949264 0.018760 -0.313920 0.000000
45.779499 90.746696 -756.588623 0.914105 0.057719 -0.401347 0.000000
45.779099 52.972500 -749.882385 -0.994381 0.011928 -0.105185 0.000000
45.775299 77.034599 -755.458130 0.390932 0.488259 0.780241 0.000000
45.773800 99.344299 -760.640076 -0.900817 0.396359 -0.177281 0.000000
45.772499 96.061401 -760.067627 -0.650720 0.485938 -0.583462 0.000000
45.769798 79.174797 -752.273682 0.053588 0.990799 -0.124277 0.000000
45.768600 98.428703 -759.929016 0.809072 0.525351 -0.263455 0.000000
45.756699 93.528000 -757.715820 0.753401 0.548372 -0.362869 0.000000
45.747101 97.823303 -754.838074 0.402322 0.164651 -0.900571 1.000000
45.738899 71.894096 -754.188782 -0.330026 0.268421 -0.905004 0.000000
45.734402 81.099701 -752.765381 -0.502039 0.210826 0.838754 0.000000
45.732800 71.639099 -750.204529 0.890208 0.020020 0.455114 0.000000
45.730499 96.326302 -758.985413 0.867256 0.425303 -0.258814 0.000000
45.727200 54.925098 -748.227173 -0.968738 0.035427 -0.245544 0.000000
45.725899 66.098801 -749.233826 0.546413 0.220104 0.808076 0.000000
45.722000 62.288300 -752.196716 0.062115 0.210705 0.975574 0.000000
45.715900 56.421902 -747.529480 0.234489 0.379017 0.895188 0.000000
45.713001 53.386600 -748.519897 -0.988599 0.080535 -0.127222 0.000000
45.712700 57.830898 -751.521729 -0.923575 0.229823 0.306907 0.000000
45.709900 86.220596 -757.409424 0.833950 0.320750 0.449050 0.000000
45.704899 73.592598 -754.560608 0.320426 0.359910 0.876237 0.000000
45.703999 95.303398 -758.608582 -0.491965 0.870606 0.004000 0.000000
45.698799 90.450699 -758.431580 0.948650 0.090535 0.303096 0.000000
45.695301 56.574501 -750.941101 -0.971823 0.055148 0.229169 0.000000
45.675999 78.219200 -752.120422 0.378681 0.126227 -0.916879 0.000000
45.675301 81.869102 -756.499329 0.448840 0.592336 0.669089 0.000000
45.664200 55.472000 -747.377075 0.021259 0.306385 -0.951670 0.000000
45.660599 87.797699 -757.576782 0.955838 0.136171 0.260443 0.000000
45.651501 80.838699 -756.250671 -0.580468 0.144744 -0.801315 0.000000
45.649601 94.171997 -759.228027 0.949639 0.145995 0.277257 0.000000
45.646400 91.491699 -758.492798 0.953051 0.033993 0.300897 0.000000
45.635899 89.586304 -755.497375 0.267464 0.808647 -0.523978 1.000000
45.631401 95.535400 -754.859680 0.232271 0.070799 -0.970071 1.000000
45.623100 52.382301 -748.428223 0.982757 0.174686 0.060605 0.000000
45.621399 52.056000 -749.760498 -0.870277 0.469281 -0.149647 0.000000
45.616199 79.445198 -755.905823 -0.563738 0.023432 -0.825621 0.000000
45.612000 97.212196 -759.659485 0.156316 0.916771 -0.367554 0.000000
45.611198 77.316101 -751.677429 -0.333703 0.633222 0.698335 0.000000
45.610699 92.470802 -758.611816 0.974198 0.008266 0.225542 0.000000
45.608501 53.787601 -747.169983 -0.892470 0.444159 -0.078869 0.000000
45.601898 66.155998 -753.010315 0.354580 0.189394 0.915643 0.000000
45.583000 89.090897 -757.630188 -0.819250 0.451618 -0.353371 0.000000
45.579601 86.256203 -754.843994 -0.764418 0.598716 0.239174 0.000000
45.578602 64.936897 -748.913818 0.450605 0.041948 0.891737 0.000000
45.576000 61.100498 -751.913208 -0.001133 0.173397 0.984851 0.000000
45.563999 84.678497 -756.885498 -0.794767 0.012440 -0.606787 0.000000
45.558899 70.091904 -749.755920 0.857446 0.025901 0.513922 0.000000
45.554298 51.060699 -749.544128 0.675708 0.737010 -0.015325 0.000000
45.547199 90.582497 -757.502625 -0.981696 0.186934 0.036446 0.000000
45.536701 84.187103 -753.968872 -0.542496 0.754281 0.369809 0.000000
45.533901 68.120102 -749.378906 0.411640 0.373788 0.831165 0.000000
45.518600 55.140499 -750.732727 -0.908468 0.357881 0.215888 0.000000
45.517601 60.862000 -748.207581 0.686544 0.153071 0.710793 0.000000
45.512100 92.245697 -757.731018 -0.894688 0.441159 0.070091 0.000000
45.499901 50.082401 -749.299377 0.615043 0.274942 -0.739005 0.000000
45.497799 76.369797 -751.533325 -0.507583 0.337855 0.792599 0.000000
45.494801 72.585701 -750.379578 -0.524721 0.028771 0.850788 0.000000
45.493698 51.359001 -748.404297 0.991733 0.116741 0.053270 0.000000
45.489300 81.904503 -753.290405 0.741628 0.457530 -0.490565 0.000000
45.486801 64.879898 -752.737122 0.107710 0.896649 0.429440 0.000000
45.478401 92.988197 -754.803284 0.080448 0.509503 -0.856700 1.000000
45.478298 75.279099 -751.182373 -0.502033 0.241037 0.830580 0.000000
45.469501 52.992298 -747.741699 0.949787 0.029011 0.311550 0.000000
45.453300 99.822601 -755.040222 -0.021846 0.985371 0.169019 1.000000
45.444500 88.429497 -755.721497 -0.919345 0.137693 0.368572 0.000000
45.439201 52.537998 -746.827026 0.781203 0.061411 0.621249 0.000000
45.435200 87.043404 -755.534119 -0.703874 0.703874 0.095515 0.000000
45.431198 51.921600 -747.655518 0.910353 0.263638 0.318988 0.000000
45.429901 94.638603 -754.910706 0.084756 0.077976 0.993346 1.000000
45.425900 70.989304 -753.888977 0.196200 0.650396 0.733819 0.000000
45.420601 59.875500 -747.999207 0.590887 0.049358 0.805243 0.000000
45.419601 72.741798 -754.326477 0.162855 0.820252 0.548329 0.000000
45.401001 82.856598 -753.715698 -0.774783 0.242609 0.583826 0.000000
45.400600 85.727303 -756.677795 -0.774126 0.415583 -0.477514 0.000000
45.399101 93.477402 -758.575317 0.906159 0.274638 -0.321635 0.000000
45.396400 77.937302 -755.469727 0.582520 0.180992 0.792409 0.000000
45.394199 87.337997 -756.822388 -0.425962 0.741733 -0.518062 0.000000
45.394001 50.510101 -747.940125 0.979228 0.122249 0.161764 0.000000
45.384102 49.105701 -749.067383 -0.849658 0.291444 0.439478 0.000000
45.381802 82.746902 -756.384583 0.330030 0.767923 0.548976 0.000000
45.366001 85.211700 -754.828979 0.726068 0.596123 -0.342730 0.000000
45.344101 88.489799 -756.940918 0.939613 0.122675 0.319496 0.000000
45.341202 68.075897 -753.258606 0.120104 0.891596 0.436614 0.000000
45.326500 74.246597 -750.975830 -0.534491 0.296587 0.791427 0.000000
45.324799 83.897797 -756.462891 -0.850776 0.098661 -0.516185 0.000000
45.323502 51.342701 -746.578674 -0.651137 0.450272 -0.610964 0.000000
45.315102 66.967903 -748.860596 0.348529 0.652879 -0.672515 0.000000
45.314098 91.896004 -754.935730 0.127337 0.398803 0.908152 1.000000
45.313301 53.748402 -750.634094 0.257221 0.759039 -0.598078 0.000000
45.305901 90.385201 -755.169983 -0.203144 0.156563 -0.966551 1.000000
45.302399 49.635399 -748.158386 -0.988111 0.140826 0.061684 0.000000
45.299500 54.600498 -747.406006 -0.826231 0.358612 -0.434442 0.000000
45.296700 63.186298 -752.307800 0.239207 0.157268 0.958148 0.000000
45.293598 62.099998 -748.215698 0.454049 0.292885 0.841462 0.000000
45.283501 86.128403 -755.737488 0.257572 0.926404 -0.274648 0.000000
45.279598 48.224400 -748.869385 0.838765 0.435783 -0.326447 0.000000
45.258801 58.921600 -747.714783 0.528410 0.123732 0.839925 0.000000
45.246201 69.034500 -753.410889 0.117166 0.893566 0.433373 0.000000
45.237202 84.888199 -755.981079 0.989064 0.037646 0.142599 0.000000
45.232601 63.653099 -748.442383 0.400237 0.419371 0.814824 0.000000
45.224602 50.068298 -747.161926 0.948065 0.200526 0.246906 0.000000
45.215500 58.024502 -747.549622 0.610626 0.055511 0.789971 0.000000
45.211201 48.773399 -747.867004 -0.989171 0.146420 -0.010059 0.000000
45.197601 75.350899 -754.761230 -0.294673 0.853164 -0.430439 0.000000
45.188400 59.954102 -751.639282 0.135350 0.081210 0.987464 0.000000
45.185398 58.555500 -751.328979 0.107557 0.179262 0.977904 0.000000
45.177200 79.603600 -752.829529 -0.278793 0.955675 0.094660 0.000000
45.173302 89.303902 -756.236511 -0.212443 0.820734 -0.530344 0.000000
45.158600 50.278000 -746.238281 0.063429 0.317144 -0.946254 0.000000
45.154701 69.292503 -749.612183 -0.483166 0.118999 0.867404 0.000000
45.152100 81.278000 -755.628418 -0.719846 0.276127 -0.636848 0.000000
45.150398 46.864700 -748.755676 0.698068 0.712521 0.070818 0.000000
45.148899 80.274803 -755.651123 -0.628697 0.457691 -0.628697 0.000000
45.145699 70.885902 -750.094971 -0.471165 0.422255 0.774406 0.000000
45.142601 83.986504 -754.757385 0.434326 0.854839 -0.283923 0.000000
45.139801 78.831299 -755.419678 0.756608 0.354812 0.549229 0.000000
45.139301 48.930901 -746.208923 0.690016 0.408715 0.597352 0.000000
45.137402 52.591999 -750.431091 0.785370 0.158280 -0.598449 0.000000
45.122601 47.605701 -747.309998 -0.977162 0.120438 -0.175070 0.000000
45.118999 81.078697 -753.494873 -0.662771 0.694712 0.279482 0.000000
45.109501 65.719200 -748.559387 0.522343 0.152412 0.839004 0.000000
45.106400 82.367203 -755.613281 -0.785710 0.498530 -0.366234 0.000000
45.090500 74.482697 -754.517822 -0.296815 0.717169 -0.630531 0.000000
45.084599 96.763702 -755.297424 0.446167 0.047465 0.893690 1.000000
45.073601 57.125198 -747.354797 0.540817 0.111643 0.833699 0.000000
45.063999 76.452103 -755.071228 0.916244 0.400452 0.011664 0.000000
45.054901 82.762100 -754.595215 0.543591 0.787653 -0.290021 0.000000
45.052799 66.881500 -752.956604 0.260713 0.227253 0.938288 0.000000
45.046902 83.597702 -755.604126 -0.752347 0.421249 -0.506482 0.000000
45.037498 78.620796 -752.655273 -0.623707 0.552716 0.552716 0.000000
45.037399 73.157402 -750.955383 0.292712 0.734180 -0.612617 0.000000
45.000401 45.919498 -748.525085 -0.111275 0.323098 0.939801 0.000000
44.998600 81.916496 -754.122192 0.716252 0.619243 -0.321748 0.000000
44.998199 77.382004 -752.355774 -0.780991 0.269797 0.563260 0.000000
44.988800 64.163902 -752.432800 0.274993 0.235507 0.932156 0.000000
44.985600 46.581501 -747.542114 -0.968227 0.240499 0.068536 0.000000
44.974602 93.846802 -754.893677 0.198383 0.258582 0.945399 1.000000
44.962200 71.873001 -750.616089 0.312308 0.655361 -0.687725 0.000000
44.958698 77.363197 -754.924194 0.791509 0.113073 0.600607 0.000000
44.957199 51.407200 -750.196411 -0.163252 0.939726 -0.300438 0.000000
44.942402 55.993099 -747.137207 0.662211 0.049844 0.747658 0.000000
44.938400 57.619099 -751.110474 0.151765 0.110485 0.982222 0.000000
44.934399 46.847698 -746.655273 0.981400 0.046281 0.186312 0.000000
44.917400 44.439602 -748.082703 0.720733 0.541793 0.432440 0.000000
44.907101 70.038902 -753.494019 0.501731 0.086213 0.860717 0.000000
44.904499 47.945301 -745.827820 0.450845 0.019949 0.892380 0.000000
44.897900 56.147400 -750.806824 0.137761 0.896159 0.421806 0.000000
44.895599 75.755402 -751.828308 0.482519 0.796717 -0.363893 0.000000
44.895000 81.170998 -754.635925 0.956698 0.270173 -0.108330 0.000000
44.893902 45.863602 -746.983215 -0.986896 0.040494 -0.156191 0.000000
44.873901 73.546501 -754.180786 0.492223 0.357543 0.793649 0.000000
44.873001 53.519100 -746.690918 -0.636057 0.126616 -0.761183 0.000000
44.867001 80.222099 -753.805176 0.892502 0.336370 -0.300491 0.000000
44.863602 43.072102 -747.657227 0.701783 0.290670 -0.650394 0.000000
44.857700 71.790802 -753.812988 -0.317170 0.923065 -0.217610 0.000000
44.849899 50.500599 -749.936829 -0.808642 0.576763 0.115940 0.000000
44.837700 95.816498 -755.220825 -0.697859 0.348112 -0.625948 1.000000
44.834099 61.716702 -751.891479 0.268333 0.178435 0.946657 0.000000
44.834000 79.847298 -754.888000 0.284622 0.880973 -0.377990 0.000000
44.832199 60.570099 -747.676514 0.779890 0.038078 0.624758 0.000000
44.825199 46.889999 -745.550415 -0.314723 0.008708 -0.949144 0.000000
44.809502 44.902699 -747.008728 -0.994511 0.094240 0.045457 0.000000
44.806499 55.141499 -746.854126 0.612544 0.155017 0.775087 0.000000
44.806400 64.462196 -748.675476 0.094564 0.969598 -0.225693 0.000000
44.803600 45.250301 -745.502197 -0.661142 0.294377 0.690097 0.000000
44.792400 63.026299 -747.952087 0.759802 0.444722 0.474261 0.000000
44.789200 74.861900 -751.643799 0.254589 0.875243 -0.411259 0.000000
44.783199 41.769100 -747.311523 0.991241 0.113448 0.067611 0.000000
44.778500 49.262798 -749.759705 -0.208726 0.974467 0.082749 0.000000
44.777699 65.743301 -752.633423 0.276815 0.128474 0.952296 0.000000
44.770100 67.611198 -749.464905 0.215353 0.856894 -0.468355 0.000000
44.763401 78.243401 -754.741394 0.952605 0.052285 0.299682 0.000000
44.749802 70.025597 -750.202698 -0.463597 0.214545 0.859679 0.000000
44.748798 51.991402 -746.328918 0.627307 0.165560 0.760970 0.000000
44.748001 45.391102 -747.841187 -0.948073 0.194511 0.251641 0.000000
44.747601 66.305702 -749.160889 0.276127 0.636848 -0.719846 0.000000
44.740501 76.515404 -752.479187 -0.895124 0.014544 0.445579 0.000000
44.734402 46.167400 -746.079712 0.938502 0.056127 0.340680 0.000000
44.720001 59.611000 -747.438171 -0.414191 0.003895 -0.910182 0.000000
44.711800 77.891403 -753.124390 0.279063 0.923055 -0.264752 0.000000
44.710201 78.719200 -753.531616 0.930796 0.258476 -0.258476 0.000000
44.698601 44.139500 -746.533813 -0.961978 0.137052 -0.236252 0.000000
44.681499 92.550400 -754.720276 0.278032 0.179420 0.943667 1.000000
44.669800 68.512703 -749.803284 -0.265725 0.920700 0.285834 0.000000
44.667400 54.683300 -750.536194 0.106005 0.883372 0.456527 0.000000
44.666199 91.052902 -754.905212 0.402332 0.016927 0.915337 1.000000
44.654999 73.863899 -751.480530 -0.838455 0.006795 0.544928 0.000000
44.646301 77.579102 -754.092590 -0.988027 0.071325 -0.136804 0.000000
44.640701 75.910400 -754.275208 0.933050 0.109691 0.342615 0.000000
44.639599 61.746399 -747.579712 0.253882 0.088029 0.963221 0.000000
44.620201 40.433399 -746.994324 0.467115 0.594358 -0.654631 0.000000
44.619499 43.072300 -746.715088 -0.928533 0.361469 0.084656 0.000000
44.614601 47.552399 -749.109985 -0.919712 0.164788 0.356336 0.000000
44.612999 49.603199 -745.886230 -0.405573 0.190431 -0.894006 0.000000
44.608101 72.670197 -753.925415 0.684371 0.728973 0.015332 0.000000
44.591900 70.906097 -753.433411 -0.706151 0.332784 -0.624984 0.000000
44.582199 51.068501 -746.075928 0.496702 0.125986 0.858729 0.000000
44.581699 53.327999 -750.233521 -0.008582 0.288125 0.957554 0.000000
44.569500 76.878601 -753.470520 0.651092 0.705483 -0.279953 0.000000
44.569000 40.103901 -753.682983 0.467991 0.878013 0.100385 1.000000
44.566299 48.452599 -749.406921 0.577876 0.700405 -0.418918 0.000000
44.558201 60.646400 -751.607422 0.306505 0.246067 0.919514 0.000000
44.553299 94.780899 -754.731018 -0.066941 0.897552 -0.435798 1.000000
44.548500 40.232800 -755.121216 -0.110220 0.987236 0.114960 1.000000
44.544601 44.158298 -745.025696 0.314567 0.717859 -0.621069 0.000000
44.542400 58.553699 -747.180603 0.458857 0.251533 0.852163 0.000000
44.541401 43.513802 -745.836304 -0.967101 0.081958 -0.240830 0.000000
44.536301 90.048401 -755.531921 -0.113613 0.632986 -0.765781 1.000000
44.516998 75.375999 -752.642212 -0.849674 0.522768 0.069045 0.000000
44.513901 59.197300 -751.347229 0.221141 0.121436 0.967652 0.000000
44.512299 75.011002 -754.052185 0.904399 0.124793 0.408031 0.000000
44.510601 68.491699 -753.033020 0.363249 0.314613 0.876966 0.000000
44.509300 38.627899 -751.523376 -0.394361 0.916586 -0.065951 1.000000
44.500900 39.627602 -752.454285 0.822007 0.553416 0.134296 1.000000
44.493401 42.137299 -746.340515 -0.972393 0.231980 -0.025241 0.000000
44.482498 54.335300 -746.493530 0.423932 0.182101 0.887198 0.000000
44.476398 72.558899 -751.348389 -0.933250 0.225945 0.279273 0.000000
44.474899 71.000999 -750.777710 -0.737039 0.440245 0.512794 0.000000
44.473701 37.734200 -751.047302 -0.658481 0.058819 -0.750295 1.000000
44.456902 63.393501 -752.041687 0.431779 0.084149 0.898045 0.000000
44.441101 56.698399 -746.817200 0.640785 0.101177 0.761024 0.000000
44.429798 43.148899 -744.842712 0.795689 0.271507 -0.541445 0.000000
44.421700 74.092697 -753.611511 0.466657 0.838742 -0.280614 0.000000
44.400902 48.648300 -745.569519 0.586549 0.204753 0.783605 0.000000
44.398201 74.228500 -752.288818 -0.980972 0.106282 0.162477 0.000000
44.395500 34.907200 -747.663208 0.001146 0.981965 -0.189060 1.000000
44.392502 57.693901 -746.926086 0.560642 0.009549 0.828004 0.000000
44.390301 62.317902 -752.445984 0.476222 0.696788 -0.536376 0.000000
44.388302 52.864399 -746.190918 0.388922 0.202473 0.898746 0.000000
44.375801 41.175598 -746.350098 -0.986863 0.142325 0.076455 0.000000
44.372101 40.127201 -757.699585 0.482732 0.870617 0.094848 1.000000
44.372101 36.514198 -750.229004 0.739132 0.665366 0.104747 1.000000
44.366299 41.687000 -745.523315 -0.903401 0.155072 -0.399773 0.000000
44.348999 52.380901 -750.018982 0.141804 0.498507 0.855209 0.000000
44.345600 46.459400 -749.129517 -0.291694 0.938674 -0.183864 0.000000
44.343399 66.523598 -752.486816 -0.506305 0.177729 -0.843841 0.000000
44.341499 44.964802 -748.593506 -0.801649 0.240340 0.547354 0.000000
44.333302 65.165703 -749.070801 -0.441474 0.090523 0.892696 0.000000
44.330502 40.150501 -755.996094 0.368654 0.928799 -0.037777 1.000000
44.326000 56.987499 -750.869080 0.230927 0.162309 0.959337 0.000000
44.325500 73.141197 -753.198914 0.509415 0.813497 -0.280570 0.000000
44.320301 62.270302 -748.298828 -0.246680 0.219118 0.944000 0.000000
44.320202 40.236198 -745.399414 -0.984995 0.137636 -0.104125 0.000000
44.315701 43.722500 -748.037109 -0.882616 0.208457 0.421349 0.000000
44.312698 46.230499 -745.214172 -0.521718 0.114171 -0.845444 0.000000
44.311901 67.456596 -752.685608 -0.415245 0.175069 -0.892705 0.000000
44.307800 69.457497 -753.121582 0.905004 0.182727 0.384159 0.000000
44.300400 42.072800 -744.598694 0.648273 0.434960 -0.624942 0.000000
44.287201 63.583401 -748.602112 -0.422143 0.244873 0.872830 0.000000
44.281700 64.779503 -752.232117 0.568211 0.514256 0.642399 0.000000
44.277100 72.186699 -753.226807 0.955388 0.125189 0.267509 0.000000
44.269100 35.597801 -749.324280 -0.520975 0.852630 0.040075 1.000000
44.260201 69.269798 -750.450012 -0.754039 0.563511 0.337461 0.000000
44.258900 73.213097 -751.962585 0.117430 0.963959 -0.238732 0.000000
44.250801 79.486000 -754.255188 0.209600 0.302443 0.929837 0.000000
44.240002 41.035301 -744.472778 -0.087064 0.045185 -0.995177 0.000000
44.235199 47.545601 -745.314270 0.789561 0.132337 0.599234 0.000000
44.230099 34.892200 -748.607971 0.593544 0.747129 0.299172 1.000000
44.217899 71.527199 -751.477417 -0.935055 0.225703 0.273367 0.000000
44.216099 42.239601 -747.853210 -0.868467 0.109806 0.483433 0.000000
44.203201 39.706600 -746.125488 -0.968315 0.199321 0.150455 0.000000
44.202900 55.778500 -746.587219 0.193074 0.548815 0.813341 0.000000
44.184799 76.023201 -753.201172 -0.735995 0.558963 0.381931 0.000000
44.167599 50.363098 -745.682678 0.499723 0.255276 0.827714 0.000000
44.152901 91.765602 -754.572205 0.419950 0.077971 0.904192 1.000000
44.142899 71.937500 -752.311584 0.995151 0.056329 -0.080628 0.000000
44.140499 70.153801 -750.924622 -0.932145 0.037702 0.360117 0.000000
44.133301 38.882900 -745.561829 -0.974586 0.039754 -0.220456 0.000000
44.132900 61.166302 -748.049988 0.084218 0.985708 -0.145899 0.000000
44.123699 93.700798 -754.531616 -0.450948 0.349682 -0.821199 1.000000
44.119598 41.159500 -747.368713 -0.877452 0.333036 0.345202 0.000000
44.119400 70.315697 -752.854126 -0.523811 0.684468 -0.507076 0.000000
44.113400 53.743301 -745.920410 -0.943946 0.150327 -0.293883 0.000000
44.111801 67.058899 -749.756104 -0.687585 0.193142 0.699946 0.000000
44.102600 51.474499 -749.878723 -0.108480 0.159672 -0.981192 0.000000
44.092098 58.443401 -751.075928 -0.434687 0.093048 -0.895762 0.000000
44.085499 55.728500 -750.595581 0.105741 0.883991 0.455389 0.000000
44.066101 39.855900 -744.223083 -0.535951 0.069292 -0.841401 0.000000
44.063202 45.006901 -744.945679 0.799491 0.097570 0.592701 0.000000
44.060699 51.877102 -745.513184 0.458125 0.121310 -0.880571 0.000000
44.060501 37.741100 -745.619629 0.998556 0.021912 -0.049041 0.000000
44.058300 70.719002 -751.854370 -0.962475 0.269887 -0.028344 0.000000
44.036999 67.906799 -750.119507 -0.737502 0.080005 0.670589 0.000000
44.016800 61.926201 -751.571777 -0.198887 0.971634 0.127947 0.000000
44.014099 60.104698 -747.829285 -0.329942 0.468866 0.819331 0.000000
44.011501 44.135799 -748.814270 -0.793672 0.603537 0.076342 0.000000
44.009102 38.552399 -746.475586 -0.956021 0.166670 0.241339 0.000000
44.008301 39.798100 -747.213379 -0.882977 0.391268 0.259346 0.000000
43.993599 68.794601 -752.333984 0.970072 0.001184 0.242814 0.000000
43.987701 69.687103 -752.037903 0.755246 0.622421 -0.205415 0.000000
43.985802 59.902500 -751.635681 -0.700752 0.330052 -0.632465 0.000000
43.978699 74.792198 -753.144470 -0.924582 0.166453 0.342697 0.000000
43.978600 50.500702 -749.662598 0.180873 0.102125 0.978190 0.000000
43.969501 40.331699 -756.906311 0.653142 0.755596 -0.049804 1.000000
43.969501 38.696999 -744.629578 -0.939932 0.145547 -0.308777 0.000000
43.963501 37.162998 -744.832214 -0.966330 0.013270 -0.256964 0.000000
43.960499 40.300400 -759.090576 0.552693 0.745076 0.373353 1.000000
43.959301 49.541100 -749.494690 0.094749 0.083333 0.992007 0.000000
43.956402 45.617001 -749.180725 -0.856983 0.083574 0.508524 0.000000
43.956402 42.973900 -748.405212 -0.898575 0.352643 0.261162 0.000000
43.949200 37.680099 -743.850830 -0.992957 0.055227 0.104818 0.000000
43.945702 59.163898 -747.631897 -0.309234 0.354487 0.882447 0.000000
43.943100 40.146599 -754.345825 0.031143 0.986195 -0.162636 1.000000
43.928799 65.696297 -752.297913 0.301684 0.896137 -0.325463 0.000000
43.926498 66.110199 -749.638672 0.750648 0.257591 -0.608420 0.000000
43.918900 37.487701 -750.348694 0.414300 0.546348 0.727914 1.000000
43.898499 49.383499 -745.348816 0.272698 0.078097 0.958925 0.000000
43.893600 36.653801 -745.765381 -0.928441 0.316035 0.195240 0.000000
43.885799 64.400200 -748.871277 -0.721467 0.392780 0.570271 0.000000
43.871498 36.781502 -743.725586 0.229073 0.147916 -0.962105 0.000000
43.857899 36.087601 -744.821777 -0.995277 0.097074 0.001067 0.000000
43.856602 90.335701 -755.000122 0.563566 0.566951 -0.600799 1.000000
43.854801 68.442596 -750.869019 0.882978 0.360738 -0.300363 0.000000
43.851601 67.917702 -752.031982 0.986642 0.144990 0.074263 0.000000
43.843800 36.628201 -749.497314 0.481238 0.675746 0.558370 1.000000
43.832298 54.382999 -750.262085 0.323939 0.309011 0.894190 0.000000
43.831200 39.782799 -753.105286 -0.002979 0.999885 -0.014894 1.000000
43.821899 54.938999 -746.687683 -0.251493 0.213013 0.944128 0.000000
43.810299 38.347900 -750.991882 0.104884 0.695782 0.710554 1.000000
43.808102 39.175800 -752.067688 -0.408172 0.122031 0.904712 1.000000
43.796700 63.947201 -751.702515 0.694712 0.279482 0.662771 0.000000
43.782299 37.633400 -746.589783 -0.918204 0.263785 0.295497 0.000000
43.782001 43.871201 -744.513916 -0.571731 0.049166 -0.818966 0.000000
43.779099 35.307800 -745.271973 -0.973628 0.217866 0.067699 0.000000
43.777302 62.808201 -751.552673 0.747540 0.175802 0.640530 0.000000
43.770401 61.078400 -751.283081 0.243272 0.807292 0.537678 0.000000
43.770401 35.183399 -747.013794 0.847256 0.501802 0.174216 0.000000
43.763599 66.750397 -751.797180 0.955449 0.279485 0.094895 0.000000
43.756401 35.694901 -748.469482 0.482518 0.702907 0.522589 1.000000
43.750198 47.182800 -749.054688 0.153943 0.339784 0.927819 0.000000
43.748402 34.338799 -744.877197 -0.981527 0.180525 -0.063363 0.000000
43.745800 48.392799 -745.007629 -0.804336 0.070004 -0.590037 0.000000
43.742100 35.874901 -743.544617 0.773927 0.107204 0.624135 0.000000
43.736801 41.496101 -748.250122 -0.932779 0.127011 0.337330 0.000000
43.724499 67.013199 -750.594299 0.929686 0.267444 -0.253293 0.000000
43.724400 62.802502 -748.788513 -0.686700 0.272450 0.673954 0.000000
43.716202 58.149502 -747.478882 -0.163966 0.935568 0.312775 0.000000
43.699299 42.850300 -744.401123 0.555389 0.203490 0.806309 0.000000
43.698002 46.901299 -744.986023 0.226092 0.228833 0.946846 0.000000
43.697201 57.631901 -751.176392 -0.580343 0.242461 -0.777441 0.000000
43.689899 57.122799 -747.228271 0.286311 0.711780 -0.641401 0.000000
43.679001 34.793701 -743.388184 -0.958941 0.173750 0.224151 0.000000
43.677101 38.947201 -747.417725 0.786896 0.171328 -0.592825 0.000000
43.676998 35.263802 -744.278687 -0.994231 0.031930 -0.102396 0.000000
43.674000 40.604599 -758.086792 0.415229 0.895112 -0.162356 1.000000
43.672100 33.652500 -745.920288 0.992079 0.060229 -0.110231 0.000000
43.669601 40.426102 -747.913025 -0.871318 0.056615 0.487441 0.000000
43.657501 35.677898 -746.160278 0.815521 0.364043 -0.449888 0.000000
43.649700 38.841900 -743.777771 0.653075 0.070642 0.753991 0.000000
43.648201 65.728104 -751.397217 -0.264576 0.803122 -0.533849 0.000000
43.645199 33.202999 -744.414917 -0.962167 0.254955 0.096089 0.000000
43.640499 48.710701 -749.327087 0.183421 0.031544 0.982528 0.000000
43.635899 45.791500 -744.777588 0.299689 0.076544 0.950961 0.000000
43.627201 65.025803 -749.730103 -0.891920 0.315235 0.324199 0.000000
43.624802 59.308201 -750.877625 -0.607206 0.145430 -0.781122 0.000000
43.622398 32.111099 -745.377686 0.971711 0.233550 -0.035093 0.000000
43.619801 34.645500 -745.914673 0.947880 0.107083 -0.300096 0.000000
43.611401 53.390499 -750.043579 0.367193 0.093492 0.925434 0.000000
43.609299 40.410500 -755.231323 0.261767 0.956305 0.130226 1.000000
43.598598 31.311100 -744.851318 -0.977468 0.107509 -0.181653 0.000000
43.591202 41.623501 -744.117615 0.566867 0.084671 0.819446 0.000000
43.581902 65.973900 -750.492615 -0.967620 0.079066 0.239709 0.000000
43.572800 40.323502 -759.915222 -0.676192 0.733863 -0.064880 1.000000
43.571201 36.712101 -746.617004 -0.798651 0.505334 0.326793 0.000000
43.561401 34.222401 -747.272217 0.909782 0.203295 -0.361894 0.000000
43.558300 61.844398 -748.648376 -0.520430 0.842950 0.136338 0.000000
43.547298 40.537201 -743.939880 -0.568947 0.134478 -0.811304 0.000000
43.538200 30.437700 -745.088074 -0.489580 0.867700 -0.086065 0.000000
43.535801 34.077999 -744.033813 0.984012 0.102376 0.145735 0.000000
43.531700 51.099602 -745.645813 0.380952 0.201340 -0.902407 0.000000
43.530102 32.297901 -744.128113 -0.976608 0.105479 -0.187380 0.000000
43.523300 64.694702 -751.144226 0.914756 0.397072 -0.074536 0.000000
43.520000 33.337299 -743.096497 0.577386 0.759718 -0.299089 0.000000
43.519501 52.458401 -746.138123 -0.123076 0.281883 0.951522 0.000000
43.508900 32.765800 -746.193115 0.933182 0.081204 -0.350110 0.000000
43.504398 63.940498 -749.585693 -0.299181 0.954177 -0.006156 0.000000
43.491600 56.636700 -750.477783 -0.352136 0.908597 -0.224613 0.000000
43.490002 54.035801 -746.541992 -0.246801 0.538615 0.805595 0.000000
43.482800 29.556900 -744.578674 0.959564 0.277207 0.048919 0.000000
43.454498 56.245899 -747.123779 -0.548491 0.195998 0.812861 0.000000
43.452099 63.690498 -750.859802 -0.081238 0.839462 -0.537312 0.000000
43.450001 31.372101 -743.919312 -0.976521 0.022490 -0.214243 0.000000
43.430901 28.037500 -745.288391 0.638295 0.765665 0.079606 0.000000
43.426201 46.307301 -748.894104 0.255502 0.195384 0.946860 0.000000
43.424801 60.702499 -748.397705 -0.134748 0.987765 -0.078506 0.000000
43.422600 28.673599 -744.211975 0.970003 0.052865 0.237276 0.000000
43.422401 40.589199 -756.155212 0.211129 0.974158 0.080254 1.000000
43.419300 44.723598 -744.365173 -0.848095 0.017697 -0.529549 0.000000
43.407001 38.011101 -747.379578 -0.793166 0.135419 0.593759 0.000000
43.402901 45.092800 -748.670593 0.174654 0.235983 0.955933 0.000000
43.386902 30.461700 -743.977600 0.995928 0.033668 0.083628 0.000000
43.384899 26.793600 -744.982788 0.815377 0.307541 -0.490488 0.000000
43.383099 55.295101 -750.164429 0.075251 0.904381 0.420038 0.000000
43.381599 52.503399 -749.828796 0.343476 0.543433 0.765967 0.000000
43.380501 32.076302 -742.880615 -0.769374 0.091975 0.632142 0.000000
43.375801 29.425699 -742.607910 0.607157 0.293166 -0.738521 0.000000
43.372799 27.760401 -744.155579 -0.980079 0.198335 0.010439 0.000000
43.364899 62.716000 -750.683777 0.965344 0.259947 0.023188 0.000000
43.364498 31.139299 -745.810181 -0.910022 0.224250 0.348673 0.000000
43.334301 40.535500 -760.788879 -0.812938 0.032071 0.581467 1.000000
43.329899 61.687901 -750.759399 0.935777 0.346145 0.067123 0.000000
43.312698 26.862400 -743.790100 0.980349 0.083822 0.178577 0.000000
43.308201 50.051201 -745.665100 -0.066169 0.317869 0.945823 0.000000
43.305401 62.720402 -749.600403 0.890987 0.339923 -0.300989 0.000000
43.305099 43.700401 -748.404480 0.223535 0.135672 0.965207 0.000000
43.297798 60.440201 -750.760193 -0.918306 0.209939 -0.335617 0.000000
43.297001 30.501600 -742.625793 0.715258 0.332490 0.614700 0.000000
43.291100 58.252499 -750.514893 -0.498547 0.442605 -0.745353 0.000000
43.284901 59.721600 -748.234985 -0.735002 0.220033 0.641371 0.000000
43.282101 29.538500 -743.655823 -0.889798 0.422400 -0.172734 0.000000
43.277802 36.168999 -747.313477 -0.200212 0.976494 -0.079839 0.000000
43.274601 67.556900 -751.363770 -0.435074 0.384076 -0.814369 0.000000
43.258598 33.503399 -746.739685 -0.825642 0.153227 0.542989 0.000000
43.252899 40.759998 -757.275085 0.276908 0.958330 0.070184 1.000000
43.247601 29.340799 -745.455811 0.888920 0.028156 -0.457197 0.000000
43.245098 51.451698 -749.544983 0.509320 0.051348 0.859044 0.000000
43.234200 43.603802 -743.817505 0.519914 0.364426 -0.772582 0.000000
43.229500 39.686600 -743.704285 0.460090 0.184924 0.868401 0.000000
43.228100 42.447701 -748.155029 0.154775 0.502649 0.850523 0.000000
43.222599 25.902599 -743.857300 -0.997329 0.072667 0.007372 0.000000
43.214600 37.319801 -743.346619 0.478310 0.403726 0.779888 0.000000
43.205101 36.393101 -748.831604 0.335712 0.737918 0.585469 1.000000
43.203300 42.397202 -743.687195 -0.225527 0.206620 0.952074 0.000000
43.191502 26.416300 -742.168030 0.957033 0.091700 -0.275099 0.000000
43.189098 61.512600 -749.462524 0.809072 0.484807 -0.332212 0.000000
43.188801 58.734798 -748.069702 -0.793950 0.234612 0.560892 0.000000
43.185600 30.159700 -745.890015 -0.507260 0.861665 0.014880 0.000000
43.179100 28.597799 -743.338379 -0.942798 0.029264 -0.332079 0.000000
43.170898 40.904598 -758.942627 -0.211589 0.976656 0.037058 1.000000
43.153702 37.154400 -747.492920 -0.346178 0.936639 -0.053560 0.000000
43.143700 49.958698 -749.985474 0.768629 0.468358 -0.435719 0.000000
43.133999 31.758400 -746.488770 -0.202822 0.874947 -0.439694 0.000000
43.132999 25.234301 -743.205994 -0.974369 0.167647 -0.150000 0.000000
43.132702 27.750000 -742.176086 -0.794695 0.469080 0.385258 0.000000
43.129799 47.650002 -745.146118 0.150903 0.952158 -0.265750 0.000000
43.103802 48.008801 -749.065918 0.323116 0.504570 0.800628 0.000000
43.095402 40.174301 -753.840820 0.293092 0.955949 -0.016077 1.000000
43.095100 27.540300 -743.221802 0.894185 0.234226 0.381538 0.000000
43.093300 25.433201 -744.906799 0.973249 0.096200 0.208643 0.000000
43.089699 37.509899 -749.987976 0.373204 0.662561 0.649408 1.000000
43.086300 35.483700 -742.968323 0.611415 0.243623 0.752874 0.000000
43.081100 24.418400 -743.623718 0.991878 0.046265 -0.118484 0.000000
43.074902 59.430000 -750.110474 -0.976117 0.017748 -0.216520 0.000000
43.072399 60.574799 -749.615601 -0.955183 0.283065 -0.086600 0.000000
43.065498 57.523102 -747.765503 -0.748296 0.206053 0.630552 0.000000
43.064499 55.225399 -747.094482 -0.481431 0.243008 0.842123 0.000000
43.059200 36.382099 -743.129211 0.505704 0.034262 0.862026 0.000000
43.055500 39.021198 -751.598816 -0.735627 0.339395 -0.586228 1.000000
43.053398 49.022999 -745.503601 -0.101395 0.901442 0.420858 0.000000
43.037399 34.241600 -742.843872 0.831009 0.188523 0.523339 0.000000
43.025799 54.524300 -749.844482 0.285214 0.524731 0.802066 0.000000
43.018600 38.282600 -743.354797 0.381733 0.478374 0.790847 0.000000
43.011700 57.327301 -750.095276 0.278164 0.828276 0.486399 0.000000
43.004902 23.550200 -743.351318 -0.986032 0.165672 0.017138 0.000000
42.992001 64.445602 -750.321594 0.939796 0.180254 0.290332 0.000000
42.989399 49.543098 -749.173523 0.126951 0.736314 -0.664624 0.000000
42.986401 26.280500 -743.044678 -0.894234 0.445088 0.047350 0.000000
42.985298 59.618000 -749.094299 -0.957238 0.288534 0.021052 0.000000
42.978802 51.632801 -746.170715 -0.519402 0.277747 0.808133 0.000000
42.975601 41.229698 -743.553284 0.737239 0.423871 0.526128 0.000000
42.965401 53.305099 -746.645996 -0.604075 0.110233 0.789266 0.000000
42.959599 39.533401 -752.918030 0.219459 0.846051 -0.485836 1.000000
42.953602 24.420300 -744.567871 0.282623 0.958944 -0.023449 0.000000
42.947102 40.870701 -748.366089 -0.344990 0.784651 -0.515078 0.000000
42.946899 38.202900 -750.677979 -0.872887 0.183998 -0.451899 1.000000
42.946098 40.876598 -761.691528 -0.172727 0.984889 0.012583 1.000000
42.944599 40.984600 -759.892090 0.761966 0.643406 -0.073739 1.000000
42.934399 35.306900 -747.463501 -0.542236 0.788851 0.289298 0.000000
42.926102 23.520599 -744.532227 0.207273 0.305974 0.929203 0.000000
42.919701 22.600700 -742.874084 0.879428 0.316352 0.355707 0.000000
42.910999 21.671700 -744.216614 0.514160 0.151743 -0.844165 0.000000
42.910599 58.109600 -749.576477 -0.943269 0.251998 -0.216195 0.000000
42.907200 50.442799 -749.183228 -0.517298 0.467398 -0.716898 0.000000
42.906300 46.468102 -744.767212 -0.114343 0.846718 0.519610 0.000000
42.906101 24.767300 -741.803284 0.886318 0.457677 0.070518 0.000000
42.901798 23.445299 -741.659119 0.682635 0.445632 0.579155 0.000000
42.886002 28.610500 -742.342590 -0.981090 0.185224 -0.056165 0.000000
42.885300 56.461899 -749.812683 0.927347 0.363110 0.090440 0.000000
42.881001 24.241301 -742.684570 0.857513 0.199039 0.474400 0.000000
42.876099 57.833900 -748.618713 -0.999995 0.000981 -0.002944 0.000000
42.870800 32.872898 -742.437317 -0.563712 0.644483 -0.516596 0.000000
42.870201 53.263199 -749.530579 -0.526463 0.324839 -0.785695 0.000000
42.861698 56.456402 -747.811218 -0.871902 0.290634 0.394106 0.000000
42.847401 21.483999 -743.083618 -0.976302 0.159166 0.146633 0.000000
42.843800 39.681400 -748.198975 0.972470 0.032617 -0.230735 0.000000
42.833801 35.894402 -748.162476 0.769493 0.322898 0.551015 1.000000
42.828400 32.514000 -746.877319 -0.552998 0.020583 0.832928 0.000000
42.827400 41.052799 -758.115723 0.448391 0.892719 0.044704 1.000000
42.824299 54.344200 -747.078979 -0.774567 0.091898 0.625780 0.000000
42.814201 20.137300 -743.871216 0.250506 0.913696 -0.320011 0.000000
42.808201 47.133499 -748.757690 -0.660535 0.417618 -0.623931 0.000000
42.797001 30.747601 -746.549011 -0.792017 0.299982 0.531715 0.000000
42.797001 27.352100 -745.464417 -0.584600 0.046486 0.809989 0.000000
42.794701 22.629900 -743.843079 -0.957525 0.140929 0.251564 0.000000
42.794701 25.566000 -742.382385 0.896054 0.022634 0.443367 0.000000
42.789902 31.502001 -742.472778 -0.587850 0.777079 0.224903 0.000000
42.778198 45.346699 -744.754272 -0.149495 0.702174 0.696134 0.000000
42.765701 28.649401 -745.870483 0.657881 0.046890 -0.751661 0.000000
42.759201 58.747002 -748.897278 -0.935690 0.328241 0.129389 0.000000
42.758701 -1.642300 -740.183899 0.331734 0.939691 0.083264 0.000000
42.753899 56.982201 -748.949402 -0.582188 0.763032 -0.280783 0.000000
42.746799 20.545601 -742.805420 -0.949905 0.312517 -0.003706 0.000000
42.739399 34.001099 -747.620972 -0.542351 0.040226 0.839188 0.000000
42.736301 40.848900 -762.763489 0.923510 0.369677 -0.102309 1.000000
42.725899 40.634399 -755.487183 0.098515 0.981497 0.164191 1.000000
42.725800 44.563801 -748.367004 -0.399215 0.411939 -0.819106 0.000000
42.721001 29.959700 -742.163391 0.609272 0.771134 -0.184767 0.000000
42.719501 22.172501 -741.403076 -0.974778 0.150063 0.165195 0.000000
42.718601 21.863600 -742.261780 0.420905 0.502793 0.755009 0.000000
42.713200 38.455700 -748.023987 -0.975699 0.219035 0.005857 0.000000
42.708302 41.662899 -747.904724 0.415800 0.072254 0.906581 0.000000
42.704102 45.703800 -748.466370 0.465519 0.134035 0.874830 0.000000
42.703800 39.147301 -743.114807 0.514693 0.685698 0.514693 0.000000
42.691799 26.205500 -745.233276 -0.639025 0.129592 0.758190 0.000000
42.682400 55.222500 -749.301025 0.933873 0.050939 0.353958 0.000000
42.675400 52.295700 -749.265686 0.298978 0.795692 0.526770 0.000000
42.671799 40.942699 -756.530212 0.370600 0.891524 0.260462 1.000000
42.671101 55.488899 -747.925293 -0.932199 0.053755 0.357933 0.000000
42.664600 29.502600 -746.296814 -0.743007 0.079971 0.664489 0.000000
42.660599 44.160599 -744.536072 -0.354900 0.221631 0.908254 0.000000
42.660099 41.303699 -760.891602 0.955617 0.266837 -0.124874 1.000000
42.656898 19.537701 -742.677429 0.969612 0.240875 0.042795 0.000000
42.652500 18.662201 -743.616516 0.944012 0.153487 0.292033 0.000000
42.635601 50.480999 -746.118286 -0.515023 0.730306 0.448782 0.000000
42.632900 52.336201 -746.631226 -0.720041 0.241064 0.650715 0.000000
42.629200 42.847500 -744.238098 -0.241016 0.027856 0.970121 0.000000
42.623901 20.636299 -741.188477 0.777568 0.625777 0.061575 0.000000
42.616402 43.137100 -748.244019 0.267230 0.766903 -0.583479 0.000000
42.584702 18.477100 -742.406006 -0.999395 0.033550 0.009150 0.000000
42.578999 25.703100 -741.412415 0.827435 0.556845 0.072632 0.000000
42.575500 54.782799 -748.500610 -0.411660 0.840538 -0.352181 0.000000
42.567799 26.860201 -741.659180 0.717162 0.606579 0.343132 0.000000
42.553299 19.158199 -741.815979 -0.948239 0.310026 0.068751 0.000000
42.538399 16.974100 -743.271423 0.694464 0.706463 -0.136493 0.000000
42.527901 53.765499 -748.746704 0.962994 0.262407 -0.061521 0.000000
42.526299 -1.105300 -738.970825 0.032820 0.920272 0.389901 0.000000
42.521599 37.028198 -749.397522 0.050031 0.696144 0.716157 1.000000
42.512100 53.505001 -747.442078 0.900315 0.202171 -0.385434 0.000000
42.509102 17.510900 -742.289795 0.996521 0.053249 -0.064116 0.000000
42.506302 51.257099 -748.892090 -0.492793 0.138098 -0.859118 0.000000
42.505600 41.829800 -744.049927 -0.214315 0.214315 0.952963 0.000000
42.502399 49.580299 -745.987183 -0.769452 0.188156 0.610361 0.000000
42.491600 48.116100 -745.627319 -0.653015 0.168962 0.738257 0.000000
42.487999 48.794102 -749.367310 0.639720 0.596065 -0.485247 0.000000
42.475601 37.038101 -742.758606 0.502252 0.164454 -0.848939 0.000000
42.470100 16.776501 -741.658875 -0.988412 0.010097 -0.151459 0.000000
42.458199 40.203899 -743.712891 -0.173255 0.104445 0.979323 0.000000
42.452999 41.427799 -759.262573 0.523246 0.850796 0.048577 1.000000
42.447102 41.070499 -763.656677 0.169866 0.975156 0.142184 1.000000
42.435902 56.163799 -748.617126 -0.169905 0.953875 -0.247499 0.000000
42.421299 17.991100 -741.520081 0.702104 0.337206 0.627170 0.000000
42.418098 40.234798 -754.441223 0.152694 0.360021 -0.920364 1.000000
42.416401 19.058800 -740.785583 -0.760357 0.626266 -0.172185 0.000000
42.414700 15.548900 -743.148621 0.477491 0.759720 0.441392 0.000000
42.406502 22.625401 -744.732178 0.489667 0.644475 -0.587263 0.000000
42.401798 34.739201 -742.389526 0.161464 0.358029 0.919644 0.000000
42.400799 47.090099 -745.292297 0.732429 0.236824 -0.638327 0.000000
42.400200 17.950701 -743.121521 -0.963217 0.142071 0.228096 0.000000
42.397999 51.154400 -746.748779 -0.883131 0.357781 0.303435 0.000000
42.387798 22.887400 -740.968323 0.565286 0.806474 -0.173354 0.000000
42.382599 24.065901 -741.238525 0.087814 0.253260 -0.963405 0.000000
42.378201 52.602798 -747.578308 -0.813725 0.546032 -0.199249 0.000000
42.375000 31.563299 -746.997620 -0.372280 0.837236 -0.400554 0.000000
42.370701 24.982599 -745.319519 -0.288189 0.927030 -0.239921 0.000000
42.367298 15.902900 -741.385315 -0.978856 0.029591 -0.202399 0.000000
42.365898 48.332199 -748.472229 -0.804594 0.253673 -0.536915 0.000000
42.356499 16.463499 -742.511475 -0.983248 0.114894 0.141501 0.000000
42.333302 49.969200 -748.581482 0.463144 0.109058 0.879548 0.000000
42.320599 35.887001 -742.547180 0.290575 0.815181 -0.501046 0.000000
42.320301 33.615398 -742.472473 0.104698 0.744683 0.659155 0.000000
42.318802 18.094400 -740.617126 0.018924 0.326749 -0.944922 0.000000
42.317001 28.001301 -741.661316 -0.296249 0.065406 -0.952869 0.000000
42.312599 40.322102 -747.649780 0.520218 0.761574 -0.386495 0.000000
42.310902 27.846500 -746.062073 0.136770 0.689862 -0.710904 0.000000
42.301201 15.088100 -741.788208 -0.992079 0.110231 0.060229 0.000000
42.300301 46.587399 -748.215881 0.747110 0.192554 0.636199 0.000000
42.297699 41.145802 -757.328430 0.304202 0.944769 0.121949 1.000000
42.297298 29.166599 -741.783630 -0.132622 0.966985 0.217604 0.000000
42.292999 23.814899 -745.170227 -0.767822 0.531818 0.357239 0.000000
42.286098 21.027000 -744.416687 0.496827 0.377071 -0.781653 0.000000
42.285801 51.671600 -747.717773 -0.386555 0.852284 -0.352402 0.000000
42.280899 38.652100 -751.178101 -0.766185 0.616312 0.181988 1.000000
42.271099 43.935600 -747.864929 0.632078 0.318464 0.706440 0.000000
42.270100 39.019699 -752.109375 0.481233 0.771605 0.415981 1.000000
42.265800 41.398701 -762.211426 0.575774 0.817184 -0.026361 1.000000
42.252201 39.997501 -753.402588 -0.429899 0.786796 0.442877 1.000000
