ply
format ascii 1.0
element vertex 694
property float x
property float y
property float z
property float nx
property float ny
property float nz
property float label
element face 0
property list uchar int vertex_indices
end_header
42.064701 96.880997 -753.459778 0.313424 0.182483 0.931915 0.000000
42.060902 66.721603 -747.865723 -0.590233 0.194700 0.783401 0.000000
42.060600 87.238403 -751.301819 0.263552 0.187081 -0.946330 0.000000
42.060398 42.826900 -749.748474 0.385308 0.872654 0.300022 1.000000
42.060398 89.772598 -745.803589 0.339720 0.213580 -0.915955 0.000000
42.059200 91.717003 -752.412903 0.293774 0.018593 -0.955694 0.000000
42.055302 49.000900 -743.110596 -0.026851 0.187957 0.981810 0.000000
42.052200 73.670097 -747.825684 0.115157 0.823588 0.555375 0.000000
42.049198 57.719299 -742.438782 0.017014 0.009007 -0.999815 0.000000
42.047401 43.272099 -751.139526 0.481443 0.845943 0.229331 1.000000
42.047298 60.508598 -746.192627 0.777085 0.177924 -0.603724 0.000000
42.044800 67.491402 -748.156311 -0.644948 0.145827 0.750184 0.000000
42.041199 93.295898 -745.885803 0.053887 0.931854 -0.358810 0.000000
42.040600 40.550999 -745.682983 -0.182356 0.041177 0.982370 1.000000
42.038601 42.582699 -748.632324 0.139019 0.954597 0.263474 1.000000
42.036999 85.416901 -745.685120 -0.300180 0.104468 0.948145 0.000000
42.029598 67.041801 -743.327026 -0.021470 0.148030 0.988750 0.000000
42.028000 72.566803 -743.609680 0.455521 0.754817 0.471966 0.000000
42.027199 92.408897 -745.539307 -0.141670 0.597997 0.788879 0.000000
42.026501 50.299099 -741.335571 -0.774406 0.471165 0.422255 0.000000
42.024899 51.755600 -743.438477 -0.884027 0.061868 0.463324 0.000000
42.022202 95.187897 -752.544373 0.985126 0.169770 -0.026563 0.000000
42.021400 46.923401 -741.435791 -0.619634 0.129276 0.774171 0.000000
42.015999 73.765999 -744.048523 -0.184477 0.071138 0.980259 0.000000
42.012901 83.116096 -750.206787 0.130654 0.826496 0.547572 0.000000
42.012402 90.280098 -752.091125 -0.181044 0.294369 0.938387 0.000000
42.009499 94.123100 -752.928589 -0.394544 0.215606 0.893224 0.000000
42.009102 80.481499 -744.856689 -0.592874 0.043656 0.804111 0.000000
42.008499 53.567299 -744.010315 -0.828404 0.215110 0.517180 0.000000
42.008099 44.001499 -753.455688 -0.310111 0.938529 0.151640 1.000000
42.006802 61.110298 -746.372070 -0.483621 0.163167 0.859934 0.000000
42.005402 88.418198 -745.852417 -0.621572 0.260965 0.738611 0.000000
42.005001 71.180199 -747.407776 0.013248 0.254115 0.967083 0.000000
42.005001 58.888401 -745.657776 -0.703716 0.073999 0.706618 0.000000
42.004700 51.254002 -743.415588 -0.853801 0.089500 0.512849 0.000000
42.003700 72.922501 -747.697021 -0.401199 0.229468 0.886783 0.000000
41.999699 42.684601 -749.220093 0.363990 0.901936 0.232428 1.000000
41.999401 49.095901 -742.051270 -0.973250 0.197672 0.117092 0.000000
41.998199 57.604500 -745.426514 0.639622 0.046802 -0.767263 0.000000
41.998001 71.304497 -748.829529 0.354922 0.930834 -0.087056 0.000000
41.997799 81.053299 -745.091675 -0.636967 0.058687 0.768654 0.000000
41.993000 56.761902 -741.998474 -0.589880 0.357849 0.723869 0.000000
41.992298 47.582100 -742.973572 -0.294861 0.036387 0.954847 0.000000
41.990200 62.807899 -746.892273 -0.596648 0.256606 0.760372 0.000000
41.988800 70.365601 -743.687683 -0.007736 0.131508 0.991285 0.000000
41.986599 56.118999 -744.691895 -0.820864 0.256035 0.510518 0.000000
41.986500 62.964901 -742.936218 0.065566 0.296974 0.952632 0.000000
41.980099 65.562202 -747.624512 -0.531069 0.335328 0.778152 0.000000
41.977100 35.359798 -742.828674 0.133054 0.740021 -0.659292 1.000000
41.974899 55.456001 -744.716614 -0.810737 0.216094 0.544067 0.000000
41.974800 84.114799 -750.462830 -0.165522 0.050478 0.984913 0.000000
41.971901 78.579201 -749.059814 -0.193003 0.146989 0.970126 0.000000
41.969299 83.395699 -745.456177 -0.458199 0.091079 0.884171 0.000000
41.967201 50.343300 -742.804688 -0.930345 0.101271 0.352424 0.000000
41.967201 52.189098 -741.860901 0.026054 0.146129 0.988922 0.000000
41.961899 59.962799 -746.040100 0.583216 0.084962 -0.807862 0.000000
41.960201 49.830502 -741.539429 0.210140 0.333079 0.919184 0.000000
41.958900 88.632896 -751.673218 -0.063894 0.327293 0.942760 0.000000
41.958302 80.598297 -749.568787 0.127561 0.825479 0.549830 0.000000
41.957500 69.572899 -748.729187 0.460253 0.614229 -0.641007 0.000000
41.957100 68.955002 -748.679382 0.266820 0.941475 0.205991 0.000000
41.954498 41.813099 -746.830872 -0.276708 0.842492 0.462211 1.000000
41.953098 47.039398 -742.912476 -0.678229 0.203313 0.706165 0.000000
41.952999 72.416199 -747.601013 -0.333282 0.150737 0.930700 0.000000
41.952499 42.127899 -747.536072 -0.156557 0.915365 0.370941 1.000000
41.951199 39.024399 -745.012817 0.352654 0.749188 0.560672 1.000000
41.947899 90.335403 -745.828491 -0.472179 0.025560 0.881132 0.000000
41.940899 52.852100 -743.911377 -0.905343 0.009145 0.424583 0.000000
41.938000 64.335503 -747.379700 -0.556948 0.220619 0.800710 0.000000
41.937801 43.650501 -752.287903 0.262594 0.933824 0.242935 1.000000
41.935299 86.126297 -745.753479 0.338302 0.037303 -0.940298 0.000000
41.929901 83.943703 -745.521423 -0.469793 0.211632 0.857034 0.000000
41.928299 69.505302 -747.004211 -0.304202 0.121949 0.944769 0.000000
41.924999 42.382801 -748.011475 0.118184 0.949453 0.290812 1.000000
41.921600 48.471901 -742.033630 -0.986047 0.084247 0.143576 0.000000
41.921299 78.422203 -744.666382 -0.507266 0.107776 0.855024 0.000000
41.920898 65.472504 -746.174011 0.144129 0.815741 0.560172 0.000000
41.919800 49.494900 -742.616516 -0.691416 0.700615 0.176303 0.000000
41.918098 45.981300 -741.423584 0.674267 0.399259 0.621254 0.000000
41.915699 36.658901 -744.041870 0.412486 0.402930 0.817008 1.000000
41.910301 37.433601 -744.435608 0.321415 0.608912 0.725203 1.000000
41.910198 95.519203 -752.925293 0.918204 0.295497 0.263785 0.000000
41.908401 85.264297 -750.809692 0.001271 0.369856 0.929088 0.000000
41.907902 48.964699 -741.178772 0.520504 0.850580 0.074761 0.000000
41.907101 54.618999 -744.548218 0.851975 0.004038 -0.523567 0.000000
41.906799 82.137802 -745.233521 -0.793950 0.234612 0.560892 0.000000
41.902401 53.493099 -742.018127 0.097100 0.325885 0.940410 0.000000
41.901199 67.960098 -748.385925 -0.662058 0.107640 0.741682 0.000000
41.899799 93.872200 -745.947327 0.378635 0.915152 0.138321 0.000000
41.899399 57.105801 -745.260376 -0.755342 0.215590 0.618853 0.000000
41.897701 62.405499 -742.918701 0.157908 0.052636 -0.986050 0.000000
41.897499 58.630001 -742.527710 -0.057819 0.112237 0.991998 0.000000
41.895000 56.318199 -742.305115 0.017082 0.011053 -0.999793 0.000000
41.894199 75.106400 -744.256775 -0.383956 0.185507 0.904525 0.000000
41.873199 87.910400 -745.909485 -0.379606 0.138675 0.914696 0.000000
41.869499 89.221802 -751.831421 0.130546 0.828746 0.544185 0.000000
41.868801 43.559299 -751.791870 0.120422 0.962084 0.244729 1.000000
41.868599 62.256302 -746.852783 -0.587273 0.078973 0.805527 0.000000
41.868099 65.751198 -743.242188 -0.100722 0.161398 0.981736 0.000000
41.866501 64.362297 -746.164978 0.143889 0.814383 0.562206 0.000000
41.865299 79.342300 -744.805176 -0.567388 0.103029 0.816980 0.000000
41.863201 63.278099 -747.048523 -0.532843 0.247003 0.809362 0.000000
41.862301 52.705200 -741.950684 -0.005285 0.081382 0.996669 0.000000
41.857201 61.680698 -746.660889 -0.671874 0.363042 0.645590 0.000000
41.856201 45.199600 -741.320374 0.396226 0.054698 0.916522 0.000000
41.855400 93.157600 -752.740173 0.298994 0.049620 -0.952964 0.000000
41.855099 54.558998 -742.153809 0.028474 0.874569 0.484064 0.000000
41.853199 72.934303 -743.979126 -0.224975 0.182377 0.957144 0.000000
41.852798 86.749496 -745.836487 0.260877 0.003607 -0.965365 0.000000
41.851799 50.365700 -743.492615 -0.927987 0.171643 0.330726 0.000000
41.850601 46.402802 -742.847290 -0.648389 0.269233 0.712113 0.000000
41.848801 44.196999 -753.919312 0.449729 0.880658 0.148946 1.000000
41.847198 70.660400 -748.674927 0.072946 0.218839 -0.973030 0.000000
41.846699 38.534100 -744.904175 0.297443 0.315201 0.901208 1.000000
41.844898 39.796001 -745.223999 -0.087575 0.201052 0.975658 1.000000
41.840000 52.101799 -743.891602 -0.912233 0.199686 0.357710 0.000000
41.839600 38.039700 -744.575317 0.387746 0.359716 0.848680 1.000000
41.832600 59.560699 -742.594788 -0.016972 0.155010 0.987767 0.000000
41.827400 82.327103 -750.030212 -0.001240 0.323658 0.946173 0.000000
41.825199 96.275299 -753.343689 -0.121165 0.123564 0.984912 0.000000
41.824001 53.919102 -744.472412 -0.814355 0.236426 0.530026 0.000000
41.823502 47.613800 -742.030884 -0.962062 0.213937 0.169312 0.000000
41.820599 66.222298 -747.924622 -0.618204 0.181645 0.764741 0.000000
41.819698 48.160702 -741.124817 0.935690 0.328241 0.129389 0.000000
41.815701 51.061901 -741.799011 -0.003219 0.101947 0.994785 0.000000
41.814999 48.250198 -742.517090 -0.937968 0.120114 0.325252 0.000000
41.814602 79.242500 -749.235413 -0.084325 0.289299 0.953518 0.000000
41.813202 35.995800 -743.557983 0.545574 0.472163 0.692395 1.000000
41.811600 50.559200 -741.707581 0.025447 0.454020 -0.890628 0.000000
41.810299 56.425598 -745.064209 -0.762317 0.215809 0.610164 0.000000
41.807598 92.028297 -745.803528 -0.462378 0.149294 0.874024 0.000000
41.806301 79.815697 -749.401672 -0.048504 0.365749 0.929449 0.000000
41.804100 58.078899 -745.544678 -0.718846 0.265005 0.642677 0.000000
41.803299 45.830299 -742.722717 -0.656560 0.227210 0.719239 0.000000
41.798302 67.987900 -743.176819 0.029008 0.548395 0.835716 0.000000
41.797298 55.065800 -742.156616 -0.005742 0.189483 0.981867 0.000000
41.791199 44.612301 -741.274597 -0.068310 0.379052 -0.922851 0.000000
41.790501 44.470299 -754.637390 0.519667 0.796186 0.309893 1.000000
41.787102 66.437401 -743.204224 -0.148721 0.107611 0.983007 0.000000
41.786800 60.607700 -742.711670 0.122137 0.572424 0.810811 0.000000
41.785000 70.244499 -747.233521 0.109385 0.818202 0.564428 0.000000
41.783699 97.867699 -753.665222 0.253114 0.129836 0.958685 0.000000
41.782101 77.223602 -748.766418 -0.116718 0.428905 0.895778 0.000000
41.778000 74.457298 -744.220886 -0.311307 0.125332 0.942008 0.000000
41.773201 71.461304 -743.858276 0.172601 0.740809 -0.649162 0.000000
41.771702 63.682999 -743.009216 0.108565 0.195917 -0.974592 0.000000
41.770802 44.986801 -742.672974 -0.507212 0.101442 0.855830 0.000000
41.769798 79.987801 -745.011902 -0.648359 0.052724 0.759507 0.000000
41.769600 81.190002 -749.773010 0.007795 0.141417 0.989919 0.000000
41.768902 88.866600 -745.941711 0.428871 0.075361 -0.900217 0.000000
41.766998 68.404800 -746.797485 -0.163700 0.216084 0.962554 0.000000
41.765598 46.942001 -741.891602 -0.989784 0.077744 0.119517 0.000000
41.765499 63.840500 -747.265625 -0.418545 0.325189 0.847981 0.000000
41.763699 81.645699 -745.239990 -0.651463 0.104411 0.751462 0.000000
41.763302 75.587303 -744.359314 -0.340563 0.230423 0.911549 0.000000
41.762600 41.502602 -746.395874 -0.423341 0.682326 0.595998 1.000000
41.760700 49.668301 -743.085327 -0.900579 0.092686 0.424697 0.000000
41.759399 66.933502 -748.313293 -0.462810 0.248970 0.850776 0.000000
41.757702 53.155800 -744.305420 -0.896775 0.122865 0.425086 0.000000
41.756699 48.591599 -741.528381 0.191843 0.097778 0.976543 0.000000
41.744701 47.515202 -741.244324 -0.322941 0.008728 -0.946379 0.000000
41.739601 44.100800 -741.216797 0.161248 0.510371 -0.844701 0.000000
41.739399 90.824799 -745.884277 0.512398 0.042815 -0.857680 0.000000
41.737801 82.900703 -745.386597 -0.551067 0.147050 0.821402 0.000000
41.737202 84.609001 -745.543396 -0.174374 0.322243 0.930459 0.000000
41.736500 77.566704 -744.661194 -0.484099 0.153566 0.861432 0.000000
41.732601 43.290401 -750.694275 0.895616 0.370345 0.246405 1.000000
41.731499 58.138100 -742.463623 0.051281 0.070921 0.996163 0.000000
41.731201 64.766403 -747.559326 -0.588962 0.052258 0.806469 0.000000
41.729198 54.031300 -742.095825 0.003824 0.375998 0.926612 0.000000
41.728500 97.345497 -753.537170 0.255921 0.894983 0.365390 0.000000
41.728199 72.258400 -743.979919 -0.249595 0.164172 0.954332 0.000000
41.726101 57.339699 -742.393616 0.003545 0.232790 0.972520 0.000000
41.725201 94.852097 -753.154724 0.524881 0.636270 -0.565386 0.000000
41.724899 94.486000 -745.927673 0.560967 0.451104 -0.694134 0.000000
41.723202 77.827698 -748.908508 0.118318 0.828223 0.547766 0.000000
41.722198 44.023602 -752.939514 0.448758 0.872338 0.194017 1.000000
41.722099 76.658798 -744.504883 -0.428478 0.123028 0.895137 0.000000
41.722099 55.709599 -742.258423 0.216716 0.841099 -0.495567 0.000000
41.722000 92.610001 -745.885681 0.454065 0.009267 -0.890920 0.000000
41.720200 51.565399 -741.828491 0.169421 0.660895 -0.731105 0.000000
41.717999 41.023201 -745.985779 -0.613140 0.413745 0.672959 1.000000
41.717499 35.307098 -742.402222 0.179522 0.722689 -0.667452 1.000000
41.717400 89.733002 -751.975708 0.133967 0.828828 0.543228 0.000000
41.712299 96.256699 -752.642090 -0.951546 0.264393 0.157025 0.000000
41.709702 55.735600 -745.062317 -0.725239 0.139642 0.674187 0.000000
41.706799 69.837196 -743.674194 -0.097673 0.057257 0.993570 0.000000
41.688900 64.267097 -743.086914 -0.049121 0.280871 0.958488 0.000000
41.687698 51.494499 -743.727722 -0.833469 0.198157 0.515813 0.000000
41.683201 46.342701 -741.702698 0.861144 0.506798 0.039830 0.000000
41.680599 59.049301 -746.007813 -0.026353 0.583919 -0.811384 0.000000
41.678299 65.100304 -743.169128 0.102712 0.940416 0.324143 0.000000
41.678200 48.385300 -743.239929 0.587654 0.801613 0.109910 0.000000
41.674801 43.285702 -741.113586 0.289875 0.208654 -0.934043 0.000000
41.673401 49.163502 -741.608826 -0.047775 0.094439 0.994384 0.000000
41.670502 70.918900 -743.792480 -0.138866 0.089016 0.986302 0.000000
41.670101 67.441002 -743.446716 -0.150854 0.229561 0.961533 0.000000
41.667000 43.144100 -750.166077 0.393890 0.848499 0.353412 1.000000
41.665401 69.113899 -743.613708 0.113310 0.018702 -0.993384 0.000000
41.663200 44.163300 -742.643188 -0.013089 0.017116 0.999768 0.000000
41.660099 91.542801 -745.999084 -0.518339 0.025985 0.854780 0.000000
41.655800 56.776001 -742.382385 0.136382 0.392274 -0.909682 0.000000
41.646400 74.455902 -748.137085 -0.176346 0.148435 0.973072 0.000000
41.645199 47.569302 -742.565979 -0.930480 0.040456 0.364101 0.000000
41.642700 86.315598 -751.083618 0.138648 0.606772 0.782691 0.000000
41.641701 49.341301 -743.491516 0.872830 0.244873 -0.422143 0.000000
41.639198 46.618698 -741.286377 0.181190 0.003419 0.983442 0.000000
41.637001 80.544701 -745.283325 -0.614878 0.171558 0.769736 0.000000
41.634499 96.682198 -753.087585 0.781150 0.622368 -0.049619 0.000000
41.629299 37.107399 -744.159119 0.355082 0.496472 0.792106 1.000000
41.626301 78.045898 -744.836487 -0.535391 0.111721 0.837183 0.000000
41.626202 35.917000 -743.053772 0.041421 0.110828 0.992976 1.000000
41.625999 54.950699 -744.953613 -0.629565 0.172254 0.757612 0.000000
41.625599 78.712097 -744.985107 -0.547766 0.118318 0.828223 0.000000
41.625301 91.113197 -752.314880 0.179027 0.923328 0.339728 0.000000
41.623600 76.244102 -748.538818 -0.116863 0.194772 0.973862 0.000000
41.623299 87.201302 -745.970520 -0.359012 0.076073 0.930228 0.000000
41.622898 89.595802 -746.075989 0.449492 0.084889 -0.889242 0.000000
41.622200 60.764400 -746.475220 -0.505067 0.086300 0.858755 0.000000
41.619499 92.400703 -752.639526 0.194392 0.303475 -0.932800 0.000000
41.617802 93.505096 -753.063782 -0.908513 0.181703 -0.376282 0.000000
41.615002 95.427200 -753.466003 -0.607678 0.119761 0.785102 0.000000
41.613800 44.750702 -755.200989 0.887065 0.405895 0.219921 1.000000
41.613098 46.852600 -742.399170 0.881052 0.315849 -0.352118 0.000000
41.611599 97.384201 -753.006226 0.952449 0.298682 0.060249 0.000000
41.608898 66.941200 -746.490417 -0.162738 0.207003 0.964710 0.000000
41.603401 94.203003 -753.226379 -0.100722 0.161398 0.981736 0.000000
41.602299 63.502800 -746.231812 0.143889 0.814383 0.562206 0.000000
41.601601 52.517101 -744.157898 -0.778179 0.148439 0.610248 0.000000
41.596600 68.491798 -743.555908 -0.100736 0.241002 0.965282 0.000000
41.593800 65.218697 -747.885498 -0.597352 0.690016 0.408715 0.000000
41.593700 75.404999 -748.344116 -0.289423 0.156261 0.944361 0.000000
41.590801 42.458099 -741.023010 0.175561 0.305504 -0.935866 0.000000
41.590698 45.841099 -741.808716 -0.973303 0.185571 0.135076 0.000000
41.589901 46.364201 -742.239014 -0.607401 0.777049 0.165104 0.000000
41.581001 61.151001 -742.782227 -0.114698 0.136430 0.983987 0.000000
41.578602 65.816803 -748.153870 -0.345778 0.417749 0.840192 0.000000
41.575100 87.363403 -751.336487 -0.042489 0.143544 -0.988731 0.000000
41.574299 71.826698 -747.576172 -0.106251 0.201252 0.973760 0.000000
41.568600 45.306599 -741.773315 -0.921131 0.378491 0.090892 0.000000
41.568199 91.865303 -752.511230 0.143080 0.830457 0.538396 0.000000
41.566799 50.729900 -743.940186 -0.759163 0.076639 0.646373 0.000000
41.566601 61.705399 -742.860229 0.182796 0.390060 -0.902463 0.000000
41.566200 56.769100 -745.423889 -0.565537 0.230863 0.791752 0.000000
41.565102 73.486000 -744.164612 -0.324534 0.117155 0.938591 0.000000
41.564301 73.108002 -747.858521 -0.072944 0.354109 0.932355 0.000000
41.562901 42.967701 -749.641113 0.344566 0.868306 0.356817 1.000000
41.556301 41.822300 -741.030029 -0.996550 0.020382 0.080453 0.000000
41.550598 45.950298 -740.914673 0.807321 0.529365 0.260779 0.000000
41.550499 57.444302 -745.674377 -0.538441 0.185513 0.821989 0.000000
41.549099 59.967098 -746.328674 -0.561293 0.128169 0.817632 0.000000
41.542099 47.850800 -743.244019 0.122541 0.798729 0.589081 0.000000
41.541302 58.984699 -742.460022 -0.049702 0.085045 0.995137 0.000000
41.540401 76.019997 -744.494507 -0.407290 0.086395 0.909203 0.000000
41.539700 43.576302 -742.924927 0.264612 0.144938 -0.953401 0.000000
41.536400 82.467598 -745.557312 -0.410149 0.234158 0.881447 0.000000
41.535900 40.339001 -745.710388 -0.368094 0.574227 0.731280 1.000000
41.534401 90.303001 -746.114380 0.519509 0.107931 -0.847621 0.000000
41.533298 42.679699 -748.704712 0.134980 0.936678 0.323133 1.000000
41.532501 66.520699 -748.489014 -0.567457 0.520309 0.638178 0.000000
41.532501 93.388802 -745.932678 0.395397 0.496280 -0.772895 0.000000
41.532299 50.132999 -741.661621 -0.038848 0.038848 0.998490 0.000000
41.531300 46.747398 -743.048706 -0.482057 0.342054 0.806610 0.000000
41.528000 85.415802 -745.838989 0.337662 0.203737 -0.918954 0.000000
41.526699 41.851501 -747.167480 -0.308265 0.804652 0.507452 1.000000
41.526501 81.053802 -745.395508 -0.517093 0.231695 0.823973 0.000000
41.526402 51.970600 -744.319275 -0.714829 0.293963 0.634511 0.000000
41.524799 64.140297 -747.628601 -0.529743 0.222645 0.818414 0.000000
41.520000 95.022102 -746.067322 0.104979 0.218811 -0.970104 0.000000
41.518501 39.406200 -745.104004 -0.164543 0.587223 0.792524 1.000000
41.513699 43.682301 -751.460083 0.806637 0.532037 0.257437 1.000000
41.509102 71.280296 -747.457214 -0.067611 0.113448 0.991241 0.000000
41.505798 35.213200 -741.896484 0.491739 0.092112 -0.865857 0.000000
41.503601 54.207600 -744.874207 -0.614446 0.212038 0.759932 0.000000
41.501202 47.342201 -743.230225 -0.738161 0.156120 0.656312 0.000000
41.498901 38.892399 -744.743530 0.475007 0.491558 0.729889 1.000000
41.495399 68.272400 -748.404480 0.102361 0.969273 -0.223678 0.000000
41.489700 53.438999 -744.655884 -0.748785 0.067809 0.659335 0.000000
41.488998 41.126202 -740.990173 0.934959 0.034915 0.353034 0.000000
41.488499 62.684399 -747.121826 -0.623352 0.113471 0.773664 0.000000
41.487999 78.697899 -749.129822 -0.057020 0.005184 -0.998360 0.000000
41.487099 73.858902 -747.990417 0.112278 0.823861 0.555559 0.000000
41.484798 49.827000 -743.581726 -0.895127 0.087431 0.437155 0.000000
41.481499 45.055901 -755.752014 0.564166 0.779086 0.273391 1.000000
41.481201 44.574100 -754.251770 0.608398 0.760886 0.225621 1.000000
41.480000 56.177898 -745.369629 -0.619239 0.142440 0.772175 0.000000
41.479599 63.061798 -742.997009 -0.073724 0.301364 0.950655 0.000000
41.476002 83.487297 -745.636230 -0.359756 0.067703 0.930587 0.000000
41.475399 79.491203 -745.171875 -0.656888 0.126611 0.743282 0.000000
41.474300 84.127403 -750.494629 0.069890 0.069890 0.995103 0.000000
41.474300 52.306702 -741.877380 -0.051923 0.139615 0.988844 0.000000
41.473301 47.092499 -741.405212 -0.050996 0.118990 0.991585 0.000000
41.472301 44.552101 -741.688477 0.964135 0.215267 -0.155253 0.000000
41.465599 81.606201 -749.848328 0.127766 0.826809 0.547779 0.000000
41.465199 90.213203 -752.101318 0.106996 0.138253 0.984600 0.000000
41.464199 99.019501 -753.885315 0.252234 0.238299 0.937865 0.000000
41.464001 37.703701 -744.270691 -0.767868 0.290931 -0.570734 1.000000
41.462799 53.051800 -741.953491 0.003325 0.142972 0.989721 0.000000
41.462399 82.668999 -750.122925 0.104727 0.257292 0.960642 0.000000
41.458599 70.411598 -743.776428 -0.295270 0.153758 0.942960 0.000000
41.458302 83.221497 -750.234314 0.130654 0.826496 0.547572 0.000000
41.457500 35.409801 -742.918823 0.213677 0.554944 0.803977 1.000000
41.452202 44.001598 -741.653015 -0.613357 0.777516 0.138789 0.000000
41.450298 62.550301 -746.174194 -0.275027 0.216392 0.936768 0.000000
41.450298 46.047001 -743.025330 -0.735681 0.192789 0.649312 0.000000
41.449402 77.175903 -744.791382 -0.543228 0.133967 0.828828 0.000000
41.448299 72.569298 -747.724121 0.060747 0.175095 -0.982676 0.000000
41.446800 67.737801 -746.684570 0.112182 0.820240 0.560910 0.000000
41.446301 45.141499 -740.824585 0.980146 0.138967 -0.141426 0.000000
41.444801 40.453499 -740.697083 0.521642 0.629684 0.575663 0.000000
41.441101 41.902599 -747.678223 -0.133206 0.749843 0.648068 1.000000
41.440399 63.348900 -747.322083 -0.508448 0.221396 0.832144 0.000000
41.435902 69.417198 -747.070129 -0.020912 0.276772 0.960708 0.000000
41.435600 45.231602 -742.293518 -0.576176 0.815662 0.052123 0.000000
41.432701 88.491402 -751.627930 0.156261 0.289423 0.944361 0.000000
41.432701 60.251999 -742.707214 0.187938 0.950504 -0.247429 0.000000
41.427700 44.399700 -740.783875 -0.994357 0.105413 0.011954 0.000000
41.427299 43.639999 -750.941528 0.911718 0.242062 0.331929 1.000000
41.422401 86.514999 -745.962585 -0.368686 0.076419 0.926407 0.000000
41.420601 58.176399 -745.925171 -0.528033 0.260122 0.808404 0.000000
41.419102 65.595703 -746.224121 -0.112713 0.179598 0.977262 0.000000
41.418098 87.749496 -746.097717 -0.350935 0.092776 0.931793 0.000000
41.416901 74.835297 -744.370178 -0.415276 0.060871 0.907656 0.000000
41.414799 56.164902 -742.341125 0.085734 0.640824 0.762886 0.000000
41.412800 51.299099 -744.133118 -0.801968 0.128492 0.583384 0.000000
41.412300 53.615501 -742.029480 0.046263 0.562168 0.825728 0.000000
41.411098 42.431198 -748.195129 -0.011676 0.917193 0.398272 1.000000
41.410198 44.480701 -753.758972 -0.190162 0.973478 0.127194 1.000000
41.408001 84.097801 -745.703918 -0.374520 0.122997 0.919025 0.000000
41.403999 81.980003 -745.538086 -0.372993 0.048766 0.926552 0.000000
41.401798 48.241901 -741.484497 -0.059695 0.150994 0.986731 0.000000
41.400299 45.540901 -741.259583 -0.026143 0.044965 0.998646 0.000000
41.392399 48.762501 -743.703918 -0.146201 0.649613 0.746075 0.000000
41.390499 91.042198 -746.205505 0.567764 0.054945 -0.821356 0.000000
41.390301 80.719398 -749.619690 0.127561 0.825479 0.549830 0.000000
41.389301 96.826401 -753.568787 -0.421849 0.083820 0.902783 0.000000
41.386501 67.888000 -743.496582 -0.023774 0.633516 0.773365 0.000000
41.386398 57.765900 -742.324280 -0.147063 0.052109 0.987754 0.000000
41.385601 85.331001 -750.780884 0.160224 0.431593 0.887725 0.000000
41.384102 95.559998 -746.281311 -0.001381 0.691755 -0.722131 0.000000
41.378300 55.004799 -741.873474 0.357937 0.704434 0.612906 0.000000
41.374100 97.713501 -753.362488 0.960737 0.277438 -0.003635 0.000000
41.374001 93.935699 -745.983521 -0.408982 0.493711 0.767452 0.000000
41.373600 44.409801 -753.188599 0.336870 0.926742 0.166338 1.000000
41.372700 62.185699 -747.040222 -0.450488 0.227504 0.863309 0.000000
41.372398 36.322899 -743.541016 0.358041 0.701367 0.616353 1.000000
41.370399 65.833000 -743.320190 -0.101664 0.427544 0.898260 0.000000
41.369801 88.396301 -746.166016 -0.379970 0.006397 0.924977 0.000000
41.367001 92.272202 -746.091187 0.595198 0.020811 -0.803309 0.000000
41.365299 95.861801 -753.413696 0.012382 0.581974 0.813113 0.000000
41.364700 44.781200 -754.730225 0.554363 0.807873 0.200059 1.000000
41.358398 92.871597 -746.151001 -0.623658 0.052563 0.779928 0.000000
41.358200 49.604000 -741.656189 -0.038754 0.281277 0.958844 0.000000
41.356400 42.889400 -741.206604 -0.116635 0.974463 -0.191883 0.000000
41.353699 43.801498 -740.961426 0.036715 0.307646 0.950792 0.000000
41.353500 74.116997 -744.300781 -0.421969 0.134973 0.896507 0.000000
41.353298 39.901001 -740.774414 0.144467 0.094322 0.985004 0.000000
41.348801 72.970901 -744.125122 -0.386037 0.062781 0.920344 0.000000
41.346199 52.814201 -744.601318 -0.615208 0.178609 0.767866 0.000000
41.346100 62.399700 -742.963379 -0.026730 0.735780 0.676693 0.000000
41.343399 61.084900 -746.789185 -0.477494 0.302152 0.825047 0.000000
41.343102 89.294601 -751.815918 0.130754 0.830069 0.542116 0.000000
41.342800 79.979202 -745.387878 -0.578492 0.106373 0.808723 0.000000
41.340900 59.668098 -742.632385 -0.129698 0.129698 0.983035 0.000000
41.332901 43.567402 -741.923279 -0.632566 0.772502 0.055689 0.000000
41.332600 45.264801 -742.957520 -0.718839 0.111161 0.686232 0.000000
41.330002 54.348598 -742.132507 -0.055006 0.099909 0.993475 0.000000
41.326500 44.729500 -742.833679 -0.745288 0.117053 0.656387 0.000000
41.324799 84.793297 -745.807007 -0.350249 0.211879 0.912378 0.000000
41.317501 44.405998 -742.149719 -0.631173 0.773650 0.055566 0.000000
41.316002 50.675201 -741.723389 -0.117321 0.200581 0.972627 0.000000
41.315601 41.344398 -746.585999 -0.469869 0.673869 0.570197 1.000000
41.311600 92.815697 -752.736084 0.178732 0.924620 -0.336353 0.000000
41.311600 61.591999 -746.890320 -0.438260 0.148003 0.886579 0.000000
41.311401 66.689102 -743.393921 0.212212 0.177942 -0.960886 0.000000
41.311100 59.461700 -746.303223 -0.550786 0.262055 0.792441 0.000000
41.310398 71.891197 -744.037903 0.294050 0.296976 -0.908482 0.000000
41.310001 75.439499 -744.534912 -0.465046 0.143425 0.873591 0.000000
41.308201 44.320900 -752.695313 0.037531 0.972173 0.231239 1.000000
41.306801 98.104500 -753.704773 0.207524 0.163148 -0.964529 0.000000
41.305901 55.483799 -745.279602 -0.563341 0.137509 0.814701 0.000000
41.301899 46.241798 -741.311707 -0.105864 0.016371 0.994246 0.000000
41.298401 98.456703 -753.339417 0.919694 0.368712 -0.134963 0.000000
41.296200 58.485600 -742.536682 -0.050102 0.094637 0.994250 0.000000
41.295799 57.120701 -745.961304 -0.040122 0.072654 -0.996550 0.000000
41.295300 64.360001 -746.015381 0.129391 0.768907 0.626131 0.000000
41.291599 91.802498 -746.266113 0.624386 0.061438 -0.778696 0.000000
41.291199 36.908401 -743.758179 0.618307 0.113627 0.777680 1.000000
41.285599 67.216499 -748.297913 0.119258 0.489965 0.863546 0.000000
41.283699 69.527397 -743.714478 -0.212650 0.180951 0.960227 0.000000
41.282700 50.236301 -744.021790 -0.755844 0.212630 0.619264 0.000000
41.280201 79.244400 -749.226624 0.181411 0.213191 0.960021 0.000000
41.278801 60.420300 -746.619019 -0.284945 0.375404 0.881974 0.000000
41.278702 76.631599 -744.737427 -0.531844 0.114484 0.839068 0.000000
41.278099 42.862301 -741.727783 -0.632566 0.772502 0.055689 0.000000
41.276199 89.063400 -746.192078 -0.421849 0.083820 0.902783 0.000000
41.272400 77.579201 -745.045227 -0.641550 0.209707 0.737860 0.000000
41.272099 45.369499 -756.350220 0.026821 0.938745 0.343568 1.000000
41.270901 63.764599 -743.086487 -0.154152 0.177084 0.972049 0.000000
41.270699 48.222801 -743.486816 0.547723 0.752509 -0.365690 0.000000
41.268700 43.477901 -750.489624 0.647856 0.627870 0.431349 1.000000
41.268700 68.655502 -746.896179 -0.060397 0.166979 0.984109 0.000000
41.268700 38.787899 -740.904297 -0.867900 0.014801 -0.496519 0.000000
41.267799 64.569099 -747.692322 0.066867 0.334337 0.940078 0.000000
41.267700 42.884899 -749.194885 0.124404 0.909968 0.395578 1.000000
41.265301 83.029198 -745.674500 -0.379630 0.114579 0.918015 0.000000
41.263802 38.430599 -744.677307 -0.552285 0.505282 -0.663077 1.000000
41.262199 49.314098 -743.816772 -0.728369 0.479496 0.489451 0.000000
41.261600 55.403400 -742.263672 -0.065455 0.293906 0.953590 0.000000
41.259899 48.723499 -741.524719 0.123819 0.451157 -0.883813 0.000000
41.258400 79.776802 -749.365601 0.183414 0.354032 0.917072 0.000000
41.253300 57.268600 -742.135498 -0.157422 0.580214 0.799106 0.000000
41.251701 39.878700 -745.436829 -0.207816 0.508162 0.835813 1.000000
41.248100 96.294998 -746.328796 0.027842 0.027842 -0.999225 0.000000
41.247398 78.236000 -745.202515 -0.690695 0.193147 0.696875 0.000000
41.247398 60.723701 -742.806030 0.294002 0.147678 -0.944327 0.000000
41.245998 97.565002 -753.844971 0.571352 0.023518 -0.820368 0.000000
41.242901 95.001701 -753.236572 0.046257 0.271288 0.961386 0.000000
41.242500 85.838898 -745.983521 -0.424697 0.069645 0.902653 0.000000
41.242500 51.165298 -741.831970 -0.081025 0.341366 0.936432 0.000000
41.239700 55.852699 -745.694519 -0.541015 0.435128 0.719699 0.000000
41.237999 93.941200 -752.992493 0.142830 0.834890 0.531562 0.000000
41.232899 70.353500 -747.283386 0.112182 0.820240 0.560910 0.000000
41.231701 94.464798 -746.107422 0.462364 0.127401 -0.877490 0.000000
41.230999 40.907600 -746.165771 -0.336773 0.642635 0.688189 1.000000
41.228901 63.349602 -745.913879 0.143889 0.814383 0.562206 0.000000
41.227600 64.941597 -748.227173 0.651786 0.755382 0.067625 0.000000
41.227200 77.321503 -748.773987 0.178855 0.342219 0.922441 0.000000
41.224998 56.370800 -745.817627 0.964052 0.255820 -0.071831 0.000000
41.221699 42.299801 -741.363708 -0.251810 0.966306 -0.053339 0.000000
41.220901 44.213299 -752.190002 -0.604199 0.794699 0.058287 1.000000
41.219200 71.084900 -743.946899 -0.390810 0.035528 0.919785 0.000000
41.217499 47.643799 -743.587585 -0.297999 0.568908 0.766512 0.000000
41.217300 44.841301 -741.185425 -0.081042 0.001052 0.996710 0.000000
41.212799 89.774101 -751.914795 0.133641 0.829746 0.541905 0.000000
41.209301 41.812901 -741.665222 -0.530714 0.841377 0.102116 0.000000
41.204201 81.490898 -745.582581 -0.389739 0.139293 0.910330 0.000000
41.202599 67.178902 -743.457825 -0.122675 0.319496 0.939613 0.000000
41.201302 40.997898 -741.436523 0.818186 0.572306 0.055111 0.000000
41.199001 38.181801 -740.713013 0.761043 0.306019 0.571984 0.000000
41.195702 47.558300 -741.458984 -0.001015 0.037537 0.999295 0.000000
41.194801 58.891201 -746.139709 -0.231798 0.271133 0.934215 0.000000
41.193199 42.165001 -740.808105 0.349380 0.337174 0.874212 0.000000
41.192299 35.401798 -742.441223 0.471702 0.772024 0.426001 0.000000
41.191002 91.541702 -752.433716 0.133753 0.827502 0.545299 0.000000
41.188702 93.339302 -752.834106 -0.027344 0.011140 -0.999564 0.000000
41.186699 77.899498 -748.900208 0.118128 0.826897 0.549806 0.000000
41.184898 65.151299 -743.280701 0.193869 0.578554 -0.792269 0.000000
41.178699 78.957603 -745.354919 -0.516514 0.039944 0.855347 0.000000
41.178501 41.520901 -740.858582 0.166353 0.038389 0.985319 0.000000
41.177601 74.752800 -748.178528 0.166817 0.078008 0.982897 0.000000
41.174801 44.024399 -742.885620 0.570058 0.023465 -0.821270 0.000000
41.174702 89.665703 -746.297180 -0.473297 0.036616 0.880142 0.000000
41.173100 61.973701 -746.010376 -0.790112 0.282295 -0.544089 0.000000
41.171200 90.572197 -746.342285 0.536659 0.012228 -0.843710 0.000000
41.166801 76.468903 -748.542786 0.209960 0.106866 0.971852 0.000000
41.166401 64.487198 -743.174377 0.215945 0.088625 -0.972375 0.000000
41.166100 46.353100 -743.388000 -0.558768 0.294507 0.775270 0.000000
41.160099 54.949299 -745.302612 -0.591421 0.151224 0.792056 0.000000
41.158901 42.682098 -740.567383 0.071384 0.391939 0.917218 0.000000
41.158600 51.715302 -741.838684 0.176939 0.443080 -0.878847 0.000000
41.157902 57.709702 -745.944275 -0.115291 0.398656 0.909825 0.000000
41.155701 52.250999 -744.627502 -0.551722 0.084550 0.829732 0.000000
41.154099 93.544998 -746.282227 0.669886 0.015320 -0.742306 0.000000
41.149601 45.202702 -755.401184 0.620292 0.768196 0.158469 1.000000
41.146301 40.881599 -740.413208 -0.975995 0.134058 0.171645 0.000000
41.143700 37.435101 -740.825623 -0.886486 0.076302 -0.456422 0.000000
41.140099 80.521202 -745.513977 -0.404118 0.066227 0.912306 0.000000
41.138000 53.689301 -744.945374 -0.495626 0.017556 0.868359 0.000000
41.135899 54.453999 -745.135986 -0.340528 0.269769 0.900703 0.000000
41.134998 96.777901 -746.416382 0.754342 0.358515 0.549940 0.000000
41.132900 75.726501 -748.384827 0.128514 0.202314 0.970852 0.000000
41.126701 62.912800 -747.478699 -0.285206 0.864769 0.413320 0.000000
41.126701 68.778999 -743.669922 0.234394 0.010708 -0.972083 0.000000
41.125301 63.565201 -747.717224 0.634370 0.760344 0.139471 0.000000
41.123299 87.164200 -746.165527 -0.464590 0.006618 0.885501 0.000000
41.122101 65.718300 -747.943604 0.127766 0.547779 -0.826809 0.000000
41.113998 46.837399 -741.047791 0.102383 0.834926 0.540755 0.000000
41.111401 36.048801 -743.143982 0.054993 0.562616 0.824888 1.000000
41.110199 34.374298 -742.400818 0.091596 0.325234 0.941187 0.000000
41.105301 64.159103 -747.937317 0.511050 0.729362 -0.454818 0.000000
41.105202 86.273201 -750.918396 0.222328 0.598575 0.769596 0.000000
41.105099 66.836304 -746.501526 0.020221 0.224814 0.974192 0.000000
41.101898 52.660900 -741.948914 0.001121 0.158034 0.987433 0.000000
41.094101 100.163696 -754.252686 0.230385 0.678618 0.697425 0.000000
41.093899 53.100800 -744.927673 -0.580705 0.207945 0.787109 0.000000
41.093399 44.023300 -751.684021 -0.984713 0.048006 -0.167436 1.000000
41.093102 44.325298 -741.152771 0.133970 0.552076 -0.822961 0.000000
41.092701 56.852699 -742.444824 0.218872 0.221591 -0.950259 0.000000
41.091999 70.040100 -743.825928 -0.354104 0.104467 0.929353 0.000000
41.090099 49.719299 -744.105286 -0.664412 0.199788 0.720167 0.000000
41.089901 75.955299 -744.737915 -0.629944 0.136164 0.764611 0.000000
41.084202 36.604000 -740.518677 0.127155 0.012163 0.991808 0.000000
41.083599 40.285801 -741.029785 -0.021878 0.984525 -0.173875 0.000000
41.080200 34.936501 -741.729309 -0.612798 0.784556 0.094612 0.000000
41.078602 61.221600 -742.870972 0.164966 0.970614 -0.175197 0.000000
41.077702 81.251999 -749.693481 0.137192 0.821678 0.553194 0.000000
41.074100 76.984703 -745.115906 -0.681997 0.209726 0.700639 0.000000
41.072701 98.718002 -753.710022 -0.345171 0.937992 -0.032079 0.000000
41.071800 51.044998 -744.444519 -0.679183 0.064890 0.731095 0.000000
41.069401 43.600300 -743.172913 0.681849 0.717974 -0.139982 0.000000
41.067402 40.473598 -745.934204 -0.139726 0.707642 0.692618 1.000000
41.065800 72.239601 -747.651917 0.089126 0.224698 0.970344 0.000000
41.063999 72.524498 -744.179871 -0.445331 0.145561 0.883455 0.000000
41.062302 99.386299 -753.991394 0.907628 0.264542 -0.325928 0.000000
41.060200 51.592098 -744.557129 -0.747307 0.202686 0.632812 0.000000
41.059898 58.977600 -742.636475 -0.171728 0.096217 0.980434 0.000000
41.059601 61.795300 -742.928284 0.239960 0.065896 -0.968544 0.000000
41.058399 45.763100 -756.993408 0.637947 0.750615 0.172048 1.000000
41.057800 37.342098 -743.960876 0.311924 0.426762 0.848868 1.000000
41.057301 73.453697 -744.337708 -0.465946 0.124730 0.875978 0.000000
41.056999 73.047302 -747.807617 0.146170 0.312831 0.938494 0.000000
41.056702 35.657398 -740.752319 -0.220411 0.667485 -0.711254 0.000000
41.053299 47.110100 -743.532715 -0.777054 0.214733 0.591673 0.000000
41.051701 82.394501 -749.947876 0.318711 0.297958 0.899803 0.000000
41.051601 41.554600 -746.984070 0.850591 0.334327 -0.405858 1.000000
41.051300 43.263000 -749.970093 -0.227183 0.929898 0.289270 1.000000
41.049000 79.536400 -745.492004 -0.423012 0.027847 0.905696 0.000000
41.048000 45.601200 -743.361877 -0.641647 0.236892 0.729501 0.000000
41.046799 45.050999 -754.437622 0.548098 0.818393 0.172688 1.000000
41.045200 50.005600 -741.540222 -0.045901 0.108595 0.993026 0.000000
41.044998 33.488998 -741.165527 -0.499644 0.862765 0.077410 0.000000
41.041000 95.044601 -746.329712 -0.652811 0.146242 0.743270 0.000000
41.038300 94.417503 -753.100281 0.129029 0.280672 0.951091 0.000000
41.037601 87.343803 -751.210083 -0.326847 0.165510 -0.930472 0.000000
41.035999 32.988800 -742.265076 0.072167 0.839123 -0.539133 0.000000
41.035801 82.424004 -745.755188 -0.464727 0.028288 0.885002 0.000000
41.032700 42.654499 -748.655701 0.003934 0.898320 0.439324 1.000000
41.032200 42.080200 -748.142090 -0.283722 0.810410 0.512580 1.000000
41.027599 85.376297 -746.035583 0.465506 0.106118 -0.878660 0.000000
41.027401 39.027599 -744.936218 -0.102883 0.552091 0.827412 1.000000
41.026001 65.233597 -746.190613 0.109385 0.818202 0.564428 0.000000
41.021301 69.765404 -747.146729 0.123128 0.239775 0.962989 0.000000
41.021198 62.390099 -747.435730 0.814667 0.368274 -0.447987 0.000000
41.020302 83.752899 -745.891113 -0.468366 0.085284 0.879409 0.000000
41.018002 91.302002 -746.472717 0.580128 0.015158 -0.814384 0.000000
41.014801 58.167198 -746.221680 0.271059 0.001205 -0.962562 0.000000
41.013000 50.547798 -744.402771 0.453985 0.533807 -0.713406 0.000000
41.012699 84.326500 -745.936096 -0.493894 0.098209 0.863958 0.000000
41.001900 53.260300 -741.808716 -0.148596 0.082025 0.985490 0.000000
41.000599 74.959900 -744.635315 -0.579854 0.187197 0.792923 0.000000
41.000198 35.609798 -742.888611 -0.172827 0.816045 -0.551544 1.000000
40.999500 87.979797 -746.275818 -0.448391 0.044704 0.892719 0.000000
40.999500 33.498699 -742.352783 -0.119499 0.133983 0.983752 0.000000
40.997501 32.605400 -740.693970 -0.935223 0.313583 0.164389 0.000000
40.996101 41.212200 -741.843018 -0.979636 0.034352 0.197822 0.000000
40.993000 39.568199 -740.634888 -0.023156 0.111370 -0.993509 0.000000
40.990501 88.667397 -746.353516 -0.486309 0.045206 0.872617 0.000000
40.989498 62.549702 -745.807190 -0.571487 0.084931 -0.816204 0.000000
40.987301 78.712997 -749.039917 -0.261126 0.030649 -0.964818 0.000000
40.986900 55.874001 -742.300415 0.147103 0.863684 0.482090 0.000000
40.986500 84.128502 -750.375671 -0.348805 0.333574 -0.875821 0.000000
40.986099 49.202400 -741.557129 -0.112559 0.087030 0.989826 0.000000
40.985199 41.663898 -742.170105 -0.632980 0.772377 0.052630 0.000000
40.983601 32.158501 -742.163025 0.012532 0.666987 0.744964 0.000000
40.983299 36.627499 -743.457520 -0.661583 0.749042 0.035266 1.000000
40.982700 63.126099 -743.092712 -0.117821 0.389502 0.913459 0.000000
40.982300 59.777100 -746.610474 0.433898 0.144633 -0.889277 0.000000
40.980499 99.302200 -753.399475 0.972060 0.218370 -0.086100 0.000000
40.980301 40.323101 -740.498474 -0.413107 0.116230 -0.903235 0.000000
40.978699 92.638603 -746.491821 0.643860 0.196092 -0.739590 0.000000
40.977699 61.176300 -746.057678 0.739460 0.665955 -0.098497 0.000000
40.976200 48.462502 -743.971497 0.692593 0.420206 -0.586295 0.000000
40.975101 90.411003 -752.030212 0.331929 0.242062 0.911718 0.000000
40.974098 71.347099 -747.449585 -0.104464 0.499423 -0.860037 0.000000
40.973400 45.804699 -741.351196 -0.014543 0.139840 0.990067 0.000000
40.972000 44.948700 -753.850830 0.547778 0.814839 0.189674 1.000000
40.971901 43.833599 -751.160278 0.862175 0.374792 0.340860 1.000000
40.971199 34.604900 -740.925415 0.583294 0.610345 -0.535954 0.000000
40.966499 96.231598 -753.496887 0.149334 0.185073 0.971312 0.000000
40.966301 74.400299 -744.563416 -0.524460 0.158972 0.836462 0.000000
40.965698 57.597900 -745.492920 0.484154 0.710425 0.510774 0.000000
40.960300 61.873199 -747.238220 0.643509 0.760245 0.089011 0.000000
40.957802 44.662701 -743.269226 -0.038098 0.763367 0.644841 0.000000
40.956600 73.913002 -747.962280 0.112278 0.823861 0.555559 0.000000
40.955799 39.577202 -741.163574 -0.635567 0.769822 0.058558 0.000000
40.954700 52.582001 -744.985718 -0.291899 0.168562 0.941478 0.000000
40.953899 56.362202 -742.190796 0.317414 0.170489 -0.932836 0.000000
40.953300 50.489399 -741.427429 -0.869823 0.456325 0.187551 0.000000
40.952599 97.520897 -746.541870 0.009870 0.121734 0.992514 0.000000
40.952499 40.961102 -740.921204 -0.041090 0.741044 0.670198 0.000000
40.951199 88.719704 -751.557983 0.296281 0.264485 0.917750 0.000000
40.948898 80.971100 -745.657898 -0.445280 0.264719 0.855365 0.000000
40.947300 57.933102 -742.539612 0.226877 0.027609 -0.973532 0.000000
40.946499 38.133999 -744.255127 0.740797 0.061853 0.668875 1.000000
40.941399 45.465302 -755.835815 0.654317 0.728566 0.202637 1.000000
40.941200 97.128197 -753.650574 0.083574 0.133012 0.987585 0.000000
40.938099 61.125801 -747.152222 0.239305 0.154689 -0.958543 0.000000
40.937000 34.455601 -741.583923 -0.654854 0.752722 -0.067644 0.000000
40.931702 60.312901 -742.804993 0.240663 0.630757 -0.737718 0.000000
40.931301 92.494598 -752.596802 0.063848 0.979405 0.191544 0.000000
40.929600 65.866302 -746.273193 0.098244 0.095932 0.990528 0.000000
40.929298 39.488701 -745.259827 -0.169199 0.534549 0.828027 1.000000
40.926498 33.225399 -740.668823 -0.877141 0.383276 -0.289350 0.000000
40.924801 86.464699 -746.171997 -0.522598 0.060246 0.850448 0.000000
40.924801 53.911900 -741.978821 0.240830 0.081958 -0.967101 0.000000
40.921398 67.824799 -746.707581 0.112266 0.817938 0.564246 0.000000
40.919601 76.330498 -745.039917 -0.756020 0.142787 0.638784 0.000000
40.919498 52.167801 -741.886108 0.169049 0.531083 -0.830285 0.000000
40.919300 92.019699 -746.532288 0.622490 0.006901 -0.782598 0.000000
40.915100 31.848600 -740.634521 -0.107478 0.260278 -0.959533 0.000000
40.911900 30.894600 -740.661682 0.943968 0.314656 0.099575 0.000000
40.911598 54.698101 -742.247009 -0.009448 0.854343 0.519624 0.000000
40.910198 55.311100 -745.664795 0.131122 0.407466 -0.903758 0.000000
40.909199 81.909302 -745.765076 -0.511858 0.083655 0.854987 0.000000
40.909199 50.042702 -744.560425 -0.778811 0.625042 -0.052680 0.000000
40.908199 70.691002 -743.994324 -0.438223 0.111317 0.891947 0.000000
40.908100 43.514702 -741.078186 0.037738 0.574460 0.817662 0.000000
40.906601 83.192703 -750.059875 0.031142 0.957943 0.285265 0.000000
40.904900 95.816498 -746.290588 -0.622844 0.004125 0.782336 0.000000
40.904400 57.375099 -742.505981 -0.120571 0.206874 0.970910 0.000000
40.904099 39.066700 -740.701294 -0.343379 0.112650 0.932417 0.000000
40.903702 80.710403 -749.493713 0.127457 0.827735 0.546452 0.000000
40.903198 67.929100 -743.620117 -0.295164 0.168861 0.940406 0.000000
40.900398 85.205101 -750.576721 0.309827 0.408479 0.858576 0.000000
40.900101 31.223301 -742.132080 -0.082232 0.112345 0.990261 0.000000
40.899899 44.855000 -753.355530 0.323461 0.912362 0.250936 1.000000
40.898201 33.880600 -740.518311 0.469172 0.858899 -0.205356 0.000000
40.898102 95.363503 -753.312683 0.165231 0.323520 0.931683 0.000000
40.898102 59.145401 -746.511780 -0.040414 0.561622 0.826406 0.000000
40.896900 90.136597 -746.507996 0.540326 0.017783 -0.841268 0.000000
40.896000 43.009602 -741.052490 0.154881 0.593962 -0.789443 0.000000
40.895500 48.323002 -741.539917 -0.108914 0.165207 0.980227 0.000000
40.893200 49.036999 -744.127686 0.319695 0.570310 -0.756665 0.000000
40.892300 45.266602 -754.934326 0.650001 0.736053 0.189007 1.000000
40.890999 29.162300 -741.769897 0.266837 0.124874 -0.955617 0.000000
40.888802 91.942802 -752.450378 0.143080 0.830457 0.538396 0.000000
40.887501 93.197197 -746.583618 0.744904 0.055761 -0.664837 0.000000
40.883801 94.356796 -746.550903 0.869650 0.162237 -0.466249 0.000000
40.883499 65.900803 -743.426392 -0.153509 0.226983 0.961724 0.000000
40.878502 61.643902 -745.659119 0.433001 0.565722 0.701761 0.000000
40.875599 77.864899 -745.331970 -0.478864 0.166497 0.861956 0.000000
40.874802 41.855900 -740.490723 -0.912869 0.184288 -0.364291 0.000000
40.872398 91.177399 -752.219727 0.327496 0.336551 0.882881 0.000000
40.871700 43.084000 -749.523010 0.182032 0.865761 0.466179 1.000000
40.871498 34.025799 -741.330872 -0.800911 0.593107 -0.082256 0.000000
40.870098 38.291500 -741.224182 -0.772605 0.634886 -0.001377 0.000000
40.868698 -0.681700 -738.682983 -0.623251 0.579337 -0.525288 0.000000
40.864201 59.449299 -742.733521 -0.271723 0.133873 0.953019 0.000000
40.863201 71.600197 -744.148987 -0.454390 0.102695 0.884864 0.000000
40.862202 84.868698 -746.101379 -0.573736 0.093937 0.813636 0.000000
40.861301 60.516899 -747.001709 -0.043801 0.914515 -0.402174 0.000000
40.855400 45.744801 -756.530518 0.628768 0.741665 0.233632 1.000000
40.854000 37.766800 -740.571594 -0.016657 0.991672 -0.127707 0.000000
40.851398 34.446400 -740.398621 0.133983 0.119499 -0.983752 0.000000
40.849499 62.260201 -743.004578 0.483188 0.274998 -0.831207 0.000000
40.849400 53.994598 -745.326477 -0.751097 0.404185 0.522004 0.000000
40.848900 51.455601 -741.508911 -0.282979 0.625112 0.727432 0.000000
40.846500 100.702103 -754.293030 0.672014 0.551353 -0.494375 0.000000
40.846100 64.639999 -746.069275 0.166667 0.216536 0.961943 0.000000
40.845699 29.445400 -740.544617 0.206380 0.647070 -0.733967 0.000000
40.843700 47.947800 -743.926270 -0.217201 0.447884 0.867308 0.000000
40.841000 30.055901 -740.588318 -0.988208 0.151245 0.023881 0.000000
40.840599 28.021799 -741.660400 0.293286 0.735619 0.610612 0.000000
40.832901 60.853901 -745.698608 -0.765765 0.026599 -0.642570 0.000000
40.831200 30.323400 -742.038513 0.299214 0.799488 0.520855 0.000000
40.830700 63.727001 -745.882385 0.277519 0.117058 0.953562 0.000000
40.830399 83.133698 -745.972900 -0.587687 0.088081 0.804280 0.000000
40.827202 42.059799 -742.557617 -0.879138 0.065070 0.472104 0.000000
40.823502 38.502602 -740.564270 0.055511 0.789971 0.610626 0.000000
40.822498 66.745201 -743.500000 0.280675 0.373733 -0.884051 0.000000
40.821701 35.129799 -742.701782 0.138082 0.800282 0.583508 0.000000
40.820702 40.018398 -745.711670 -0.232272 0.600167 0.765408 1.000000
40.820599 45.205700 -741.260315 0.101798 0.078922 0.991670 0.000000
40.818298 34.032398 -741.855713 -0.637164 0.767198 0.073686 0.000000
40.817402 47.009499 -741.453003 -0.055649 0.066561 0.996229 0.000000
40.813999 37.758801 -741.081482 -0.635036 0.769784 0.064507 0.000000
40.813900 93.778702 -746.624573 -0.610481 0.328720 0.720594 0.000000
40.811401 75.351097 -744.971619 -0.790568 0.103753 0.603521 0.000000
40.809799 78.497200 -745.482788 -0.463144 0.109058 0.879548 0.000000
40.807201 89.257896 -751.631104 0.052393 0.909484 0.412425 0.000000
40.806702 98.294197 -753.833984 0.111597 0.450625 -0.885711 0.000000
40.805302 35.038502 -740.507629 0.788492 0.609092 -0.085360 0.000000
40.803398 44.004200 -743.347778 0.935602 0.167220 -0.310946 0.000000
40.803200 98.956802 -754.114380 0.229689 0.116769 -0.966234 0.000000
40.799999 36.066700 -740.466370 0.101249 0.629504 -0.770372 0.000000
40.799198 27.104401 -741.505676 -0.968289 0.174060 0.179217 0.000000
40.798599 38.904499 -741.487183 -0.969254 0.157905 0.188716 0.000000
40.798500 58.547699 -742.622314 -0.195070 0.103126 0.975352 0.000000
40.797501 41.755199 -747.380371 -0.302653 0.747826 0.590895 1.000000
40.797298 69.132202 -743.822021 -0.381278 0.261661 0.886657 0.000000
40.795399 46.337502 -741.350830 0.023109 0.007033 0.999708 0.000000
40.793900 79.231903 -749.098389 0.310302 0.252571 0.916472 0.000000
40.791199 46.674999 -743.750916 -0.615711 0.132684 0.776720 0.000000
40.790501 80.040703 -745.631897 -0.471053 0.056307 0.880306 0.000000
40.790100 85.923599 -746.258423 -0.601387 0.023611 0.798609 0.000000
40.788799 56.025299 -745.221802 -0.085495 0.469520 0.878773 0.000000
40.788601 28.310499 -740.398682 0.816697 0.565406 -0.115419 0.000000
40.788399 57.249298 -745.837097 0.083742 0.135639 -0.987213 0.000000
40.786900 79.740601 -749.203125 0.305686 0.353873 0.883929 0.000000
40.786499 69.653503 -743.913086 -0.446267 0.108399 0.888310 0.000000
40.786301 44.725899 -752.839111 0.040783 0.965205 0.258294 1.000000
40.785400 41.030602 -746.531372 -0.268092 0.734478 0.623433 1.000000
40.784302 90.849701 -746.544800 0.603193 0.020800 -0.797324 0.000000
