ply
format ascii 1.0
element vertex 695
property float x
property float y
property float z
property float nx
property float ny
property float nz
property float label
element face 0
property list uchar int vertex_indices
end_header
37.622700 30.061100 -740.962585 0.648193 0.073625 0.757909 0.000000
37.622700 8.286100 -737.295471 -0.377770 0.008964 -0.925856 0.000000
37.622398 18.185900 -741.481018 -0.251712 0.066372 0.965524 0.000000
37.621101 57.812599 -742.057373 -0.416209 0.150179 -0.896781 0.000000
37.620800 20.366199 -739.608704 0.125163 0.476195 0.870386 0.000000
37.620399 17.173500 -739.229004 0.007061 0.027234 0.999604 0.000000
37.619900 54.385101 -742.721680 -0.880605 0.408158 0.240709 0.000000
37.618599 48.535702 -742.439697 0.511700 0.208021 0.833601 0.000000
37.618099 38.584301 -751.601318 0.716784 0.650327 0.251586 1.000000
37.618000 38.747101 -751.974426 -0.976730 0.141319 -0.161329 1.000000
37.614799 27.936399 -740.674377 0.572385 0.238624 0.784496 0.000000
37.609901 58.549198 -741.962830 -0.402000 0.024879 -0.915302 0.000000
37.609299 73.104599 -739.880371 -0.147423 0.891695 -0.427956 0.000000
37.607498 30.802601 -741.015381 0.754913 0.085819 0.650185 0.000000
37.605598 38.287201 -750.919495 0.512645 0.774628 0.370333 1.000000
37.605202 61.033100 -741.679382 -0.542528 0.069410 -0.837165 0.000000
37.604401 10.043100 -737.228210 -0.848034 0.477873 0.229075 0.000000
37.604301 0.392900 -739.170593 0.226913 0.449318 0.864074 0.000000
37.604099 11.222900 -740.705811 -0.082146 0.044906 -0.995608 0.000000
37.603199 3.586600 -740.041077 0.872391 0.022993 0.488268 0.000000
37.603001 69.482903 -740.540222 -0.120706 0.334994 -0.934457 0.000000
37.602798 5.651400 -737.342224 0.803956 0.428456 0.412409 0.000000
37.602699 47.810902 -745.442017 -0.383262 0.327851 0.863495 0.000000
37.602600 22.883200 -739.712830 0.414354 0.159146 0.896093 0.000000
37.601398 41.572201 -742.022583 0.549137 0.023397 0.835405 0.000000
37.600300 21.329300 -741.909485 -0.362167 0.193251 0.911860 0.000000
37.599300 20.098499 -741.750671 -0.114749 0.916611 0.382958 0.000000
37.598701 24.914301 -740.067871 0.728948 0.130223 0.672069 0.000000
37.598701 81.170502 -737.046204 0.021058 0.005014 -0.999766 0.000000
37.597900 8.090200 -740.309082 0.102726 0.189363 0.976519 0.000000
37.597000 60.105999 -741.783020 -0.412846 0.162549 -0.896178 0.000000
37.596699 47.427502 -742.392090 -0.415916 0.017057 -0.909243 0.000000
37.595798 -0.099500 -737.097107 0.310430 0.947008 -0.082519 0.000000
37.595200 32.819401 -741.305420 0.736970 0.044019 0.674491 0.000000
37.594799 3.869400 -739.683472 0.276421 0.264963 0.923789 0.000000
37.593300 43.586800 -745.506714 0.759032 0.229112 -0.609408 0.000000
37.592899 61.660599 -741.624023 -0.321446 0.013758 -0.946828 0.000000
37.592400 9.667900 -740.538818 0.073447 0.232790 0.969750 0.000000
37.592098 12.690800 -738.697815 -0.276262 0.713811 0.643547 0.000000
37.591999 10.052400 -738.404114 -0.474089 0.880452 0.006640 0.000000
37.591099 37.397202 -749.160522 0.276063 0.879478 0.387695 1.000000
37.591000 35.272701 -741.542603 -0.818133 0.004097 -0.575015 0.000000
37.590500 29.709600 -743.249023 -0.496135 0.289543 0.818545 1.000000
37.590302 9.035200 -737.947327 -0.943489 0.325744 0.060996 0.000000
37.586102 39.770000 -754.376587 -0.582396 0.626286 0.518248 1.000000
37.586102 17.693600 -738.920471 0.117738 0.062870 0.991053 0.000000
37.585499 78.330399 -738.048828 -0.097299 0.276329 -0.956125 0.000000
37.584400 44.099400 -744.495483 0.847185 0.031683 -0.530352 0.000000
37.584099 26.894199 -740.456787 0.435968 0.239858 0.867410 0.000000
37.583698 38.862999 -754.436829 -0.028775 0.954595 -0.296513 1.000000
37.583698 31.085199 -743.030029 -0.974804 0.144648 -0.169805 0.000000
37.583599 3.270700 -737.447021 0.218323 0.088577 0.971848 0.000000
37.583599 85.167198 -735.274292 -0.082021 0.451813 -0.888334 0.000000
37.582699 32.153198 -741.171570 0.829469 0.099536 0.549613 0.000000
37.582401 79.650597 -737.500916 -0.053339 0.251810 -0.966306 0.000000
37.581100 29.191900 -740.870178 0.579013 0.652858 0.488385 0.000000
37.579800 33.424801 -741.273682 -0.723615 0.076857 -0.685911 0.000000
37.579201 65.314301 -741.265381 0.027780 0.421998 0.906171 0.000000
37.575199 11.436800 -738.345398 0.089165 0.985574 0.143853 0.000000
37.574402 4.080600 -740.259216 -0.934248 0.287138 -0.211501 0.000000
37.574299 0.546800 -739.509094 -0.848093 0.173777 -0.500539 0.000000
37.574001 -0.776200 -739.087280 0.330207 0.229271 0.915641 0.000000
37.573601 84.631599 -735.632690 -0.181317 0.407600 -0.894979 0.000000
37.573299 9.388600 -736.937683 -0.830067 0.433147 -0.351243 0.000000
37.572201 7.533300 -740.213684 -0.098071 0.862743 0.496041 0.000000
37.571899 46.092800 -745.061218 -0.317170 0.217610 0.923065 0.000000
37.571800 55.441399 -747.286377 -0.928673 0.287818 -0.233940 0.000000
37.569401 77.549896 -738.501099 -0.164805 0.322685 -0.932048 0.000000
37.569000 1.048200 -739.226990 -0.531105 0.441761 -0.723031 0.000000
37.568501 10.610600 -738.220276 -0.618202 0.023723 0.785661 0.000000
37.568298 4.479500 -740.325928 -0.137892 0.185964 0.972833 0.000000
37.567200 38.249100 -741.729675 -0.662435 0.018130 -0.748900 0.000000
37.565701 38.643700 -753.492126 -0.356833 0.895783 0.265033 1.000000
37.565399 39.018101 -752.757996 0.728028 0.643118 0.237435 1.000000
37.564301 13.541300 -738.552917 -0.877978 0.112415 0.465314 0.000000
37.564201 30.564501 -742.950012 0.764544 0.256950 -0.591142 0.000000
37.564201 11.087400 -738.295776 -0.154159 0.976338 -0.151652 0.000000
37.563499 3.720000 -737.403076 0.184137 0.102573 0.977534 0.000000
37.562401 66.061798 -741.168274 -0.080896 0.338173 -0.937601 0.000000
37.562302 34.732201 -746.091614 0.001110 0.145462 0.989363 1.000000
37.561798 56.162399 -742.125488 -0.277257 0.145995 -0.949639 0.000000
37.561100 47.386200 -745.335876 -0.416277 0.083805 0.905368 0.000000
37.560699 49.548401 -745.788025 -0.316963 0.267301 0.909992 0.000000
37.556400 14.842000 -738.957886 -0.051176 0.504844 0.861692 0.000000
37.556301 52.505600 -742.397888 -0.508788 0.174570 -0.843007 0.000000
37.555698 44.613300 -742.185486 0.521865 0.034424 0.852333 0.000000
37.555401 2.796100 -737.443481 -0.122059 0.902113 -0.413877 0.000000
37.555199 5.227900 -739.883484 0.268760 0.184176 0.945435 0.000000
37.554199 19.138901 -741.608521 -0.272328 0.263773 0.925344 0.000000
37.553799 7.112600 -737.366028 0.371929 0.188118 0.909000 0.000000
37.552101 39.665798 -741.839111 -0.611615 0.009664 -0.791096 0.000000
37.551899 14.888500 -738.599670 0.193664 0.172867 -0.965718 0.000000
37.551800 60.461899 -741.788208 -0.393458 0.063114 -0.917174 0.000000
37.549702 2.014700 -739.271423 -0.255285 0.018148 -0.966695 0.000000
37.549198 37.799301 -749.854614 0.479679 0.764540 0.430565 1.000000
37.549198 81.635002 -736.727417 -0.017289 0.889726 0.456167 0.000000
37.548901 34.544102 -745.774292 0.034967 0.227891 0.973059 1.000000
37.548599 25.373600 -740.274109 -0.077855 0.983368 -0.164094 0.000000
37.548000 30.595699 -743.614624 -0.404110 0.344820 0.847227 1.000000
37.547901 45.392601 -744.796326 -0.241234 0.564955 0.789070 0.000000
37.547699 28.291700 -740.663574 0.577386 0.299089 0.759718 0.000000
37.547501 73.878403 -739.657104 0.033062 0.255921 -0.966132 0.000000
37.546501 65.695999 -741.208374 0.036453 0.032287 0.998814 0.000000
37.545799 18.682899 -739.332825 0.017395 0.186711 0.982261 0.000000
37.545700 56.764900 -742.048096 -0.404533 0.077638 -0.911222 0.000000
37.545502 23.062500 -742.153381 -0.131279 0.924482 0.357909 0.000000
37.544300 18.692699 -738.935730 -0.663542 0.744497 -0.073727 0.000000
37.543400 83.392998 -736.149292 -0.208752 0.977712 -0.022408 0.000000
37.542999 0.955500 -737.317200 -0.016234 0.310937 -0.950292 0.000000
37.542000 6.032800 -740.041504 0.222868 0.276132 0.934923 0.000000
37.541100 20.124500 -739.142822 0.537312 0.081238 0.839462 0.000000
37.540901 33.928398 -741.353882 0.720765 0.026695 0.692665 0.000000
37.540901 6.699600 -737.458313 -0.107799 0.692573 -0.713247 0.000000
37.540798 54.212898 -743.023682 -0.898395 0.434883 0.061347 0.000000
37.539700 43.324200 -742.132324 0.468043 0.231749 0.852777 0.000000
37.538601 21.973700 -739.540527 0.217304 0.049774 0.974834 0.000000
37.537998 8.652100 -737.272888 0.030543 0.255337 0.966370 0.000000
37.537498 22.537701 -739.855530 -0.154177 0.108045 -0.982118 0.000000
37.536098 87.795799 -734.332397 0.304686 0.559921 -0.770490 0.000000
37.535301 47.847401 -742.373779 0.457179 0.033715 0.888735 0.000000
37.534901 10.073300 -736.661316 -0.258231 0.555587 -0.790342 0.000000
37.534000 50.691399 -746.048828 -0.393127 0.139497 0.908841 0.000000
37.533199 11.845600 -740.745789 -0.057478 0.391654 0.918315 0.000000
37.533001 41.069801 -741.922729 -0.603491 0.032205 -0.796720 0.000000
37.532902 53.084000 -746.645813 0.343857 0.396758 -0.851085 0.000000
37.532799 41.989799 -744.891785 0.182873 0.281871 0.941863 0.000000
37.532299 12.328400 -738.699585 -0.149851 0.871462 0.467010 0.000000
37.531601 26.096701 -740.284424 0.561289 0.147394 0.814389 0.000000
37.531399 70.636803 -740.424194 0.003450 0.194345 -0.980927 0.000000
37.531300 1.214800 -737.092224 -0.901048 0.275771 0.334759 0.000000
37.529900 8.630800 -740.345703 -0.034407 0.109879 0.993349 0.000000
37.527500 38.769299 -741.742615 0.707476 0.156039 0.689297 0.000000
37.527401 72.089699 -740.146484 0.064658 0.103226 -0.992554 0.000000
37.527100 62.091301 -741.479980 0.036453 0.032287 0.998814 0.000000
37.525902 79.217903 -737.674377 -0.093379 0.251996 -0.963213 0.000000
37.524700 -1.131900 -739.008484 0.079298 0.797308 0.598341 0.000000
37.524300 16.077600 -739.108704 -0.075567 0.124395 0.989351 0.000000
37.523499 34.849899 -741.411011 0.829510 0.081381 0.552531 0.000000
37.523201 51.901001 -742.358215 -0.552890 0.054867 -0.831446 0.000000
37.522999 39.192402 -741.747620 0.675161 0.098553 0.731057 0.000000
37.522900 29.257401 -743.093811 -0.428604 0.340685 0.836799 1.000000
37.522400 31.478100 -744.046082 0.165040 0.172716 -0.971046 1.000000
37.520901 9.404200 -738.318970 -0.417218 0.832862 0.363688 0.000000
37.520802 37.096001 -748.691101 0.218874 0.908834 0.355127 1.000000
37.519798 7.804700 -737.314026 0.340613 0.127217 0.931557 0.000000
37.519501 53.602699 -742.285828 0.374113 0.032588 0.926810 0.000000
37.519402 55.417301 -742.118713 -0.495720 0.154453 -0.854638 0.000000
37.519299 29.552700 -740.849915 0.521624 0.123504 0.844189 0.000000
37.518902 42.191502 -741.961670 0.567290 0.046224 0.822220 0.000000
37.517399 27.279200 -742.723083 0.037689 0.005093 -0.999277 0.000000
37.516899 2.470300 -739.465271 -0.281459 0.438338 -0.853605 0.000000
37.516399 42.796001 -745.138184 0.121097 0.341521 0.932040 0.000000
37.514999 14.468300 -738.930725 -0.197771 0.947938 -0.249601 0.000000
37.514900 53.582100 -746.839417 -0.225334 0.359080 0.905696 0.000000
37.514599 20.946100 -739.673523 -0.038023 0.153246 -0.987456 0.000000
37.512600 9.676400 -737.134583 0.252779 0.588771 -0.767757 0.000000
37.512199 66.369499 -741.008728 -0.042412 0.226604 -0.973063 0.000000
37.511902 54.568001 -742.166382 0.475164 0.218726 0.852278 0.000000
37.511902 27.411600 -740.436829 0.408292 0.197560 0.891217 0.000000
37.511600 46.236000 -742.335693 0.504936 0.104420 0.856817 0.000000
37.511200 20.711399 -739.326782 -0.316653 0.867355 0.383961 0.000000
37.510502 44.571098 -744.770874 0.328833 0.419223 0.846239 0.000000
37.510502 8.816600 -737.659119 -0.914230 0.367109 -0.171507 0.000000
37.508701 35.422600 -746.719971 -0.092406 0.711377 0.696709 1.000000
37.508400 -0.128300 -739.089722 0.139241 0.621345 0.771066 0.000000
37.507500 10.321900 -740.583618 -0.148389 0.988109 -0.040261 0.000000
37.507000 19.441601 -739.458496 -0.014543 0.139840 0.990067 0.000000
37.506699 20.895000 -741.883118 -0.264881 0.130464 0.955415 0.000000
37.505798 64.668602 -741.385925 -0.003576 0.246739 0.969075 0.000000
37.505501 35.654202 -741.401001 0.776517 0.110510 0.620330 0.000000
37.505299 87.153198 -734.593384 -0.272483 0.454139 -0.848240 0.000000
37.503700 52.030701 -746.420715 -0.381276 0.441898 0.812007 0.000000
37.503700 75.742996 -739.009277 0.098079 0.774383 0.625069 0.000000
37.503399 22.669201 -742.093872 -0.304846 0.255724 0.917428 0.000000
37.502701 82.467796 -736.398315 0.087415 0.296167 -0.951128 0.000000
37.502399 49.142200 -745.736877 -0.142194 0.886199 0.440945 0.000000
37.501999 24.691401 -742.306580 -0.292330 0.087049 0.952347 0.000000
37.501801 15.760600 -741.159302 -0.030401 0.244426 -0.969191 0.000000
37.500301 36.694401 -741.495728 0.797063 0.128654 0.590033 0.000000
37.498501 15.309300 -738.737183 0.432641 0.872767 -0.226051 0.000000
37.497799 19.043100 -739.390991 0.016946 0.150252 0.988502 0.000000
37.497200 46.888302 -742.314880 -0.470062 0.036575 -0.881875 0.000000
37.497002 13.217500 -738.766174 -0.037486 0.545630 -0.837188 0.000000
37.496799 48.902500 -742.430420 0.537097 0.043023 0.842423 0.000000
37.496300 1.860300 -737.141296 0.967477 0.129768 -0.217136 0.000000
37.495499 23.398600 -739.744873 0.081921 0.448485 0.890028 0.000000
37.495499 4.502200 -739.692871 -0.356567 0.390822 -0.848598 0.000000
37.494400 38.605999 -751.280273 0.582523 0.743886 0.327568 1.000000
37.492599 85.890701 -734.981689 -0.131484 0.361236 -0.923158 0.000000
37.492199 37.897598 -741.615784 0.665076 0.123493 0.736494 0.000000
37.492100 37.506401 -741.594604 0.689733 0.061918 0.721412 0.000000
37.491199 4.550200 -737.473328 -0.186934 0.036446 -0.981696 0.000000
37.491100 13.908500 -738.624695 0.132068 0.974786 0.179864 0.000000
37.490898 28.477200 -742.915771 -0.355764 0.255383 0.899006 0.000000
37.490501 53.794701 -743.258606 -0.702967 0.234322 -0.671514 0.000000
37.489300 80.059998 -737.473877 0.052158 0.298955 -0.952841 0.000000
37.488800 59.446098 -741.776428 0.454580 0.061801 0.888559 0.000000
37.487598 6.391600 -737.184387 -0.406424 0.913474 -0.019602 0.000000
37.487400 14.322800 -738.606812 -0.727329 0.445675 0.521887 0.000000
37.487202 67.519203 -740.856079 -0.001085 0.118289 -0.992979 0.000000
37.484299 26.448799 -740.307983 -0.508422 0.017625 -0.860928 0.000000
37.483898 43.724300 -742.056274 0.500633 0.083204 0.861652 0.000000
37.483398 53.699600 -742.679016 -0.917964 0.371922 0.137903 0.000000
37.482101 60.709999 -741.486389 -0.808321 0.226330 -0.543500 0.000000
37.481400 30.535500 -740.827576 -0.691238 0.061795 -0.719980 0.000000
37.480999 12.341200 -738.350891 0.641721 0.425036 -0.638387 0.000000
37.480701 87.521797 -734.137329 -0.612448 0.786192 -0.082528 0.000000
37.480301 33.343700 -745.117920 -0.124371 0.126786 0.984102 1.000000
37.480202 33.126400 -741.130188 0.680572 0.294432 0.670918 0.000000
37.480099 71.515999 -740.135376 0.036674 0.038769 -0.998575 0.000000
37.478802 4.940500 -740.231201 0.995448 0.005346 0.095161 0.000000
37.477200 86.508301 -734.745483 -0.153728 0.260668 -0.953111 0.000000
37.476601 63.132599 -741.622986 0.005974 0.247307 0.968919 0.000000
37.475899 78.666298 -737.895325 -0.105515 0.230098 -0.967430 0.000000
37.475399 36.645100 -747.997925 -0.020177 0.878384 0.477529 1.000000
37.474998 35.067001 -746.383179 -0.111737 0.544174 0.831498 1.000000
37.474899 51.369202 -742.368286 0.645096 0.073601 0.760549 0.000000
37.474499 32.793701 -744.789124 -0.142184 0.169866 0.975156 1.000000
37.472000 74.261101 -739.474304 0.004150 0.657029 0.753854 0.000000
37.471199 19.768400 -741.741821 -0.113058 0.868688 0.482286 0.000000
37.471100 10.782300 -738.541992 -0.262999 0.133482 0.955518 0.000000
37.469299 53.051498 -742.316101 -0.388343 0.001282 -0.921514 0.000000
37.468700 11.227000 -738.642029 -0.045332 0.034790 0.998366 0.000000
37.468102 42.584202 -741.968384 -0.547132 0.028941 -0.836546 0.000000
37.467899 24.537800 -739.919678 0.451119 0.193759 0.871177 0.000000
37.467400 34.332401 -741.230103 0.761729 0.208587 0.613401 0.000000
37.467098 38.028198 -750.137695 0.264443 0.885960 0.380978 1.000000
37.466999 46.534500 -745.229675 0.109910 0.960745 -0.254733 0.000000
37.466801 57.171700 -741.963013 0.400735 0.027592 0.915778 0.000000
37.466400 3.037300 -739.820129 0.812271 0.232738 0.534835 0.000000
37.465000 59.782200 -741.703979 0.207676 0.210356 0.955312 0.000000
37.463600 31.771799 -740.991272 0.704184 0.018200 0.709784 0.000000
37.463501 9.752700 -738.296326 0.913582 0.068822 -0.400789 0.000000
37.463402 36.146900 -741.401672 -0.740021 0.133054 -0.659292 0.000000
37.463299 11.894000 -738.473572 0.625846 0.649211 -0.432251 0.000000
37.462200 80.869499 -737.160706 0.052290 0.592146 -0.804132 0.000000
37.461102 68.126198 -740.866272 0.005776 0.195224 0.980742 0.000000
37.459599 24.191700 -739.853027 0.274452 0.232229 0.933138 0.000000
37.459099 15.666400 -738.744873 0.619865 0.616506 -0.485477 0.000000
37.459000 53.958698 -746.887024 -0.564491 0.167089 0.808351 0.000000
37.455799 17.295500 -738.938477 0.632216 0.250679 -0.733118 0.000000
37.455700 31.287001 -740.897583 0.628687 0.318384 0.709495 0.000000
37.455502 8.912700 -737.055115 -0.974641 0.085451 -0.206817 0.000000
37.454102 22.314400 -739.555725 0.338254 0.120902 0.933256 0.000000
37.453701 21.634899 -739.447388 0.207867 0.168647 0.963509 0.000000
37.452202 61.311298 -741.802917 -0.240179 0.109172 -0.964570 0.000000
37.450699 54.440701 -747.004211 -0.372438 0.239950 0.896501 0.000000
37.450699 26.660601 -742.621277 -0.253271 0.371760 0.893112 0.000000
37.450298 44.114300 -745.449829 0.559122 0.787783 -0.258418 0.000000
37.449799 52.487000 -746.480713 -0.308108 0.679129 0.666223 0.000000
37.449200 6.008900 -737.497681 0.182021 0.221879 0.957934 0.000000
37.448898 37.141201 -741.489624 0.798139 0.009649 0.602395 0.000000
37.448399 48.169800 -745.578308 -0.297332 0.391869 0.870650 0.000000
37.448002 55.912399 -747.062927 0.452516 0.056052 0.889993 0.000000
37.447102 58.977798 -741.776978 -0.976675 0.138810 -0.163821 0.000000
37.446899 77.186501 -738.467102 -0.078441 0.094356 -0.992443 0.000000
37.445702 20.489100 -741.827087 -0.115882 0.868403 0.482128 0.000000
37.444000 5.575400 -740.358093 0.995218 0.076385 0.060887 0.000000
37.442799 8.585900 -738.043823 -0.950967 0.168134 0.259599 0.000000
37.441399 -0.450600 -738.990479 -0.619371 0.079407 -0.781072 0.000000
37.439201 4.292800 -739.986572 0.881346 0.102941 0.461120 0.000000
37.438999 29.979601 -743.432373 -0.273203 0.560619 0.781708 1.000000
37.438000 45.079102 -744.918396 -0.599103 0.061191 0.798330 0.000000
37.438000 23.856899 -742.215515 -0.217888 0.083420 0.972402 0.000000
37.435799 49.604500 -742.361023 0.594423 0.012413 0.804057 0.000000
37.433601 40.551399 -744.516113 0.120116 0.849492 0.513747 0.000000
37.433201 21.391701 -739.693604 0.027415 0.099792 0.994631 0.000000
37.432499 12.835300 -740.877380 0.126520 0.095777 0.987329 0.000000
37.432499 12.906500 -738.424622 -0.832484 0.460756 0.307691 0.000000
37.431900 70.944298 -740.259277 -0.014649 0.152126 -0.988253 0.000000
37.431198 45.885899 -742.253723 0.534871 0.078032 0.841323 0.000000
37.430599 47.041401 -745.342529 0.276165 0.137416 -0.951236 0.000000
37.430302 25.052401 -742.402283 -0.370600 0.260462 0.891524 0.000000
37.429699 83.830803 -735.985718 -0.099762 0.270783 -0.957457 0.000000
37.429001 40.259998 -741.757813 0.587634 0.020740 0.808861 0.000000
37.428699 50.162800 -742.371277 0.593107 0.012385 0.805029 0.000000
37.427502 58.066399 -741.922119 -0.376603 0.330488 -0.865418 0.000000
37.427299 28.136000 -742.872375 -0.264584 0.110787 0.957978 0.000000
37.425201 54.156300 -742.178772 -0.717181 0.382387 -0.582607 0.000000
37.424999 1.629300 -739.480408 0.606641 0.208388 0.767177 0.000000
37.424900 69.848801 -740.470520 -0.077991 0.018162 -0.996789 0.000000
37.424099 60.225800 -741.418030 0.324958 0.102970 -0.940106 0.000000
37.423901 9.561200 -737.748718 -0.343401 0.900507 -0.266762 0.000000
37.423599 56.397499 -741.919373 0.492760 0.034125 0.869496 0.000000
37.423100 21.864901 -742.013916 0.144579 0.331843 -0.932189 0.000000
37.422501 35.153999 -741.263794 0.857515 0.062950 0.510592 0.000000
37.422199 16.887800 -738.887512 0.627677 0.594021 -0.503151 0.000000
37.421001 16.446501 -739.140625 -0.152417 0.319938 0.935098 0.000000
37.418400 8.459400 -737.705200 -0.925787 0.328323 -0.187412 0.000000
37.418201 62.646702 -741.648987 -0.044149 0.007187 0.998999 0.000000
37.418098 4.129200 -737.476624 0.141262 0.163764 0.976333 0.000000
37.417999 72.796204 -739.945618 -0.051596 0.377046 -0.924756 0.000000
37.413601 18.328501 -739.039124 0.995609 0.031555 0.088136 0.000000
37.412899 -0.466900 -737.134094 -0.717184 0.477568 0.507520 0.000000
37.412300 13.847900 -740.964111 -0.094225 0.267185 -0.959028 0.000000
37.412300 76.756699 -738.790710 -0.046932 0.300617 -0.952589 0.000000
37.412201 3.451400 -739.781921 0.949933 0.101169 0.295622 0.000000
37.411499 74.752800 -739.417114 0.013297 0.033755 0.999342 0.000000
37.411400 37.660400 -749.495789 0.251577 0.855363 0.452839 1.000000
37.409599 75.266800 -739.146729 -0.066384 0.324108 -0.943688 0.000000
37.409000 44.933899 -742.094604 0.507273 0.092361 0.856822 0.000000
37.408298 76.315498 -738.937805 -0.110657 0.016434 -0.993723 0.000000
37.408100 25.991699 -742.511414 -0.222283 0.531946 0.817082 0.000000
37.407799 7.167000 -740.697083 0.933256 0.120902 0.338254 0.000000
37.407501 45.319099 -742.133118 0.508524 0.083574 0.856983 0.000000
37.407299 36.383701 -747.581482 0.302337 0.583879 0.753444 1.000000
37.406300 50.766499 -742.351929 0.663978 0.086098 0.742779 0.000000
37.400101 64.119698 -741.312500 -0.109105 0.242598 -0.963972 0.000000
37.400002 24.279100 -742.341125 -0.241163 0.117357 0.963363 0.000000
37.399700 39.412899 -753.585999 0.588258 0.777618 0.221955 1.000000
37.399300 4.176400 -739.598206 -0.791096 0.009664 -0.611615 0.000000
37.399300 84.341003 -735.595825 0.109721 0.589568 0.800232 0.000000
37.397499 36.118198 -747.266418 -0.019041 0.338928 0.940620 1.000000
37.397499 72.452301 -740.011597 0.005482 0.123898 -0.992280 0.000000
37.397499 5.532300 -739.856079 0.455523 0.102951 0.884251 0.000000
37.396400 2.461700 -737.117371 -0.693011 0.175930 0.699131 0.000000
37.395401 38.906700 -753.675720 -0.726571 0.514724 0.455141 1.000000
37.394501 51.290401 -746.204529 -0.228101 0.127582 0.965242 0.000000
37.394100 16.001400 -738.721619 -0.090892 0.378491 0.921131 0.000000
37.393501 18.515200 -741.598877 -0.193092 0.214399 0.957470 0.000000
37.392899 43.327202 -745.318176 0.208359 0.316083 0.925569 0.000000
37.392502 17.969801 -739.021179 -0.111776 0.050807 0.992434 0.000000
37.391800 77.932198 -738.278320 -0.262111 0.646541 -0.716437 0.000000
37.391300 9.017200 -740.406677 -0.224824 0.017843 -0.974236 0.000000
37.390202 38.293900 -750.591187 0.502942 0.777862 0.376802 1.000000
37.390202 57.576000 -741.971985 0.263299 0.013347 0.964622 0.000000
37.389400 41.262699 -744.627319 0.071047 0.376684 0.923613 0.000000
37.388802 3.205300 -739.501709 0.900123 0.110591 0.421364 0.000000
37.388100 39.001400 -752.260986 0.735006 0.652145 0.185670 1.000000
37.386700 11.342700 -741.275879 -0.284104 0.893962 -0.346578 0.000000
37.386700 25.759001 -740.088318 0.563323 0.147148 0.813028 0.000000
37.386501 13.294400 -740.914124 0.048478 0.360312 0.931571 0.000000
37.386299 22.696301 -739.442871 -0.517419 0.034312 -0.855044 0.000000
37.384300 7.417500 -737.296082 -0.049313 0.815779 -0.576258 0.000000
37.383900 58.371601 -741.775696 -0.851335 0.154387 -0.501391 0.000000
37.383400 4.675000 -739.999695 0.885292 0.176475 0.430249 0.000000
37.380901 40.699902 -741.839111 0.638612 0.120018 0.760112 0.000000
37.380798 19.433800 -739.122009 0.874314 0.112677 -0.472101 0.000000
37.380501 55.035000 -747.157593 -0.207847 0.075022 -0.975280 0.000000
37.380100 10.761600 -740.628723 0.195192 0.119634 0.973441 0.000000
37.378899 32.236900 -740.866577 -0.818393 0.172688 -0.548098 0.000000
37.376598 39.195301 -753.054077 0.738925 0.625487 0.250510 1.000000
37.375198 9.267200 -737.241516 0.094906 0.635138 -0.766546 0.000000
37.374298 44.245201 -742.024719 -0.530681 0.081096 -0.843683 0.000000
37.374298 60.758801 -741.834900 -0.034347 0.105257 -0.993852 0.000000
37.373001 2.877000 -737.097717 0.861382 0.185323 -0.472945 0.000000
37.372700 55.103802 -742.034119 -0.832950 0.162418 -0.528975 0.000000
37.371700 41.818298 -741.914307 0.493698 0.031281 0.869071 0.000000
37.370201 28.835699 -740.753906 -0.164908 0.456781 -0.874160 0.000000
37.369900 49.196899 -742.285583 0.579380 0.052158 0.813387 0.000000
37.369801 0.749400 -739.265930 -0.750285 0.018163 -0.660865 0.000000
37.369499 29.042299 -742.872986 0.214998 0.781106 0.586216 0.000000
37.368999 41.356499 -741.822998 -0.554739 0.031818 -0.831416 0.000000
37.368900 68.816399 -740.744629 -0.023737 0.145811 -0.989028 0.000000
37.368599 38.846802 -751.689880 0.616841 0.734789 0.282121 1.000000
37.366501 52.283199 -742.196594 -0.713859 0.026752 -0.699779 0.000000
37.365898 73.441002 -739.660828 0.011272 0.039965 -0.999137 0.000000
37.365200 87.218102 -734.273621 0.892279 0.294437 -0.342264 0.000000
37.365002 48.267700 -742.326477 0.639942 0.018125 0.768209 0.000000
37.365002 55.869999 -741.934509 -0.950879 0.001233 -0.309560 0.000000
37.364101 42.962502 -741.933594 0.603701 0.100860 0.790805 0.000000
37.364101 34.650799 -741.118774 0.986310 0.117786 -0.115407 0.000000
37.363499 30.907600 -743.863770 0.219366 0.817636 -0.532307 1.000000
37.362499 8.248200 -738.153870 -0.967484 0.185208 0.172256 0.000000
37.362000 20.643299 -739.630615 -0.021058 0.007019 -0.999754 0.000000
37.361698 66.838501 -740.971619 0.007618 0.112101 -0.993668 0.000000
37.360802 30.966000 -740.705872 -0.328276 0.943952 0.034488 0.000000
37.360500 32.112000 -744.270813 0.180847 0.895554 0.406544 1.000000
37.359901 2.779900 -739.353210 0.807966 0.001367 0.589227 0.000000
37.358700 9.986700 -740.541382 0.112708 0.402130 0.908619 0.000000
37.358601 16.834200 -739.217285 -0.141426 0.138967 0.980146 0.000000
37.356800 8.123100 -736.919373 -0.988395 0.071183 0.134198 0.000000
37.356400 19.782801 -739.488525 -0.062415 0.156626 0.985684 0.000000
37.355999 9.872600 -736.896973 0.988874 0.087563 -0.120253 0.000000
37.354500 65.043701 -741.289612 0.010870 0.262080 -0.964985 0.000000
37.354198 48.810101 -745.705627 -0.263265 0.151010 0.952831 0.000000
37.354099 1.518400 -737.284485 -0.103370 0.981404 0.161743 0.000000
37.353199 8.785400 -738.325684 -0.852522 0.463492 0.241624 0.000000
37.352200 39.597000 -754.148499 0.403240 0.510989 0.759136 1.000000
37.352200 36.855202 -748.294617 0.004136 0.643833 0.765155 1.000000
37.351501 47.210499 -742.263916 0.596016 0.058321 0.800852 0.000000
37.350700 3.480600 -737.120483 0.712767 0.543298 -0.443610 0.000000
37.350101 23.036501 -739.930298 -0.059093 0.353243 -0.933664 0.000000
37.349400 35.763100 -746.905212 -0.765843 0.571596 -0.294555 1.000000
37.349201 82.242996 -736.633972 0.076995 0.314506 -0.946128 0.000000
37.348000 6.115600 -740.375610 -0.996909 0.070053 -0.035565 0.000000
37.348000 23.801701 -740.005981 0.040712 0.166337 0.985228 0.000000
37.348000 84.930603 -735.457397 -0.047559 0.230479 -0.971914 0.000000
37.347301 32.771500 -741.037476 0.394540 0.183541 0.900361 0.000000
37.346401 11.522900 -740.708618 0.159027 0.227370 0.960736 0.000000
37.346199 39.473000 -741.631714 0.624329 0.104300 0.774168 0.000000
37.345100 63.457001 -741.539307 -0.037532 0.350734 0.935723 0.000000
37.344898 1.432800 -739.127014 0.879151 0.073610 0.470825 0.000000
37.342800 25.616301 -742.500488 -0.282490 0.081264 0.955822 0.000000
37.340199 15.105800 -739.038513 -0.308463 0.808331 0.501450 0.000000
37.336800 82.974098 -736.194885 0.049003 0.280194 0.958692 0.000000
37.336601 50.953098 -746.158020 -0.309965 0.210889 0.927064 0.000000
37.336399 15.483500 -739.081177 -0.110205 0.780252 -0.615679 0.000000
37.336201 9.376600 -740.424683 0.160490 0.157963 0.974315 0.000000
37.335602 5.343700 -737.474487 0.281758 0.328963 0.901330 0.000000
37.334702 13.562500 -738.845276 0.073602 0.091719 -0.993061 0.000000
37.333900 5.322000 -740.155884 0.845712 0.193778 0.497213 0.000000
37.333698 45.775799 -745.054688 -0.225752 0.429078 0.874602 0.000000
37.333401 18.357500 -739.380493 -0.112288 0.336865 0.934833 0.000000
37.332600 4.175000 -737.133606 0.934111 0.121013 0.335845 0.000000
37.332199 10.251800 -738.561218 -0.895188 0.379017 0.234489 0.000000
37.331501 39.945301 -754.634521 0.377338 0.683822 0.624503 1.000000
37.331299 70.287697 -740.452026 -0.021887 0.171640 -0.984917 0.000000
37.330898 25.106800 -740.202271 -0.106749 0.476814 -0.872498 0.000000
37.330799 8.468600 -736.960876 -0.894739 0.326036 -0.305194 0.000000
37.330502 6.464800 -740.306274 0.902847 0.041587 0.427947 0.000000
37.327599 27.574499 -742.765808 -0.179692 0.227610 0.957029 0.000000
37.325199 80.360397 -737.220276 -0.171020 0.785481 0.594787 0.000000
37.324501 18.870701 -741.653625 0.138225 0.061563 -0.988486 0.000000
37.323502 34.116100 -740.950684 -0.047393 0.946588 0.318945 0.000000
37.323002 85.401497 -735.239807 -0.279554 0.046383 -0.959009 0.000000
37.321301 38.143200 -741.435913 -0.856545 0.001340 -0.516071 0.000000
37.321098 29.459700 -743.283020 -0.461957 0.308493 0.831522 1.000000
37.321098 4.992400 -739.780884 -0.897533 0.350437 -0.267633 0.000000
37.318199 67.809700 -740.798584 -0.021858 0.361305 0.932192 0.000000
37.318001 50.186699 -745.929688 -0.118496 0.563220 0.817766 0.000000
37.317699 46.533298 -742.227722 0.632887 0.012464 0.774144 0.000000
37.316700 4.617500 -737.139587 0.906281 0.092421 -0.412448 0.000000
37.315498 39.828400 -741.642822 0.722340 0.139662 0.677288 0.000000
37.315300 30.032499 -740.807678 -0.159021 0.080109 -0.984020 0.000000
37.315201 86.841301 -734.582397 -0.519636 0.456549 -0.722178 0.000000
37.313599 14.119600 -738.890381 -0.651633 0.142968 0.744939 0.000000
37.312901 52.767601 -742.108521 0.817857 0.121871 0.562368 0.000000
37.312099 57.502201 -741.617493 0.274093 0.578289 -0.768411 0.000000
37.311699 47.565601 -742.208984 -0.626932 0.032258 -0.778406 0.000000
37.310902 37.334900 -748.877319 0.173948 0.794111 0.582348 1.000000
37.310600 8.104400 -737.287903 -0.984723 0.077397 0.155984 0.000000
37.310001 8.343700 -740.261475 0.306597 0.210520 0.928267 0.000000
37.309299 51.761902 -746.343872 -0.290708 0.320221 0.901636 0.000000
37.308399 12.334400 -740.808777 0.295270 0.153758 0.942960 0.000000
37.308399 4.859700 -737.398926 0.178106 0.099494 0.978968 0.000000
37.307899 35.496399 -741.139709 0.576024 0.559132 0.596295 0.000000
37.307499 53.639801 -742.005371 -0.870651 0.365704 -0.328980 0.000000
37.307201 6.976900 -740.092224 -0.286941 0.947041 0.144144 0.000000
37.307098 34.250099 -745.771606 -0.111818 0.538760 0.835006 1.000000
37.307098 33.758202 -740.806885 -0.536374 0.023321 0.843658 0.000000
37.306999 6.935900 -737.134521 -0.962475 0.269887 0.028344 0.000000
37.306499 11.647700 -738.683777 -0.265700 0.218402 0.938991 0.000000
37.305302 69.211700 -740.678406 0.005346 0.095161 -0.995448 0.000000
37.304501 68.469002 -740.709412 -0.083883 0.140592 0.986508 0.000000
37.302200 33.901600 -745.523621 -0.122779 0.856562 0.501226 1.000000
37.302200 17.517900 -739.293701 -0.116650 0.005451 0.993158 0.000000
37.301899 32.307400 -744.552612 -0.188891 0.539473 0.820542 1.000000
37.301899 61.853500 -741.713623 -0.005575 0.148284 -0.988929 0.000000
37.300999 51.650299 -742.239624 0.688443 0.023836 0.724899 0.000000
37.300499 27.682100 -740.514526 0.196547 0.012793 0.980411 0.000000
37.299900 0.768800 -737.135315 0.069067 0.531391 0.844306 0.000000
37.299301 78.999397 -737.868408 0.005143 0.048346 -0.998817 0.000000
37.298698 48.657799 -742.213013 0.599667 0.070128 0.797171 0.000000
37.298599 2.296000 -739.206726 0.863145 0.025826 0.504294 0.000000
37.298500 3.700900 -739.573914 -0.942865 0.026721 -0.332102 0.000000
37.297699 33.693802 -741.150513 0.282865 0.452893 0.845503 0.000000
37.297699 8.145000 -737.764221 -0.912640 0.354995 -0.202649 0.000000
37.297600 20.410700 -739.281982 0.226477 0.913121 -0.338995 0.000000
37.297401 62.268101 -741.686707 -0.102183 0.894454 -0.435329 0.000000
37.297001 8.117700 -740.813721 0.472171 0.381927 0.794472 0.000000
37.296700 54.463600 -747.307129 -0.361587 0.863192 -0.352355 0.000000
37.296398 12.046200 -738.748474 -0.264633 0.211983 0.940762 0.000000
37.296001 47.658901 -745.484375 0.209227 0.154646 -0.965561 0.000000
37.295898 22.049101 -739.793274 0.007662 0.119314 0.992827 0.000000
37.295399 5.850600 -737.190979 -0.976135 0.213041 0.042127 0.000000
37.294102 49.875801 -742.200989 0.737165 0.165672 0.655089 0.000000
37.293800 27.101400 -740.420288 0.074621 0.072394 0.994581 0.000000
37.293499 38.547798 -741.455322 -0.954300 0.211319 -0.211319 0.000000
37.293499 79.452797 -737.578918 -0.023881 0.151245 -0.988208 0.000000
37.293400 81.327499 -736.876221 -0.053142 0.330519 -0.942302 0.000000
37.293301 30.579000 -740.453430 0.987913 0.114216 -0.104797 0.000000
37.292801 67.173500 -741.013672 -0.019759 0.187129 -0.982137 0.000000
37.292801 71.810600 -740.067871 -0.036531 0.187366 -0.981611 0.000000
37.292099 86.244102 -734.893921 -0.309512 0.191869 -0.931337 0.000000
37.292000 7.718400 -740.634216 0.994717 0.007544 0.102381 0.000000
37.291500 56.891300 -741.817627 0.967994 0.105576 0.227688 0.000000
37.290401 8.350000 -738.474670 -0.969794 0.089076 0.227080 0.000000
37.290001 -0.755600 -738.873413 0.687043 0.185978 0.702413 0.000000
37.289501 0.223800 -739.146301 -0.613215 0.685941 -0.391730 0.000000
37.288799 17.974001 -741.514221 0.016589 0.124970 0.992022 0.000000
37.288399 39.190102 -752.598328 0.680816 0.717046 0.149447 1.000000
37.287800 6.857100 -740.410278 0.949933 0.101169 0.295622 0.000000
37.287601 54.396301 -741.971924 -0.049138 0.826919 0.560171 0.000000
37.286598 41.584702 -744.675171 0.051101 0.262985 0.963446 0.000000
37.286301 43.784599 -745.450928 0.360030 0.360030 0.860672 0.000000
37.285999 44.379002 -745.800171 0.850850 0.311513 0.423100 0.000000
37.285999 9.410800 -738.610718 0.833703 0.284111 -0.473519 0.000000
37.284801 0.109600 -737.319580 0.536294 0.185814 -0.823324 0.000000
37.284801 7.685300 -736.990723 -0.974273 0.114104 -0.194353 0.000000
37.284698 33.239601 -740.799377 -0.429169 0.883239 0.188952 0.000000
37.284000 25.368200 -739.984985 0.423792 0.107696 0.899334 0.000000
37.282600 49.805599 -745.977905 0.196667 0.496921 -0.845217 0.000000
37.281300 21.155100 -741.963318 0.122816 0.060834 -0.990563 0.000000
37.281101 42.293201 -744.946289 0.072215 0.533824 0.842507 0.000000
37.280602 34.562500 -745.998779 -0.017068 0.162714 0.986526 1.000000
37.280201 54.770500 -741.922729 -0.833703 0.284111 -0.473519 0.000000
37.279800 36.484100 -741.204529 0.793537 0.180556 0.581118 0.000000
37.279301 60.264599 -741.729980 0.041013 0.098652 -0.994277 0.000000
37.278099 37.467899 -741.296692 -0.895263 0.099163 -0.434363 0.000000
37.277699 23.315201 -742.233276 -0.201095 0.085126 0.975866 0.000000
37.275501 5.755600 -740.108521 0.919110 0.117128 0.376188 0.000000
37.275299 38.986599 -741.622986 0.348244 0.382295 0.855907 0.000000
37.274200 26.266300 -740.108276 0.489875 0.196250 0.849417 0.000000
37.272400 9.108600 -737.797424 -0.959382 0.178643 -0.218342 0.000000
37.271702 31.673901 -744.211304 -0.266884 0.437690 0.858604 1.000000
37.271599 51.072899 -742.197571 -0.805441 0.061083 -0.589520 0.000000
37.271599 2.209400 -737.328491 -0.447191 0.050292 0.893023 0.000000
37.271301 43.302601 -741.876526 -0.622368 0.049619 -0.781150 0.000000
37.269600 3.851500 -737.239990 -0.977307 0.148531 0.151027 0.000000
37.268700 5.128600 -737.071899 -0.898214 0.180800 0.400653 0.000000
37.268398 35.977798 -741.104492 -0.614826 0.750057 0.243729 0.000000
37.267601 35.000301 -740.924805 -0.952912 0.280733 -0.114666 0.000000
37.266602 61.251301 -741.516724 0.282951 0.033655 -0.958544 0.000000
37.265900 76.009598 -739.005127 -0.030308 0.129088 -0.991170 0.000000
37.263901 58.050301 -741.566711 0.496102 0.693206 -0.522828 0.000000
37.263302 10.544800 -738.734009 0.938252 0.013928 -0.345672 0.000000
37.262699 83.477898 -735.965210 0.003350 0.152979 0.988224 0.000000
37.261902 73.108803 -739.745605 -0.140140 0.242299 -0.960027 0.000000
37.261200 1.147900 -737.344177 0.710173 0.058822 -0.701565 0.000000
37.260502 7.982200 -738.441406 -0.969068 0.201515 0.142472 0.000000
37.260201 58.660900 -741.956970 -0.224152 0.088909 -0.970490 0.000000
37.259201 38.601501 -751.016724 0.471019 0.759867 0.448043 1.000000
37.259201 36.958302 -741.190430 0.866493 0.116010 0.485522 0.000000
37.259102 14.627600 -738.731079 -0.847742 0.429295 0.311510 0.000000
37.256802 12.893600 -738.822876 -0.308765 0.128090 0.942474 0.000000
37.255699 3.479500 -739.279175 0.879138 0.065070 0.472104 0.000000
37.254902 7.937100 -738.053284 -0.937301 0.348500 -0.003774 0.000000
37.254299 55.400101 -741.897217 0.372688 0.082072 0.924320 0.000000
37.254101 50.493599 -742.156128 0.805352 0.046544 0.590967 0.000000
37.254002 7.276500 -736.965027 0.925411 0.056928 0.374666 0.000000
37.253399 15.010100 -741.125183 0.162738 0.207003 0.964710 0.000000
37.253399 31.785500 -740.554871 0.427921 0.427921 0.796095 0.000000
37.253399 7.395500 -740.426880 0.852880 0.261836 0.451705 0.000000
37.252602 18.010000 -739.355286 -0.322502 0.859491 0.396570 0.000000
37.252300 40.993900 -741.647583 0.479009 0.106604 0.871313 0.000000
37.250702 1.761800 -739.214600 -0.926619 0.001275 -0.376001 0.000000
37.250401 62.900902 -741.491882 0.087030 0.112559 -0.989826 0.000000
37.249298 8.729100 -740.844116 -0.997548 0.030874 0.062812 0.000000
37.249100 6.487900 -739.971313 0.958806 0.171073 0.226772 0.000000
37.248699 64.516998 -741.147400 -0.140438 0.183455 0.972945 0.000000
37.248402 28.132601 -740.575989 0.166719 0.040805 0.985160 0.000000
37.247101 65.525002 -741.147400 -0.160884 0.186626 0.969168 0.000000
37.247101 81.907402 -736.637329 -0.076302 0.886486 -0.456422 0.000000
37.246899 3.255400 -737.361511 0.010025 0.139231 0.990209 0.000000
37.246498 30.350700 -743.655212 -0.330482 0.556177 0.762527 1.000000
37.245399 65.878403 -741.196228 0.032612 0.047340 -0.998346 0.000000
37.244801 29.227200 -740.704285 0.006249 0.943547 0.331179 0.000000
37.243999 33.030701 -744.921387 -0.175163 0.368838 0.912840 1.000000
37.243401 20.104700 -739.526672 0.062611 0.219753 0.973544 0.000000
37.242901 4.143200 -739.233704 -0.944470 0.091145 -0.315704 0.000000
37.242199 5.290000 -739.625610 0.901635 0.092795 0.422425 0.000000
37.241699 4.526900 -739.431396 0.948305 0.082178 0.306536 0.000000
37.240898 42.266602 -741.762024 0.842743 0.028870 0.537541 0.000000
37.239700 53.278999 -742.085327 -0.306605 0.003694 -0.951830 0.000000
37.239399 82.740097 -736.466797 0.013392 0.269064 -0.963029 0.000000
37.239300 44.638302 -742.023193 0.539479 0.048790 0.840584 0.000000
37.239101 19.319300 -741.699707 -0.044429 0.432172 0.900696 0.000000
37.238998 35.265202 -746.579285 -0.102183 0.435329 0.894454 1.000000
37.238701 31.447500 -740.487427 0.314722 0.426347 0.848044 0.000000
37.238300 26.716900 -740.381287 -0.021439 0.025522 0.999444 0.000000
37.237999 46.191200 -745.193115 -0.094172 0.177337 0.979634 0.000000
37.237598 59.253899 -741.917786 -0.117943 0.211789 -0.970173 0.000000
37.237499 9.913600 -738.539917 0.042977 0.089260 -0.995081 0.000000
37.236599 24.751801 -740.159729 0.010802 0.248447 0.968585 0.000000
37.236301 78.279099 -738.028381 -0.005264 0.076856 -0.997028 0.000000
37.235802 55.387100 -747.061584 0.561055 0.227204 0.795987 0.000000
37.235298 38.734699 -754.005310 0.417695 0.833814 -0.360951 1.000000
37.234901 49.312199 -745.872925 -0.169815 0.273063 0.946889 0.000000
37.234901 26.931101 -742.737000 -0.034958 0.991232 0.127428 0.000000
37.234501 71.233398 -740.307312 -0.001007 0.029192 -0.999573 0.000000
37.233501 9.749900 -740.851074 0.735535 0.092125 0.671194 0.000000
37.233299 21.564301 -742.007080 -0.125874 0.145427 0.981329 0.000000
37.233101 22.698601 -739.867615 -0.003339 0.145782 0.989311 0.000000
37.231899 53.274399 -746.779907 -0.344706 0.234167 0.909034 0.000000
37.231499 54.793201 -747.390686 -0.573846 0.298912 0.762464 0.000000
37.230999 7.468000 -738.122314 -0.986949 0.079003 -0.140319 0.000000
37.230499 7.998900 -740.223816 -0.242819 0.143066 -0.959464 0.000000
37.229801 46.219501 -742.091919 0.727015 0.061904 0.683826 0.000000
37.228802 79.798401 -737.579224 -0.165521 0.088198 0.982255 0.000000
37.228401 21.383600 -739.337219 0.108249 0.922168 -0.371334 0.000000
37.227600 74.041199 -739.596680 0.003988 0.477264 0.878751 0.000000
37.227600 8.668100 -738.696106 0.761674 0.489765 -0.424244 0.000000
37.227100 9.766200 -738.023804 0.795241 0.605831 0.023676 0.000000
37.226700 48.000999 -742.166687 0.616930 0.055566 0.785054 0.000000
37.225399 56.181801 -741.618225 0.612871 0.253656 -0.748364 0.000000
37.222401 52.889999 -746.661072 0.368572 0.137693 -0.919345 0.000000
37.222000 28.779499 -743.054321 0.508396 0.020336 -0.860883 0.000000
37.221699 21.712999 -739.738892 -0.132413 0.507824 0.851224 0.000000
37.219002 11.133500 -740.615112 0.217376 0.096751 0.971281 0.000000
37.218601 77.530403 -738.310974 -0.090981 0.810163 -0.579101 0.000000
37.216599 50.608799 -746.141479 -0.283670 0.252309 0.925133 0.000000
37.216099 45.744801 -742.025330 0.638603 0.015304 0.769384 0.000000
37.215199 38.017399 -749.895691 0.364410 0.842992 0.395690 1.000000
37.213799 16.250999 -738.917725 0.291508 0.068061 -0.954144 0.000000
37.213699 1.096700 -739.033813 0.768522 0.061539 0.636857 0.000000
37.213299 12.400500 -738.807312 -0.306922 0.068637 0.949256 0.000000
37.212799 39.074402 -751.904419 0.583433 0.750588 0.310200 1.000000
37.211102 46.903500 -742.089722 -0.780730 0.026536 -0.624305 0.000000
37.209900 75.539398 -739.041870 0.026313 0.156731 0.987291 0.000000
37.209702 63.802700 -741.373718 0.129639 0.156802 -0.979085 0.000000
37.208900 8.401100 -740.609924 0.832404 0.152830 0.532679 0.000000
37.207298 47.340000 -745.304626 -0.192015 0.426536 0.883854 0.000000
37.207199 39.648300 -753.801086 0.533502 0.830717 0.159010 1.000000
37.207199 4.874800 -739.473328 0.967488 0.121737 0.221689 0.000000
37.207100 11.060300 -738.808228 0.897580 0.321942 -0.301171 0.000000
37.206600 18.804199 -739.060974 0.652101 0.751748 -0.098181 0.000000
37.204899 -0.199000 -738.914185 0.561632 0.429093 0.707424 0.000000
37.204601 24.745701 -739.729675 0.647831 0.272184 0.711499 0.000000
37.204498 7.879300 -737.556213 -0.972367 0.211493 0.098864 0.000000
37.204102 45.453400 -745.072388 0.418336 0.853652 -0.310279 0.000000
37.203999 20.080400 -741.811707 -0.113058 0.868688 0.482286 0.000000
37.203499 24.377100 -740.115173 -0.005153 0.052558 0.998605 0.000000
37.203300 7.636800 -738.609314 -0.997815 0.058445 0.030816 0.000000
37.202301 66.228699 -741.121216 0.075560 0.171509 -0.982281 0.000000
37.202000 86.014099 -735.160706 0.170126 0.276284 -0.945899 0.000000
37.201599 31.242399 -744.049072 -0.292173 0.446761 0.845600 1.000000
37.200699 7.039700 -738.512390 -0.990799 0.124277 -0.053588 0.000000
37.200600 6.353000 -737.422607 0.219857 0.281473 -0.934043 0.000000
37.199799 1.829100 -737.403625 0.474392 0.028382 -0.879856 0.000000
37.198799 19.226101 -739.429016 -0.219229 0.110248 0.969424 0.000000
37.198200 26.254601 -742.630981 -0.231234 0.065537 0.970688 0.000000
37.198101 21.124599 -739.665588 -0.074263 0.144990 0.986642 0.000000
37.197300 53.731400 -746.939514 -0.326524 0.245256 0.912815 0.000000
37.197102 40.435501 -741.537720 -0.857799 0.267584 -0.438838 0.000000
37.193501 84.018402 -735.827026 -0.217201 0.447884 -0.867308 0.000000
37.192600 -1.040100 -738.687683 -0.635008 0.169031 -0.753786 0.000000
37.192299 70.620300 -740.307678 0.019386 0.163073 -0.986423 0.000000
37.192200 5.310600 -739.216187 0.977609 0.210401 -0.003487 0.000000
37.191399 38.228600 -750.307312 0.322405 0.845730 0.425201 1.000000
37.190498 85.633301 -735.020325 -0.159146 0.414354 -0.896093 0.000000
37.189701 9.691300 -740.452820 -0.290526 0.054553 -0.955311 0.000000
37.188900 37.767799 -741.469604 0.096263 0.257984 0.961342 0.000000
37.188599 2.778700 -737.396423 0.107742 0.060109 -0.992360 0.000000
37.188000 40.214901 -755.013489 0.389615 0.852186 0.349256 1.000000
37.187099 8.740400 -740.353088 0.046936 0.647141 0.760924 0.000000
37.186798 37.498199 -749.250122 0.375247 0.824909 0.422746 1.000000
37.186001 39.469799 -753.249084 0.678618 0.697425 0.230385 1.000000
37.185501 5.973400 -739.842285 0.913613 0.162892 0.372528 0.000000
37.185101 9.196800 -740.912476 0.701855 0.165948 0.692720 0.000000
37.183498 8.104000 -738.845886 0.982528 0.031544 -0.183421 0.000000
37.183102 9.135000 -738.432922 0.536952 0.166021 -0.827115 0.000000
37.182701 16.023001 -739.178284 -0.235225 0.068452 0.969527 0.000000
37.182301 3.082400 -739.235901 0.863536 0.014865 0.504067 0.000000
37.181999 34.875900 -746.243530 -0.086230 0.708844 0.700075 1.000000
37.181499 13.578700 -740.918274 -0.196898 0.297441 -0.934216 0.000000
37.180901 42.865700 -745.160522 0.071961 0.405967 0.911050 0.000000
37.180901 85.901802 -734.794617 0.229271 0.330207 0.915641 0.000000
37.180801 36.501202 -747.893982 -0.006499 0.911147 0.412031 1.000000
37.180801 6.704900 -738.869995 -0.996484 0.082239 -0.016021 0.000000
37.178600 10.142500 -738.849182 -0.308766 0.951098 0.008680 0.000000
37.178398 52.025501 -742.046814 -0.544755 0.045977 -0.837334 0.000000
37.177299 75.003998 -739.205017 0.033890 0.019512 0.999235 0.000000
37.176998 6.537400 -739.172729 -0.997082 0.035418 -0.067617 0.000000
37.175900 48.373299 -745.696472 -0.122433 0.485410 0.865672 0.000000
37.175800 34.647099 -740.782104 -0.632996 0.229754 -0.739276 0.000000
37.175201 54.695202 -747.055115 -0.616517 0.218964 -0.756281 0.000000
37.174900 72.164497 -740.069092 -0.026763 0.180357 -0.983237 0.000000
37.174801 4.419400 -737.457520 0.148406 0.104970 -0.983340 0.000000
37.174702 8.724000 -737.268372 -0.581306 0.374983 0.722129 0.000000
37.174599 49.389099 -742.068481 0.873769 0.017502 0.486026 0.000000
37.173801 7.083900 -737.413574 0.945105 0.069090 -0.319380 0.000000
37.173698 61.072498 -741.820618 -0.027678 0.114034 0.993091 0.000000
37.173401 54.086700 -741.835327 -0.580759 0.040583 -0.813063 0.000000
37.172100 52.139900 -746.492126 -0.369562 0.291124 0.882423 0.000000
37.171902 18.708300 -739.428589 -0.253925 0.186031 0.949165 0.000000
37.170700 27.129101 -740.036316 -0.282985 0.899328 -0.333359 0.000000
37.170502 5.756600 -739.267517 0.995918 0.089171 -0.013966 0.000000
37.170200 22.118900 -742.061829 -0.197260 0.049016 0.979125 0.000000
37.169701 59.957401 -741.866516 0.061882 0.095636 -0.993491 0.000000
37.169701 7.165100 -738.869019 0.996648 0.063985 -0.050971 0.000000
37.168800 44.768700 -745.820801 0.094074 0.321971 0.942064 0.000000
37.168098 76.488503 -738.693726 -0.043150 0.985444 -0.164435 0.000000
37.167900 44.053600 -741.817627 0.395710 0.342948 0.851939 0.000000
37.167801 23.438000 -739.941284 -0.031749 0.093056 0.995155 0.000000
37.166599 42.654999 -741.749084 0.380895 0.024700 0.924288 0.000000
37.166000 49.009102 -742.081970 -0.803757 0.006870 -0.594918 0.000000
37.165401 57.834999 -741.908325 0.050684 0.246003 0.967943 0.000000
37.165199 38.854198 -741.318176 0.708260 0.026753 0.705444 0.000000
37.164902 54.179501 -747.104797 -0.372047 0.113948 0.921193 0.000000
37.164700 43.639000 -741.853516 0.413723 0.019701 0.910190 0.000000
37.163601 41.728600 -741.646606 0.949574 0.123511 0.288192 0.000000
37.162300 10.630600 -740.918091 0.848261 0.037241 0.528267 0.000000
37.161800 38.868401 -751.378784 0.555309 0.723384 0.410302 1.000000
37.161499 6.151900 -737.102478 0.989123 0.010082 -0.146744 0.000000
37.161400 7.677600 -737.848572 -0.996572 0.081895 -0.011699 0.000000
37.160801 29.568899 -740.761414 -0.055815 0.333591 0.941064 0.000000
37.160801 6.379200 -739.475220 -0.998411 0.055178 0.011452 0.000000
37.160301 6.220500 -738.842102 -0.997692 0.048017 -0.048017 0.000000
37.159698 61.521500 -741.774902 0.110039 0.146316 -0.983099 0.000000
37.159000 56.598499 -742.046387 -0.129768 0.217136 -0.967477 0.000000
37.158901 9.669100 -738.855103 0.125326 0.953794 -0.273078 0.000000
37.158100 29.774401 -743.488281 -0.466627 0.269504 0.842393 1.000000
37.157398 2.029800 -738.975830 0.863080 0.012118 0.504922 0.000000
37.157001 13.271600 -738.940430 -0.839554 0.200468 0.504938 0.000000
