ply
format ascii 1.0
element vertex 678
property float x
property float y
property float z
property float nx
property float ny
property float nz
property float label
element face 0
property list uchar int vertex_indices
end_header
117.598297 168.358795 -769.664612 -0.471113 0.047794 0.880777 1.000000
117.590599 33.312401 -766.181396 0.954967 0.144772 0.258997 1.000000
117.588097 40.759201 -769.654114 0.832825 0.204793 0.514258 1.000000
117.586502 89.716202 -774.844116 -0.165502 0.052820 -0.984794 1.000000
117.582100 32.049301 -765.162109 0.940098 0.200757 0.275522 1.000000
117.556198 130.310501 -774.406677 0.154665 0.134868 -0.978718 1.000000
117.546898 144.743607 -772.682312 0.347683 0.142675 -0.926693 1.000000
117.546097 30.397499 -763.753174 0.912244 0.298262 0.280803 1.000000
117.537399 27.713301 -761.219727 0.832487 0.290981 0.471483 1.000000
117.530998 169.797897 -769.667603 -0.373356 0.011547 0.927616 1.000000
117.524002 102.631104 -775.075317 0.084616 0.243745 -0.966141 1.000000
117.519997 146.179092 -772.492188 0.401405 0.174086 -0.899204 1.000000
117.515800 178.550400 -768.201782 0.325065 0.316077 -0.891307 1.000000
117.494301 110.711899 -774.974121 -0.064003 0.140806 0.987966 1.000000
117.492401 70.215302 -774.646423 -0.745039 0.043993 -0.665568 1.000000
117.487396 154.945404 -770.852722 0.518403 0.320612 -0.792758 1.000000
117.476997 42.221401 -770.084106 0.807321 0.260779 0.529365 1.000000
117.469597 19.322800 -755.949219 0.241555 0.252726 0.936900 1.000000
117.452103 65.285698 -774.930420 0.892607 0.047407 0.448335 1.000000
117.450996 149.475403 -772.010071 0.402174 0.043801 -0.914515 1.000000
117.440598 45.851898 -772.353882 0.942218 0.291281 0.165469 1.000000
117.433800 71.598503 -774.329590 -0.480963 0.119164 -0.868605 1.000000
117.419502 147.987198 -772.319275 0.369447 0.081950 -0.925631 1.000000
117.405800 80.651703 -774.554871 0.346120 0.078242 0.934922 1.000000
117.399597 120.450302 -774.988525 -0.011859 0.098109 -0.995105 1.000000
117.364098 47.896900 -774.353394 0.976518 0.012926 -0.215046 1.000000
117.363602 141.515106 -773.055481 0.327405 0.053058 -0.943393 1.000000
117.360603 43.792000 -770.583313 0.859852 0.283552 0.424562 1.000000
117.342697 61.218601 -775.286499 -0.870651 0.056751 -0.488617 1.000000
117.341904 156.816605 -770.685730 0.579470 0.231477 -0.781430 1.000000
117.329597 116.457802 -775.149414 -0.175633 0.165377 0.970466 1.000000
117.329498 74.047203 -774.262207 0.549447 0.090379 0.830626 1.000000
117.321404 29.320900 -761.949097 0.854885 0.261512 0.448088 1.000000
117.316803 158.376297 -770.529297 0.566540 0.075634 -0.820556 1.000000
117.307503 101.075897 -775.089722 -0.178584 0.003412 0.983919 1.000000
117.305099 114.324303 -775.261230 -0.110916 0.069751 0.991379 1.000000
117.290001 150.975906 -771.748474 0.514957 0.113954 -0.849608 1.000000
117.286797 96.230400 -774.977112 0.009097 0.025269 -0.999639 1.000000
117.281799 132.342804 -774.128296 0.192628 0.105635 -0.975569 1.000000
117.269302 26.741199 -760.177490 0.729809 0.339711 0.593275 1.000000
117.255501 108.817596 -775.234497 -0.232627 0.192287 0.953368 1.000000
117.254997 118.252899 -775.112976 0.073562 0.053799 -0.995838 1.000000
117.250198 79.093903 -774.389893 0.431766 0.017165 0.901822 1.000000
117.247299 99.571999 -775.143616 -0.131019 0.068408 0.989017 1.000000
117.245903 35.773399 -766.591980 0.828486 0.560008 0.001356 1.000000
117.236298 58.222599 -775.091919 -0.930319 0.127422 -0.343903 1.000000
117.202698 124.300301 -774.822327 0.070728 0.176222 -0.981806 1.000000
117.199097 137.766296 -773.641724 0.317335 0.201684 -0.926619 1.000000
117.175003 47.067200 -773.165222 0.946065 0.256026 0.198523 1.000000
117.155098 49.552101 -774.845520 0.995488 0.047195 -0.082317 1.000000
117.153099 45.160099 -771.071899 0.878497 0.311039 0.362626 1.000000
117.149200 68.709801 -774.325684 0.509153 0.469350 0.721439 1.000000
117.148804 160.628799 -770.454529 -0.612501 0.052581 0.788719 1.000000
117.114601 38.981400 -767.970886 0.656906 0.710725 -0.251682 1.000000
117.112801 50.936699 -775.200928 -0.791081 0.608633 -0.061291 1.000000
117.109299 98.003502 -774.986877 0.021827 0.042615 -0.998853 1.000000
117.101700 179.962799 -767.912170 0.399373 0.364917 -0.841033 1.000000
117.097099 184.125595 -766.194519 0.230728 0.882719 -0.409355 1.000000
117.091698 126.087303 -774.924805 -0.163080 0.017106 0.986465 1.000000
117.085403 31.980000 -763.741882 0.905432 0.253053 0.340817 1.000000
117.082802 37.174500 -766.926270 0.901636 0.320221 0.290708 1.000000
117.074501 59.781200 -774.900330 -0.894407 0.025326 -0.446537 1.000000
117.060997 33.464100 -764.767517 0.928656 0.201514 0.311431 1.000000
117.047302 152.381393 -771.683228 0.424882 0.156990 -0.891532 1.000000
117.043198 30.650299 -762.395081 0.846906 0.385241 0.366525 1.000000
117.037300 40.343899 -768.408325 0.871705 0.187321 0.452815 1.000000
117.023300 134.254395 -774.034485 0.288817 0.059799 -0.955515 1.000000
117.022499 53.341599 -775.536987 -0.718509 0.466284 -0.516065 1.000000
116.998497 162.281799 -770.396423 0.562090 0.103122 -0.820622 1.000000
116.997902 171.228104 -769.779419 0.347293 0.019082 -0.937563 1.000000
116.975601 66.866402 -774.002075 0.792090 0.128807 0.596659 1.000000
116.966797 62.769501 -774.085022 0.289423 0.944361 0.156261 1.000000
116.953300 49.271801 -773.437317 -0.922319 0.191264 -0.335775 1.000000
116.943001 135.757095 -773.918701 0.236712 0.157367 -0.958751 1.000000
116.936699 107.405998 -775.291016 -0.105685 0.190233 0.976034 1.000000
116.932999 75.780098 -774.108398 -0.536151 0.078218 -0.840491 1.000000
116.931198 163.799698 -770.378418 -0.408698 0.063395 0.910465 1.000000
116.915703 22.022200 -757.140381 0.372487 0.429549 0.822642 1.000000
116.893700 139.502899 -773.527100 0.326720 0.039719 -0.944286 1.000000
116.857002 51.938801 -774.040283 -0.812489 0.341850 -0.472229 1.000000
116.851898 35.283401 -765.255981 -0.517988 0.524693 -0.675563 1.000000
116.849403 72.771599 -773.796387 0.798217 0.220783 0.560450 1.000000
116.827103 46.826099 -771.530579 0.934515 0.024356 0.355090 1.000000
116.824898 48.701801 -772.141724 0.720800 0.693130 0.004150 1.000000
116.824097 54.504299 -774.339478 -0.817050 0.341098 -0.464846 1.000000
116.800697 176.139801 -769.160217 0.273063 0.169815 -0.946889 1.000000
116.797096 85.792999 -774.504578 0.272193 0.148834 0.950663 1.000000
116.792900 91.376801 -774.779480 -0.167905 0.085765 -0.982065 1.000000
116.789101 43.262299 -769.360413 0.857591 0.195382 0.475777 1.000000
116.787903 41.780701 -768.668823 0.883628 0.403817 0.236926 1.000000
116.775299 165.934799 -770.301575 -0.187649 0.791789 -0.581255 1.000000
116.770203 24.866800 -758.718628 0.473149 0.417867 0.775575 1.000000
116.767502 87.662399 -774.665894 0.183911 0.234923 0.954457 1.000000
116.764702 57.014900 -774.345215 -0.576399 0.616967 -0.535832 1.000000
116.737297 64.787102 -773.724609 0.842504 0.009497 0.538606 1.000000
116.723701 186.190399 -765.669983 0.662896 0.189179 -0.724417 1.000000
116.719902 181.481003 -767.593506 0.413511 0.317490 -0.853351 1.000000
116.708397 61.302200 -773.989624 -0.899310 0.038867 -0.435582 1.000000
116.688103 121.777802 -775.215698 0.001007 0.031203 -0.999513 1.000000
116.688004 20.663500 -756.389893 0.184337 0.404961 0.895559 1.000000
116.682800 58.696301 -773.747620 0.911941 0.033089 0.408984 1.000000
116.667297 77.755402 -774.011230 0.504752 0.039885 0.862342 1.000000
116.666901 51.185101 -772.854919 -0.808949 0.341698 -0.478377 1.000000
116.661903 93.514801 -774.806519 0.109736 0.112095 0.987620 1.000000
116.641403 105.435997 -775.334717 -0.124124 0.027956 0.991873 1.000000
116.639198 127.469398 -774.820923 0.149778 0.137399 -0.979126 1.000000
116.636200 44.678699 -769.752380 0.862189 0.243959 0.443975 1.000000
116.627403 28.473200 -760.452026 0.681568 0.406287 0.608602 1.000000
116.623802 111.762100 -775.386230 0.077784 0.047109 -0.995857 1.000000
116.621201 94.949203 -774.916504 0.042795 0.240875 0.969612 1.000000
116.600197 36.994999 -765.559326 0.914485 0.226101 0.335551 1.000000
116.595200 154.037704 -771.705017 0.516325 0.241979 -0.821496 1.000000
116.591499 82.831299 -774.207275 0.279150 0.054314 0.958710 1.000000
116.582802 70.699997 -773.491699 0.793494 0.079205 0.603401 1.000000
116.575897 143.741104 -773.246094 0.398565 0.100676 -0.911597 1.000000
116.560799 33.324902 -763.384399 0.817215 0.303897 0.489699 1.000000
116.544998 38.428398 -766.354187 -0.508502 0.528640 -0.679680 1.000000
116.537498 103.799004 -774.953003 -0.075248 0.336637 0.938623 1.000000
116.534897 52.843498 -772.836182 -0.811267 0.341336 -0.474695 1.000000
116.522797 173.142502 -769.635986 0.253630 0.033082 -0.966735 1.000000
116.518402 55.413399 -773.139221 -0.966311 0.058602 -0.250617 1.000000
116.516899 39.998199 -766.991699 0.869233 0.197620 0.453190 1.000000
116.502403 46.069901 -770.097473 0.897162 0.224658 0.380303 1.000000
116.500504 177.726501 -768.820801 0.342124 0.160589 -0.925830 1.000000
116.487900 155.840897 -771.474121 0.542951 0.189050 -0.818208 1.000000
116.482201 23.357800 -757.767822 0.370641 0.383152 0.846062 1.000000
116.456902 129.426102 -774.739380 0.216918 0.146777 -0.965092 1.000000
116.455399 49.468102 -770.990173 0.958273 0.208667 0.195376 1.000000
116.454399 147.026901 -772.884888 0.344582 0.048111 -0.937523 1.000000
116.450798 187.976501 -765.276001 0.020939 0.651912 -0.758005 1.000000
116.430496 159.556000 -771.037598 0.529258 0.071979 -0.845402 1.000000
116.429604 167.332993 -770.256287 0.410132 0.055132 -0.910358 1.000000
116.408302 145.513000 -773.080811 0.371059 0.213904 -0.903637 1.000000
116.407799 50.848999 -771.406677 -0.732889 0.419970 -0.535256 1.000000
116.406303 123.172096 -775.110596 -0.151483 0.105432 0.982821 1.000000
116.404099 47.875500 -770.650818 0.928981 0.118680 0.350585 1.000000
116.380997 174.783905 -769.481628 0.154988 0.137629 -0.978283 1.000000
116.377197 113.231697 -775.400330 0.070131 0.003140 -0.997533 1.000000
116.369301 119.329201 -775.328186 0.141524 0.089196 -0.985908 1.000000
116.366096 30.064899 -761.147827 0.734813 0.409325 0.540835 1.000000
116.362602 148.915695 -772.747986 0.311357 0.142762 -0.939508 1.000000
116.359901 131.255493 -774.532776 0.341412 0.061480 -0.937901 1.000000
116.357903 31.924601 -762.363525 0.719998 0.318741 0.616448 1.000000
116.355797 57.323799 -773.026428 0.926238 0.043356 0.374437 1.000000
116.353600 115.434303 -775.325806 0.076659 0.031311 -0.996566 1.000000
116.336197 89.038002 -774.615601 0.103443 0.067067 0.992372 1.000000
116.333603 169.159195 -770.224426 0.396499 0.083115 -0.914265 1.000000
116.324699 34.950600 -763.934204 -0.553897 0.483614 -0.677729 1.000000
116.305901 84.441704 -774.429016 -0.277396 0.025890 -0.960407 1.000000
116.298897 182.815094 -767.253723 0.473719 0.313189 -0.823106 1.000000
116.294296 26.328199 -759.167786 0.504570 0.323116 0.800628 1.000000
116.291000 41.477600 -767.348083 0.797009 0.278246 0.536056 1.000000
116.290298 81.390503 -774.108521 0.338301 0.172660 0.925063 1.000000
116.282600 157.802994 -771.352295 0.543073 0.212640 -0.812315 1.000000
116.282204 68.132401 -773.195923 0.750444 0.041140 0.659653 1.000000
116.275803 110.172203 -775.437317 -0.069798 0.154975 0.985450 1.000000
116.253998 52.307999 -771.355591 0.929157 0.334719 0.156943 1.000000
116.251900 142.369293 -773.518188 -0.449831 0.009234 0.893066 1.000000
116.247803 60.006901 -773.051025 0.909963 0.035867 0.413136 1.000000
116.239403 140.807693 -773.646912 -0.403104 0.046563 0.913969 1.000000
116.219101 53.973400 -771.879517 0.925412 0.184519 0.331007 1.000000
116.218300 74.122498 -773.307617 0.372871 0.116952 0.920483 1.000000
116.217102 150.347794 -772.529480 0.485522 0.116010 -0.866493 1.000000
116.213699 62.654999 -772.792603 -0.692069 0.626625 -0.358305 1.000000
116.201797 179.108200 -768.621094 0.373164 0.260174 -0.890538 1.000000
116.197701 66.366600 -772.931274 0.828666 0.037603 0.558479 1.000000
116.192703 117.338600 -775.460571 0.084581 0.075559 -0.993548 1.000000
116.182098 102.087097 -775.043091 -0.183640 0.015015 0.982879 1.000000
116.170097 79.947998 -773.826904 0.368712 0.134963 0.919694 1.000000
116.154999 42.886398 -767.991699 -0.788189 0.032200 -0.614591 1.000000
116.126503 189.472000 -764.912720 0.825585 0.282478 -0.488484 1.000000
116.111900 136.947998 -774.090210 0.373211 0.032510 -0.927177 1.000000
116.101501 161.312195 -771.114380 0.515128 0.074799 -0.853843 1.000000
116.094101 97.000999 -775.036621 -0.030670 0.141991 0.989393 1.000000
116.081902 125.074501 -775.203003 0.086882 0.042891 -0.995295 1.000000
116.078499 56.065701 -771.890686 0.840349 0.493876 0.223384 1.000000
116.076797 19.589701 -755.641174 0.548356 0.054695 -0.834455 1.000000
116.021400 44.472599 -768.366516 0.843628 0.239511 0.480548 1.000000
116.020401 133.380707 -774.517700 -0.314732 0.188839 0.930206 1.000000
116.016098 38.141499 -764.929871 0.813361 0.273202 0.513619 1.000000
116.005898 138.392899 -774.064514 0.318441 0.224194 -0.921050 1.000000
115.998802 184.979996 -766.643982 0.446216 0.385441 -0.807667 1.000000
115.996696 98.849297 -775.178101 -0.017843 0.057728 0.998173 1.000000
115.992599 36.663601 -764.273926 -0.517988 0.524693 -0.675563 1.000000
115.980797 151.850403 -772.483887 0.354974 0.095830 -0.929952 1.000000
115.974701 39.589500 -765.755493 0.888676 0.145002 0.435006 1.000000
115.973900 100.501198 -775.223389 -0.043969 0.005113 0.999020 1.000000
115.970596 64.435898 -772.586975 0.835158 0.158725 0.526609 1.000000
115.966599 48.231499 -769.326294 -0.195375 0.952623 -0.233103 1.000000
115.946701 58.454601 -772.276489 0.938376 0.094772 0.332369 1.000000
115.931999 76.548798 -773.406372 0.397932 0.124266 0.908960 1.000000
115.914299 162.954300 -771.110596 0.388901 0.051765 -0.919824 1.000000
115.907600 164.935104 -770.844421 0.228497 0.147544 -0.962299 1.000000
115.877899 134.851501 -774.605713 0.288721 0.097982 -0.952386 1.000000
115.877403 49.880600 -769.741211 0.766336 0.605328 0.215193 1.000000
115.875504 45.901402 -768.810974 0.832787 0.258025 0.489784 1.000000
115.868896 71.961601 -773.070618 0.613432 0.101019 0.783260 1.000000
115.854202 51.365002 -770.115173 0.778284 0.463071 0.424075 1.000000
115.852997 120.643402 -775.319275 0.085794 0.094945 -0.991779 1.000000
115.843399 27.659201 -759.585022 0.472494 0.312380 0.824117 1.000000
115.832703 170.612793 -770.300415 0.163868 0.117049 -0.979514 1.000000
115.827400 180.495895 -768.324707 0.346235 0.277879 -0.896049 1.000000
115.825500 108.760902 -775.417175 0.105172 0.088992 -0.990464 1.000000
115.822502 69.632103 -772.914978 -0.619573 0.229413 -0.750666 1.000000
115.782700 61.080700 -772.251221 0.846373 0.060355 0.529159 1.000000
115.782303 40.976700 -766.128784 0.890875 0.222351 0.396108 1.000000
115.778503 92.389000 -774.480713 0.004984 0.016947 0.999844 1.000000
115.775101 90.332298 -774.590027 0.042788 0.026090 0.998743 1.000000
115.745300 106.547401 -775.091125 0.243755 0.184500 -0.952126 1.000000
115.697304 86.713997 -774.325806 0.141493 0.091554 0.985696 1.000000
115.657700 54.004501 -770.495605 -0.811267 0.341336 -0.474695 1.000000
115.655701 191.020493 -764.537476 0.870059 0.159389 -0.466469 1.000000
115.634201 21.606100 -756.626099 0.091368 0.324423 0.941489 1.000000
115.630699 153.247101 -772.494629 0.486983 0.343283 -0.803122 1.000000
115.612701 126.455002 -775.101013 -0.128255 0.023420 0.991465 1.000000
115.608002 24.487101 -757.910217 0.251485 0.420145 0.871914 1.000000
115.604698 172.132202 -770.022095 0.120337 0.203939 -0.971560 1.000000
115.604202 78.629799 -773.508179 0.343273 0.115329 0.932128 1.000000
115.595596 34.172298 -762.801025 0.640733 0.344007 0.686383 1.000000
115.590897 187.082901 -766.065613 0.569498 0.280783 -0.772550 1.000000
115.575203 42.411999 -766.570313 -0.821545 0.029093 -0.569401 1.000000
115.545998 154.785507 -772.318787 0.586722 0.116168 -0.801413 1.000000
115.531601 57.273602 -771.385925 0.837402 0.384922 0.388064 1.000000
115.530800 43.867401 -767.183472 0.881543 0.198678 0.428262 1.000000
115.506699 156.677200 -772.083374 0.573540 0.058062 -0.817117 1.000000
115.488899 59.672001 -771.692688 0.825989 0.146809 0.544233 1.000000
115.483704 128.266495 -775.022888 -0.195213 0.066688 0.978491 1.000000
115.478302 176.751801 -769.419800 0.302944 0.148076 -0.941434 1.000000
115.452202 181.878494 -768.101013 0.273042 0.335030 -0.901778 1.000000
115.443001 29.211201 -760.210388 0.349902 0.415803 0.839450 1.000000
115.440102 104.623199 -775.343018 -0.016625 0.125245 0.991986 1.000000
115.437302 114.308502 -775.451477 -0.100106 0.059614 0.993189 1.000000
115.434097 144.589401 -773.700806 0.396357 0.154849 -0.904944 1.000000
115.433998 62.339600 -771.602173 0.761249 0.202279 0.616103 1.000000
115.430199 94.173500 -774.586182 0.023905 0.042613 0.998806 1.000000
115.426102 158.966995 -771.834595 -0.507357 0.098613 0.856075 1.000000
115.425400 67.417503 -772.323120 0.640711 0.070550 0.764534 1.000000
115.425102 31.466299 -761.293823 0.466584 0.392318 0.792708 1.000000
115.421898 95.716599 -774.751282 -0.036016 0.017494 -0.999198 1.000000
115.421097 32.987499 -762.053223 0.532247 0.372735 0.760120 1.000000
115.414497 148.062607 -773.354187 -0.378615 0.029925 0.925070 1.000000
115.397499 65.724297 -771.927429 0.661924 0.052897 0.747702 1.000000
115.391403 83.548103 -773.827515 0.281729 0.185529 0.941386 1.000000
115.381699 47.174702 -768.388489 0.875324 0.165128 0.454467 1.000000
115.379700 183.894196 -767.514771 0.393450 0.269837 -0.878855 1.000000
115.361504 166.644394 -770.896606 0.402756 0.236303 -0.884279 1.000000
115.348396 56.101898 -770.583374 0.844691 0.078081 0.529529 1.000000
115.315598 139.638702 -774.045715 -0.387973 0.011601 0.921598 1.000000
115.312302 173.893997 -769.835083 0.283140 0.100469 -0.953802 1.000000
115.311302 45.382500 -767.479126 0.883239 0.188952 0.429169 1.000000
115.310501 122.274300 -775.099976 0.169745 0.010253 -0.985435 1.000000
115.301498 146.353897 -773.565430 0.375223 0.090758 -0.922481 1.000000
115.293800 168.119400 -770.731873 0.190028 0.295445 -0.936270 1.000000
115.293404 52.565300 -769.550903 -0.837386 0.230319 -0.495720 1.000000
115.290604 22.940399 -757.122986 0.133729 0.309332 0.941504 1.000000
115.286697 111.251602 -775.236206 0.028544 0.154140 -0.987637 1.000000
115.286102 75.087196 -772.799377 0.258839 0.030668 0.965433 1.000000
115.279701 130.437103 -774.976929 0.231601 0.013065 -0.972723 1.000000
115.267998 118.417397 -775.430481 0.134263 0.122167 -0.983386 1.000000
115.247498 73.251801 -772.606628 0.343361 0.211189 0.915151 1.000000
115.239601 132.082199 -774.810486 0.187140 0.051255 -0.980995 1.000000
115.221001 188.697205 -765.840820 0.517106 0.412043 -0.750214 1.000000
115.213699 35.537899 -763.135376 -0.518898 0.522257 -0.676751 1.000000
115.212502 85.338699 -774.290283 0.205605 0.032089 0.978109 1.000000
115.211899 149.642105 -773.283325 0.385780 0.011612 -0.922518 1.000000
115.211197 192.409500 -764.366272 0.815181 0.290575 -0.501046 1.000000
115.194801 123.855003 -775.453125 0.133603 0.068544 -0.988662 1.000000
115.191902 88.236397 -774.401123 0.154019 0.129376 0.979561 1.000000
115.191200 25.791500 -758.433228 0.201003 0.337857 0.919484 1.000000
115.181198 178.283295 -769.232910 0.349395 0.192524 -0.916983 1.000000
115.178398 103.246399 -775.047974 0.013509 0.050918 0.998611 1.000000
115.175903 160.351501 -771.679810 0.482654 0.012033 -0.875729 1.000000
115.175003 116.258698 -775.545227 0.126329 0.007690 -0.991959 1.000000
115.155998 141.635498 -774.142883 -0.400462 0.009072 0.916268 1.000000
115.142197 82.131699 -773.714478 0.384266 0.085543 0.919251 1.000000
115.141098 49.897202 -768.507202 0.819114 0.561217 0.118691 1.000000
115.137802 143.139008 -773.964722 0.338975 0.075181 -0.937787 1.000000
115.110397 39.285599 -764.614014 -0.508502 0.528640 -0.679680 1.000000
115.109299 136.033401 -774.630981 0.366642 0.048623 -0.929090 1.000000
115.090500 70.857597 -772.473816 0.607981 0.052437 0.792218 1.000000
115.067398 51.341400 -768.816528 0.888405 0.201176 0.412631 1.000000
115.058403 112.647202 -775.537781 -0.155351 0.019277 0.987671 1.000000
115.057602 175.353500 -769.774170 0.253326 0.201292 -0.946207 1.000000
115.056198 63.835098 -771.624084 -0.783676 0.004132 -0.621156 1.000000
115.053299 37.756401 -763.946228 0.553507 0.272811 0.786895 1.000000
115.046402 68.852203 -771.995483 0.829276 0.054910 0.556136 1.000000
115.023499 58.533699 -770.791016 0.865023 0.175362 0.470089 1.000000
115.003304 48.370201 -767.644226 0.935624 0.016548 0.352609 1.000000
114.965599 151.190399 -773.223389 0.423730 0.251825 -0.870079 1.000000
114.937202 107.634598 -775.562988 -0.077339 0.011654 0.996937 1.000000
114.937202 186.186996 -767.031006 0.387082 0.228128 -0.893379 1.000000
114.936302 60.949200 -771.112976 0.808606 0.140950 0.571217 1.000000
114.933098 163.917496 -771.437622 0.445192 0.220348 -0.867900 1.000000
114.928299 97.887901 -774.988220 0.114721 0.107625 0.987550 1.000000
114.917801 161.956497 -771.712280 0.454560 0.123971 -0.882047 1.000000
114.906601 137.624802 -774.657776 0.242665 0.106567 -0.964239 1.000000
114.901497 190.086105 -765.422180 0.465301 0.505042 -0.726930 1.000000
114.891701 77.446198 -772.849915 0.539532 0.026084 0.841561 1.000000
114.889603 41.046799 -764.996216 0.574959 0.341736 0.743397 1.000000
114.887299 53.897301 -769.252380 -0.776470 0.411839 -0.476951 1.000000
114.886002 179.673996 -768.985474 0.383078 0.192262 -0.903486 1.000000
114.885902 101.428398 -775.276123 -0.153521 0.146033 0.977295 1.000000
114.884003 80.449699 -773.487976 0.513823 0.191365 0.836281 1.000000
114.883400 194.749802 -763.835083 -0.579482 0.270004 -0.768959 1.000000
114.873497 109.931801 -775.560730 -0.021312 0.017252 -0.999624 1.000000
114.866096 169.542801 -770.657715 0.365380 0.078965 -0.927503 1.000000
114.848099 46.542000 -766.783386 -0.235967 0.913466 0.331511 1.000000
114.846802 30.639999 -760.273071 0.273259 0.432024 0.859468 1.000000
114.817497 27.134800 -758.668030 0.259157 0.259157 0.930417 1.000000
114.782402 99.662804 -774.873413 -0.140167 0.150090 -0.978686 1.000000
114.749802 134.082901 -775.030273 0.273930 0.097369 -0.956808 1.000000
114.740097 91.424698 -774.580811 0.109612 0.171192 0.979121 1.000000
114.736603 119.768600 -775.323608 0.059507 0.095436 -0.993655 1.000000
114.728500 157.807602 -772.498718 0.482194 0.429888 -0.763338 1.000000
114.692299 57.256199 -770.104675 -0.805308 0.017957 -0.592585 1.000000
114.672997 125.241203 -775.488770 0.201463 0.039339 -0.978706 1.000000
114.656303 44.697399 -766.431396 0.470508 0.255944 0.844462 1.000000
114.636002 43.283600 -765.871216 0.515448 0.433108 0.739413 1.000000
114.616096 66.919197 -771.267273 0.863398 0.153396 0.480639 1.000000
114.613602 55.754700 -769.405579 -0.803260 0.023584 -0.595161 1.000000
114.600403 65.124100 -770.897095 -0.795786 0.049472 -0.603554 1.000000
114.586502 52.622799 -768.317017 0.761097 0.291993 0.579199 1.000000
114.584099 105.861000 -775.505676 -0.009610 0.086487 0.996207 1.000000
114.583199 28.352200 -759.418274 0.176475 0.430249 0.885292 1.000000
114.572701 89.617599 -774.284912 0.278563 0.149375 0.948731 1.000000
114.563202 171.334900 -770.642273 0.350846 0.095441 -0.931557 1.000000
114.542297 152.677597 -773.269714 0.325691 0.132184 -0.936191 1.000000
114.537399 155.601105 -772.898376 0.410704 0.134079 -0.901856 1.000000
114.531601 59.848000 -770.219421 0.865082 0.163029 0.474400 1.000000
114.526703 187.869507 -766.752930 0.338624 0.163041 -0.926688 1.000000
114.504997 72.322197 -771.849487 0.649999 0.199168 0.733371 1.000000
114.495903 121.182503 -775.576782 -0.234632 0.037687 0.971353 1.000000
114.485603 181.042206 -768.756104 0.349798 0.368289 -0.861397 1.000000
114.473198 154.097702 -773.007080 0.364851 0.190295 -0.911412 1.000000
114.462799 92.903503 -774.613586 -0.191738 0.079382 -0.978231 1.000000
114.457199 165.670807 -771.562988 0.379754 0.237901 -0.893974 1.000000
114.447197 172.972900 -770.465210 0.299275 0.206542 -0.931545 1.000000
114.441002 76.157700 -772.186890 0.938551 0.244051 0.244051 1.000000
114.435402 79.144402 -772.843323 0.628796 0.064455 0.774894 1.000000
114.432297 182.895203 -768.147217 0.402864 0.618388 -0.674756 1.000000
114.427200 62.799000 -770.685791 0.857947 0.048511 0.511442 1.000000
114.414902 87.067596 -773.814087 0.211016 0.020041 0.977277 1.000000
114.414398 184.922195 -767.737976 0.504891 0.221176 -0.834366 1.000000
114.392097 129.272705 -775.189880 -0.267711 0.043581 0.962513 1.000000
114.384499 127.169098 -775.368896 0.191738 0.079382 -0.978231 1.000000
114.378098 74.291100 -771.909302 0.903172 0.047110 0.426685 1.000000
114.366096 191.556000 -765.174316 -0.861432 0.484099 0.153566 1.000000
114.364502 34.032902 -761.958496 0.418853 0.422063 0.804006 1.000000
114.345200 70.051498 -771.480591 0.664034 0.146057 0.733298 1.000000
114.344704 196.295593 -763.569092 0.312386 0.668475 -0.674949 1.000000
114.333000 145.385300 -774.168579 0.318060 0.055371 -0.946452 1.000000
114.331200 23.939199 -757.519775 0.036667 0.192799 0.980553 1.000000
114.308403 193.503403 -764.581116 0.654042 0.258133 -0.711053 1.000000
114.306099 147.431503 -773.956177 -0.335166 0.026762 0.941779 1.000000
114.301804 159.468506 -772.574219 0.370174 0.143879 -0.917753 1.000000
114.295700 32.500500 -761.180908 0.331473 0.383892 0.861831 1.000000
114.263603 140.427597 -774.651001 0.208399 0.114935 -0.971267 1.000000
114.259598 115.119797 -775.638489 -0.143340 0.104795 0.984110 1.000000
114.252701 84.642700 -773.386108 -0.161149 0.216176 -0.962964 1.000000
114.243599 68.368401 -770.842896 -0.403214 0.319791 -0.857410 1.000000
114.239403 58.668598 -769.382629 0.551766 0.017799 0.833809 1.000000
114.238998 50.996399 -767.676270 -0.592680 0.592680 0.545400 1.000000
114.236298 83.079903 -773.133484 0.304127 0.057746 0.950880 1.000000
114.234299 94.931801 -774.565430 0.042475 0.145792 0.988403 1.000000
114.227798 36.580799 -762.983398 -0.518898 0.522257 -0.676751 1.000000
114.202698 138.961105 -774.645996 0.283456 0.161394 -0.945307 1.000000
114.191200 177.357101 -769.793274 0.410915 0.158926 -0.897714 1.000000
114.174500 117.481400 -775.663513 0.207448 0.057018 -0.976583 1.000000
114.156197 148.893600 -773.843811 0.349277 0.056251 -0.935330 1.000000
114.154297 61.620899 -769.799622 0.197981 0.069233 0.977758 1.000000
114.132500 81.555901 -772.904480 0.175091 0.296414 0.938873 1.000000
114.130898 189.258102 -766.589478 -0.508944 0.006714 0.860773 1.000000
114.125801 161.007996 -772.393921 0.490672 0.048105 -0.870015 1.000000
114.121902 96.376701 -774.905029 -0.174374 0.112539 0.978227 1.000000
114.121002 167.483398 -771.471924 0.343000 0.075486 -0.936297 1.000000
114.119797 113.697304 -775.451172 0.234872 0.084152 0.968377 1.000000
114.104301 104.263802 -774.935120 0.067757 0.037643 -0.996992 1.000000
114.085503 131.424698 -775.317078 -0.186548 0.163390 0.968764 1.000000
114.058098 163.039703 -772.146423 0.461681 0.194470 -0.865466 1.000000
114.056000 198.223907 -763.272827 0.875906 0.001329 0.482479 1.000000
114.054901 122.853302 -775.586975 0.312608 0.057890 -0.948116 1.000000
114.043999 142.445206 -774.608276 0.188542 0.116122 -0.975176 1.000000
114.038696 49.504101 -767.592407 0.090231 0.542816 0.834991 1.000000
114.033699 143.990005 -774.276001 0.273835 0.023331 -0.961494 1.000000
114.032204 174.363007 -770.255920 0.458187 0.039196 -0.887991 1.000000
114.019897 108.814796 -775.354370 0.056895 0.142818 0.988112 1.000000
114.014702 42.181198 -765.090515 0.420928 0.254971 0.870522 1.000000
114.004997 40.157902 -764.308472 0.493662 0.310707 0.812255 1.000000
114.001198 132.876694 -775.071411 0.232041 0.055248 -0.971136 1.000000
113.981300 29.631300 -759.678101 0.189695 0.232747 0.953858 1.000000
113.956299 111.333099 -775.754578 -0.501454 0.004012 0.865175 1.000000
113.940002 47.686699 -766.991272 0.417311 0.224249 0.880661 1.000000
113.912102 102.455399 -775.476929 0.426542 0.763199 -0.485375 1.000000
113.883003 135.597900 -775.208313 0.313852 0.071626 -0.946766 1.000000
113.878998 150.290207 -773.676880 -0.336544 0.013865 0.941566 1.000000
113.863403 190.714401 -766.293213 0.526542 0.361289 -0.769561 1.000000
113.856300 156.854797 -773.125977 0.396359 0.177281 -0.900817 1.000000
113.849197 178.820602 -769.590881 0.351296 0.160952 -0.922326 1.000000
113.848099 25.469700 -757.899780 0.122419 0.272481 0.954342 1.000000
113.838997 175.973495 -770.227417 0.387039 0.144964 -0.910597 1.000000
113.831001 35.402599 -762.163025 -0.514122 0.564691 -0.645602 1.000000
113.798500 118.859596 -775.866821 -0.784151 0.015267 0.620382 1.000000
113.795601 38.404598 -763.510376 0.361243 0.398775 0.842901 1.000000
113.787003 64.122101 -770.141785 -0.013641 0.064006 0.997856 1.000000
113.783798 98.717400 -775.193726 0.371747 0.065289 -0.926036 1.000000
113.771797 88.414902 -774.188110 -0.164807 0.083005 0.982827 1.000000
113.762497 169.008499 -771.457520 0.435747 0.151001 -0.887313 1.000000
113.751701 54.769901 -768.761475 0.305414 0.279110 0.910396 1.000000
113.744202 45.835701 -766.217712 0.322039 0.392919 0.861339 1.000000
113.740402 107.029503 -776.023987 0.910182 0.003895 -0.414191 1.000000
113.731400 186.693695 -767.621094 0.491413 0.144362 -0.858879 1.000000
113.730301 124.176300 -775.155579 -0.063729 0.044286 -0.996984 1.000000
113.705299 100.434196 -775.425781 0.246003 0.050684 -0.967943 1.000000
113.693398 137.014206 -775.136108 -0.337426 0.026739 0.940972 1.000000
113.682701 56.990398 -769.121521 0.262762 0.104846 0.959147 1.000000
113.662598 77.946198 -772.272522 -0.147864 0.123423 0.981276 1.000000
113.646400 170.408096 -771.203186 0.449038 0.096522 -0.888284 1.000000
113.635002 195.386505 -764.380981 0.701507 0.107811 -0.704461 1.000000
113.608597 110.087402 -776.362488 -0.940398 0.077817 0.331052 1.000000
113.601097 104.709099 -776.189575 0.880473 0.042186 -0.472216 1.000000
113.599602 71.309196 -771.443726 -0.061058 0.130181 0.989608 1.000000
113.595901 116.298599 -776.191772 0.906640 0.030531 -0.420798 1.000000
113.592003 164.382202 -772.107117 0.475631 0.137340 -0.868857 1.000000
113.574600 44.185699 -765.604187 0.381613 0.323375 0.865910 1.000000
113.574203 158.264893 -773.180298 0.358190 0.158727 -0.920057 1.000000
113.572899 120.298500 -776.175293 -0.932909 0.034936 0.358413 1.000000
113.557297 90.697800 -774.223022 -0.123071 0.206810 0.970610 1.000000
113.553802 31.455601 -760.353882 0.241459 0.355603 0.902909 1.000000
113.551102 112.648598 -776.231201 -0.944655 0.037070 0.325964 1.000000
113.546097 199.522507 -762.963623 0.928258 0.260140 -0.265826 1.000000
113.540298 126.079002 -775.848877 -0.813695 0.023565 0.580815 1.000000
113.537598 182.217697 -769.008118 0.506218 0.200976 -0.838660 1.000000
113.528297 66.121399 -770.627075 0.045129 0.153902 0.987055 1.000000
113.524902 151.776093 -773.659485 0.255177 0.079981 -0.963581 1.000000
113.514999 180.241806 -769.426270 0.452320 0.220900 -0.864066 1.000000
113.512100 85.773201 -773.916504 -0.299059 0.144793 0.943185 1.000000
113.506401 80.212402 -772.891724 -0.252313 0.158863 0.954516 1.000000
113.496201 27.632500 -758.659119 0.092920 0.354175 0.930551 1.000000
113.491997 192.526794 -765.801270 0.318836 0.934424 -0.158728 1.000000
113.475502 128.145905 -775.835022 0.793672 0.076342 -0.603537 1.000000
113.462700 114.229401 -776.611206 -0.939108 0.024210 0.342768 1.000000
113.449997 184.205093 -768.518616 0.583833 0.144838 -0.798850 1.000000
113.449203 121.791397 -776.374878 -0.950389 0.191162 0.245393 1.000000
113.443199 93.827103 -774.993408 -0.530304 0.034435 0.847108 1.000000
113.427299 172.141602 -771.026978 0.491950 0.132057 -0.860550 1.000000
113.422897 154.926193 -773.559326 0.375162 0.076646 -0.923785 1.000000
113.418297 153.525101 -773.783203 0.324821 0.218932 -0.920087 1.000000
113.417099 134.152603 -775.610474 -0.700638 0.149813 0.697612 1.000000
113.416702 130.114899 -775.985779 0.908584 0.095132 -0.406726 1.000000
113.393204 197.401993 -764.215881 0.857794 0.107403 -0.502647 1.000000
113.375900 108.429703 -776.551880 -0.885182 0.022766 0.464687 1.000000
113.375900 91.991699 -774.802429 -0.771034 0.076669 0.632161 1.000000
113.364700 124.100800 -776.518188 0.941784 0.099906 -0.321032 1.000000
113.359901 75.247902 -772.141479 0.027793 0.116732 0.992774 1.000000
113.358498 188.271500 -767.450623 0.475305 0.017406 -0.879649 1.000000
113.349602 146.404099 -774.188599 0.165566 0.915565 -0.366509 1.000000
113.342697 179.196503 -781.785583 -0.922902 0.176126 -0.342390 1.000000
113.338699 60.124401 -769.430115 0.211393 0.112658 0.970887 1.000000
113.326202 117.802803 -776.765076 -0.926848 0.024630 0.374628 1.000000
113.317001 166.415497 -771.984314 0.426685 0.047110 -0.903172 1.000000
113.303200 52.285801 -767.699097 -0.834985 0.486174 -0.257749 1.000000
113.296799 97.323502 -775.629272 -0.839763 0.048905 0.540746 1.000000
113.290398 73.326401 -771.849609 -0.103962 0.245145 0.963896 1.000000
113.289597 177.785599 -782.060303 -0.992680 0.080733 -0.089830 1.000000
113.252502 181.457108 -781.481384 0.984880 0.091922 0.146837 1.000000
113.245598 33.539600 -761.228027 0.231084 0.418933 0.878120 1.000000
113.215897 200.957901 -762.746887 0.817774 0.205586 -0.537569 1.000000
113.210403 95.454803 -775.473389 -0.622587 0.091857 0.777140 1.000000
113.183701 162.013596 -772.699585 0.419850 0.116547 -0.900079 1.000000
113.179001 138.282394 -775.537720 0.888651 0.036409 -0.457136 1.000000
113.177902 132.234695 -776.139587 -0.966130 0.066414 0.249364 1.000000
113.176300 176.408905 -782.385315 -0.994633 0.094042 0.043149 1.000000
113.175598 111.475098 -777.001587 0.898831 0.001308 -0.438294 1.000000
113.171303 69.266602 -771.125183 -0.019750 0.189371 0.981707 1.000000
113.169296 102.735199 -776.659790 0.898286 0.011872 -0.439250 1.000000
113.168404 194.358902 -765.394775 0.891465 0.009245 -0.452996 1.000000
113.167397 119.271599 -777.077087 -0.937151 0.011413 0.348737 1.000000
113.164497 141.262695 -775.070129 0.670939 0.111083 -0.733145 1.000000
113.129997 105.889900 -776.840515 0.875977 0.152533 -0.457600 1.000000
113.124397 76.627602 -772.442383 -0.075119 0.163354 0.983703 1.000000
113.121902 62.564400 -770.128113 0.216598 0.129446 0.967641 1.000000
113.120201 139.697800 -775.343872 0.852408 0.009456 -0.522792 1.000000
113.120102 83.821404 -773.681824 -0.331533 0.206319 0.920608 1.000000
113.102303 127.054802 -776.831909 0.907608 0.100845 -0.407526 1.000000
113.100304 148.072403 -774.478882 0.723027 0.089100 -0.685050 1.000000
113.095703 173.754395 -771.131104 0.485682 0.113182 -0.866777 1.000000
113.095596 67.443199 -770.890381 0.014566 0.144543 0.989391 1.000000
113.079399 115.638397 -777.395874 -0.891180 0.025386 0.452939 1.000000
113.075798 37.367100 -762.760071 0.408426 0.348961 0.843454 1.000000
113.070396 41.240700 -764.334717 0.305709 0.329569 0.893267 1.000000
113.067101 160.107697 -773.112488 0.242387 0.137571 -0.960376 1.000000
113.060898 122.993301 -777.336304 -0.947318 0.143777 0.286211 1.000000
113.060799 145.093201 -774.793091 -0.653916 0.038133 0.755605 1.000000
113.046204 82.299698 -773.430481 -0.287626 0.236618 0.928053 1.000000
113.044601 135.570404 -776.374390 0.981769 0.008057 -0.189908 1.000000
113.039597 120.865196 -777.370178 0.898320 0.003934 -0.439324 1.000000
113.035797 125.375298 -777.081726 0.911363 0.083348 -0.403077 1.000000
113.034302 185.654602 -768.287415 0.547529 0.111829 -0.829281 1.000000
113.033501 129.073303 -776.894897 0.929705 0.014106 -0.368035 1.000000
113.023399 101.330299 -776.303284 -0.926370 0.021964 0.375974 1.000000
113.016403 112.937798 -777.520508 0.870160 0.034044 -0.491593 1.000000
113.006302 190.093399 -767.246704 0.496670 0.247566 -0.831883 1.000000
112.998100 182.949905 -781.396606 0.990669 0.133813 0.025863 1.000000
112.995300 48.753601 -766.871826 0.297162 0.273969 0.914678 1.000000
112.988098 178.064194 -770.462524 0.514908 0.211128 -0.830840 1.000000
112.984703 174.752899 -782.754822 -0.999482 0.031392 0.007089 1.000000
112.972702 143.308807 -775.041504 0.788763 0.122828 -0.602301 1.000000
112.964104 50.538300 -767.068970 0.142272 0.304869 0.941708 1.000000
112.945900 109.779198 -777.619080 -0.892471 0.117022 0.435661 1.000000
112.940102 89.515503 -774.777588 -0.412365 0.055072 0.909353 1.000000
112.931702 99.189796 -776.215027 -0.589659 0.029274 0.807122 1.000000
112.930199 137.122299 -776.323425 0.953102 0.098056 -0.286323 1.000000
112.929703 53.929600 -767.926575 -0.491454 0.662540 0.565256 1.000000
112.920502 131.042801 -777.057312 0.930426 0.011487 -0.366299 1.000000
112.917503 191.708298 -766.799194 0.654854 0.067644 -0.752722 1.000000
112.914703 198.717194 -763.977478 0.716806 0.435381 -0.544640 1.000000
112.909798 107.210701 -777.351929 -0.901631 0.047171 0.429926 1.000000
112.900803 167.777496 -772.134277 0.455542 0.127095 -0.881095 1.000000
112.899696 86.970299 -774.375122 -0.382817 0.062691 0.921695 1.000000
112.899597 180.153503 -780.826721 0.864020 0.001335 0.503455 1.000000
112.885696 133.827103 -776.919922 -0.943519 0.031833 0.329786 1.000000
112.876503 43.101398 -764.938721 0.399561 0.319340 0.859287 1.000000
112.864799 46.993698 -766.236877 0.414309 0.268618 0.869593 1.000000
112.862000 39.707199 -763.586792 0.341477 0.468538 0.814780 1.000000
112.842697 149.605194 -774.471313 0.793288 0.100805 -0.600444 1.000000
112.834000 28.953501 -759.131470 0.103193 0.233139 0.966953 1.000000
112.831902 58.523499 -769.085571 0.299471 0.247888 0.921341 1.000000
112.824303 175.290100 -771.060486 0.422728 0.107426 -0.899867 1.000000
112.819199 173.111603 -783.029175 -0.975925 0.090066 0.198640 1.000000
112.814903 196.366592 -765.010925 0.657991 0.315254 -0.683858 1.000000
112.810699 78.914703 -772.862488 -0.157981 0.186238 0.969720 1.000000
112.809196 104.336899 -777.369873 -0.966397 0.111360 0.231679 1.000000
112.807503 117.019302 -777.834412 0.871244 0.088673 -0.482774 1.000000
112.780701 140.651306 -776.329224 0.975096 0.059799 -0.213569 1.000000
112.765099 26.572500 -758.069580 -0.222244 0.301516 0.927198 1.000000
112.751801 139.042603 -776.695923 -0.966816 0.073985 0.244526 1.000000
112.749496 142.203598 -776.101685 0.981464 0.068474 -0.178994 1.000000
112.748001 156.158401 -773.758972 0.319392 0.195575 -0.927221 1.000000
112.742500 178.433395 -780.760620 -0.904866 0.055290 -0.422091 1.000000
112.737000 171.097794 -783.311523 0.996402 0.062071 -0.057715 1.000000
112.721901 184.384399 -781.127686 0.961495 0.180692 0.207071 1.000000
112.716103 202.345398 -762.697876 0.430115 0.876602 -0.215802 1.000000
112.711403 30.267700 -759.674377 0.048360 0.359435 0.931916 1.000000
112.709602 132.472305 -777.461670 0.912822 0.083232 -0.399786 1.000000
112.701897 56.233002 -768.427673 0.304992 0.302045 0.903188 1.000000
112.686203 200.252899 -763.911499 0.831555 0.181950 -0.524797 1.000000
112.684998 144.278503 -776.053772 0.980153 0.093987 -0.174548 1.000000
112.681801 147.005203 -775.338684 0.960571 0.123819 -0.248941 1.000000
112.663696 114.303802 -777.834473 -0.646159 0.041004 0.762100 1.000000
112.654800 169.534897 -783.607483 -0.998216 0.057610 0.015712 1.000000
112.644699 151.046204 -774.508911 -0.052703 0.776297 0.628160 1.000000
112.644096 124.285400 -777.973022 0.886864 0.061874 -0.457869 1.000000
112.643799 176.756104 -781.100708 -0.906933 0.172817 -0.384197 1.000000
112.621399 183.268906 -769.318176 0.524490 0.152176 -0.837707 1.000000
112.620399 128.045700 -777.787170 -0.894805 0.030763 0.445396 1.000000
112.618797 36.131599 -762.097473 -0.510309 0.415139 -0.753157 1.000000
112.618401 163.403397 -772.722473 0.281186 0.134596 -0.950168 1.000000
112.617699 181.309204 -769.818726 0.628030 0.202142 -0.751476 1.000000
112.617203 169.687302 -772.045776 0.347700 0.092631 -0.933019 1.000000
112.613998 167.840302 -783.734314 -0.999075 0.040128 0.015434 1.000000
112.612297 145.753098 -776.046326 0.983890 0.062902 -0.167344 1.000000
112.609497 187.287796 -768.348083 0.528869 0.249701 -0.811139 1.000000
112.601097 134.987701 -777.672974 -0.960897 0.020862 0.276120 1.000000
112.595497 164.636002 -784.160828 -0.996445 0.042379 -0.072805 1.000000
112.594101 65.110199 -770.218018 0.071307 0.184914 0.980164 1.000000
112.593803 193.361801 -766.530273 0.822858 0.188729 -0.535990 1.000000
112.580704 45.299099 -765.591309 0.391634 0.229069 0.891151 1.000000
112.579399 108.518097 -778.178223 0.935528 0.006330 -0.353197 1.000000
112.578796 166.258499 -783.633118 -0.983689 0.105007 -0.146045 1.000000
112.577103 182.137604 -780.312622 0.868498 0.103765 0.484710 1.000000
112.571701 118.612900 -778.196899 -0.895728 0.003934 0.444585 1.000000
112.570503 175.337799 -781.502625 0.619867 0.676068 0.398368 1.000000
112.565697 176.689407 -770.941223 0.458567 0.218007 -0.861504 1.000000
112.552002 179.499695 -770.261780 0.515400 0.238469 -0.823101 1.000000
112.546799 92.888298 -775.656982 -0.417512 0.060803 0.906635 1.000000
112.544601 61.302399 -769.695313 0.264653 0.099406 0.959206 1.000000
112.538200 121.958603 -778.199097 -0.875387 0.067978 0.478619 1.000000
112.537498 165.326004 -772.533081 -0.404186 0.143238 0.903392 1.000000
112.537003 136.397202 -777.510986 0.932455 0.106914 -0.345103 1.000000
112.534798 32.460201 -760.610718 0.158458 0.315537 0.935589 1.000000
112.531700 126.330299 -777.997314 0.837365 0.093360 -0.538614 1.000000
112.521797 129.976196 -777.933716 0.886054 0.044915 -0.461401 1.000000
112.521400 111.044403 -778.201782 0.885729 0.039336 -0.462532 1.000000
112.514000 34.772800 -761.457581 0.043883 0.624266 0.779978 1.000000
112.512199 148.736099 -775.688477 0.993528 0.045821 -0.103935 1.000000
112.505096 185.780594 -781.154480 0.969253 0.115599 0.217224 1.000000
112.502296 90.931503 -775.182129 -0.397797 0.186603 0.898297 1.000000
112.501999 152.462799 -774.399780 0.726870 0.300055 -0.617760 1.000000
112.482903 137.909393 -777.536621 0.940585 0.128200 -0.314428 1.000000
112.467796 173.670593 -781.767578 -0.973647 0.098487 -0.205700 1.000000
112.460602 163.100494 -784.293579 -0.463597 0.885294 -0.036493 1.000000
112.458000 72.182297 -771.726624 -0.120480 0.144820 0.982096 1.000000
112.454803 171.392105 -771.827820 0.395952 0.192900 -0.897781 1.000000
112.452301 70.480400 -771.460571 -0.132533 0.188071 0.973172 1.000000
112.434402 120.026604 -778.349426 0.878904 0.097342 -0.466962 1.000000
112.431999 150.311401 -775.813416 0.942600 0.315978 -0.107992 1.000000
112.429100 143.097794 -777.193726 0.958068 0.105297 -0.266491 1.000000
112.424500 96.356903 -776.279907 -0.572821 0.100062 0.813550 1.000000
112.423401 172.059097 -782.130371 -0.945509 0.124374 -0.300905 1.000000
112.421700 81.023697 -773.398621 -0.237361 0.223641 0.945328 1.000000
112.409500 141.650299 -777.362305 0.951380 0.023816 -0.307099 1.000000
112.405403 94.314003 -775.915405 -0.523641 0.139344 0.840466 1.000000
112.401299 147.410004 -776.882690 -0.975605 0.212616 0.054673 1.000000
112.400597 184.813797 -769.263489 -0.866335 0.004017 0.499448 1.000000
112.400101 106.119797 -778.119324 -0.943879 0.190420 0.269875 1.000000
112.371300 139.973007 -777.709106 0.904861 0.066674 -0.420454 1.000000
112.364998 168.455093 -782.458923 0.978048 0.015264 0.207821 1.000000
112.363602 157.809998 -773.794312 0.478355 0.192236 -0.856867 1.000000
112.347702 144.722504 -777.367615 0.935517 0.126274 -0.329943 1.000000
112.341202 161.639297 -784.324280 -0.996298 0.082935 0.022619 1.000000
112.340202 163.603302 -782.918274 -0.376443 0.926332 -0.014133 1.000000
112.335701 97.909203 -776.549622 0.847284 0.020466 -0.530746 1.000000
112.335602 152.628296 -775.813171 -0.999008 0.036233 0.025881 1.000000
112.335297 167.014404 -782.405579 0.983105 0.043563 0.177783 1.000000
112.332901 101.466499 -777.553589 -0.928783 0.177377 0.325423 1.000000
112.331802 170.120300 -782.310303 -0.978806 0.039247 -0.200994 1.000000
112.325996 198.100601 -765.170288 0.869278 0.168578 -0.464690 1.000000
112.315903 154.484497 -774.329529 0.919934 0.062936 -0.386988 1.000000
112.312698 204.116501 -762.320923 0.570623 0.262518 -0.778122 1.000000
112.311501 165.039703 -782.793030 -0.335142 0.941712 -0.029309 1.000000
112.311302 103.156700 -778.002014 -0.945535 0.074339 0.316917 1.000000
112.308701 189.142303 -768.127380 0.603401 0.079205 -0.793494 1.000000
112.297096 133.653198 -778.208984 -0.897461 0.104681 0.428492 1.000000
112.278099 84.919197 -774.189880 -0.312831 0.146170 0.938494 1.000000
112.276199 183.565506 -780.041077 0.890120 0.123509 0.438671 1.000000
112.273903 100.046303 -777.190674 -0.877538 0.070926 0.474232 1.000000
112.271896 115.804802 -778.568115 -0.848077 0.177366 0.499307 1.000000
112.270798 179.420700 -779.769897 -0.929758 0.021922 -0.367519 1.000000
112.263603 195.015503 -766.299805 0.642391 0.195644 -0.740984 1.000000
112.261101 149.177399 -777.075378 -0.983272 0.120029 0.137003 1.000000
112.250504 88.194901 -774.765686 -0.386135 0.154171 0.909468 1.000000
112.237198 162.021194 -782.933472 0.846511 0.532286 -0.009481 1.000000
112.226799 112.535202 -778.674927 0.885711 0.111597 -0.450625 1.000000
112.223801 151.369705 -776.790588 -0.847639 0.523918 0.083770 1.000000
112.216904 154.240601 -775.755981 -0.233038 0.971999 -0.030186 1.000000
112.211304 146.159698 -777.597229 -0.975296 0.044716 0.216330 1.000000
112.210297 74.239403 -772.040588 -0.111573 0.196820 0.974070 1.000000
112.198601 180.830795 -779.727478 0.906341 0.098245 0.410967 1.000000
112.192001 165.858505 -781.606384 0.978521 0.162056 0.127418 1.000000
112.191704 38.644501 -762.928101 0.188225 0.525524 0.829696 1.000000
112.188797 131.328598 -778.320801 0.772605 0.001377 -0.634886 1.000000
112.183502 177.272003 -779.866699 -0.900265 0.155513 -0.406617 1.000000
112.181198 201.744995 -763.903076 -0.661850 0.283650 -0.693900 1.000000
112.179604 187.394699 -780.955811 0.972945 0.140438 0.183455 1.000000
112.170197 172.822205 -771.777283 -0.535167 0.020531 0.844497 1.000000
112.164299 160.240494 -784.372192 -0.990729 0.091327 -0.100576 1.000000
112.150299 164.379196 -781.545715 0.977596 0.165210 0.130429 1.000000
112.127701 77.626297 -772.747314 -0.249887 0.289869 0.923868 1.000000
112.125900 66.432098 -770.717773 -0.060898 0.322629 0.944564 1.000000
112.124702 63.606998 -770.103027 -0.326788 0.183730 -0.927067 1.000000
112.123100 162.850601 -781.741577 -0.986790 0.064381 -0.148662 1.000000
112.115799 160.514801 -782.837219 -0.977557 0.190593 -0.089763 1.000000
112.106598 161.379501 -773.362427 0.429674 0.698427 -0.572346 1.000000
112.104797 107.269501 -778.901123 -0.937073 0.083738 0.338941 1.000000
112.099899 174.278503 -780.546509 -0.943662 0.133270 -0.302887 1.000000
112.098000 155.861496 -775.397217 0.377326 0.925929 -0.016741 1.000000
112.092102 206.158203 -761.910828 -0.954049 0.097885 -0.283213 1.000000
112.079597 153.428802 -776.966370 -0.485835 0.873968 -0.012045 1.000000
112.070198 161.302505 -781.583496 -0.995999 0.031498 -0.083633 1.000000
112.065903 175.706100 -780.155518 -0.835671 0.431162 -0.340226 1.000000
112.065201 167.619995 -781.118225 0.980100 0.008119 0.198340 1.000000
112.060997 184.979294 -779.992798 0.909123 0.106549 0.402671 1.000000
112.057404 150.611206 -777.996704 0.929121 0.276609 -0.245401 1.000000
112.055603 171.158295 -781.108521 -0.965467 0.038224 -0.257705 1.000000
112.052902 169.064407 -781.197388 -0.975344 0.052099 -0.214454 1.000000
112.050003 104.818100 -778.555908 -0.933130 0.135653 0.332967 1.000000
112.034599 159.259506 -773.741211 0.898522 0.110738 -0.424730 1.000000
112.027496 152.300003 -777.859619 0.994631 0.027415 -0.099792 1.000000
112.026901 155.403198 -776.787598 0.994278 0.036416 -0.100421 1.000000
112.018799 68.423401 -771.064026 -0.074030 0.242165 0.967407 1.000000
112.014000 42.176601 -764.227173 0.144249 0.371126 0.917310 1.000000
112.013397 109.870102 -778.847412 0.870133 0.020236 -0.492401 1.000000
112.005096 123.111397 -778.815674 0.838268 0.043095 -0.543553 1.000000
112.003700 157.083496 -776.155884 0.983661 0.114660 -0.138799 1.000000
112.003502 172.801804 -780.722229 0.957480 0.094327 0.272643 1.000000
111.994797 143.695602 -778.419678 0.964370 0.048530 -0.260069 1.000000
111.990501 191.169495 -767.804810 0.795787 0.091320 -0.598652 1.000000
111.988602 158.803802 -784.769714 -0.966661 0.200579 0.159169 1.000000
