ply
format ascii 1.0
element vertex 685
property float x
property float y
property float z
property float nx
property float ny
property float nz
property float label
element face 0
property list uchar int vertex_indices
end_header
50.870800 55.046700 -742.786316 -0.460240 0.238474 -0.855166 1.000000
50.866100 57.546902 -741.796692 -0.164363 0.393042 -0.904711 1.000000
50.859699 117.961998 -749.763123 -0.679501 0.082937 -0.728972 0.000000
50.858799 52.429401 -743.602173 -0.378816 0.271011 -0.884902 1.000000
50.848400 130.817093 -748.503784 0.107137 0.606131 -0.788116 0.000000
50.847599 50.871201 -744.940491 0.279110 0.910396 -0.305414 1.000000
50.840599 116.655701 -749.827271 -0.640711 0.070550 -0.764534 0.000000
50.836201 110.936996 -750.412598 -0.695769 0.058818 -0.715853 0.000000
50.836102 53.217499 -743.452209 -0.487967 0.335378 -0.805860 1.000000
50.820301 126.160797 -748.969971 -0.759618 0.049881 -0.648454 0.000000
50.814400 107.245903 -750.677917 0.843734 0.203764 0.496581 0.000000
50.812401 129.943802 -748.757996 0.529787 0.809441 0.253241 0.000000
50.811798 56.209999 -742.252686 0.718521 0.679191 -0.149755 1.000000
50.809700 103.115402 -750.801392 -0.945236 0.195613 -0.261274 0.000000
50.809502 103.010399 -752.547729 -0.976356 0.024913 0.214727 0.000000
50.796902 115.032997 -749.979126 -0.591088 0.085267 -0.802088 0.000000
50.792900 102.420998 -751.764709 -0.948201 0.308263 -0.076741 0.000000
50.785900 111.870102 -750.281311 -0.724475 0.089279 -0.683495 0.000000
50.784199 106.638397 -750.691711 -0.494339 0.325851 -0.805885 0.000000
50.775799 128.771301 -748.547729 -0.852727 0.196322 -0.484061 0.000000
50.767700 104.336304 -750.774902 -0.882626 0.045018 -0.467915 0.000000
50.763199 124.285103 -749.091980 -0.671536 0.104789 -0.733524 0.000000
50.762501 104.393799 -753.375488 -0.902702 0.058195 0.426313 0.000000
50.761398 119.623802 -749.526306 -0.631682 0.049683 -0.773634 0.000000
50.759899 109.051498 -750.540527 -0.735733 0.015357 -0.677098 0.000000
50.758301 121.927803 -749.241089 -0.658657 0.032439 -0.751744 0.000000
50.752300 51.483299 -746.935730 -0.856657 0.515087 0.028692 1.000000
50.743599 107.895203 -750.557007 -0.780730 0.026536 -0.624305 0.000000
50.740799 102.344002 -752.380920 -0.974592 0.195917 0.108565 0.000000
50.732700 113.742302 -750.071228 -0.608190 0.138972 -0.781532 0.000000
50.727299 123.101097 -749.131714 -0.661530 0.001381 -0.749918 0.000000
50.726299 103.443703 -753.218384 -0.637942 0.768656 -0.046887 0.000000
50.726299 50.723598 -744.348877 -0.689850 0.559563 -0.459343 1.000000
50.707100 105.432701 -750.689880 -0.710769 0.276322 -0.646880 0.000000
50.696400 101.621101 -751.847717 -0.944548 0.327494 -0.024025 0.000000
50.695801 126.786301 -748.781372 -0.680350 0.070779 -0.729462 0.000000
50.695301 55.577999 -742.416809 -0.496162 0.053901 -0.866555 1.000000
50.692402 131.635406 -748.333984 -0.020316 0.862764 -0.505198 0.000000
50.685699 59.409000 -741.164490 -0.281094 0.589187 -0.757526 1.000000
50.683399 114.436302 -749.940979 -0.661775 0.076749 -0.745764 0.000000
50.669102 56.888599 -742.005676 0.675633 0.419988 0.605912 1.000000
50.668999 102.859497 -753.132629 -0.809445 0.574397 0.121931 0.000000
50.665001 51.164700 -746.423523 -0.835006 0.538760 0.111818 1.000000
50.659302 102.342903 -751.162781 -0.882724 0.450661 -0.133052 0.000000
50.655899 117.198601 -749.639587 -0.588334 0.029208 -0.808090 0.000000
50.653900 51.825901 -743.614380 -0.450266 0.058849 -0.890953 1.000000
50.639400 110.246498 -750.332581 -0.682222 0.086191 -0.726047 0.000000
50.633598 103.301804 -759.898621 0.889169 0.105352 0.445287 0.000000
50.631199 51.167702 -743.993225 -0.497788 0.183868 -0.847585 1.000000
50.630798 49.517300 -744.064514 0.510009 0.580704 0.634566 1.000000
50.627899 105.298401 -753.840088 -0.382706 0.845078 -0.373334 0.000000
50.623299 125.200104 -748.832703 0.740647 0.067857 0.668459 0.000000
50.622501 101.527199 -752.458130 -0.946938 0.267643 0.177975 0.000000
50.616901 104.942398 -760.505188 0.701920 0.297152 0.647309 0.000000
50.614101 129.417603 -748.515381 -0.825890 0.006826 -0.563790 0.000000
50.613800 123.737396 -748.999023 0.655427 0.009700 0.755196 0.000000
50.612400 58.290100 -741.519775 0.126062 0.618445 -0.775651 1.000000
50.610401 102.203201 -752.970825 -0.936462 0.269355 0.224695 0.000000
50.607498 100.502296 -758.473999 0.202772 0.897159 0.392416 0.000000
50.604099 106.071999 -750.517883 -0.795894 0.046651 -0.603636 0.000000
50.601101 101.573097 -751.258179 -0.948572 0.251773 -0.191892 0.000000
50.594501 121.147400 -749.171814 0.634370 0.139471 0.760344 0.000000
50.592400 129.213394 -749.142700 -0.806394 0.569131 0.160678 0.000000
50.587200 103.841904 -753.610107 -0.836525 0.171480 0.520405 0.000000
50.585800 101.190300 -758.847717 0.828995 0.026208 0.558641 0.000000
50.577202 100.725304 -751.873291 -0.957988 0.286786 -0.003661 0.000000
50.573101 102.527000 -750.517700 -0.926838 0.054209 -0.371528 0.000000
50.570499 50.227001 -744.581177 0.944986 0.150062 -0.290661 1.000000
50.570499 53.729599 -742.917114 -0.447884 0.217201 -0.867308 1.000000
50.569500 104.349098 -760.308105 -0.371334 0.108249 -0.922168 0.000000
50.566502 51.711601 -748.744812 0.132684 0.615711 0.776720 1.000000
50.564301 101.904404 -759.187012 -0.793458 0.151492 -0.589469 0.000000
50.562401 112.366302 -750.059814 0.615999 0.012458 0.787648 0.000000
50.549900 104.873299 -750.482117 -0.849670 0.045741 -0.525326 0.000000
50.545601 115.570602 -749.666626 -0.687961 0.067786 -0.722575 0.000000
50.544498 120.241096 -749.251404 -0.549567 0.034607 -0.834733 0.000000
50.541801 98.040298 -757.062012 0.569695 0.650360 -0.502474 0.000000
50.539001 113.114197 -749.958923 0.639507 0.001375 0.768784 0.000000
50.531601 104.389297 -754.053101 0.318696 0.456850 0.830494 0.000000
50.524300 127.580597 -748.554321 0.708145 0.032510 0.705318 0.000000
50.523499 111.261200 -750.079773 -0.675141 0.058770 -0.735344 0.000000
50.523499 118.532501 -749.440674 0.543914 0.051735 0.837544 0.000000
50.515202 102.786400 -759.638000 -0.455701 0.786531 -0.416780 0.000000
50.514400 100.702003 -751.293579 -0.943317 0.292660 -0.156539 0.000000
50.511902 50.825600 -745.841125 -0.533891 0.772610 0.343561 1.000000
50.503101 101.727501 -750.377625 -0.633907 0.380344 -0.673424 0.000000
50.502399 122.429298 -748.993591 -0.621076 0.046687 -0.782358 0.000000
50.500900 108.373100 -750.270691 -0.703437 0.101755 -0.703437 0.000000
50.497898 50.647400 -743.829224 0.684018 0.261863 0.680843 1.000000
50.494301 103.422501 -750.445923 0.850756 0.071954 0.520612 0.000000
50.491699 54.481602 -742.679688 -0.472196 0.263015 -0.841340 1.000000
50.484001 130.608093 -748.884521 0.431179 0.851539 0.298271 0.000000
50.480900 129.978195 -748.202026 -0.798497 0.082304 -0.596346 0.000000
50.472801 52.753399 -743.315613 -0.514056 0.270309 -0.814052 1.000000
50.470901 105.772499 -760.766602 0.478315 0.622649 0.619292 0.000000
50.470501 109.561798 -750.224976 -0.690212 0.009721 -0.723542 0.000000
50.468899 100.605103 -752.474304 -0.951319 0.223282 0.212457 0.000000
50.465099 104.102501 -759.765320 0.190946 0.923612 -0.332387 0.000000
50.461498 99.976601 -751.683716 -0.638749 0.768473 -0.038071 0.000000
50.459400 131.041397 -748.165588 -0.941619 0.050513 -0.332869 0.000000
50.454102 99.679398 -757.781921 -0.971663 0.230999 0.050111 0.000000
50.448200 132.728195 -748.085815 -0.674380 0.123562 -0.727973 0.000000
50.442600 116.320801 -749.553284 -0.629475 0.088679 -0.771943 0.000000
50.440498 103.998100 -750.462524 0.820889 0.034843 0.570023 0.000000
50.436901 119.153397 -749.255371 -0.649799 0.132947 -0.748389 0.000000
50.431400 99.016998 -757.655518 0.756994 0.508478 -0.410379 0.000000
50.425598 100.893600 -750.525574 -0.811563 0.072998 -0.579688 0.000000
50.425598 125.788002 -748.619629 -0.677753 0.064753 -0.732433 0.000000
50.424702 101.332397 -753.027710 -0.917934 0.273212 0.287667 0.000000
50.422001 106.718399 -761.101379 0.327347 0.939287 0.102881 0.000000
50.419601 107.146202 -750.207520 0.713646 0.038307 0.699458 0.000000
50.417500 99.954597 -750.633179 -0.521428 0.636176 -0.568677 0.000000
50.415501 102.014297 -753.460999 -0.601665 0.797029 -0.052380 0.000000
50.415001 97.485901 -756.688782 -0.377282 0.901690 -0.211220 0.000000
50.410500 50.533501 -745.358215 -0.819190 0.511411 0.259591 1.000000
50.408199 106.580902 -750.186584 -0.698423 0.023890 -0.715286 0.000000
50.401100 99.896797 -752.302490 -0.638749 0.768473 -0.038071 0.000000
50.399200 50.887100 -747.399414 -0.812544 0.576691 0.084850 1.000000
50.397099 103.142502 -753.662415 -0.637942 0.768656 -0.046887 0.000000
50.382198 98.474800 -757.427124 0.357954 0.864927 0.351809 0.000000
50.380901 55.110001 -742.419678 -0.196484 0.400246 -0.895096 1.000000
50.375301 117.862297 -749.393494 -0.613004 0.079330 -0.786087 0.000000
50.374298 107.834602 -750.122314 -0.688842 0.006930 -0.724878 0.000000
50.372898 110.712303 -750.025330 -0.722319 0.101507 -0.684070 0.000000
50.369900 124.544701 -748.743225 0.573247 0.020720 0.819121 0.000000
50.358101 105.418297 -750.211975 0.754091 0.018120 0.656519 0.000000
50.357201 108.345299 -761.716370 0.950029 0.308152 -0.049867 0.000000
50.355400 128.369400 -748.535522 -0.639492 0.192618 -0.744277 0.000000
50.352901 126.370399 -748.477905 -0.625206 0.082684 -0.776068 0.000000
50.351601 113.986603 -749.694519 -0.652286 0.095278 -0.751961 0.000000
50.350899 107.739502 -761.471497 0.429489 0.765895 0.478480 0.000000
50.345699 99.104103 -751.442383 0.999688 0.021227 0.013140 0.000000
50.339199 50.965900 -748.664124 0.251686 0.109709 0.961571 1.000000
50.338699 114.850098 -749.568726 -0.639215 0.029502 -0.768462 0.000000
50.337200 49.996700 -745.048096 -0.728445 0.571297 0.378137 1.000000
50.337101 131.938599 -748.000000 -0.516510 0.225303 -0.826109 0.000000
50.328899 99.278900 -750.619873 -0.910925 0.190792 -0.365805 0.000000
50.324501 99.310402 -751.999878 0.991672 0.016657 -0.127707 0.000000
50.323502 133.338104 -747.862488 -0.770128 0.107494 -0.628766 0.000000
50.323299 102.541801 -753.651489 -0.769414 0.201991 0.605972 0.000000
50.317902 58.800301 -741.468994 -0.543262 0.115061 -0.831642 1.000000
50.312302 52.168098 -743.323120 -0.511436 0.129680 -0.849480 1.000000
50.306000 96.460701 -756.174622 -0.956405 0.259878 -0.133237 0.000000
50.305599 55.897202 -742.163513 -0.315284 0.077186 -0.945853 1.000000
50.305401 128.933197 -748.270081 -0.546398 0.236824 -0.803345 0.000000
50.304401 98.569397 -750.718872 -0.932574 0.290290 -0.214562 0.000000
50.303902 95.725700 -755.652405 0.513538 0.738107 0.437580 0.000000
50.302502 102.949699 -750.201172 -0.697242 0.012525 -0.716726 0.000000
50.302399 57.667999 -741.847412 0.157820 0.444502 -0.881765 1.000000
50.301201 48.918598 -744.033020 -0.737209 0.392412 -0.550033 1.000000
50.300098 123.151497 -748.765076 -0.639561 0.082664 -0.764283 0.000000
50.289299 49.714600 -744.560120 -0.909183 0.413752 -0.046865 1.000000
50.278301 107.337601 -760.968384 -0.882142 0.455987 0.117903 0.000000
50.275501 100.419403 -752.968201 -0.640135 0.767314 -0.038154 0.000000
50.274300 121.869202 -748.898315 -0.492923 0.071216 -0.867154 0.000000
50.265999 98.397499 -751.742981 0.995718 0.084161 -0.038255 0.000000
50.258099 53.237000 -743.077515 -0.467013 0.266644 -0.843089 1.000000
50.257198 50.023800 -745.716919 -0.801994 0.577973 0.150841 1.000000
50.256699 96.836502 -756.615112 -0.082640 0.383396 0.919879 0.000000
50.241501 50.171001 -744.064026 -0.509955 0.337306 -0.791310 1.000000
50.238899 102.351700 -759.324524 0.367214 0.572855 -0.732797 0.000000
50.237598 50.561600 -746.840576 -0.889822 0.448382 0.084679 1.000000
50.237202 109.155296 -761.925720 0.925279 0.205460 0.318817 0.000000
50.236698 119.773499 -749.040283 0.560171 0.049138 0.826919 0.000000
50.231899 111.707001 -749.785889 -0.641751 0.058601 -0.764670 0.000000
50.228401 130.519608 -748.114014 -0.811830 0.037727 -0.582673 0.000000
50.227699 123.972702 -748.592529 -0.635567 0.058558 -0.769822 0.000000
50.224201 120.740303 -748.936584 -0.596016 0.058321 -0.800852 0.000000
50.220901 127.088097 -748.286377 -0.650814 0.123610 -0.749107 0.000000
50.218800 98.953003 -752.441772 -0.941904 0.008803 0.335766 0.000000
50.215500 102.320999 -750.123291 0.273752 0.773786 -0.571240 0.000000
50.213799 51.367001 -743.663330 -0.506218 0.200976 -0.838660 1.000000
50.213699 99.717102 -752.799622 -0.640480 0.767168 -0.035191 0.000000
50.209099 112.708702 -749.701416 -0.583833 0.144838 -0.798850 0.000000
50.208099 101.608597 -758.871216 -0.313266 0.586369 0.747018 0.000000
50.198601 117.306099 -749.292297 -0.568774 0.031985 -0.821872 0.000000
50.193699 94.706596 -755.552490 -0.362444 0.615006 0.700287 0.000000
50.184299 97.970001 -751.380798 -0.687578 0.719831 -0.095293 0.000000
50.178600 127.902000 -748.199097 0.555249 0.093743 0.826384 0.000000
50.175400 104.610298 -750.051086 -0.693064 0.006945 -0.720842 0.000000
50.161800 98.349297 -752.366516 -0.960742 0.001212 0.277440 0.000000
50.161701 97.874802 -751.942627 -0.687578 0.719831 -0.095293 0.000000
50.150398 125.241798 -748.500916 -0.556826 0.189655 -0.808688 0.000000
50.150101 131.400101 -747.860596 0.701424 0.015339 0.712579 0.000000
50.147301 101.076797 -753.493530 -0.638391 0.768617 -0.041050 0.000000
50.143700 110.009102 -749.896729 -0.604914 0.049583 -0.794746 0.000000
50.143200 97.294701 -750.659912 -0.877240 0.442294 -0.186616 0.000000
50.135201 50.265400 -746.358582 -0.878154 0.458480 0.136538 1.000000
50.133099 108.750999 -749.937378 -0.655240 0.041041 -0.754305 0.000000
50.130798 116.610703 -749.165283 -0.924985 0.037941 -0.378105 0.000000
50.129398 103.763397 -750.024109 -0.675109 0.029598 -0.737124 0.000000
50.128201 54.004799 -742.690979 -0.433339 0.291463 -0.852799 1.000000
50.121101 94.213799 -754.913025 -0.146292 0.936545 -0.318562 0.000000
50.120701 105.293999 -760.519409 0.068992 0.401779 0.913134 0.000000
50.117100 131.543793 -748.526184 0.304527 0.668671 -0.678338 0.000000
50.116402 100.082703 -758.115784 0.328990 0.302195 -0.894675 0.000000
50.109600 103.209000 -759.626221 -0.035243 0.377228 0.925449 0.000000
50.103802 101.266197 -750.180481 -0.817184 0.026361 -0.575774 0.000000
50.099499 109.770699 -762.033813 0.813725 0.199249 0.546032 0.000000
50.099300 97.236603 -751.675415 -0.978485 0.205564 0.017620 0.000000
50.098999 115.826103 -749.324829 -0.539241 0.069351 -0.839291 0.000000
50.095200 100.404198 -750.267029 -0.831187 0.124167 -0.541951 0.000000
50.092098 113.260902 -749.545715 -0.467309 0.304767 -0.829903 0.000000
50.088501 115.263100 -749.262329 -0.517240 0.110940 -0.848620 0.000000
50.072201 56.821899 -741.884583 0.548860 0.772885 0.318435 1.000000
50.070801 59.186798 -741.000305 -0.897817 0.243251 -0.367088 1.000000
50.063400 97.371201 -752.271729 -0.949416 0.219306 0.224754 0.000000
50.063400 97.925903 -750.834595 -0.929564 0.198288 -0.310792 0.000000
50.057701 104.606400 -760.326782 0.235258 0.574901 0.783673 0.000000
50.055500 93.640404 -754.584778 0.352356 0.905014 -0.238316 0.000000
50.050800 118.487297 -749.081787 -0.568062 0.087726 -0.818297 0.000000
50.048500 129.499405 -747.908386 -0.584507 0.020727 -0.811124 0.000000
50.044498 132.282303 -747.662170 -0.750983 0.182010 -0.634741 0.000000
50.040298 134.421707 -747.541016 -0.731839 0.318261 -0.602596 0.000000
50.037998 122.518700 -748.646423 0.501742 0.012106 0.864933 0.000000
50.032600 50.048901 -748.629089 0.498017 0.669054 0.551676 1.000000
50.031300 133.764008 -747.644409 -0.547809 0.182603 -0.816432 0.000000
50.028999 111.150497 -749.731689 -0.550063 0.040384 -0.834146 0.000000
50.011200 96.401100 -751.353088 -0.801521 0.596579 -0.040708 0.000000
50.010899 49.307701 -744.951172 0.226899 0.702604 0.674437 1.000000
50.009102 132.930496 -747.571106 -0.773436 0.079512 -0.628868 0.000000
50.007599 105.155899 -749.845520 -0.602377 0.012406 -0.798115 0.000000
50.006199 101.655197 -753.804504 -0.712082 0.140008 0.687995 0.000000
50.005699 99.685799 -750.234314 -0.825507 0.001360 -0.564391 0.000000
50.005001 98.752602 -752.932373 -0.889655 0.039150 0.454952 0.000000
50.000000 111.013802 -762.427185 0.259495 0.866502 0.426422 0.000000
49.997601 82.003197 -751.218689 0.242935 0.262594 -0.933824 0.000000
49.996201 105.806503 -749.891418 -0.540326 0.017783 -0.841268 0.000000
49.993401 96.508598 -751.914917 -0.991711 0.072062 0.106377 0.000000
49.992699 121.370697 -748.708374 0.553511 0.028987 0.832337 0.000000
49.992100 135.053497 -747.415283 -0.878524 0.211853 -0.428151 0.000000
49.991100 114.325699 -749.408508 -0.488362 0.034009 -0.871978 0.000000
49.990002 49.648899 -744.075378 -0.675778 0.322494 -0.662814 1.000000
49.989101 52.561699 -743.088501 -0.388765 0.285901 -0.875855 1.000000
49.986801 82.982903 -751.476318 0.304283 0.272253 -0.912848 0.000000
49.986500 80.574303 -750.945129 -0.081345 0.287935 0.954189 0.000000
49.982601 100.152496 -753.431274 -0.638749 0.768473 -0.038071 0.000000
49.981701 106.243698 -760.926880 -0.066154 0.406376 0.911308 0.000000
49.979500 102.769302 -754.080505 -0.637942 0.768656 -0.046887 0.000000
49.979198 106.966599 -749.865173 -0.544208 0.015003 -0.838816 0.000000
49.969700 96.184799 -750.648987 0.836052 0.518980 -0.177979 0.000000
49.965302 100.775703 -758.581726 0.038154 0.640135 0.767314 0.000000
49.964802 99.487099 -753.278076 -0.872713 0.062436 0.484224 0.000000
49.962700 98.830002 -750.331116 -0.807808 0.091041 -0.582373 0.000000
49.957298 98.147202 -757.625977 0.682625 0.636789 -0.358501 0.000000
49.955898 107.562202 -749.846680 -0.605914 0.004122 -0.795520 0.000000
49.953701 92.837196 -754.223083 -0.979553 0.201023 0.008134 0.000000
49.952702 103.819504 -759.903870 -0.124874 0.266837 0.955617 0.000000
49.952599 125.795700 -748.274475 -0.538396 0.143080 -0.830457 0.000000
49.950802 50.858101 -743.736084 -0.379675 0.288916 -0.878849 1.000000
49.944698 98.083099 -752.840576 -0.850884 0.484719 0.202592 0.000000
49.942001 128.462402 -748.017212 -0.634881 0.004132 -0.772599 0.000000
49.941502 101.785202 -749.940430 -0.776002 0.460395 -0.431112 0.000000
49.938499 84.145302 -751.713196 -0.026268 0.559921 0.828130 0.000000
49.937599 95.748398 -751.633728 -0.996104 0.077293 0.042457 0.000000
49.933300 108.220497 -749.799316 0.585072 0.015143 0.810840 0.000000
49.932400 79.631599 -750.811279 0.347089 0.862323 0.368685 0.000000
49.931499 95.546700 -750.482178 -0.962314 0.066845 -0.263596 0.000000
49.928101 124.456200 -748.372070 -0.551072 0.069415 -0.831566 0.000000
49.925400 130.074097 -747.750183 0.503765 0.009404 0.863789 0.000000
49.924099 57.962399 -741.528381 0.233539 0.441464 0.866354 1.000000
49.921799 106.368698 -749.819885 0.574448 0.009597 0.818485 0.000000
49.919102 49.690201 -745.412476 -0.862179 0.464710 0.201723 1.000000
49.918301 78.831902 -750.560486 -0.389905 0.310395 0.866965 0.000000
49.915699 123.476303 -748.493713 -0.493754 0.101027 -0.863713 0.000000
49.914101 98.164803 -750.333496 -0.830139 0.006816 -0.557515 0.000000
49.910400 48.034000 -744.031677 0.041140 0.713566 -0.699379 1.000000
49.904202 102.173599 -753.991516 -0.693502 0.711322 0.114346 0.000000
49.901100 95.557602 -751.085876 0.990313 0.039794 0.133027 0.000000
49.900501 54.394901 -742.349976 -0.494802 0.110434 -0.861960 1.000000
49.899899 93.219002 -755.019226 -0.683948 0.724780 -0.083124 0.000000
49.899899 119.004402 -748.900574 -0.450765 0.108805 -0.885987 0.000000
49.898499 84.671303 -751.960022 -0.033341 0.069908 -0.996996 0.000000
49.892399 51.781700 -743.298584 -0.531359 0.314347 -0.786666 1.000000
49.890800 49.027699 -744.463379 -0.908371 0.405103 -0.103695 1.000000
49.885201 49.536701 -748.443726 -0.606351 0.267554 0.748835 1.000000
49.884399 95.077698 -751.442810 -0.967673 0.251860 0.013256 0.000000
49.884399 50.618099 -748.363220 0.364924 0.724938 0.584205 1.000000
49.884300 50.048199 -747.562622 -0.888950 0.409945 0.204238 1.000000
49.883801 126.608704 -748.147888 0.587634 0.020740 0.808861 0.000000
49.883598 96.912300 -752.584900 -0.922738 0.158224 0.351453 0.000000
49.883400 55.316601 -742.192871 -0.247485 0.132254 -0.959823 1.000000
49.881500 97.351501 -756.866699 -0.276436 0.423054 0.862907 0.000000
49.879799 91.494301 -753.562012 -0.792378 0.609841 0.015211 0.000000
49.879601 85.495499 -752.190430 0.270230 0.397042 0.877116 0.000000
49.877399 117.943298 -749.028625 0.295123 0.026150 0.955101 0.000000
49.875801 77.726097 -750.174988 -0.321558 0.846613 0.424083 0.000000
49.868401 94.745697 -750.421021 0.970564 0.040186 0.237466 0.000000
49.865501 110.600502 -749.650391 -0.503913 0.065606 -0.861259 0.000000
49.863499 56.281502 -741.991882 -0.144139 0.255219 -0.956079 1.000000
49.862099 130.637695 -747.621826 0.477607 0.056432 0.876759 0.000000
49.861401 102.677002 -749.805603 -0.608971 0.097844 -0.787135 0.000000
49.860001 49.757801 -746.119080 -0.877695 0.473034 0.076746 1.000000
49.859798 120.253304 -748.730103 -0.467504 0.140396 -0.872771 0.000000
49.855301 95.480904 -752.122620 0.964573 0.053657 -0.258301 0.000000
49.853699 131.670593 -747.443787 -0.614003 0.307807 -0.726812 0.000000
49.849998 99.324997 -757.869812 0.589026 0.379011 -0.713722 0.000000
49.847801 95.687401 -756.072571 0.186411 0.807781 0.559233 0.000000
49.847801 96.222900 -752.428772 -0.937792 0.067079 0.340657 0.000000
49.845798 106.948303 -761.109619 0.213460 0.718286 0.662194 0.000000
49.841702 90.902702 -753.342224 0.885265 0.392622 -0.249307 0.000000
49.838600 111.852501 -762.668213 -0.796766 0.546309 -0.258284 0.000000
49.836399 76.452103 -749.921021 -0.307228 0.013682 -0.951537 0.000000
49.833000 108.531303 -761.520813 0.393722 0.180276 0.901379 0.000000
49.832600 53.425499 -742.684082 -0.431687 0.212135 -0.876724 1.000000
49.831100 94.522499 -751.377380 -0.642570 0.765765 -0.026599 0.000000
49.827099 57.391499 -741.733582 0.103753 0.603521 -0.790568 1.000000
49.826698 48.637699 -743.900513 0.120711 0.707872 -0.695950 1.000000
49.819500 96.700203 -750.226929 -0.620512 0.355280 -0.699100 0.000000
49.817501 50.077900 -743.632690 -0.312809 0.047241 -0.948641 1.000000
49.815498 112.123901 -749.512512 0.604343 0.268068 0.750273 0.000000
49.814800 100.746498 -749.877808 -0.728683 0.089077 -0.679033 0.000000
49.811798 98.771896 -757.623718 -0.202559 0.436168 0.876771 0.000000
49.810299 90.340698 -753.127686 0.797012 0.479490 -0.367235 0.000000
49.808201 97.415604 -752.866089 -0.885499 0.082016 0.457346 0.000000
49.806198 93.910301 -750.249084 0.467071 0.808208 0.358672 0.000000
49.805401 93.893700 -755.277527 -0.104563 0.734884 0.670084 0.000000
49.801998 83.526497 -751.685974 -0.031380 0.173169 0.984392 0.000000
49.799301 109.223801 -761.544617 -0.727246 0.638904 -0.250829 0.000000
49.795200 94.064598 -751.003479 0.965746 0.242388 0.092641 0.000000
49.792099 107.951401 -761.450378 0.047230 0.433169 0.900074 0.000000
49.789700 49.720299 -747.048279 -0.977651 0.069397 -0.198452 1.000000
49.786598 104.279503 -749.773376 -0.604148 0.009633 -0.796814 0.000000
49.779701 127.372398 -748.009583 -0.500618 0.065541 -0.863183 0.000000
49.778900 94.759598 -751.936890 -0.968538 0.131783 0.211108 0.000000
49.773800 103.424797 -749.676086 0.373008 0.535894 0.757418 0.000000
49.772301 109.531097 -749.634583 -0.556136 0.054910 -0.829276 0.000000
49.765800 58.662998 -741.346497 0.347836 0.133360 -0.928022 1.000000
49.764702 97.419998 -750.147522 0.871091 0.006690 0.491076 0.000000
49.745602 94.003098 -751.635925 -0.982959 0.024371 0.182201 0.000000
49.744099 100.722900 -753.841675 -0.646919 0.761989 -0.029469 0.000000
49.740101 93.484100 -750.916199 0.932481 0.358646 0.043038 0.000000
49.737202 100.080597 -749.848877 -0.774524 0.088642 -0.626303 0.000000
49.736599 113.641602 -749.313599 0.333653 0.031959 0.942154 0.000000
49.732700 133.397202 -747.244080 -0.701629 0.202899 -0.683043 0.000000
49.730301 112.702202 -749.385925 0.526274 0.037295 0.849497 0.000000
49.729401 93.043098 -750.046387 0.891483 0.006604 0.453006 0.000000
49.729000 81.519699 -750.920227 -0.516325 0.821496 -0.241979 0.000000
49.728500 134.005600 -747.169678 -0.829536 0.037517 -0.557192 0.000000
49.726898 135.889496 -747.048828 0.009317 0.475190 0.879834 0.000000
49.717602 99.266998 -749.882996 -0.810211 0.084907 -0.579956 0.000000
49.716999 75.578796 -749.683411 0.189342 0.703491 -0.685018 0.000000
49.712399 133.104294 -748.088684 0.332512 0.397468 -0.855252 0.000000
49.710899 110.816704 -761.912720 0.186269 0.810194 0.555778 0.000000
49.710499 89.553596 -752.959595 -0.955378 0.023605 0.294440 0.000000
49.709702 93.442299 -751.474670 -0.885044 0.463595 0.042145 0.000000
49.703899 119.532303 -748.792175 -0.395713 0.022202 -0.918106 0.000000
49.700001 125.223000 -748.163818 -0.564822 0.040444 -0.824221 0.000000
49.698101 88.844398 -752.883118 -0.974397 0.067411 0.214490 0.000000
49.697201 96.621101 -756.594116 -0.240153 0.445567 0.862436 0.000000
49.696400 117.393097 -749.031921 -0.342697 0.166453 -0.924582 0.000000
49.692902 98.471703 -753.393127 -0.744985 0.049856 0.665216 0.000000
49.692402 116.210999 -749.096375 0.327408 0.003735 0.944876 0.000000
49.688599 77.010498 -750.083679 0.237575 0.068412 -0.968957 0.000000
49.683800 102.626198 -759.481506 -0.097426 0.231545 0.967933 0.000000
49.678699 92.690903 -750.878723 0.832222 0.554361 0.009534 0.000000
49.676601 111.539803 -749.467590 -0.479764 0.062217 -0.875189 0.000000
49.674000 94.912697 -755.787170 -0.254781 0.450062 0.855880 0.000000
49.673401 105.709198 -760.750916 -0.208654 0.289875 0.934043 0.000000
49.671501 101.737801 -759.080688 -0.034351 0.324426 0.945287 0.000000
49.668800 121.959801 -748.436829 -0.427155 0.107839 -0.897725 0.000000
49.668598 88.110802 -752.550598 -0.697301 0.104669 0.709095 0.000000
49.666500 123.944397 -748.265930 -0.444234 0.036237 -0.895178 0.000000
49.666302 51.263100 -743.367371 -0.399635 0.383839 -0.832442 1.000000
49.659599 86.101799 -752.203186 -0.636575 0.767080 0.079753 0.000000
49.653099 99.209396 -753.658508 -0.677066 0.018148 0.735699 0.000000
49.652401 92.286003 -749.772400 0.384838 0.840361 -0.381697 0.000000
49.652302 95.292603 -752.621704 -0.896068 0.113943 0.429044 0.000000
49.651600 101.307404 -749.705688 -0.702421 0.070966 -0.708215 0.000000
49.647800 108.836304 -749.622009 -0.534445 0.060318 -0.843048 0.000000
49.642200 96.141701 -750.090820 0.886592 0.108534 0.449639 0.000000
49.641998 120.916000 -748.517578 0.249551 0.003582 0.968355 0.000000
49.638401 94.330803 -752.285522 -0.925274 0.062572 0.374103 0.000000
49.638302 112.580299 -762.897827 -0.992187 0.062509 -0.107970 0.000000
49.637100 49.406700 -743.651184 -0.114782 0.286296 -0.951241 1.000000
49.637001 96.620003 -753.018616 0.656391 0.293691 -0.694908 0.000000
49.635700 80.138901 -750.551819 0.692835 0.482480 0.535904 0.000000
49.633301 98.371498 -749.874512 -0.839264 0.084069 -0.537186 0.000000
49.627602 80.987701 -751.096985 0.331035 0.355443 -0.874115 0.000000
49.625702 49.377300 -746.473022 -0.790481 0.591731 0.158096 1.000000
49.625599 99.836998 -753.796509 -0.692342 0.127104 0.710286 0.000000
49.624199 104.860603 -749.544678 -0.652101 0.098181 -0.751748 0.000000
49.621101 91.295502 -749.858826 -0.953865 0.076154 -0.290419 0.000000
49.617001 92.623398 -751.508972 -0.908259 0.400415 0.121380 0.000000
49.615898 82.556396 -751.521912 -0.215110 0.517180 0.828404 0.000000
49.615200 132.587402 -747.251770 -0.540831 0.120994 -0.832384 0.000000
49.614498 128.896194 -747.732605 0.576843 0.001364 0.816854 0.000000
49.613800 74.397903 -749.378479 0.006634 0.465682 0.884928 0.000000
49.612099 110.117599 -749.509277 -0.502705 0.054010 -0.862769 0.000000
49.611900 49.474899 -747.591919 -0.886813 0.439825 0.141833 1.000000
49.611000 97.785797 -753.295227 -0.772829 0.006913 0.634577 0.000000
49.608398 115.656601 -749.088928 -0.398867 0.022232 -0.916739 0.000000
49.607300 96.003098 -752.915222 -0.870015 0.350147 0.347089 0.000000
49.606499 86.795197 -752.234619 -0.371074 0.925676 0.073679 0.000000
49.605202 101.306900 -754.074097 -0.631126 0.139417 0.763048 0.000000
49.601700 113.203400 -763.014587 -0.745711 0.594965 -0.299888 0.000000
49.601101 100.270500 -758.375977 0.092377 0.684763 0.722887 0.000000
49.600800 105.409897 -749.430481 0.114339 0.714248 -0.690490 0.000000
49.600201 122.900803 -748.432678 -0.433406 0.038913 -0.900358 0.000000
49.595600 48.698399 -748.213684 -0.958190 0.278677 -0.064897 1.000000
49.593601 87.372902 -752.539001 0.801357 0.190075 -0.567184 0.000000
49.592602 127.915100 -747.815002 -0.508178 0.048464 -0.859887 0.000000
49.590801 91.245201 -753.978516 -0.672190 0.697496 0.248315 0.000000
49.589199 91.843903 -754.278381 -0.529908 0.408505 0.743183 0.000000
49.587898 91.922798 -750.541382 0.922101 0.386688 0.014226 0.000000
49.587898 134.977798 -747.029480 0.847838 0.080949 0.524040 0.000000
49.584702 105.047600 -760.538208 -0.034703 0.340608 0.939565 0.000000
49.579300 126.167603 -747.985107 -0.366227 0.273549 -0.889409 0.000000
49.575699 95.200600 -749.962280 0.925742 0.087588 0.367871 0.000000
49.572800 94.353203 -749.986877 0.845268 0.345294 0.407791 0.000000
49.572701 93.280701 -751.999878 -0.887378 0.429937 0.166474 0.000000
49.570099 131.138397 -747.497375 -0.517193 0.168423 -0.839134 0.000000
49.568802 91.894600 -751.106323 0.988226 0.123381 -0.090480 0.000000
49.565800 52.920799 -742.776672 -0.397768 0.273749 -0.875695 1.000000
49.559799 114.660599 -749.147827 0.512172 0.034328 0.858197 0.000000
49.557999 104.151901 -760.129883 -0.188104 0.012694 0.982067 0.000000
49.555099 85.191200 -751.754578 -0.758423 0.635273 0.145677 0.000000
49.552898 91.267403 -750.550171 0.985955 0.164518 0.028762 0.000000
49.548500 92.487000 -754.645691 -0.642920 0.765647 -0.020919 0.000000
49.546001 73.755699 -749.186096 -0.004054 0.847307 -0.531087 0.000000
49.545898 134.753098 -747.724487 0.860598 0.369269 0.350729 0.000000
49.537899 103.307098 -759.779114 -0.043251 0.373527 0.926610 0.000000
49.534698 107.203201 -749.570618 -0.516807 0.045723 -0.854880 0.000000
49.531898 75.057098 -749.588379 0.149479 0.316786 -0.936644 0.000000
49.531898 118.499802 -748.838623 -0.307982 0.127765 -0.942774 0.000000
49.529099 90.457397 -749.807983 0.944971 0.274082 0.178631 0.000000
49.526600 136.705200 -746.901123 0.001334 0.865851 0.500299 0.000000
49.521801 49.064499 -745.974487 -0.860716 0.493284 0.125853 1.000000
49.516102 52.223400 -743.009094 -0.530057 0.158869 -0.832947 1.000000
49.514702 47.597500 -743.962219 0.123907 0.706122 -0.697165 1.000000
49.513401 91.225502 -751.108704 0.989919 0.035152 -0.137205 0.000000
49.508701 49.162300 -747.097473 -0.723702 0.658616 0.206108 1.000000
49.508202 94.718597 -752.694519 -0.622368 0.781150 -0.049619 0.000000
49.507702 129.436096 -747.580872 -0.674536 0.269496 -0.687294 0.000000
49.506001 102.228302 -749.545288 0.554544 0.127972 0.822255 0.000000
49.502701 93.776901 -752.366028 -0.854018 0.440042 0.277518 0.000000
49.501900 124.740601 -747.896973 -0.456637 0.149313 -0.877034 0.000000
49.500198 114.171898 -762.751526 -0.660895 0.731105 -0.169421 0.000000
49.496799 53.960098 -742.440674 -0.413371 0.143472 -0.899189 1.000000
49.496399 90.501198 -753.579773 -0.823414 0.554305 0.121391 0.000000
49.492699 78.446098 -750.547485 -0.460063 0.321887 0.827485 0.000000
49.490700 90.637199 -750.370483 0.997501 0.070276 -0.007342 0.000000
49.490200 48.607300 -744.366272 -0.556046 0.775916 0.297939 1.000000
49.489700 89.629501 -749.690796 -0.914246 0.210980 -0.345892 0.000000
49.489201 55.861500 -742.005981 -0.080103 0.208267 -0.974786 1.000000
49.488899 96.995102 -749.728821 -0.887384 0.117469 -0.445815 0.000000
49.488899 110.977798 -749.385620 -0.453104 0.076210 -0.888194 0.000000
49.488499 79.170303 -750.827026 -0.026753 0.705444 0.708260 0.000000
49.487202 107.464897 -761.387085 0.191997 0.063999 -0.979306 0.000000
49.483601 110.045601 -762.119873 0.347646 0.878982 0.326392 0.000000
49.480099 50.557098 -743.457520 -0.555575 0.220075 -0.801813 1.000000
49.476700 48.302101 -748.603821 0.835648 0.168321 0.522839 1.000000
49.468899 125.630096 -747.774597 -0.218274 0.240239 -0.945855 0.000000
49.468601 107.968002 -749.520874 -0.539764 0.096438 -0.836274 0.000000
49.463902 82.014503 -751.433594 -0.502226 0.028582 0.864264 0.000000
49.462700 90.608101 -750.933716 0.997098 0.011656 -0.075233 0.000000
49.460999 84.118797 -752.008423 0.427901 0.072456 -0.900917 0.000000
49.457699 126.898697 -747.718872 -0.330487 0.013823 -0.943709 0.000000
49.456100 97.827103 -749.671875 -0.795185 0.026460 -0.605789 0.000000
49.455502 103.903198 -749.521179 0.621876 0.085526 0.778432 0.000000
49.454201 97.632500 -757.163208 -0.187240 0.361616 0.913332 0.000000
49.445801 132.044006 -747.191284 -0.453514 0.096881 -0.885968 0.000000
49.440498 111.221199 -762.451172 0.347300 0.878109 0.329101 0.000000
49.436798 91.770897 -751.713989 -0.906590 0.307094 0.289462 0.000000
49.436401 54.812500 -742.164185 0.409964 0.128202 0.903047 1.000000
49.432701 72.951401 -749.134827 0.630283 0.750483 -0.198793 0.000000
49.431099 106.010597 -749.565125 0.447678 0.017269 0.894028 0.000000
49.429901 93.799004 -749.735413 0.714841 0.308204 0.627704 0.000000
49.429600 48.715698 -745.431885 -0.884454 0.423893 0.195079 1.000000
49.423302 90.030197 -750.464111 0.941596 0.336554 -0.011345 0.000000
49.422798 119.957001 -748.394714 -0.484719 0.850884 -0.202592 0.000000
49.421799 102.953102 -749.501526 -0.586461 0.032039 -0.809344 0.000000
49.419800 95.972603 -756.379089 0.338781 0.876577 0.341819 0.000000
49.417599 48.931702 -747.634277 -0.970197 0.018033 -0.241647 1.000000
49.416401 130.134003 -747.423279 -0.601587 0.037862 -0.797909 0.000000
49.415100 99.744202 -749.516113 0.653842 0.009717 0.756569 0.000000
49.410999 121.418404 -748.322327 -0.230926 0.020341 -0.972759 0.000000
49.409302 92.436798 -752.008972 -0.922545 0.226715 0.312268 0.000000
49.408100 88.717300 -749.580627 -0.149447 0.717046 -0.680816 0.000000
49.405399 113.783699 -763.149719 0.003214 0.097488 0.995232 0.000000
49.405201 114.871803 -763.317871 0.478716 0.491968 -0.727185 0.000000
49.405201 116.704201 -748.949829 -0.352823 0.026943 -0.935302 0.000000
49.401699 134.391602 -746.862183 -0.649763 0.004139 -0.760126 0.000000
49.393501 100.475998 -749.481384 0.507781 0.001340 0.861485 0.000000
49.392601 123.441704 -748.148071 0.504619 0.001339 0.863341 0.000000
49.390598 101.074898 -758.781982 -0.170779 0.320731 0.931647 0.000000
49.390301 98.271400 -757.475586 -0.218324 0.420311 0.880723 0.000000
49.387402 95.947899 -749.593506 0.827314 0.087463 0.554888 0.000000
49.381500 98.736099 -749.510620 0.735674 0.009735 0.677265 0.000000
49.375999 89.974098 -751.036072 -0.991588 0.009927 0.129050 0.000000
49.371300 137.319901 -746.660400 0.129998 0.387200 -0.912785 0.000000
49.370399 76.019897 -749.911804 -0.618274 0.380857 0.687521 0.000000
49.364899 90.627403 -751.515015 -0.960519 0.091051 0.262892 0.000000
49.364101 100.391899 -754.120422 -0.794850 0.227764 0.562438 0.000000
49.363499 91.753601 -749.643799 0.783615 0.303591 0.542014 0.000000
49.363300 135.466705 -746.779480 0.812566 0.100299 0.574175 0.000000
49.361198 72.370102 -748.944092 0.251257 0.668438 -0.700043 0.000000
49.360100 117.826897 -748.835327 0.378186 0.001273 0.925729 0.000000
49.358700 89.259201 -750.122681 0.973883 0.205750 0.096017 0.000000
49.358501 122.399399 -748.133179 -0.415660 0.025072 -0.909174 0.000000
49.357800 99.604202 -758.099426 0.043232 0.556432 0.829767 0.000000
49.355999 106.256302 -760.858826 -0.150676 0.170934 0.973693 0.000000
49.355099 79.817902 -750.962585 -0.595093 0.158189 0.787934 0.000000
49.352699 128.404800 -747.608215 -0.601587 0.037862 -0.797909 0.000000
49.351002 94.698700 -749.548584 -0.799872 0.217306 -0.559448 0.000000
49.349098 113.082901 -749.159180 -0.539187 0.037424 -0.841354 0.000000
49.344898 56.517601 -741.892578 -0.061098 0.183293 -0.981158 1.000000
49.342098 93.552498 -755.223816 -0.545708 0.247201 0.800683 0.000000
49.342098 133.106995 -746.956787 -0.581206 0.131622 -0.803041 0.000000
49.341999 48.817402 -746.522522 0.928777 0.078846 0.362156 1.000000
49.337700 119.043701 -748.679504 -0.320313 0.097024 -0.942330 0.000000
49.336300 77.532700 -750.403320 -0.693488 0.359040 0.624631 0.000000
49.336102 85.479401 -752.405396 0.518422 0.095687 -0.849755 0.000000
49.335400 87.918098 -749.574524 0.492330 0.731036 -0.472438 0.000000
49.332600 89.236900 -750.687378 0.987561 0.109992 -0.112357 0.000000
49.332100 81.439903 -751.348877 0.427964 0.113656 -0.896621 0.000000
49.331001 89.234001 -753.376709 -0.669402 0.439035 0.599290 0.000000
49.330898 83.130997 -751.785522 -0.506771 0.228124 0.831350 0.000000
49.330502 93.181602 -749.548523 0.770319 0.164960 0.615952 0.000000
49.327202 109.115799 -761.887085 0.347300 0.878109 0.329101 0.000000
49.325199 89.930397 -753.610107 -0.665915 0.448950 0.595819 0.000000
49.320099 53.283600 -742.352478 -0.207483 0.458254 -0.864265 1.000000
49.319698 57.923901 -741.601074 0.231058 0.144901 -0.962089 1.000000
49.318600 98.121300 -753.718872 -0.763026 0.567871 0.308730 0.000000
49.318298 99.054100 -757.859070 -0.293886 0.121012 0.948149 0.000000
49.317001 96.266403 -753.382813 -0.702947 0.156379 0.693838 0.000000
49.314899 57.116100 -741.758972 0.097990 0.779531 -0.618652 1.000000
49.313499 93.081299 -752.479675 -0.820422 0.310217 0.480285 0.000000
49.312000 135.662506 -747.386719 0.724373 0.672956 -0.149714 0.000000
49.310398 101.671799 -749.448730 0.812702 0.419923 0.403956 0.000000
49.306801 133.798401 -746.815125 -0.545010 0.195839 -0.815237 0.000000
49.306000 112.388901 -749.179199 -0.546613 0.066385 -0.834750 0.000000
49.305801 99.826897 -754.288818 -0.963651 0.241235 -0.114813 0.000000
49.302898 51.524799 -742.980225 -0.389526 0.327941 -0.860653 1.000000
49.299099 48.492199 -743.728271 0.652597 0.330367 0.681891 1.000000
49.296700 87.799500 -752.965576 -0.719012 0.577513 0.386654 0.000000
49.296001 106.879898 -761.214600 -0.259649 0.262487 0.929345 0.000000
49.295200 88.495598 -750.223999 0.967111 0.254123 -0.010839 0.000000
49.294998 48.071602 -744.450684 -0.865886 0.490527 -0.098105 1.000000
49.294399 84.887001 -752.193787 -0.699901 0.126848 0.702886 0.000000
49.293201 130.672104 -747.282288 -0.489569 0.160249 -0.857113 0.000000
49.287601 96.835297 -753.495422 -0.691032 0.108020 0.714707 0.000000
49.285702 86.875999 -749.601013 0.700985 0.592126 -0.397500 0.000000
49.282101 115.381302 -763.516785 0.644487 0.110610 -0.756572 0.000000
49.279400 88.492302 -753.156677 -0.650798 0.223175 0.725710 0.000000
49.276100 80.466202 -751.127808 -0.613358 0.250704 0.748959 0.000000
49.273998 127.464500 -747.654602 -0.386817 0.169857 -0.906378 0.000000
49.273201 95.641701 -753.298584 -0.740783 0.219895 0.634734 0.000000
49.267399 49.875900 -743.626282 -0.401779 0.068992 -0.913134 1.000000
49.265598 86.512497 -752.666077 -0.700768 0.619093 0.354468 0.000000
49.262501 76.589798 -749.862793 -0.744925 0.058848 -0.664548 0.000000
49.261101 47.734798 -748.297119 -0.958094 0.251023 -0.137997 1.000000
49.259899 114.319603 -763.303772 0.493832 0.039671 -0.868652 0.000000
49.259602 94.247803 -755.641907 -0.371704 0.390524 0.842215 0.000000
49.257702 98.867203 -753.934814 -0.679803 0.380229 0.627131 0.000000
49.256699 109.515900 -749.298889 -0.525391 0.042974 -0.849775 0.000000
49.252800 48.579601 -747.055786 -0.943952 0.316416 -0.093998 1.000000
49.252701 90.869904 -749.397583 -0.829536 0.037517 -0.557192 0.000000
49.251701 88.460899 -750.782776 0.417825 0.889515 -0.184891 0.000000
49.249901 97.469498 -753.663086 -0.694495 0.176307 0.697562 0.000000
49.249199 94.130600 -752.901184 -0.747927 0.120441 0.652763 0.000000
49.248798 71.395599 -748.638672 -0.201336 0.341272 0.918149 0.000000
49.246899 136.212799 -746.881775 0.767104 0.548391 -0.332894 0.000000
49.242401 89.160599 -751.311584 -0.970852 0.081008 0.225577 0.000000
49.238400 95.354301 -749.434387 -0.723564 0.023885 -0.689844 0.000000
49.237099 131.502808 -746.977173 -0.518334 0.164857 -0.839137 0.000000
49.227501 113.938400 -749.016418 -0.386688 0.014226 -0.922101 0.000000
49.223701 89.856102 -751.623596 -0.885272 0.284069 0.368237 0.000000
49.219898 46.530201 -743.994080 -0.180735 0.264988 -0.947162 1.000000
49.215099 48.404301 -747.914917 -0.515913 0.847259 0.126435 1.000000
49.213902 87.709801 -750.080505 -0.928856 0.370261 0.011531 0.000000
49.213299 137.992798 -746.621277 0.013907 0.342623 -0.939370 0.000000
49.211201 108.252197 -761.644775 0.346720 0.879670 0.325523 0.000000
49.210899 90.666496 -754.036377 -0.807960 0.004101 0.589223 0.000000
49.203400 50.932800 -743.130371 -0.533282 0.222841 -0.816059 1.000000
49.203098 102.391502 -759.309875 -0.440771 0.216650 -0.871082 0.000000
49.197800 94.890701 -753.203308 -0.772525 0.301046 0.559085 0.000000
49.193901 100.711304 -758.370972 -0.606609 0.791041 -0.079248 0.000000
49.187000 92.467697 -749.396912 0.704790 0.050036 0.707649 0.000000
49.184601 48.440701 -745.908081 -0.603548 0.726523 0.328472 1.000000
49.180901 96.671402 -749.352417 0.622525 0.064399 0.779945 0.000000
49.176998 120.460999 -748.539673 0.246290 0.770245 -0.588272 0.000000
49.175900 110.477898 -749.215027 -0.523571 0.001346 -0.851981 0.000000
49.175499 85.866798 -749.534729 -0.643439 0.626727 -0.439544 0.000000
49.174301 111.513199 -749.200928 -0.555211 0.040354 -0.830730 0.000000
49.172501 134.893600 -746.635925 -0.632430 0.117007 -0.765729 0.000000
49.168098 96.952003 -756.917725 -0.260503 0.443312 0.857679 0.000000
49.167900 132.526398 -746.907104 0.575589 0.112774 0.809925 0.000000
49.166901 92.884003 -755.024414 -0.444275 0.367840 0.816893 0.000000
49.166500 76.955299 -750.387817 -0.687658 0.213626 0.693895 0.000000
49.165798 70.643700 -748.421326 -0.685321 0.490951 0.537868 0.000000
49.163300 49.097900 -743.548584 -0.304114 0.184690 -0.934561 1.000000
49.162701 90.026100 -749.255371 0.716223 0.046989 0.696288 0.000000
49.161800 87.669601 -750.637024 -0.969534 0.217287 0.113091 0.000000
49.158199 116.057800 -763.332825 -0.053511 0.935790 -0.348474 0.000000
49.157501 104.416496 -749.343018 -0.380711 0.076680 -0.921509 0.000000
49.155499 116.165604 -748.868286 -0.380994 0.085419 -0.920623 0.000000
49.154499 91.476898 -754.386230 -0.641584 0.766839 -0.018092 0.000000
49.154099 90.910301 -751.968384 -0.856055 0.354496 0.376169 0.000000
49.150101 124.341599 -748.145020 -0.192120 0.084435 -0.977732 0.000000
49.149799 97.459801 -749.361572 0.618690 0.085487 0.780970 0.000000
49.149502 91.519699 -752.189270 -0.868370 0.259147 0.422819 0.000000
49.148602 86.971001 -750.189880 -0.646547 0.762843 0.006922 0.000000
49.148201 55.348900 -742.039124 -0.192296 0.119399 -0.974046 1.000000
49.147202 108.414703 -749.294006 0.464154 0.112135 0.878628 0.000000
49.144901 92.055397 -752.377991 -0.783260 0.613432 0.101019 0.000000
49.144501 89.293503 -749.365295 0.850460 0.186832 0.491743 0.000000
49.142502 52.089298 -742.587891 -0.440415 0.274684 -0.854742 1.000000
49.140900 75.406898 -749.981812 -0.738378 0.117368 0.664095 0.000000
49.134602 105.456100 -760.716614 -0.242968 0.215514 0.945791 0.000000
49.132702 104.700104 -760.276184 -0.650360 0.569695 -0.502474 0.000000
49.131901 74.321800 -749.656006 -0.785099 0.116365 0.608341 0.000000
49.130699 95.263199 -756.145508 0.312959 0.871705 0.377077 0.000000
49.130600 114.971397 -748.914429 -0.353311 0.101526 -0.929980 0.000000
49.129200 85.106903 -749.671387 -0.114075 0.682967 -0.721486 0.000000
49.126598 101.564796 -758.924988 -0.666256 0.745136 -0.029580 0.000000
49.124298 102.841202 -759.659729 0.079907 0.077656 -0.993773 0.000000
49.123699 86.377197 -749.290405 -0.825267 0.078665 -0.559237 0.000000
49.123299 125.184097 -747.887573 -0.266635 0.077822 -0.960651 0.000000
49.122101 98.159599 -749.361511 -0.539109 0.015013 -0.842102 0.000000
49.119099 108.976402 -749.218323 0.549300 0.012267 0.835535 0.000000
49.115799 138.647797 -746.480286 0.795523 0.157902 -0.584988 0.000000
49.108700 78.649002 -750.904602 -0.566540 0.075634 0.820556 0.000000
49.107201 101.076797 -749.301819 -0.689888 0.423907 -0.586820 0.000000
49.100899 93.830498 -749.281616 0.647263 0.023766 0.761897 0.000000
49.095200 93.419800 -752.882385 -0.787783 0.258418 0.559122 0.000000
49.094398 86.328400 -749.911987 -0.999831 0.006992 0.016980 0.000000
49.093800 129.024094 -747.388428 -0.264339 0.319836 -0.909852 0.000000
49.091900 121.919197 -748.259216 -0.054645 0.293557 -0.954378 0.000000
49.087502 88.374802 -749.228882 0.809058 0.075894 0.582808 0.000000
49.084900 88.322304 -751.382202 -0.852050 0.487952 0.189510 0.000000
49.080601 115.554298 -748.873474 -0.392106 0.051838 -0.918458 0.000000
49.076401 48.126499 -745.408813 -0.877857 0.438191 0.193276 1.000000
49.068501 47.903301 -743.731506 0.631280 0.314833 0.708778 1.000000
49.067101 92.081299 -754.740173 -0.628889 0.561448 0.537843 0.000000
49.067001 74.851997 -749.895325 0.618985 0.132746 -0.774104 0.000000
49.064602 47.747601 -744.872925 -0.878855 0.393450 0.269837 1.000000
49.064301 80.966103 -751.483215 -0.633269 0.219388 0.742185 0.000000
49.064301 91.512001 -749.208374 0.654720 0.086032 0.750960 0.000000
49.063801 84.387604 -749.616577 0.908830 0.203083 0.364396 0.000000
49.063801 48.287102 -746.546875 -0.918053 0.382865 -0.102921 1.000000
49.063099 122.911598 -748.111694 -0.213975 0.049565 -0.975581 0.000000
49.062500 90.279701 -751.965820 -0.841093 0.429129 0.329259 0.000000
49.061199 136.649704 -746.543579 0.823703 0.118508 0.554500 0.000000
49.060600 73.565598 -749.507874 -0.776998 0.425150 0.464244 0.000000
49.059502 106.486900 -749.350220 -0.503913 0.065606 -0.861259 0.000000
49.057899 105.443802 -749.240295 0.478373 0.085574 0.873977 0.000000
49.057899 126.081497 -747.781006 0.191069 0.516036 -0.834985 0.000000
49.055698 46.939999 -748.034912 -0.897063 0.261582 -0.356165 1.000000
49.051498 87.159103 -753.023987 -0.675060 0.203294 0.709201 0.000000
49.048901 116.483498 -763.764709 0.454161 0.700373 -0.550650 0.000000
49.047501 86.892097 -750.812317 -0.643566 0.765359 0.006920 0.000000
49.047199 87.577003 -751.254272 -0.729391 0.680088 0.073954 0.000000
49.047001 87.303497 -749.236084 0.791353 0.145106 0.593889 0.000000
49.044800 47.925400 -747.628784 -0.919666 0.303677 -0.248986 1.000000
49.041801 99.332001 -754.173828 -0.637026 0.076559 0.767031 0.000000
49.041302 107.385696 -749.266785 -0.368922 0.239579 -0.898053 0.000000
49.040600 82.534599 -751.882690 -0.346407 0.723713 -0.596860 0.000000
49.038799 83.644600 -752.135193 0.408698 0.063395 -0.910465 0.000000
49.027802 52.808201 -742.516113 -0.540911 0.212993 -0.813664 1.000000
49.027500 120.975403 -748.321228 -0.192120 0.084435 -0.977732 0.000000
49.021599 73.285698 -748.947388 0.649180 0.464658 0.602211 0.000000
49.011700 92.650200 -752.727722 -0.758216 0.253790 0.600583 0.000000
49.011600 50.027500 -743.127319 -0.404847 0.257357 -0.877420 1.000000
49.010201 119.500397 -748.503113 -0.313783 0.217234 -0.924310 0.000000
49.007999 86.264099 -750.539978 -0.972087 0.052578 0.228654 0.000000
49.006100 96.242401 -756.660278 0.339132 0.877485 0.339132 0.000000
49.005600 103.558098 -759.897827 0.279856 0.814553 0.508118 0.000000
49.003899 117.218803 -748.793518 -0.402348 0.014323 -0.915375 0.000000
49.000000 103.313904 -749.294922 -0.284356 0.134836 -0.949190 0.000000
48.999199 99.385498 -749.232971 -0.512656 0.062860 -0.856290 0.000000
48.997700 85.685699 -750.120300 -0.993777 0.041176 0.103495 0.000000
48.997601 79.195099 -751.137085 0.576438 0.072949 -0.813878 0.000000
48.997601 54.140400 -742.228027 -0.360312 0.048478 -0.931571 1.000000
48.996201 76.087601 -750.325684 -0.743465 0.199391 0.638360 0.000000
48.994202 129.583206 -747.400330 0.220729 0.116106 0.968400 0.000000
48.993000 84.463799 -752.414978 -0.628439 0.168902 0.759300 0.000000
48.985199 95.891899 -749.188416 0.563587 0.037572 0.825202 0.000000
48.982399 77.290199 -751.139221 0.346407 0.723713 0.596860 0.000000
48.981499 69.825104 -748.231079 -0.088745 0.913387 -0.397303 0.000000
48.980900 114.933998 -763.720215 -0.264030 0.408870 0.873564 0.000000
48.974400 127.978897 -747.508423 -0.200604 0.278078 -0.939378 0.000000
48.973701 102.323196 -749.255798 0.172498 0.746473 -0.642669 0.000000
48.973598 110.335701 -762.358887 0.347300 0.878109 0.329101 0.000000
48.972401 46.015499 -743.924622 0.510902 0.639049 0.574975 1.000000
