ply
format ascii 1.0
element vertex 689
property float x
property float y
property float z
property float nx
property float ny
property float nz
property float label
element face 0
property list uchar int vertex_indices
end_header
48.293301 19.602699 -739.544128 -0.242598 0.109105 -0.963972 0.000000
48.292900 38.617901 -740.507874 -0.868013 0.288321 0.404259 0.000000
48.292400 20.410200 -739.686279 -0.997054 0.076696 -0.001051 0.000000
48.292198 29.045601 -738.287720 -0.487656 0.253827 -0.835322 0.000000
48.292099 23.029600 -741.065186 -0.877048 0.091506 0.471607 0.000000
48.290401 39.757301 -741.874817 -0.931113 0.118604 -0.344907 0.000000
48.290298 43.801498 -741.352478 -0.975452 0.218492 -0.027461 0.000000
48.288700 35.439701 -742.026489 0.423244 0.078074 0.902646 0.000000
48.285900 25.558100 -742.707825 -0.535894 0.373008 0.757418 0.000000
48.285400 39.913200 -742.268188 -0.918779 0.068606 0.388766 0.000000
48.283401 24.024000 -742.041504 -0.980098 0.061331 0.188804 0.000000
48.281101 28.520901 -743.859009 -0.046097 0.265367 0.963045 0.000000
48.280800 37.968399 -742.066223 -0.503777 0.045547 -0.862632 0.000000
48.280701 24.977600 -742.382019 -0.523800 0.441181 0.728693 0.000000
48.278801 36.941502 -740.205383 -0.727973 0.123562 0.674380 0.000000
48.278599 39.851898 -740.828613 -0.941129 0.272250 0.200387 0.000000
48.277699 28.627300 -738.373230 -0.510309 0.191178 -0.838472 0.000000
48.277401 37.327202 -741.958374 -0.815878 0.026319 -0.577625 0.000000
48.277302 23.661200 -741.324280 -0.838625 0.337018 0.427934 0.000000
48.276699 32.071400 -739.505371 -0.708726 0.347031 0.614229 0.000000
48.272800 27.094801 -743.364014 -0.135529 0.335400 0.932276 0.000000
48.272598 36.242901 -742.120422 0.566980 0.060798 0.821485 0.000000
48.270699 40.191502 -741.417114 -0.986889 0.160497 -0.017074 0.000000
48.265999 29.860901 -741.564697 0.230650 0.139432 0.962995 0.000000
48.265900 29.155100 -741.424622 -0.004142 0.658597 0.752485 0.000000
48.263802 23.632601 -741.746277 -0.237541 0.345382 -0.907902 0.000000
48.263802 39.973202 -741.728821 -0.974631 0.095601 -0.202376 0.000000
48.262199 24.670900 -742.186890 -0.874184 0.082788 0.478486 0.000000
48.261700 23.099300 -739.194275 -0.540811 0.146686 -0.828255 0.000000
48.260399 21.672800 -740.681519 -0.959044 0.282936 0.013473 0.000000
48.259602 36.007900 -740.031616 -0.637602 0.152241 0.755174 0.000000
48.257702 39.500801 -741.888123 -0.900720 0.066770 -0.429239 0.000000
48.257000 22.452299 -740.779297 -0.873858 0.258082 0.412026 0.000000
48.256699 34.655701 -741.939209 -0.324163 0.063791 -0.943848 0.000000
48.255100 37.362598 -737.382019 -0.168233 0.090773 -0.981559 0.000000
48.253101 34.329899 -737.561584 -0.156536 0.007883 -0.987641 0.000000
48.252201 26.167400 -743.007690 -0.445133 0.180697 0.877044 0.000000
48.251301 33.647301 -739.814819 -0.363930 0.093350 0.926737 0.000000
48.250702 34.290100 -742.203613 -0.873261 0.121884 -0.471762 0.000000
48.250500 25.892200 -742.889282 -0.430763 0.379898 0.818609 0.000000
48.250500 43.448299 -740.946228 0.931125 0.197427 0.306641 0.000000
48.250000 37.815800 -737.294312 -0.125874 0.145427 -0.981329 0.000000
48.248199 21.410000 -740.514709 -0.962381 0.117869 0.244805 0.000000
48.248001 39.974201 -741.116577 -0.992007 0.083333 0.094749 0.000000
48.247501 33.750401 -741.899170 -0.091646 0.043063 -0.994860 0.000000
48.246700 32.846901 -739.704529 -0.340661 0.154340 0.927432 0.000000
48.246300 29.400400 -738.174194 -0.514869 0.164699 -0.841299 0.000000
48.245800 32.243198 -737.724976 -0.394799 0.133473 -0.909021 0.000000
48.244900 32.910702 -741.851501 0.177379 0.078433 0.981012 0.000000
48.244598 38.393200 -741.924927 -0.836272 0.084342 -0.541790 0.000000
48.243599 23.717600 -739.106995 -0.485745 0.144411 -0.862089 0.000000
48.241699 21.049900 -740.148376 -0.918555 0.252350 0.304262 0.000000
48.239498 19.354200 -739.549683 -0.748048 0.117021 0.653246 0.000000
48.237999 29.220400 -744.061707 0.048869 0.271910 0.961081 0.000000
48.236801 31.200500 -741.722473 0.110962 0.094609 0.989311 0.000000
48.236401 24.648399 -738.965820 0.531080 0.006757 0.847295 0.000000
48.236198 39.796600 -741.505615 -0.988893 0.118199 -0.090112 0.000000
48.235802 28.164499 -738.445129 -0.502649 0.154775 -0.850523 0.000000
48.233799 29.725100 -744.184082 0.136532 0.230155 0.963529 0.000000
48.231602 38.739799 -741.939392 0.915337 0.016927 0.402332 0.000000
48.230598 34.261902 -741.937500 0.372491 0.194156 0.907499 0.000000
48.230301 31.540100 -737.835510 -0.384642 0.145121 -0.911587 0.000000
48.229698 33.235600 -741.901001 0.281729 0.185529 0.941386 0.000000
48.229401 30.752501 -744.431580 0.225802 0.253508 0.940610 0.000000
48.229401 33.903000 -742.231018 0.580200 0.029219 0.813950 0.000000
48.228401 39.607700 -737.074890 -0.147644 0.262034 -0.953698 0.000000
48.228100 36.647800 -737.431396 -0.220745 0.086053 -0.971528 0.000000
48.227001 42.708801 -736.300476 -0.275958 0.225529 -0.934336 0.000000
48.225700 35.398399 -739.981384 -0.590033 0.128654 0.797063 0.000000
48.224201 30.456200 -744.325623 -0.082822 0.087360 -0.992728 0.000000
48.223301 32.271900 -741.800110 0.212622 0.070055 0.974620 0.000000
48.222599 38.289902 -740.517517 -0.719338 0.032504 0.693900 0.000000
48.222401 36.061199 -741.924011 0.571899 0.004095 0.820314 0.000000
48.222401 21.648199 -739.326721 -0.688668 0.133533 -0.712674 0.000000
48.220699 27.871799 -743.657776 0.013245 0.029546 -0.999476 0.000000
48.219700 29.769800 -738.132385 -0.502794 0.062675 -0.862131 0.000000
48.219601 33.567402 -737.587219 -0.249883 0.071574 -0.965627 0.000000
48.218300 36.492802 -741.933228 -0.757001 0.049896 -0.651506 0.000000
48.217098 29.544901 -741.537415 0.433513 0.179536 -0.883082 0.000000
48.216499 36.925701 -737.393188 -0.186951 0.084311 -0.978745 0.000000
48.216099 32.661301 -737.657227 -0.331805 0.080638 -0.939895 0.000000
48.213001 39.489399 -740.979370 -0.979656 0.134318 0.149105 0.000000
48.212700 27.311399 -743.521912 -0.017897 0.232659 0.972394 0.000000
48.210701 39.520599 -741.453979 -0.987615 0.155700 -0.019320 0.000000
48.210602 31.947201 -737.767273 -0.354054 0.061861 -0.933177 0.000000
48.210499 40.419701 -736.871826 -0.159027 0.227370 -0.960736 0.000000
48.209900 35.197201 -737.525818 -0.137038 0.051821 -0.989209 0.000000
48.209801 30.227301 -741.606628 -0.001030 0.054614 0.998507 0.000000
48.209702 28.820400 -743.945313 0.040641 0.252464 0.966752 0.000000
48.209499 33.596600 -742.114990 0.272328 0.925344 -0.263773 0.000000
48.207802 24.108601 -742.354370 0.887023 0.157212 0.434136 0.000000
48.207600 20.487000 -739.911621 -0.885552 0.195321 0.421482 0.000000
48.205299 36.640598 -740.196228 -0.733298 0.146057 0.664034 0.000000
48.204498 20.136999 -739.720276 -0.935037 0.182006 0.304269 0.000000
48.203602 24.333799 -742.170410 -0.929157 0.156943 0.334719 0.000000
48.203201 21.091000 -740.407593 -0.933686 0.042973 0.355504 0.000000
48.200401 36.985802 -741.934814 0.615060 0.058509 0.786306 0.000000
48.200001 39.129902 -737.072021 -0.172256 0.185208 -0.967484 0.000000
48.199799 22.354200 -739.242493 -0.557751 0.109220 -0.822791 0.000000
48.199501 37.640099 -741.876709 -0.869838 0.059654 -0.489717 0.000000
48.199100 31.796101 -741.749023 0.144160 0.091738 0.985293 0.000000
48.197701 30.947701 -741.640503 0.121295 0.095387 0.988023 0.000000
48.196701 31.444099 -744.595398 0.143241 0.084050 0.986112 0.000000
48.195400 34.832901 -739.920288 -0.522898 0.077939 0.848824 0.000000
48.193501 39.254398 -741.799011 -0.928318 0.087324 -0.361386 0.000000
48.191799 20.751301 -740.124329 -0.902932 0.220263 0.369050 0.000000
48.191101 25.939100 -738.798096 -0.462930 0.115376 -0.878854 0.000000
48.189400 19.025200 -739.522888 0.467762 0.003975 0.883845 0.000000
48.187901 42.134701 -736.465576 -0.160521 0.273830 -0.948288 0.000000
48.185101 34.690300 -737.540405 -0.128170 0.065817 -0.989566 0.000000
48.181198 39.693001 -741.198425 -0.992440 0.115504 0.041492 0.000000
48.181198 24.056101 -739.003479 -0.486236 0.085972 -0.869588 0.000000
48.180302 26.172800 -743.289673 -0.397776 0.112264 0.910588 0.000000
48.179699 21.264900 -740.832825 -0.887077 0.067600 -0.456645 0.000000
48.179298 39.160801 -740.820618 -0.951850 0.254455 0.170983 0.000000
48.179100 20.610300 -739.502625 0.129354 0.960356 -0.246949 0.000000
48.177299 28.275700 -743.761108 -0.024025 0.327494 0.944548 0.000000
48.176800 30.439800 -737.981079 -0.483582 0.106987 -0.868736 0.000000
48.176498 37.220200 -740.356628 -0.774104 0.132746 0.618985 0.000000
48.175800 31.177900 -737.833008 -0.366969 0.131555 -0.920884 0.000000
48.174900 38.140999 -741.876282 -0.874848 0.036735 -0.483003 0.000000
48.173302 22.025600 -739.274170 -0.558591 0.105915 -0.822653 0.000000
48.172798 39.231899 -741.304321 -0.983929 0.176899 0.024280 0.000000
48.172298 40.901199 -736.758118 -0.197468 0.179159 -0.963799 0.000000
48.172001 22.724701 -741.060181 -0.545703 0.394938 0.739075 0.000000
48.171600 25.324400 -742.679199 -0.493802 0.346780 0.797435 0.000000
48.170399 22.805000 -739.150574 -0.567003 0.081821 -0.819642 0.000000
48.170200 26.955200 -738.636230 -0.478585 0.122161 -0.869502 0.000000
48.169701 40.143398 -736.892822 -0.197714 0.136486 -0.970711 0.000000
48.169300 21.965000 -740.781921 -0.931279 0.078606 0.355725 0.000000
48.169102 30.481001 -741.641907 0.025119 0.097201 0.994948 0.000000
48.168598 35.647598 -741.896606 0.611151 0.018016 0.791309 0.000000
48.167900 36.347000 -737.429626 -0.195917 0.108565 -0.974592 0.000000
48.167702 30.017000 -738.027527 -0.389655 0.071459 -0.918184 0.000000
48.166901 19.839701 -739.721680 -0.912770 0.097454 0.396678 0.000000
48.163700 37.919498 -740.514587 -0.722319 0.101507 0.684070 0.000000
48.160599 38.886501 -741.748474 -0.908737 0.069276 -0.411580 0.000000
48.159199 33.918999 -737.506226 -0.170886 0.036037 -0.984631 0.000000
48.156300 35.777599 -740.125610 -0.636623 0.123169 0.761276 0.000000
48.154301 30.777100 -737.911072 -0.458480 0.136538 -0.878154 0.000000
48.153999 36.284401 -740.168884 -0.705922 0.108034 0.700002 0.000000
48.153702 42.939800 -736.209106 -0.405797 0.319392 -0.856340 0.000000
48.151501 37.506901 -740.455322 -0.849682 0.012196 0.527155 0.000000
48.151100 38.055500 -737.278015 -0.140594 0.128368 -0.981710 0.000000
48.148201 38.498699 -737.207275 -0.143632 0.131356 -0.980875 0.000000
48.145599 20.162901 -740.316895 -0.973060 0.083263 0.214993 0.000000
48.144798 23.203899 -741.238220 -0.911545 0.307737 0.272734 0.000000
48.144402 27.337200 -738.543030 -0.430646 0.141641 -0.891337 0.000000
48.143902 27.702700 -738.472290 -0.447719 0.177620 -0.876355 0.000000
48.142899 42.446602 -736.350830 -0.215070 0.323318 -0.921526 0.000000
48.141602 41.335499 -736.633911 -0.142854 0.271022 -0.951914 0.000000
48.140800 34.387501 -739.920776 -0.530809 0.127219 0.837889 0.000000
48.139599 32.548199 -741.780884 0.239960 0.065896 0.968544 0.000000
48.137402 25.674400 -738.782288 -0.455606 0.210625 -0.864905 0.000000
48.136799 31.858601 -739.507874 -0.469435 0.185108 0.863346 0.000000
48.136200 26.691099 -738.645874 -0.432622 0.176253 -0.884179 0.000000
48.135502 38.585098 -742.125000 -0.879525 0.180003 0.440494 0.000000
48.134201 23.430201 -739.072388 -0.510707 0.221052 -0.830852 0.000000
48.132198 39.121899 -741.066772 -0.972770 0.224485 0.057655 0.000000
48.131302 37.589199 -737.339294 -0.141241 0.109854 -0.983861 0.000000
48.130798 35.105801 -740.015198 -0.572985 0.097190 0.813783 0.000000
48.129902 32.525002 -739.683472 0.499974 0.850989 -0.160759 0.000000
48.124298 39.091702 -741.558411 -0.979318 0.159309 -0.124730 0.000000
48.123901 38.484100 -741.708496 -0.898511 0.098906 -0.427663 0.000000
48.122799 26.185101 -738.702576 -0.454252 0.130400 -0.881278 0.000000
48.120602 36.752499 -741.854492 -0.776794 0.018065 -0.629495 0.000000
48.119999 38.926201 -741.281372 -0.993236 0.115237 -0.014267 0.000000
48.118801 24.330799 -738.963928 -0.499401 0.098173 -0.860791 0.000000
48.118698 22.891899 -741.297729 -0.793821 0.347998 0.498744 0.000000
48.117802 20.150200 -740.023376 -0.915496 0.162222 0.368173 0.000000
48.117500 25.088600 -742.588501 -0.483817 0.408882 0.773781 0.000000
48.117401 35.325600 -741.844116 -0.589520 0.061083 -0.805441 0.000000
48.117298 38.886299 -740.719604 -0.983845 0.175811 0.033765 0.000000
48.117100 33.519299 -741.864685 0.354193 0.218299 0.909337 0.000000
48.115501 34.011700 -742.005798 -0.423012 0.027847 -0.905696 0.000000
48.113499 33.885101 -739.874878 -0.427288 0.061041 0.902053 0.000000
48.111801 33.089401 -742.142212 0.731982 0.304054 0.609717 0.000000
48.111500 31.030300 -744.384705 0.602489 0.351043 0.716782 0.000000
48.111500 25.129400 -738.864929 -0.475631 0.137340 -0.868857 0.000000
48.110298 25.771200 -743.170593 0.252895 0.238923 0.937529 0.000000
48.110001 29.169399 -738.151978 -0.437995 0.167340 -0.883265 0.000000
48.109001 35.093498 -741.973389 -0.504067 0.014865 -0.863536 0.000000
48.106400 19.596600 -739.732910 -0.874326 0.199719 0.442341 0.000000
48.106098 23.378099 -741.442505 -0.768819 0.378721 0.515255 0.000000
48.105202 36.290901 -741.807800 0.819039 0.001363 0.573736 0.000000
48.103298 32.959702 -737.601685 -0.273738 0.059289 -0.959975 0.000000
48.101601 41.754601 -736.522827 -0.186734 0.207923 -0.960155 0.000000
48.098801 35.990700 -737.441223 -0.182779 0.041273 -0.982287 0.000000
48.096802 31.466600 -741.659790 0.175480 0.063268 0.982448 0.000000
48.096699 26.463800 -743.175476 -0.061631 0.342251 0.937585 0.000000
48.095299 20.866600 -740.618225 0.984568 0.060280 0.164292 0.000000
48.092999 18.748800 -739.589478 -0.829974 0.127351 0.543070 0.000000
48.092701 20.329901 -739.445129 -0.818855 0.246121 -0.518557 0.000000
48.091801 37.911400 -741.789429 -0.943688 0.066384 -0.324108 0.000000
48.091599 36.895401 -740.397400 -0.746638 0.155991 0.646683 0.000000
48.090599 22.458700 -741.117615 -0.874513 0.177842 0.451219 0.000000
48.090000 37.286598 -741.737427 -0.851185 0.031627 -0.523912 0.000000
48.087399 22.090401 -740.992126 -0.234710 0.455791 0.858584 0.000000
48.084499 39.808300 -736.950989 -0.170145 0.125435 -0.977403 0.000000
48.084000 19.892000 -740.215027 -0.973059 0.034967 0.227891 0.000000
48.082500 33.266499 -739.820007 -0.347836 0.133360 0.928022 0.000000
48.082298 29.941799 -744.187378 0.210697 0.229728 0.950175 0.000000
48.081100 37.183102 -737.347412 -0.154593 0.089880 -0.983881 0.000000
48.080502 20.762199 -740.359924 -0.918903 0.176984 0.352553 0.000000
48.079700 38.708099 -741.026611 -0.984006 0.173923 0.038520 0.000000
48.078602 28.375099 -738.319885 -0.419769 0.188677 -0.887804 0.000000
48.078201 40.605900 -736.765503 -0.221940 0.203109 -0.953671 0.000000
48.075298 37.793598 -742.059875 -0.113502 0.501419 0.857728 0.000000
48.075001 33.316799 -737.537109 -0.233532 0.089626 -0.968210 0.000000
48.074799 26.713900 -743.354614 -0.007854 0.151462 0.988432 0.000000
48.073299 32.054199 -741.747192 0.227117 0.121899 0.966208 0.000000
48.071602 29.025600 -741.548096 -0.028857 0.069470 -0.997167 0.000000
48.069199 19.909300 -739.949707 -0.879744 0.208477 0.427304 0.000000
48.067799 20.521999 -740.455078 -0.993971 0.079742 0.075250 0.000000
48.066299 34.882599 -741.833923 0.573236 0.118752 0.810740 0.000000
48.065399 35.880699 -741.813721 -0.776604 0.012459 -0.629866 0.000000
48.065399 38.396400 -740.724182 -0.981611 0.036531 0.187366 0.000000
48.065399 34.167198 -737.521912 -0.155351 0.019277 -0.987671 0.000000
48.064800 34.471100 -741.907104 0.550553 0.012295 0.834710 0.000000
48.064499 28.921600 -738.178223 -0.430470 0.144443 -0.890972 0.000000
48.064400 27.959801 -738.364929 -0.429039 0.163237 -0.888414 0.000000
48.063202 29.420700 -744.087830 0.140432 0.210004 0.967563 0.000000
48.062801 41.131100 -736.758606 -0.095079 0.155256 -0.983288 0.000000
48.061901 31.559200 -739.531982 -0.412797 0.044085 0.909756 0.000000
48.061100 38.750401 -741.547424 -0.983096 0.085226 -0.162049 0.000000
48.059799 23.684700 -741.970093 -0.992651 0.076009 0.094160 0.000000
48.059502 18.449699 -739.552979 0.536029 0.081044 0.840300 0.000000
48.059399 38.192001 -741.653015 -0.925871 0.067942 -0.371681 0.000000
48.058800 21.517300 -740.827209 -0.931586 0.101113 0.349176 0.000000
48.057400 25.625799 -742.869080 -0.414455 0.327528 0.849089 0.000000
48.056999 29.575300 -738.059570 -0.395455 0.164178 -0.903693 0.000000
48.054699 34.646500 -740.019714 -0.589281 0.075990 0.804347 0.000000
48.053600 32.513100 -742.075073 0.980153 0.093987 0.174548 0.000000
48.053200 43.127399 -736.005615 -0.872397 0.203609 0.444373 0.000000
48.052601 38.282600 -741.080505 -0.979646 0.200567 -0.008115 0.000000
48.052299 30.706301 -741.633484 0.190219 0.024507 0.981436 0.000000
48.052299 34.989101 -737.503601 -0.142921 0.037731 -0.989015 0.000000
48.051498 36.436699 -740.341309 -0.776516 0.107156 0.620919 0.000000
48.049900 37.755699 -740.668213 -0.766062 0.041064 0.641453 0.000000
48.049599 24.878000 -738.843079 -0.468555 0.115359 -0.875870 0.000000
48.049500 32.181599 -739.630127 -0.396472 0.209209 0.893891 0.000000
48.049000 19.214600 -739.667786 -0.922844 0.185134 0.337764 0.000000
48.048801 20.063700 -739.453613 -0.861692 0.051176 -0.504844 0.000000
48.048000 28.748800 -741.485413 0.242709 0.076711 -0.967062 0.000000
48.047501 35.988800 -740.215210 -0.702572 0.130328 0.699576 0.000000
48.047401 38.607601 -741.316711 -0.991385 0.126870 -0.032560 0.000000
48.047401 22.573299 -739.106201 -0.533998 0.081168 -0.841581 0.000000
48.045502 35.471001 -737.483582 -0.176648 0.053350 -0.982827 0.000000
48.044498 39.365898 -737.081787 -0.178491 0.102171 -0.978623 0.000000
48.041698 19.602900 -740.289185 0.966256 0.206221 0.154342 0.000000
48.040600 21.476000 -739.214722 -0.611218 0.049635 -0.789904 0.000000
48.039398 26.003700 -743.026184 -0.340970 0.381084 0.859368 0.000000
48.037899 34.157902 -739.937927 -0.529585 0.099028 0.842457 0.000000
48.036400 31.780100 -737.670288 -0.349140 0.110040 -0.930587 0.000000
48.036301 26.415701 -738.627686 -0.416950 0.110164 -0.902229 0.000000
48.036098 36.533298 -741.754028 -0.828616 0.081574 -0.553842 0.000000
48.035198 25.451900 -743.085205 -0.396639 0.024872 -0.917638 0.000000
48.034801 37.679501 -741.684387 -0.867605 0.080151 -0.490752 0.000000
48.034698 27.143600 -743.469482 -0.034703 0.340608 0.939565 0.000000
48.034302 28.631100 -738.212219 -0.393783 0.157797 -0.905558 0.000000
48.034199 27.644300 -743.627625 0.025934 0.280333 0.959553 0.000000
48.033901 29.310101 -741.525574 0.168342 0.410064 0.896386 0.000000
48.032398 24.502501 -742.338013 -0.541554 0.504668 0.672332 0.000000
48.031601 35.470501 -740.198914 -0.663138 0.139846 0.735317 0.000000
48.031300 23.554800 -741.674316 -0.785466 0.419455 0.455084 0.000000
48.030998 38.914902 -737.146912 -0.105182 0.151123 -0.982903 0.000000
48.025002 23.042400 -741.523682 -0.833282 0.304859 0.461197 0.000000
48.023899 30.908800 -744.180725 -0.846759 0.048664 -0.529746 0.000000
48.023300 32.965801 -739.768616 -0.350874 0.145620 0.925031 0.000000
48.023201 28.466101 -743.835693 0.112818 0.252869 0.960900 0.000000
48.022900 18.201200 -739.512878 -0.497489 0.387296 0.776213 0.000000
48.018902 33.715000 -737.544128 -0.195178 0.019868 -0.980566 0.000000
48.018600 42.626801 -736.189270 -0.449475 0.237601 -0.861115 0.000000
48.017200 33.922501 -741.790771 -0.545010 0.195839 -0.815237 0.000000
48.016899 20.419100 -740.140625 -0.898318 0.221282 0.379550 0.000000
48.015999 38.366001 -741.459778 -0.981044 0.153097 -0.118803 0.000000
48.015301 20.556101 -740.726074 0.305658 0.021209 -0.951905 0.000000
48.014099 23.775499 -742.217773 -0.857113 0.160249 -0.489569 0.000000
48.014000 25.451200 -738.752930 -0.431971 0.102051 -0.896095 0.000000
48.013500 37.487202 -740.698120 0.885644 0.383829 -0.261362 0.000000
48.011501 21.820900 -739.178711 -0.526946 0.066044 -0.847329 0.000000
48.009800 18.885500 -739.975098 -0.994050 0.063735 0.088335 0.000000
48.008301 36.959499 -741.723083 -0.877366 0.045169 -0.477692 0.000000
48.008099 34.495800 -737.532715 0.133389 0.005512 0.991048 0.000000
48.006599 34.265701 -741.773499 0.460986 0.070601 0.884595 0.000000
48.005100 31.427799 -737.768799 -0.326078 0.120419 -0.937642 0.000000
48.004799 19.268499 -740.146912 -0.993586 0.111132 -0.020906 0.000000
48.002102 37.170502 -742.025513 -0.054455 0.142509 -0.988294 0.000000
48.001900 37.917500 -741.024475 -0.999235 0.035944 -0.015404 0.000000
47.999298 29.750000 -741.545227 0.061405 0.005204 0.998099 0.000000
47.997601 19.637600 -739.977173 -0.853887 0.163698 0.494045 0.000000
47.996201 35.504299 -741.690613 0.809857 0.017936 0.586353 0.000000
47.995998 33.577702 -739.916687 -0.444336 0.190430 0.875387 0.000000
47.994801 37.826401 -737.295715 -0.178340 0.120972 -0.976504 0.000000
47.994598 32.756100 -741.749329 -0.414185 0.006492 -0.910169 0.000000
47.992802 33.083099 -741.772217 0.378138 0.175513 0.908959 0.000000
47.992699 38.027802 -741.462524 -0.980768 0.066025 -0.183669 0.000000
47.992699 19.799500 -739.475281 -0.774951 0.314774 -0.548058 0.000000
47.991501 24.593500 -738.868225 -0.395314 0.115127 -0.911303 0.000000
47.989799 21.823999 -741.016174 -0.897861 0.050107 0.437419 0.000000
47.989799 30.240801 -737.891602 -0.465046 0.143425 -0.873591 0.000000
47.987499 35.723900 -737.452087 -0.137205 0.035152 -0.989919 0.000000
47.986599 29.152000 -744.027771 0.124421 0.260630 0.957388 0.000000
47.985802 21.168400 -740.525330 -0.844935 0.190598 0.499757 0.000000
47.985600 37.068600 -740.543274 -0.855834 0.095409 0.508374 0.000000
47.985600 27.123100 -738.504700 -0.416592 0.131332 -0.899557 0.000000
47.985401 34.636501 -741.710815 -0.803287 0.064206 -0.592121 0.000000
47.985199 36.711102 -737.361877 -0.165732 0.070346 -0.983659 0.000000
47.985100 23.059500 -739.021729 -0.499506 0.051196 -0.864796 0.000000
47.984501 28.721500 -743.888123 0.108765 0.234166 0.966093 0.000000
47.984299 31.134300 -741.649414 0.288163 0.109213 0.951333 0.000000
47.982300 28.100000 -743.717712 0.020792 0.270297 0.962552 0.000000
47.981998 32.295101 -741.715698 0.394537 0.003855 0.918872 0.000000
47.981098 32.396198 -737.615173 -0.290088 0.101072 -0.951648 0.000000
47.979301 38.106098 -740.729370 -0.950019 0.242587 0.196509 0.000000
47.978100 30.514500 -744.285522 0.334225 0.077942 0.939265 0.000000
47.977699 40.295200 -736.820007 -0.239831 0.140229 -0.960634 0.000000
47.969398 30.930401 -737.814087 -0.334669 0.132501 -0.932974 0.000000
47.969002 23.333099 -741.788330 -0.891106 0.266290 0.367451 0.000000
47.966900 30.540400 -737.871826 -0.386204 0.141842 -0.911442 0.000000
47.960999 20.217501 -740.647278 -0.476305 0.879230 -0.009339 0.000000
47.960800 37.697498 -741.257202 -0.990034 0.133603 -0.044534 0.000000
47.960701 23.673901 -738.939514 -0.487490 0.071238 -0.870218 0.000000
47.959499 39.591702 -736.954285 -0.179692 0.227610 -0.957029 0.000000
47.958199 19.423500 -739.513916 -0.829462 0.075406 -0.553449 0.000000
47.957699 29.878700 -737.963684 -0.416102 0.165577 -0.894116 0.000000
47.956402 34.882301 -740.076782 -0.668188 0.123518 0.733668 0.000000
47.955502 22.185301 -741.197327 -0.880906 0.256618 0.397683 0.000000
47.954899 37.526199 -740.958618 -0.975980 0.206434 0.069626 0.000000
47.953999 21.028200 -740.765686 0.969423 0.091787 -0.227582 0.000000
47.951199 30.306000 -741.599487 0.161666 0.144121 0.976265 0.000000
47.950901 19.305099 -739.882874 -0.881491 0.167556 0.441474 0.000000
47.950600 35.151199 -741.741577 -0.851548 0.129552 -0.508018 0.000000
47.950298 22.148701 -739.097412 -0.512508 0.132872 -0.848340 0.000000
47.950199 41.971199 -736.442810 -0.205520 0.213579 -0.955063 0.000000
47.950001 37.416901 -741.559692 -0.927338 0.051446 -0.370671 0.000000
47.946800 24.147301 -738.875793 -0.406808 0.077552 -0.910216 0.000000
47.946098 21.015900 -741.229309 -0.932198 0.029737 -0.360726 0.000000
47.945702 36.117500 -740.419617 -0.770767 0.174829 0.612661 0.000000
47.942200 33.318298 -741.841797 0.344740 0.157715 0.925354 0.000000
47.941898 22.644501 -741.412720 -0.860614 0.185797 0.474155 0.000000
47.940601 27.516300 -738.430298 -0.440483 0.219495 -0.870515 0.000000
47.940102 31.670900 -741.681580 0.275518 0.051581 0.959911 0.000000
47.937302 36.134602 -741.655884 -0.855541 0.009461 -0.517649 0.000000
47.936100 21.276501 -740.923096 0.122016 0.990954 0.055877 0.000000
47.936100 20.337200 -739.249207 0.662894 0.209580 0.718782 0.000000
47.935699 27.396601 -743.515381 0.020757 0.267397 0.963363 0.000000
47.933201 31.806801 -741.976013 0.915377 0.071662 0.396168 0.000000
47.932800 29.722500 -744.143921 0.213888 0.211198 0.953754 0.000000
47.932301 31.265499 -739.533325 -0.385247 0.323853 0.864120 0.000000
47.931702 35.244202 -737.464417 -0.219642 0.047326 -0.974432 0.000000
47.931499 37.274300 -740.817688 -0.981329 0.125874 0.145427 0.000000
47.930698 38.134499 -737.182922 -0.171947 0.139315 -0.975205 0.000000
47.930500 36.594898 -740.513489 -0.694172 0.023840 0.719414 0.000000
47.929298 21.344000 -741.212891 0.713858 0.136760 0.686807 0.000000
47.929100 30.140400 -744.223389 0.334427 0.216732 0.917162 0.000000
47.929100 36.702301 -741.599792 -0.849628 0.025995 -0.526742 0.000000
47.928200 18.944300 -739.737122 -0.978337 0.182901 0.096974 0.000000
47.927299 21.580799 -741.041016 0.861914 0.162985 -0.480146 0.000000
47.927101 26.258101 -743.154297 -0.094393 0.270248 0.958152 0.000000
47.925800 36.967999 -737.298584 -0.146427 0.047272 -0.988091 0.000000
47.922199 26.747900 -738.518616 -0.441338 0.222913 -0.869212 0.000000
47.920200 39.139000 -737.080383 -0.140355 0.212465 -0.967036 0.000000
47.919300 37.147499 -741.537476 -0.901442 0.101395 -0.420858 0.000000
47.918701 18.629400 -740.181580 -0.920536 0.099554 0.377761 0.000000
47.918701 29.322701 -738.079102 -0.425668 0.113792 -0.897696 0.000000
47.917999 31.219299 -744.385315 -0.810178 0.342217 -0.475920 0.000000
47.916801 23.359699 -742.203918 0.498395 0.086125 0.862661 0.000000
47.916401 20.077400 -740.201416 -0.865239 0.227219 0.446915 0.000000
47.916302 41.504501 -736.638489 -0.194515 0.081965 -0.977469 0.000000
47.915199 25.296301 -742.795593 -0.420737 0.379457 0.824010 0.000000
47.913601 33.566299 -741.683472 -0.578238 0.020701 -0.815605 0.000000
47.912800 35.868500 -740.395813 -0.831841 0.191731 0.520844 0.000000
47.911900 31.388000 -741.940186 -0.778363 0.566800 0.269980 0.000000
47.911900 34.743801 -737.457581 -0.155946 0.057454 -0.986093 0.000000
47.910702 37.448700 -741.221985 -0.980411 0.196547 -0.012793 0.000000
47.909401 28.408199 -741.504700 -0.176525 0.351638 0.919342 0.000000
47.907902 32.150101 -737.622314 -0.296578 0.130172 -0.946096 0.000000
47.905800 31.960400 -739.689514 -0.620586 0.155524 0.768560 0.000000
47.904999 24.643801 -742.521118 -0.265122 0.649312 0.712814 0.000000
47.903599 25.893801 -738.647522 -0.445689 0.096403 -0.889982 0.000000
47.903099 42.272800 -736.310425 -0.380679 0.298780 -0.875108 0.000000
47.901600 40.024200 -736.922729 -0.201192 0.230898 -0.951949 0.000000
47.901001 35.771500 -741.630493 0.865392 0.014851 0.500875 0.000000
47.900799 27.766800 -738.343872 -0.388002 0.120990 -0.913682 0.000000
47.900398 37.503899 -737.265625 -0.139722 0.099119 -0.985217 0.000000
47.900002 35.202099 -740.219177 -0.724161 0.117472 0.679552 0.000000
47.898399 36.283298 -737.424683 -0.145899 0.084218 -0.985708 0.000000
47.897499 26.538000 -743.307190 0.018471 0.281985 0.959241 0.000000
47.897301 32.637501 -737.568176 -0.246770 0.112403 -0.962533 0.000000
47.896500 37.007999 -740.781799 -0.938417 0.265537 0.221049 0.000000
47.895699 18.654301 -739.783386 -0.958801 0.206122 0.195484 0.000000
47.895100 38.696499 -737.092712 -0.149362 0.047472 -0.987642 0.000000
47.894798 20.607800 -741.118286 -0.989384 0.037658 0.140362 0.000000
47.893200 36.419800 -741.546570 -0.880570 0.039469 -0.472269 0.000000
47.892200 22.764299 -738.979187 -0.493365 0.119386 -0.861590 0.000000
47.891602 33.932499 -737.496582 0.183394 0.001139 0.983039 0.000000
47.891102 25.091700 -738.745972 -0.452020 0.105612 -0.885734 0.000000
47.890701 23.051100 -742.092590 0.945909 0.247771 0.209442 0.000000
47.887402 33.100498 -737.530273 -0.226578 0.086375 -0.970155 0.000000
47.887299 26.882601 -743.393982 -0.025583 0.257048 0.966060 0.000000
47.885601 20.067699 -739.259888 -0.666394 0.110819 -0.737318 0.000000
47.885101 32.644100 -739.814087 0.499974 0.850989 -0.160759 0.000000
47.884701 24.942400 -742.655579 -0.423150 0.293897 0.857070 0.000000
47.883900 31.163401 -737.753113 -0.350501 0.127830 -0.927798 0.000000
47.882900 40.941502 -736.664673 -0.132977 0.160318 -0.978067 0.000000
47.880798 30.665600 -744.084290 -0.705719 0.522199 -0.478821 0.000000
47.880100 34.333401 -740.096680 -0.626866 0.158605 0.762813 0.000000
47.877399 37.164799 -741.056824 -0.989039 0.097148 0.111194 0.000000
47.876701 19.667299 -740.599915 0.958536 0.162621 0.234015 0.000000
47.876400 34.901501 -741.607178 -0.869412 0.036851 -0.492712 0.000000
47.874401 30.873899 -741.580505 0.366299 0.011487 0.930426 0.000000
47.872200 33.497002 -737.478882 -0.139297 0.051805 -0.988895 0.000000
47.868900 24.048901 -742.244873 -0.086032 0.750960 0.654720 0.000000
47.865299 28.197201 -738.259827 -0.391075 0.183271 -0.901927 0.000000
47.862202 33.832401 -740.037720 -0.579854 0.187197 0.792923 0.000000
47.862000 23.393801 -738.895630 -0.476527 0.115912 -0.871485 0.000000
47.861000 32.929401 -741.621521 0.536272 0.099203 0.838195 0.000000
47.858700 35.327099 -741.527100 -0.853901 0.051373 -0.517894 0.000000
47.857700 19.087000 -739.479614 -0.823836 0.102799 -0.557429 0.000000
47.855598 36.899300 -741.455383 -0.926052 0.090577 -0.366365 0.000000
47.855499 34.043800 -741.600403 -0.881541 0.009307 -0.472016 0.000000
47.854801 17.925600 -739.559204 -0.930131 0.124291 -0.345555 0.000000
47.853802 32.268398 -739.779785 -0.503727 0.110504 0.856766 0.000000
47.853199 20.302500 -740.421509 -0.852746 0.225682 0.471055 0.000000
47.853199 31.598900 -737.661621 -0.292993 0.177447 -0.939504 0.000000
47.853001 20.814400 -740.917114 -0.920795 0.022141 -0.389417 0.000000
47.851501 22.812799 -741.660583 -0.962722 0.246158 0.112124 0.000000
47.849602 18.341900 -739.704224 -0.981569 0.147908 0.121015 0.000000
47.847500 37.250702 -737.269897 -0.146241 0.084416 -0.985641 0.000000
47.846699 20.729000 -740.588501 -0.834622 0.152693 0.529236 0.000000
47.846401 31.083599 -741.880798 0.360132 0.282427 0.889123 0.000000
47.845699 19.418301 -740.578918 -0.769349 0.018086 -0.638573 0.000000
47.843899 33.381302 -739.952026 -0.591640 0.177948 0.786318 0.000000
47.842999 22.448900 -741.259521 -0.825585 0.282478 0.488484 0.000000
47.842602 35.539398 -740.417786 -0.823673 0.143440 0.548623 0.000000
47.841000 19.792500 -740.184387 -0.862943 0.201204 0.463515 0.000000
47.840801 18.955500 -740.396912 -0.994895 0.065585 0.076701 0.000000
47.840302 25.036600 -742.960083 0.407276 0.118964 0.905524 0.000000
47.839699 31.917900 -741.600220 0.465672 0.009287 0.884909 0.000000
47.837700 25.741100 -742.994995 -0.187607 0.146767 0.971217 0.000000
47.837200 36.900902 -741.034912 -0.974325 0.213095 0.072674 0.000000
47.836300 40.497898 -736.739685 -0.254337 0.173595 -0.951408 0.000000
47.835499 17.965799 -740.101379 -0.427024 0.679583 0.596504 0.000000
47.834499 34.345699 -741.542114 -0.893046 0.070178 -0.444459 0.000000
47.832699 36.322701 -741.816284 -0.924722 0.022048 -0.380005 0.000000
47.832401 19.470400 -740.091370 -0.902140 0.164415 0.398886 0.000000
47.831001 42.433201 -736.093994 -0.346805 0.101208 -0.932461 0.000000
47.829399 41.743900 -736.577087 -0.168630 0.178928 -0.969303 0.000000
47.829102 31.668800 -739.677002 -0.513536 0.231475 0.826257 0.000000
47.828899 29.997400 -741.560425 -0.194089 0.079345 -0.977770 0.000000
47.827000 22.716299 -741.924622 -0.981806 0.176222 -0.070728 0.000000
47.824501 26.135201 -738.555420 -0.482386 0.106723 -0.869433 0.000000
47.824100 17.686001 -739.921875 -0.705005 0.077042 -0.705005 0.000000
47.822899 19.898899 -740.466675 -0.905123 0.060883 0.420767 0.000000
47.822701 21.438601 -739.093628 -0.475390 0.025588 -0.879403 0.000000
47.822102 18.059401 -739.841919 -0.940078 0.066867 0.334337 0.000000
47.821098 23.873600 -738.823425 -0.479801 0.045109 -0.876217 0.000000
47.819500 38.402199 -737.169617 -0.139254 0.144183 -0.979704 0.000000
47.819000 32.585300 -741.623596 0.564081 0.046190 0.824426 0.000000
47.818199 29.340799 -744.028687 0.269725 0.172136 0.947427 0.000000
47.817902 23.063601 -741.674072 -0.880819 0.189692 0.433792 0.000000
47.817501 25.614100 -738.642700 -0.417731 0.197873 -0.886762 0.000000
47.815899 28.883301 -738.108398 -0.387783 0.160511 -0.907668 0.000000
47.815899 35.911201 -737.451172 -0.130395 0.083406 -0.987948 0.000000
47.815800 19.071600 -740.005371 -0.914427 0.205280 0.348832 0.000000
47.815701 22.326700 -741.745605 -0.785920 0.129253 -0.604668 0.000000
47.813400 42.522202 -736.347229 -0.385536 0.439927 -0.811065 0.000000
47.812000 34.264400 -737.515686 -0.111859 0.007602 -0.993695 0.000000
47.810101 33.063999 -739.910522 0.499974 0.850989 -0.160759 0.000000
47.810001 33.181198 -741.610718 0.401473 0.161447 0.901529 0.000000
47.808701 28.296801 -743.755310 0.143157 0.240347 0.960073 0.000000
47.807301 19.573999 -739.273621 -0.694805 0.098418 -0.712432 0.000000
47.806301 36.479401 -740.874817 -0.992982 0.117402 -0.014264 0.000000
47.806198 27.789200 -743.622314 0.103126 0.195070 0.975352 0.000000
47.805401 37.320400 -740.598816 -0.983386 0.122167 0.134263 0.000000
47.805199 24.823700 -738.744690 -0.416591 0.098266 -0.903768 0.000000
47.804600 23.490499 -741.958923 -0.443192 0.469359 0.763730 0.000000
47.802601 18.323400 -739.960327 -0.980864 0.175804 0.083658 0.000000
47.801701 36.199600 -741.393372 -0.908734 0.077658 -0.410088 0.000000
47.801201 39.352299 -736.958496 -0.196697 0.092782 -0.976064 0.000000
47.800098 18.741699 -739.456177 0.788022 0.026500 0.615076 0.000000
47.799400 34.594799 -741.488770 0.888043 0.050473 0.456981 0.000000
47.798100 28.878599 -741.487183 0.200117 0.003470 0.979766 0.000000
47.798100 36.599300 -741.399780 -0.925655 0.062419 -0.373184 0.000000
47.797001 31.298100 -741.583008 0.441244 0.154797 0.883935 0.000000
47.796501 30.687599 -741.859802 0.948308 0.285700 -0.138155 0.000000
47.795502 35.928101 -741.452881 -0.882997 0.036622 -0.467948 0.000000
47.795399 29.542900 -737.970276 -0.412646 0.137549 -0.900447 0.000000
47.794701 32.860401 -737.506714 -0.166039 0.019467 -0.985927 0.000000
47.792198 20.486200 -740.886719 -0.897714 0.280443 -0.339796 0.000000
47.791100 28.474800 -738.179016 -0.392416 0.202772 -0.897159 0.000000
47.790798 25.493999 -742.911377 -0.204994 0.213033 0.955298 0.000000
47.790001 26.535601 -738.537109 -0.468404 0.165924 -0.867795 0.000000
47.786098 29.379299 -741.502319 0.220952 0.501332 0.836569 0.000000
47.784401 30.572500 -741.567200 -0.382221 0.022026 -0.923808 0.000000
47.783901 17.547001 -739.549988 0.934701 0.003794 -0.355414 0.000000
47.783298 39.801102 -736.890015 -0.219244 0.184696 -0.958029 0.000000
47.782398 16.813801 -739.446106 -0.555487 0.609516 0.565618 0.000000
47.782299 35.446499 -737.432617 -0.161053 0.098085 -0.982060 0.000000
47.781799 22.395800 -741.503296 -0.973874 0.226565 -0.015421 0.000000
47.778702 20.161100 -741.064209 -0.964910 0.144152 -0.219475 0.000000
47.778198 34.758999 -740.280212 -0.757143 0.146010 0.636723 0.000000
47.776798 30.430099 -744.127991 -0.295146 0.156414 -0.942562 0.000000
47.776299 22.072599 -741.347717 -0.970293 0.055481 0.235484 0.000000
47.775600 35.021198 -737.461914 -0.167870 0.088162 -0.981859 0.000000
47.774899 28.891899 -743.933289 0.165396 0.228907 0.959294 0.000000
47.769100 36.786999 -740.815918 -0.955088 0.291232 -0.054685 0.000000
47.768398 29.944000 -744.125977 0.377946 0.108574 0.919439 0.000000
47.768299 30.356001 -737.817505 -0.328343 0.094382 -0.939831 0.000000
47.766300 36.077301 -740.615479 0.811124 0.020727 -0.584507 0.000000
47.765999 36.573299 -741.140076 -0.985505 0.144191 -0.089375 0.000000
47.765701 21.916599 -741.108215 -0.788276 0.184490 0.587014 0.000000
47.764702 37.821800 -737.196594 -0.242292 0.120498 -0.962691 0.000000
47.764599 35.236000 -740.459290 -0.857114 0.176160 0.484070 0.000000
47.764099 18.814501 -739.972473 -0.943802 0.044943 0.327441 0.000000
47.761799 35.007198 -740.339783 -0.796484 0.177502 0.578020 0.000000
47.761398 19.268900 -739.289917 -0.733618 0.143108 -0.664323 0.000000
47.760700 35.545399 -741.387085 -0.884543 0.025503 -0.465761 0.000000
47.759800 28.537100 -743.820374 0.145177 0.234115 0.961308 0.000000
47.759800 21.951401 -741.693420 0.627411 0.427705 0.650710 0.000000
47.758499 30.697100 -737.731018 -0.366962 0.140925 -0.919499 0.000000
47.758099 35.721199 -740.568176 -0.807867 0.153808 0.568941 0.000000
47.758099 31.921301 -737.611389 -0.251006 0.076942 -0.964923 0.000000
47.757801 24.546400 -738.760376 -0.449158 0.093749 -0.888520 0.000000
47.757702 30.047300 -737.850586 -0.337594 0.144683 -0.930106 0.000000
47.757401 27.097401 -738.391174 -0.406123 0.103956 -0.907886 0.000000
47.757000 36.588100 -737.334412 -0.150802 0.102546 -0.983231 0.000000
47.756401 20.233500 -740.818176 -0.969300 0.231980 -0.081506 0.000000
47.756100 41.333099 -736.533081 -0.201087 0.139608 -0.969574 0.000000
47.754799 23.014099 -738.911194 -0.395823 0.041039 -0.917409 0.000000
47.754398 35.394699 -741.766602 -0.995848 0.007472 0.090726 0.000000
47.751099 22.520100 -738.949829 -0.434482 0.072642 -0.897746 0.000000
47.747501 29.115000 -738.033325 -0.398607 0.200034 -0.895041 0.000000
47.747299 36.235802 -740.990417 -0.997360 0.070862 -0.015865 0.000000
47.747002 33.788502 -741.513306 -0.850675 0.080680 -0.519464 0.000000
47.746700 18.484800 -740.362488 -0.899850 0.315763 0.300938 0.000000
47.742901 21.955200 -739.027588 -0.498395 0.086125 -0.862661 0.000000
47.742401 42.079601 -736.166870 -0.948421 0.303023 0.093137 0.000000
47.741199 34.509998 -737.460815 -0.118924 0.027786 -0.992514 0.000000
47.740799 32.311600 -741.567627 0.639215 0.029502 0.768462 0.000000
47.738602 35.098202 -741.443481 -0.912075 0.060625 -0.405516 0.000000
47.737999 38.956100 -737.055176 -0.180034 0.177444 -0.967523 0.000000
47.737301 34.047798 -740.175598 -0.710013 0.130045 0.692076 0.000000
47.736698 18.480700 -739.482422 -0.867134 0.131296 -0.480458 0.000000
47.736000 28.204300 -741.448486 -0.458561 0.155765 -0.874905 0.000000
47.730598 29.675699 -741.479126 0.044316 0.903778 -0.425702 0.000000
47.730400 26.080400 -743.187805 -0.060002 0.294901 0.953642 0.000000
47.730202 24.263800 -738.765198 -0.389262 0.721039 -0.573217 0.000000
47.728500 23.627399 -738.830627 -0.423212 0.022413 -0.905753 0.000000
47.726700 27.437500 -738.318176 -0.420448 0.181855 -0.888905 0.000000
47.726002 19.808500 -739.150208 -0.596423 0.119285 -0.793758 0.000000
47.725601 21.433599 -740.950317 -0.451189 0.331711 0.828490 0.000000
47.725601 30.945400 -737.690125 -0.356370 0.116059 -0.927109 0.000000
47.725201 28.013100 -743.702515 0.136325 0.266032 0.954276 0.000000
47.724098 40.212101 -736.765076 -0.244540 0.103706 -0.964077 0.000000
47.723999 23.251499 -741.894287 -0.904368 0.011813 0.426589 0.000000
47.723598 33.743301 -737.464722 -0.133234 0.021273 -0.990856 0.000000
47.723400 18.230200 -739.489685 0.847639 0.083770 0.523918 0.000000
47.722500 20.436701 -740.637878 -0.801461 0.177261 0.571173 0.000000
47.720901 33.529999 -741.468079 -0.879500 0.115088 -0.461773 0.000000
47.718498 42.141499 -736.439575 -0.291249 0.202063 0.935064 0.000000
47.716301 36.837399 -737.340881 -0.186726 0.048763 -0.981201 0.000000
47.715500 34.247898 -741.775024 -0.936352 0.111823 -0.332776 0.000000
47.715302 18.745899 -740.461975 0.514599 0.218361 -0.829160 0.000000
47.715199 34.649799 -741.767273 0.942896 0.182540 0.278614 0.000000
47.714001 34.840000 -741.355774 -0.909507 0.133133 -0.393793 0.000000
47.713699 19.258900 -740.270813 -0.927117 0.093117 0.363020 0.000000
47.712799 24.621201 -742.859314 -0.313825 0.028988 -0.949038 0.000000
47.712601 19.919500 -741.103394 -0.795656 0.380951 -0.470964 0.000000
47.710098 35.888100 -740.922424 -0.989374 0.136743 -0.049411 0.000000
47.709702 29.603500 -744.043823 0.316093 0.179630 0.931568 0.000000
47.709202 31.372200 -739.663879 -0.544642 0.179536 0.819226 0.000000
47.708500 19.540600 -740.357727 -0.877353 0.196114 0.437939 0.000000
47.708000 25.237200 -738.630310 -0.390243 0.108937 -0.914244 0.000000
47.704399 18.149500 -740.316895 -0.114676 0.887676 -0.445961 0.000000
47.703499 17.217699 -739.536072 0.935055 0.225703 -0.273367 0.000000
47.703499 33.282200 -737.497009 -0.166785 0.007942 -0.985961 0.000000
47.703300 35.013100 -741.749084 0.993137 0.084932 0.080402 0.000000
47.702900 35.438202 -740.641785 -0.918880 0.173613 0.354284 0.000000
47.701698 19.156000 -740.645630 0.339747 0.077996 -0.937277 0.000000
47.701500 21.077600 -740.880615 -0.468998 0.192066 0.862063 0.000000
47.700699 35.843102 -741.192627 -0.971045 0.078531 -0.225621 0.000000
47.700600 33.791302 -741.780518 0.928069 0.098904 0.359034 0.000000
47.700500 31.529800 -741.530518 0.543688 0.006779 0.839260 0.000000
47.699501 31.016600 -741.453796 0.504511 0.034181 0.862728 0.000000
47.699200 23.669399 -742.180420 -0.130083 0.656395 0.743117 0.000000
47.697300 18.573000 -739.993286 -0.909238 0.288438 0.300151 0.000000
47.695099 36.414299 -740.504578 0.649272 0.182656 -0.738297 0.000000
47.694801 32.727402 -739.965027 0.499974 0.850989 -0.160759 0.000000
47.694401 30.952600 -739.565491 -0.573920 0.284575 0.767876 0.000000
47.693802 17.847300 -739.739685 -0.902766 0.152120 0.402335 0.000000
47.693501 31.856300 -739.815491 -0.597343 0.164836 0.784863 0.000000
47.690701 27.342501 -743.496826 0.050955 0.254774 0.965657 0.000000
47.690201 27.912701 -738.225586 -0.391075 0.183271 -0.901927 0.000000
47.689301 26.857000 -738.399719 -0.381152 0.096996 -0.919410 0.000000
47.688900 30.245701 -741.814026 -0.915133 0.366336 -0.168316 0.000000
47.688099 41.098598 -736.673279 -0.258622 0.096501 -0.961146 0.000000
47.687199 19.750999 -740.769470 -0.994497 0.016339 -0.103480 0.000000
47.686699 34.210999 -741.387329 -0.868424 0.053845 -0.492889 0.000000
47.686298 29.595600 -741.775879 0.006924 0.006924 0.999952 0.000000
47.685299 26.687000 -743.300476 0.089076 0.227080 0.969794 0.000000
47.685299 28.669399 -738.055725 -0.379168 0.166152 -0.910288 0.000000
47.684898 28.584299 -741.465576 0.326711 0.008762 0.945084 0.000000
47.684700 34.406601 -740.315613 -0.805463 0.131534 0.577865 0.000000
47.683998 18.903700 -739.288086 -0.709640 0.149796 -0.688457 0.000000
47.683300 29.119301 -741.474670 0.133032 0.063624 0.989067 0.000000
47.682899 33.042702 -741.796326 0.169477 0.421520 0.890841 0.000000
47.682598 19.988100 -740.860107 -0.969676 0.068287 -0.234659 0.000000
47.680698 20.148100 -739.124329 -0.502647 0.107403 -0.857794 0.000000
47.680199 31.329100 -737.648193 -0.310947 0.063221 -0.948322 0.000000
47.679401 26.420700 -743.266602 0.048784 0.268938 0.961921 0.000000
47.674000 20.691900 -740.781982 -0.493293 0.180327 0.850967 0.000000
47.673599 27.090799 -743.451111 0.065344 0.290845 0.954536 0.000000
47.673599 35.159100 -741.155518 -0.953865 0.076154 -0.290419 0.000000
47.673500 30.353399 -741.498108 0.443446 0.096523 0.891089 0.000000
47.673100 24.477800 -742.548401 0.239205 0.899586 -0.365411 0.000000
47.671200 38.094101 -737.177979 -0.175682 0.101969 -0.979152 0.000000
47.667900 26.685101 -741.634094 0.945428 0.175989 -0.274215 0.000000
47.667500 24.186399 -742.436829 -0.417104 0.385385 0.823106 0.000000
47.667301 21.779200 -741.484924 -0.987833 0.132729 -0.081047 0.000000
47.667099 30.754200 -741.439392 -0.539458 0.078285 -0.838366 0.000000
47.666199 17.309200 -739.987305 0.985683 0.160188 0.052617 0.000000
47.666000 25.152399 -742.819885 -0.171956 0.211336 0.962168 0.000000
47.665798 32.752701 -741.483521 -0.783573 0.088679 -0.614938 0.000000
47.663700 36.351398 -737.328308 -0.146665 0.110302 -0.983017 0.000000
47.662998 41.826698 -736.390930 -0.323896 0.413781 -0.850809 0.000000
47.662102 32.358601 -737.564209 -0.166063 0.075266 -0.983239 0.000000
47.661999 34.036900 -737.441589 0.120688 0.001087 0.992690 0.000000
47.661098 17.010300 -740.082886 0.994694 0.031874 -0.097821 0.000000
47.658199 20.077499 -740.606995 -0.783865 0.200952 0.587515 0.000000
47.655998 38.619900 -737.134277 -0.120519 0.065425 -0.990553 0.000000
47.653801 35.553600 -740.928284 -0.992897 0.114522 -0.032244 0.000000
47.653301 21.394800 -741.310791 0.975005 0.218141 0.042182 0.000000
47.652802 32.358898 -739.927124 0.501232 0.850172 -0.161163 0.000000
47.650799 34.521301 -741.219116 0.909253 0.009132 0.416143 0.000000
47.649899 17.517900 -740.183228 -0.773357 0.627715 0.088841 0.000000
47.649502 33.735298 -740.155212 0.666464 0.663205 -0.340565 0.000000
47.647999 35.027100 -740.588379 -0.956630 0.132902 0.259224 0.000000
47.647099 37.417500 -737.224976 -0.195544 0.103377 -0.975231 0.000000
47.646900 32.081100 -741.487793 -0.643272 0.012504 -0.765536 0.000000
47.644600 33.973202 -741.294128 -0.878142 0.062231 -0.474335 0.000000
47.643600 29.760099 -737.830994 -0.364851 0.190295 -0.911412 0.000000
47.642799 26.336300 -738.451111 -0.451719 0.039104 -0.891303 0.000000
47.642502 30.150600 -744.021729 0.653626 0.319514 0.686064 0.000000
47.642101 40.667900 -736.627686 -0.234698 0.065815 -0.969838 0.000000
47.641602 27.806801 -741.541626 -0.890239 0.061727 0.451292 0.000000
47.636101 35.455399 -741.167603 -0.959450 0.056735 -0.276110 0.000000
47.632702 22.265600 -738.907776 -0.439755 0.078577 -0.894674 0.000000
47.632500 18.983101 -740.207886 -0.909164 0.127479 0.396446 0.000000
47.631401 34.780602 -737.439819 -0.106156 0.043580 -0.993394 0.000000
47.629200 22.917299 -741.828430 -0.398108 0.336146 0.853531 0.000000
47.628601 28.150900 -738.153870 -0.413518 0.168577 -0.894754 0.000000
47.624901 17.777599 -739.479126 -0.736423 0.413517 -0.535430 0.000000
47.624500 20.790199 -738.971191 -0.535023 0.087030 -0.840343 0.000000
47.622200 23.436300 -742.121582 -0.493336 0.450437 0.744128 0.000000
47.621799 35.247700 -740.842407 -0.993621 0.112341 -0.009816 0.000000
47.620899 37.090401 -737.269226 -0.162432 0.085427 -0.983015 0.000000
47.620800 21.302299 -738.973328 0.469710 0.076659 0.879486 0.000000
47.620399 33.472198 -740.163391 0.526971 0.830241 -0.181662 0.000000
47.617001 33.158100 -741.402893 0.898214 0.180800 0.400653 0.000000
47.616798 23.338301 -738.797424 -0.387058 0.132745 -0.912450 0.000000
47.615898 35.686401 -737.416199 -0.111127 0.023106 -0.993538 0.000000
47.613701 35.252201 -737.403076 -0.072048 0.033336 -0.996844 0.000000
47.611500 19.105600 -739.146484 -0.652022 0.113845 -0.749604 0.000000
47.609100 16.616501 -739.475098 0.828861 0.348911 0.437323 0.000000
47.607700 41.612000 -736.567078 -0.223209 0.081053 -0.971395 0.000000
47.606800 32.650002 -737.497009 -0.147713 0.016914 -0.988886 0.000000
47.606701 33.029400 -737.501221 -0.121550 0.097948 -0.987741 0.000000
47.606300 27.056499 -741.522827 0.968405 0.243647 -0.053182 0.000000
47.605900 25.818701 -743.123230 -0.043251 0.258267 0.965105 0.000000
47.605598 17.550301 -739.927795 -0.953713 0.205808 0.219260 0.000000
47.601898 29.292900 -737.918579 -0.375135 0.159963 -0.913064 0.000000
47.599701 34.591099 -740.520508 0.922424 0.003849 -0.386161 0.000000
47.599300 40.017300 -736.877075 -0.231898 0.168292 -0.958071 0.000000
47.598999 32.482899 -741.444519 0.747630 0.020962 0.663784 0.000000
47.598000 19.383801 -739.130127 -0.587557 0.064020 -0.806646 0.000000
47.597099 31.793600 -741.531616 -0.666536 0.123764 -0.735128 0.000000
47.595798 31.682199 -737.602600 -0.222247 0.107948 -0.968996 0.000000
47.594398 33.150002 -740.125427 0.499974 0.850989 -0.160759 0.000000
47.594002 25.768299 -738.549927 -0.416745 0.128555 -0.899887 0.000000
47.590000 21.756701 -738.924072 -0.460409 0.033754 -0.887065 0.000000
47.589802 29.188801 -743.919128 0.361422 0.189996 0.912839 0.000000
47.589298 28.702499 -741.717529 0.215631 0.160743 -0.963153 0.000000
47.588600 22.636299 -741.645996 0.942282 0.228306 -0.244910 0.000000
47.588600 31.283400 -741.422424 0.614145 0.035134 0.788411 0.000000
47.587399 32.100201 -739.942078 -0.659545 0.219848 0.718795 0.000000
47.586399 15.994300 -739.454529 0.424162 0.734444 -0.529790 0.000000
47.584999 28.735300 -743.835388 0.238314 0.205631 0.949169 0.000000
