ply
format ascii 1.0
element vertex 687
property float x
property float y
property float z
property float nx
property float ny
property float nz
property float label
element face 0
property list uchar int vertex_indices
end_header
24.941500 80.987099 -748.536316 0.640053 0.758856 0.120288 1.000000
24.937901 193.315308 -757.852295 0.867997 0.387307 -0.310764 0.000000
24.932400 189.707108 -760.359009 0.570532 0.573918 -0.587462 0.000000
24.902000 188.655899 -767.336609 -0.683293 0.613805 -0.395416 0.000000
24.895700 189.865799 -770.936523 -0.682454 0.602751 -0.413458 0.000000
24.883400 186.257996 -764.814575 -0.764261 0.486051 -0.423862 0.000000
24.788601 187.667206 -765.702271 -0.619808 0.701577 -0.351606 0.000000
24.767500 189.256897 -767.995422 -0.480478 0.802926 -0.352776 0.000000
24.761700 188.857803 -761.577576 0.699872 0.529497 -0.479387 0.000000
24.751699 82.692101 -746.115112 0.755350 0.615182 -0.225826 1.000000
24.731400 82.739098 -744.415527 0.515493 0.844469 0.145395 1.000000
24.718000 189.936295 -772.613586 -0.124708 0.872953 -0.471595 0.000000
24.707399 191.305695 -759.434875 -0.268157 0.801335 -0.534746 0.000000
24.698500 192.502808 -758.690125 0.776735 0.394043 -0.491338 0.000000
24.669800 189.954407 -770.018799 0.929243 0.367798 0.035090 0.000000
24.669800 194.818100 -756.408875 0.784202 0.539238 0.307000 0.000000
24.597099 190.323700 -771.753601 0.784598 0.576407 -0.228388 0.000000
24.596399 186.973007 -763.995178 0.719401 0.293208 -0.629676 0.000000
24.596300 81.474098 -749.325928 0.634605 0.769872 -0.067634 1.000000
24.563400 188.475800 -766.090027 0.528165 0.835891 0.149425 0.000000
24.545500 190.769608 -760.178101 -0.121600 0.876951 -0.464941 0.000000
24.531000 81.252602 -750.807190 0.625556 0.772745 -0.107448 1.000000
24.529499 81.624496 -747.661194 0.773905 0.342706 -0.532563 1.000000
24.526600 188.497299 -762.806519 -0.998586 0.052666 0.007229 0.000000
24.520500 190.075104 -768.755188 0.388922 0.898746 -0.202473 0.000000
24.515800 83.163597 -745.208984 0.838029 0.542254 0.060563 1.000000
24.494400 194.246201 -757.276672 0.826344 0.407621 -0.388588 0.000000
24.493500 187.181793 -764.961914 0.632783 0.682091 0.366521 0.000000
24.460199 190.686798 -770.904724 0.836002 0.547630 0.034660 0.000000
24.448799 188.054596 -763.684204 0.895616 0.246405 -0.370345 0.000000
24.427099 189.404205 -767.132813 0.439014 0.898043 -0.028022 0.000000
24.411501 189.987701 -761.108582 0.986508 0.127023 -0.103281 0.000000
24.379999 190.608902 -773.279419 -0.531882 0.821445 -0.205742 0.000000
24.378201 193.526199 -758.658508 -0.999884 0.014924 -0.002985 0.000000
24.368601 82.600700 -746.947571 0.686540 0.476068 -0.549566 1.000000
24.360201 82.832802 -743.596802 0.798491 0.557554 0.227037 1.000000
24.355101 81.177101 -752.252197 0.431157 0.881444 -0.192770 1.000000
24.352400 190.729401 -769.573120 -0.668391 0.638684 -0.381230 0.000000
24.309900 192.221603 -759.569702 0.795164 0.477098 -0.374289 0.000000
24.246901 190.309494 -767.867920 -0.723964 0.569650 -0.389069 0.000000
24.209801 191.025299 -772.278503 0.658880 0.687877 -0.304470 0.000000
24.166901 189.608093 -762.398926 -0.541751 0.773241 -0.329552 0.000000
24.130501 191.359497 -770.324890 0.862990 0.501674 0.059756 0.000000
24.121700 191.451797 -771.410828 0.917053 0.397170 -0.035627 0.000000
24.113701 83.379799 -746.095520 0.698176 0.672960 -0.244283 1.000000
24.112900 191.582993 -760.266113 0.786037 0.369615 -0.495510 0.000000
24.101299 189.059402 -763.464783 0.859679 0.393570 -0.325660 0.000000
24.095501 81.820000 -750.030396 0.650739 0.741752 -0.162306 1.000000
24.094299 190.986603 -768.679321 -0.958544 0.033655 -0.282951 0.000000
24.094200 189.560394 -766.268921 -0.711691 0.586775 -0.386253 0.000000
24.091600 187.995605 -764.967896 -0.686417 0.623866 -0.373661 0.000000
24.082600 81.975403 -748.761414 0.773209 0.633892 0.018111 1.000000
24.082600 83.379601 -744.330383 0.813964 0.510876 0.276529 1.000000
24.065399 195.093506 -757.031494 0.951546 0.264393 -0.157025 0.000000
24.017700 81.591499 -751.520630 0.477406 0.858142 -0.188880 1.000000
24.015900 190.958603 -760.932983 0.836807 0.412908 -0.359529 0.000000
23.993200 195.301300 -755.882813 0.549932 0.733790 0.398906 0.000000
23.981899 190.368698 -761.858398 0.920617 0.341863 -0.188663 0.000000
23.973301 194.354401 -758.091125 0.347413 0.761078 -0.547782 0.000000
23.956699 193.102295 -759.421875 0.790337 0.441231 -0.425069 0.000000
23.946800 188.765198 -765.416321 -0.683258 0.627281 -0.373734 0.000000
23.901100 191.410995 -773.469177 0.829301 0.257902 0.495728 0.000000
23.889099 83.876801 -745.098328 0.854781 0.513995 0.071819 1.000000
23.886999 190.236496 -766.961121 0.941498 0.066597 0.330373 0.000000
23.876699 191.621597 -769.428589 0.837741 0.523403 0.155686 0.000000
23.865601 82.238098 -747.795471 0.902659 0.373564 -0.213673 1.000000
23.808800 188.486496 -764.246887 0.739819 0.216494 -0.637023 0.000000
23.784401 189.894699 -763.237915 -0.998373 0.049445 0.028405 0.000000
23.771400 191.156799 -767.811707 0.632430 0.765729 0.117007 0.000000
23.758900 192.188293 -770.900330 -0.688412 0.625979 -0.366387 0.000000
23.741800 83.310097 -746.948120 0.680390 0.573400 -0.456379 1.000000
23.719200 191.894104 -772.718018 0.843894 0.518077 -0.139426 0.000000
23.712700 83.289597 -743.106873 0.551897 0.639660 0.535019 1.000000
23.663700 192.619507 -760.189026 0.745022 0.416094 -0.521351 0.000000
23.663000 192.363297 -771.839417 0.025784 0.869869 -0.492609 0.000000
23.630400 190.610001 -762.653198 0.808214 0.484294 -0.335036 0.000000
23.628099 195.932999 -756.602478 0.443255 0.885075 -0.142014 0.000000
23.626400 191.886200 -768.534424 0.892288 0.402921 0.203658 0.000000
23.622900 189.511307 -764.118591 0.521969 0.613187 -0.592916 0.000000
23.616600 82.418098 -749.445374 0.632304 0.761468 -0.142681 1.000000
23.598200 82.053596 -750.776917 0.529193 0.797739 -0.289081 1.000000
23.569599 192.297699 -770.007202 0.978442 0.019968 0.205555 0.000000
23.566799 81.615700 -752.456177 0.255181 0.925209 -0.280841 1.000000
23.554600 194.125000 -758.976624 0.761503 0.492930 -0.420873 0.000000
23.529900 192.014603 -760.926880 0.900223 0.245248 -0.359795 0.000000
23.526199 190.546906 -766.161621 -0.683822 0.624503 -0.377338 0.000000
23.523800 191.337204 -761.789490 0.810376 0.494440 -0.314356 0.000000
23.497499 195.294098 -757.791504 0.734452 0.513291 -0.443972 0.000000
23.479500 189.525299 -765.210693 -0.876719 0.073873 -0.475296 0.000000
23.470699 84.054497 -744.120911 0.862120 0.455886 0.221172 1.000000
23.468901 83.970200 -746.366882 0.709203 0.621567 -0.332693 1.000000
23.451401 192.405899 -773.586609 0.807948 0.439972 0.391975 0.000000
23.414600 82.595901 -748.581482 0.793230 0.607909 0.035099 1.000000
23.413200 193.156693 -771.393005 -0.768247 0.528878 -0.360672 0.000000
23.402901 191.266205 -766.961670 0.233866 0.970972 -0.050202 0.000000
23.384701 190.626495 -763.617676 0.821002 0.481926 -0.306110 0.000000
23.323200 192.743195 -769.183716 0.684271 0.722532 -0.098594 0.000000
23.309999 82.943604 -747.686279 0.790494 0.467183 -0.396055 1.000000
23.292101 192.038895 -767.672485 0.731721 0.623318 0.275790 0.000000
23.270599 193.162598 -772.427124 0.954558 0.236966 -0.180737 0.000000
23.258301 84.638496 -745.043823 0.906152 0.418537 0.060952 1.000000
23.200701 193.735397 -759.865417 0.778415 0.401396 -0.482650 0.000000
23.196501 193.227707 -770.513428 0.992995 0.046003 0.108837 0.000000
23.175600 191.439804 -762.747314 0.893466 0.403736 -0.196766 0.000000
23.163200 195.009903 -758.703979 0.779536 0.457306 -0.428012 0.000000
23.141100 82.089302 -751.552612 0.327756 0.903901 -0.274845 1.000000
23.111900 196.063599 -757.419128 0.798981 0.574599 -0.177383 0.000000
23.107500 193.006302 -760.835083 0.683481 0.569846 -0.456211 0.000000
23.103500 193.219406 -773.384521 0.926183 0.353684 0.130739 0.000000
23.098301 190.316803 -764.468323 -0.046045 0.924837 -0.377565 0.000000
23.075300 82.664398 -750.180420 0.537791 0.793282 -0.285455 1.000000
23.067600 192.208496 -761.719971 0.860294 0.395520 -0.321648 0.000000
23.063000 83.995697 -743.057373 0.762028 0.504211 0.406306 1.000000
23.052099 188.606293 -764.801880 -0.180184 0.012624 0.983552 0.000000
23.047100 193.990402 -772.012573 -0.427375 0.778374 -0.459875 0.000000
23.043800 191.387405 -766.109619 0.873815 0.127700 0.469191 0.000000
23.036699 190.496902 -765.353577 0.575726 0.732298 0.363702 0.000000
23.024700 192.941193 -768.309570 -0.107887 0.968446 -0.224659 0.000000
22.985001 83.806602 -747.185730 0.505088 0.666180 -0.548717 1.000000
22.976700 193.712997 -769.679382 -0.871868 0.316071 -0.374094 0.000000
22.967400 84.722397 -745.956482 0.793139 0.563424 -0.231267 1.000000
22.961700 83.054199 -749.303772 0.662481 0.706752 -0.248233 1.000000
22.947599 191.429504 -763.642273 -0.911376 0.363115 -0.193757 0.000000
22.937401 196.509293 -756.536926 0.723840 0.624332 0.293709 0.000000
22.930201 192.154694 -766.821472 -0.344693 0.916797 -0.201667 0.000000
22.900499 84.852997 -744.201477 0.836465 0.530692 0.136716 1.000000
22.891600 194.323105 -771.181274 0.963460 0.236662 0.125444 0.000000
22.840599 195.870804 -758.323914 0.804034 0.505891 -0.312416 0.000000
22.840401 194.101105 -772.884216 -0.998042 0.017879 0.059946 0.000000
22.831301 194.755997 -759.551575 0.739413 0.433108 -0.515448 0.000000
22.782801 83.353798 -748.412476 0.803130 0.593495 0.052409 1.000000
22.767500 192.288101 -762.597290 0.845465 0.457383 -0.275662 0.000000
22.699200 193.939804 -768.799194 0.393914 0.917352 -0.057418 0.000000
22.687799 193.050293 -761.644226 -0.908575 0.386959 -0.157335 0.000000
22.672899 194.629395 -770.278198 0.560091 0.826801 -0.051938 0.000000
22.671900 193.067093 -767.455688 -0.882242 0.227627 -0.412110 0.000000
22.668501 193.781799 -760.639099 0.807049 0.399513 -0.434812 0.000000
22.645599 85.318398 -745.115784 0.468561 0.880115 -0.076471 1.000000
22.636900 194.994095 -771.879517 0.951953 0.305673 -0.018715 0.000000
22.636600 194.319000 -773.780701 0.718724 0.656090 -0.230179 0.000000
22.613701 84.751404 -743.277100 0.892662 0.306525 0.330449 1.000000
22.612600 196.657700 -757.943481 0.681191 0.182984 0.708869 0.000000
22.587900 81.932404 -752.456116 0.150101 0.932281 -0.329122 1.000000
22.563101 191.140793 -764.583374 0.666202 0.478256 -0.572229 0.000000
22.554501 192.235504 -763.476929 0.839317 0.490748 -0.233908 0.000000
22.549801 195.675201 -759.188171 0.273925 0.771107 -0.574768 0.000000
22.542801 82.530403 -751.029114 0.543830 0.725658 -0.421510 1.000000
22.513901 192.199295 -765.989075 0.775343 0.325869 0.540974 0.000000
22.457701 84.650597 -746.727722 0.724302 0.528724 -0.442537 1.000000
22.437300 195.238297 -772.927307 0.614384 0.680625 -0.399101 0.000000
22.418200 195.582108 -771.130920 0.950267 0.276660 0.143008 0.000000
22.415600 194.882797 -769.392090 0.955394 0.084033 0.283128 0.000000
22.386200 85.616302 -744.170227 0.918022 0.384447 0.097138 1.000000
22.376801 83.250099 -750.013916 0.566393 0.736147 -0.370522 1.000000
22.373400 194.712296 -760.459473 0.788657 0.385458 -0.479000 0.000000
22.365601 192.917206 -766.602173 0.769576 0.496238 0.401872 0.000000
22.357000 194.080704 -767.942871 -0.787763 0.454541 -0.415719 0.000000
22.328699 195.933304 -772.336487 0.927547 0.328768 -0.177675 0.000000
22.321400 193.054199 -762.752808 0.913716 0.369736 -0.168577 0.000000
22.295200 83.882401 -747.760498 0.844489 0.463007 -0.269190 1.000000
22.291901 83.706001 -749.178894 0.614847 0.760427 -0.209079 1.000000
22.289801 85.372597 -745.975098 0.650783 0.711247 -0.265723 1.000000
22.269899 192.028900 -764.313416 0.836899 0.317552 -0.445825 0.000000
22.267000 193.855804 -761.682373 0.969975 0.193482 -0.147354 0.000000
22.264000 197.120697 -757.120422 0.859060 0.501714 0.101486 0.000000
22.238600 191.645996 -765.281677 0.815962 0.410376 0.407183 0.000000
22.199301 195.812805 -773.637817 0.950701 0.031480 0.308506 0.000000
22.185301 197.107193 -756.158691 0.150930 0.980432 -0.126389 0.000000
22.170401 195.488007 -770.203796 0.359860 0.928626 0.090302 0.000000
22.144400 85.576302 -743.245300 0.899751 0.335375 0.279233 1.000000
22.121700 192.985199 -763.745789 0.997135 0.037648 -0.065615 0.000000
22.118299 196.490005 -771.609192 0.973811 0.072636 0.215445 0.000000
22.105400 194.799500 -768.489319 -0.444704 0.882165 -0.154995 0.000000
22.032499 195.651596 -760.197388 0.812652 0.400738 -0.423090 0.000000
22.031900 82.414001 -751.932312 0.278780 0.917229 -0.284558 1.000000
22.028099 196.541397 -759.151123 0.709094 0.593928 -0.380048 0.000000
21.986401 193.950195 -767.058105 0.922679 0.070975 0.378981 0.000000
21.984301 85.906303 -744.939392 0.805020 0.592215 -0.035001 1.000000
21.976101 196.547394 -770.702881 0.949078 0.202888 0.241014 0.000000
21.973900 197.280502 -758.187927 0.829619 0.557248 -0.034741 0.000000
21.959200 196.823105 -772.666870 -0.673424 0.633907 -0.380344 0.000000
21.949400 193.904099 -762.596497 0.788278 0.540851 -0.293424 0.000000
21.919001 195.602203 -769.090820 0.475142 0.863494 0.169168 0.000000
21.903700 86.327103 -743.848572 0.946568 0.322209 0.013791 1.000000
21.880199 196.661407 -773.826782 0.326788 0.927067 -0.183730 0.000000
21.874500 192.578003 -765.438416 0.577784 0.767741 0.277020 0.000000
21.848400 83.126099 -750.853027 0.425150 0.776998 -0.464244 1.000000
21.812201 197.350296 -771.548218 -0.692371 0.613431 -0.379900 0.000000
21.811899 196.444702 -769.821777 -0.668566 0.671803 -0.318904 0.000000
21.808599 195.141998 -761.068909 -0.971181 0.215398 -0.102031 0.000000
21.803600 84.334602 -748.375305 0.751398 0.659730 -0.012500 1.000000
21.800501 194.603500 -761.946716 0.951152 0.254990 -0.174041 0.000000
21.778200 193.301605 -765.998596 0.479111 0.731100 0.485742 0.000000
21.773300 194.764206 -767.560486 0.648065 0.705670 0.286429 0.000000
21.764700 85.417397 -746.826721 0.554251 0.674813 -0.487272 1.000000
21.762501 84.684402 -747.490173 0.566643 0.414657 -0.712021 1.000000
21.710699 83.860703 -750.061584 0.445610 0.809765 -0.381723 1.000000
21.681801 86.067802 -745.819824 0.636781 0.736914 -0.226863 1.000000
21.680000 197.759598 -772.412476 0.945717 0.273509 -0.175536 0.000000
21.669399 195.645401 -768.203613 -0.669637 0.640022 -0.376774 0.000000
21.667000 86.408798 -742.970581 0.861692 0.504844 0.051176 1.000000
21.639999 194.058502 -763.461121 0.982728 0.162783 -0.088023 0.000000
21.620600 197.465195 -773.288391 0.963460 0.236662 -0.125444 0.000000
21.589199 193.690002 -764.337585 -0.974636 0.221781 0.029970 0.000000
21.555700 197.684296 -757.161987 0.718088 0.695951 -0.001384 0.000000
21.540800 194.195694 -766.265625 0.459822 0.767460 0.446731 0.000000
21.535000 197.580200 -770.672974 0.688852 0.707099 0.159668 0.000000
21.517500 86.634598 -744.674316 0.783011 0.607020 -0.135722 1.000000
21.512899 84.386200 -749.282776 0.638678 0.703354 -0.312063 1.000000
21.504499 196.654297 -759.903320 0.568076 0.628760 -0.530990 0.000000
21.493200 196.617294 -768.961487 0.899951 0.161676 0.404906 0.000000
21.481001 198.309204 -771.681213 0.882616 0.421349 0.208457 0.000000
21.400499 197.309998 -769.770203 -0.766312 0.491812 -0.413384 0.000000
21.400000 197.440308 -758.862671 -0.973948 0.226745 -0.003525 0.000000
21.398899 194.847702 -762.739807 0.776874 0.543011 -0.318758 0.000000
21.381100 197.698898 -756.050476 0.586827 0.738787 0.331403 0.000000
21.356800 198.223206 -773.863220 0.950877 0.278728 -0.134696 0.000000
21.354200 196.199295 -760.721313 0.817940 0.455823 -0.350999 0.000000
21.336500 87.198402 -743.398010 0.968831 0.246149 0.027889 1.000000
21.321800 195.207703 -766.862488 0.808296 0.452966 0.376138 0.000000
21.293699 193.684296 -765.329285 0.104779 0.970784 -0.215870 0.000000
21.292601 198.958298 -772.564880 -0.773448 0.546057 -0.321870 0.000000
21.261600 197.969406 -758.084473 0.763344 0.627839 -0.152067 0.000000
21.226000 195.771500 -761.530518 0.990268 0.035084 -0.134677 0.000000
21.217100 82.936096 -751.564514 0.275293 0.828989 -0.486817 1.000000
21.182600 198.510498 -770.814819 0.858356 0.443662 0.257659 0.000000
21.181601 85.020103 -748.165771 0.672614 0.738304 -0.049982 1.000000
21.163500 194.873306 -763.865906 0.869823 0.456325 -0.187551 0.000000
21.143700 195.887604 -767.434326 0.762908 0.596169 0.250108 0.000000
21.117300 86.171402 -746.660828 0.544640 0.716806 -0.435381 1.000000
21.111099 86.817902 -745.481384 0.783601 0.559715 -0.269609 1.000000
21.098801 199.195206 -773.449219 0.996873 0.063860 -0.046542 0.000000
21.085400 83.632401 -750.822021 0.426414 0.769506 -0.475427 1.000000
21.077299 196.662094 -768.133423 0.799533 0.426310 0.423093 0.000000
21.077101 199.267899 -771.669128 0.790629 0.570924 0.221252 0.000000
21.072800 198.167007 -769.935486 0.874965 0.408116 0.260532 0.000000
21.052601 197.445206 -768.920776 0.738813 0.576436 0.349109 0.000000
21.049700 87.313599 -744.280212 0.816745 0.557886 -0.147282 1.000000
21.042900 197.519302 -759.872986 0.752509 0.547723 -0.365690 0.000000
21.042400 194.446304 -764.695129 0.949012 0.115474 -0.293331 0.000000
20.990200 195.688904 -762.529724 0.941784 0.321032 -0.099906 0.000000
20.978201 85.533096 -747.439087 0.492758 0.486122 -0.721717 1.000000
20.951900 194.650208 -765.750183 0.711699 0.555756 0.429674 0.000000
20.943100 199.896194 -772.837097 -0.874759 0.357510 -0.327084 0.000000
20.936701 84.491798 -750.023315 0.446018 0.714624 -0.538870 1.000000
20.920401 88.093597 -743.173523 0.827081 0.502432 -0.251989 1.000000
20.912399 198.308197 -756.718628 0.680299 0.727116 0.092170 0.000000
20.882000 197.003494 -760.718811 0.765887 0.498072 -0.406622 0.000000
20.854601 85.150200 -749.085205 0.637331 0.734418 -0.233323 1.000000
20.826401 195.616104 -763.484314 0.882469 0.460235 -0.097114 0.000000
20.810699 199.827606 -774.058289 0.447309 0.893267 -0.044596 0.000000
20.805500 200.253799 -772.012329 0.696587 0.716449 0.038305 0.000000
20.770100 199.450897 -770.807129 0.226877 0.973532 -0.027609 0.000000
20.752300 196.570496 -761.532776 0.781199 0.510598 -0.359190 0.000000
20.721500 195.754303 -766.471375 0.181044 0.938387 0.294369 0.000000
20.712601 198.285004 -769.091309 0.363306 0.898705 0.245636 0.000000
20.706800 195.504196 -764.394226 0.852985 0.476889 -0.212118 0.000000
20.684799 200.537506 -773.479919 -0.708587 0.596792 -0.376488 0.000000
20.682800 198.264801 -759.284912 -0.698284 0.619788 -0.358136 0.000000
20.682400 198.517105 -757.569397 0.743797 0.667871 -0.026715 0.000000
20.666000 196.698502 -767.327576 0.547508 0.822008 0.156644 0.000000
20.625099 201.003601 -772.626526 -0.881987 0.349467 -0.316184 0.000000
20.623301 86.938400 -746.299927 0.580427 0.686867 -0.437399 1.000000
20.613300 87.544502 -745.062012 0.746800 0.607271 -0.271131 1.000000
20.611900 197.449799 -768.114075 0.658827 0.694093 0.290141 0.000000
20.580900 199.227905 -769.893188 0.697562 0.694495 0.176307 0.000000
20.523600 88.098801 -744.018921 0.817446 0.523845 -0.239516 1.000000
20.487101 200.419006 -771.156128 -0.620171 0.743258 -0.250909 0.000000
20.475201 195.243301 -765.260071 0.752288 0.603414 -0.264489 0.000000
20.440500 89.160202 -743.283081 -0.072771 0.973162 0.218314 1.000000
20.431499 85.750702 -748.174622 0.772599 0.634881 0.004132 1.000000
20.431200 83.385300 -751.536682 0.410570 0.730451 -0.545777 1.000000
20.425501 196.607803 -762.923218 -0.136338 0.842950 -0.520430 0.000000
20.412201 198.071198 -760.489929 0.438839 0.754409 -0.488147 0.000000
20.373400 196.253906 -763.962280 0.685219 0.706680 -0.176287 0.000000
20.368900 201.604507 -774.056274 0.823222 0.496423 0.275445 0.000000
20.365200 197.477707 -761.381226 0.795696 0.552783 -0.247585 0.000000
20.359600 86.394897 -747.214417 0.537327 0.402584 -0.741084 1.000000
20.339800 201.210297 -771.759583 0.220305 0.970603 -0.096934 0.000000
20.329300 198.796600 -758.584778 0.727538 0.685157 -0.035317 0.000000
20.312901 84.100403 -750.840027 0.406349 0.551122 -0.728797 1.000000
20.307699 85.132004 -749.882874 0.542128 0.633328 -0.552262 1.000000
20.245899 202.019302 -773.164612 -0.758361 0.551388 -0.347649 0.000000
20.244400 200.202805 -770.255615 0.590642 0.778784 0.211274 0.000000
20.233601 198.781494 -756.315125 -0.386302 0.909861 -0.151408 0.000000
20.227600 196.730804 -766.478882 -0.761489 0.530932 -0.371814 0.000000
20.187799 197.507797 -767.251404 -0.843165 0.373871 -0.386385 0.000000
20.183300 199.288605 -769.062012 0.310951 0.909495 0.275914 0.000000
20.170000 85.756104 -749.100830 0.622851 0.719417 -0.307402 1.000000
20.168200 198.243393 -768.169800 0.528771 0.819979 0.219172 0.000000
20.151501 87.665497 -745.904297 0.619502 0.652898 -0.435822 1.000000
20.128700 196.000504 -765.811829 0.754774 0.578500 0.309281 0.000000
20.126200 197.238907 -762.319824 0.915038 0.350836 -0.199046 0.000000
20.119400 196.329803 -764.855713 0.786447 0.479620 -0.389186 0.000000
20.113800 202.626602 -774.175720 0.802966 0.173900 0.570091 0.000000
20.088600 199.053696 -759.482300 0.851545 0.520467 -0.063129 0.000000
20.070101 88.287498 -744.831421 0.738813 0.576436 -0.349109 1.000000
20.045900 202.090393 -772.265381 -0.957988 0.003661 -0.286786 0.000000
20.018200 199.232101 -757.860474 0.690212 0.723542 0.009721 0.000000
19.989500 201.324905 -770.916382 -0.858993 0.293502 -0.419508 0.000000
19.981800 89.940498 -743.394470 0.564582 0.530876 -0.631995 1.000000
19.957199 88.886101 -744.074280 0.792895 0.512112 -0.330240 1.000000
19.955799 197.139694 -764.079895 0.449144 0.796868 -0.404068 0.000000
19.951200 202.956406 -773.336426 -0.866934 0.423598 -0.262661 0.000000
19.908001 87.123199 -746.904175 0.666180 0.548717 -0.505088 1.000000
19.841101 200.252106 -769.427917 0.893903 0.335773 0.296973 0.000000
19.824200 197.459305 -763.197571 -0.990560 0.109805 -0.082065 0.000000
19.797501 203.729401 -774.140015 0.227597 0.973545 0.020257 0.000000
19.795500 86.374901 -747.971497 0.608179 0.772798 -0.181387 1.000000
19.781401 199.340805 -756.947571 0.586315 0.807780 0.061045 0.000000
19.762699 202.063095 -771.404480 0.697586 0.662467 0.272968 0.000000
19.745399 198.301804 -767.307983 0.899798 0.014492 0.436066 0.000000
19.742599 203.262405 -772.445801 0.937463 0.160590 0.308827 0.000000
19.740601 198.056198 -762.181580 0.880746 0.468717 -0.067750 0.000000
19.719101 84.833504 -750.504883 0.413787 0.733606 -0.539077 1.000000
19.711500 197.474304 -766.441772 -0.799785 0.207238 -0.563380 0.000000
19.703600 199.026703 -760.520325 0.454211 0.762485 -0.460770 0.000000
19.691000 198.492203 -761.375183 0.836895 0.486781 -0.250301 0.000000
19.688000 199.218903 -768.259705 -0.523283 0.825352 -0.212059 0.000000
19.672100 83.875702 -751.512329 0.472606 0.552765 -0.686364 1.000000
19.634800 199.565094 -758.756592 0.715339 0.698541 -0.018198 0.000000
19.620399 201.100601 -770.096680 0.800162 0.466627 0.376830 0.000000
19.599001 85.704597 -749.859619 0.498547 0.745353 -0.442605 1.000000
19.595699 196.994598 -765.675720 0.799631 0.576758 0.167154 0.000000
19.586700 204.019699 -773.258118 -0.891889 0.312236 -0.327175 0.000000
19.561600 88.349297 -745.728516 0.727914 0.546348 -0.414300 1.000000
19.541201 202.964203 -771.547119 0.143856 0.988580 0.044883 0.000000
19.515800 197.937103 -764.001892 0.911858 0.408947 -0.035733 0.000000
19.504299 86.499298 -748.835022 0.556964 0.789163 -0.258870 1.000000
19.501101 197.608398 -764.863892 0.860564 0.418777 -0.289923 0.000000
19.491899 201.956406 -770.450195 -0.056438 0.997787 -0.035141 0.000000
19.471600 87.850197 -746.480225 0.521590 0.723602 -0.452044 1.000000
19.455099 90.675797 -743.631714 0.326635 0.407133 0.852967 1.000000
19.449699 199.748703 -760.005676 0.880921 0.473112 -0.011994 0.000000
19.436600 204.724106 -774.275024 -0.897231 0.137926 -0.419466 0.000000
19.415100 89.630997 -744.148682 0.764137 0.506709 -0.399176 1.000000
19.412701 88.982201 -744.861572 0.793553 0.412130 -0.447686 1.000000
19.363501 198.289001 -763.155823 0.891934 0.451931 0.014578 0.000000
19.334801 200.161606 -768.631287 -0.596057 0.740653 -0.310078 0.000000
19.315901 204.225494 -772.388184 0.913770 0.074455 0.399351 0.000000
19.289000 199.850204 -757.881226 0.875870 0.468555 0.115359 0.000000
19.282499 199.065094 -767.438721 0.741128 0.548075 0.387742 0.000000
19.264099 198.257706 -766.505127 0.752349 0.344625 0.561431 0.000000
19.261801 87.016800 -747.597717 0.539139 0.792108 -0.286171 1.000000
19.224199 200.947296 -769.225098 0.277866 0.830494 0.482773 0.000000
19.186800 205.131897 -773.474487 -0.738908 0.569269 -0.360483 0.000000
19.185301 205.794098 -774.142517 -0.810592 0.414090 -0.414090 0.000000
19.179100 84.684097 -751.312378 0.584169 0.510096 -0.631307 1.000000
19.168400 198.890503 -762.395020 0.772240 0.598911 -0.212018 0.000000
19.167700 203.795593 -771.584412 0.777862 0.502942 0.376802 0.000000
19.114700 199.399002 -761.475525 0.769145 0.575669 -0.277527 0.000000
19.106501 202.950607 -770.735779 -0.830463 0.357714 -0.427050 0.000000
19.099400 198.455399 -764.833618 -0.889225 0.373862 -0.263640 0.000000
19.086399 85.526604 -750.578430 0.688216 0.487277 -0.537512 1.000000
19.062901 199.834702 -756.547974 0.524143 0.834746 0.168741 0.000000
19.052200 91.457001 -743.838623 0.314040 0.490786 -0.812716 1.000000
19.050900 197.909500 -765.627075 0.858676 0.510228 -0.048396 0.000000
19.038200 205.238205 -772.539429 0.843598 0.335256 0.419460 0.000000
19.032101 201.915497 -769.643982 -0.810549 0.334688 -0.480619 0.000000
18.996099 86.503601 -749.637878 0.672649 0.561939 -0.481422 1.000000
18.985100 200.254593 -759.282593 0.779775 0.625225 -0.032315 0.000000
18.969200 198.846893 -763.964600 0.939874 0.335949 0.061438 0.000000
18.956400 199.882599 -767.834106 0.332206 0.923110 0.193669 0.000000
18.949301 84.152901 -752.013672 0.143913 0.989539 -0.010040 1.000000
18.924900 87.107201 -748.486084 0.681932 0.697536 -0.220028 1.000000
18.915300 88.989799 -745.757080 0.604709 0.644911 -0.467351 1.000000
18.901300 87.831299 -747.187927 0.410393 0.472033 -0.780233 1.000000
18.891701 89.724197 -744.962097 0.767198 0.472751 -0.433491 1.000000
18.889299 90.415199 -744.288025 0.721467 0.392780 -0.570271 1.000000
18.874701 200.161499 -760.582275 0.477127 0.784429 -0.396258 0.000000
18.836500 205.933899 -773.207275 0.952941 0.028801 0.301785 0.000000
18.792101 206.570099 -773.872314 -0.514263 0.778649 -0.359500 0.000000
18.779400 204.730392 -771.808777 0.660990 0.677231 0.323187 0.000000
18.776899 199.200104 -766.608276 -0.699427 0.607267 -0.376868 0.000000
18.743999 200.510605 -758.431519 0.736457 0.668838 0.101428 0.000000
18.737200 200.766296 -768.235718 -0.757180 0.518415 -0.397397 0.000000
18.685101 203.889099 -770.806580 0.857066 0.031540 0.514240 0.000000
18.679001 88.503998 -746.544312 0.694509 0.507076 -0.510423 1.000000
18.650499 200.504700 -757.453186 -0.907366 0.203400 -0.367851 0.000000
18.646299 202.901901 -769.931580 0.834513 0.026208 0.550365 0.000000
18.632299 92.252899 -744.046204 0.417562 0.663774 0.620521 1.000000
18.621500 199.223404 -765.007996 0.864881 0.439233 -0.243012 0.000000
18.621000 198.678207 -765.880920 0.830691 0.527256 0.178756 0.000000
18.617201 199.466599 -763.383179 0.452441 0.834433 -0.314673 0.000000
18.564199 201.543396 -768.909119 0.773325 0.123198 0.621925 0.000000
18.542500 207.365097 -774.265503 0.367795 0.896593 0.246674 0.000000
18.526501 85.296600 -751.559082 0.755820 0.486938 -0.437753 1.000000
18.517700 199.977493 -762.379272 -0.994638 0.091830 -0.047574 0.000000
18.502300 206.036697 -772.359985 0.796087 0.424687 0.431146 0.000000
18.485201 86.220398 -750.514282 0.686172 0.555950 -0.469135 1.000000
18.484100 200.795105 -759.936401 -0.760011 0.563983 -0.322965 0.000000
18.476200 87.206596 -749.387878 0.619093 0.700768 -0.354468 1.000000
18.466299 200.228897 -761.505127 0.863073 0.473584 -0.175565 0.000000
18.457100 200.460999 -767.305725 0.690016 0.597352 0.408715 0.000000
18.401600 87.683296 -748.026978 0.788330 0.614082 -0.037941 1.000000
18.378799 199.755402 -764.238770 0.870580 0.490641 -0.036901 0.000000
18.377100 206.851700 -772.870117 0.825224 0.359551 0.435579 0.000000
18.308599 90.838997 -744.860779 0.843983 0.326049 -0.425892 1.000000
18.303699 90.182297 -745.484009 -0.897612 0.431464 -0.090177 1.000000
18.243099 200.554001 -756.633301 0.726088 0.613391 0.310721 0.000000
18.242800 202.411606 -769.188293 0.410173 0.786299 0.462052 0.000000
18.240200 89.284203 -746.278015 0.710048 0.523806 -0.470594 1.000000
18.233900 201.036804 -759.091370 0.783532 0.620355 -0.035168 0.000000
18.221600 205.441498 -771.691711 0.727145 0.495254 0.475377 0.000000
18.181499 208.291199 -774.203979 -0.699872 0.479387 -0.529497 0.000000
18.176701 204.633301 -771.057983 0.837707 0.152176 0.524490 0.000000
18.170700 203.740295 -770.016479 0.694315 0.419240 0.584948 0.000000
18.157101 199.455902 -765.959900 0.625777 0.777568 -0.061575 0.000000
18.156799 88.365799 -747.321899 0.444501 0.415406 -0.793635 1.000000
18.156401 201.018997 -760.781128 0.757017 0.606554 -0.242935 0.000000
18.145700 201.081207 -758.059998 0.367651 0.929942 0.006361 0.000000
18.117500 87.035400 -750.204895 0.681400 0.618705 -0.391021 1.000000
18.082100 201.734802 -768.131226 -0.701420 0.609430 -0.369601 0.000000
18.081600 93.028099 -744.078308 0.473167 0.499730 0.725522 1.000000
18.071899 200.302094 -763.537109 0.716594 0.670362 -0.192633 0.000000
18.022600 86.261703 -751.388794 0.792493 0.414808 -0.447089 1.000000
18.004101 87.898201 -748.836975 0.576046 0.766475 -0.284056 1.000000
18.000700 200.196594 -765.298828 0.815290 0.452939 -0.360762 0.000000
17.983500 91.681396 -744.448486 0.769352 0.259597 -0.583701 1.000000
17.981400 200.738693 -762.220520 0.848383 0.514831 -0.123269 0.000000
17.951200 207.716599 -772.986877 0.797739 0.529193 0.289081 0.000000
17.919500 200.302307 -766.556030 0.737209 0.392412 0.550033 0.000000
17.881100 201.165695 -767.191528 0.165096 0.951649 0.259052 0.000000
17.879601 206.584305 -771.972229 0.751138 0.465147 0.468434 0.000000
17.872801 200.595505 -764.423828 0.814592 0.577415 -0.055059 0.000000
17.870600 201.497604 -759.994629 0.755050 0.655665 -0.001380 0.000000
17.809999 203.220596 -769.365173 0.644658 0.523469 0.557132 0.000000
17.783800 85.695000 -752.281982 -0.247997 0.940726 -0.231371 1.000000
17.703899 209.241394 -774.248474 -0.918860 0.248768 -0.306287 0.000000
17.661699 205.799896 -771.007019 0.601485 0.329114 0.727942 0.000000
17.657000 202.651398 -768.433716 -0.720557 0.582682 -0.375871 0.000000
17.646299 201.605698 -758.669495 0.686992 0.724282 0.058803 0.000000
17.644600 208.627701 -773.531372 -0.751201 0.623668 -0.216184 0.000000
17.640301 89.169701 -747.010376 0.577183 0.313512 -0.754036 1.000000
17.632401 205.033997 -770.437378 0.137055 0.923392 0.358558 0.000000
17.630199 201.413498 -757.385681 0.630919 0.705527 0.322758 0.000000
17.616600 88.412903 -748.161072 0.564786 0.802270 -0.193336 1.000000
17.608400 201.496506 -761.669617 0.627396 0.734859 -0.257596 0.000000
17.604601 201.053299 -763.194519 0.804089 0.585982 -0.100329 0.000000
17.602200 87.106697 -751.093811 0.805010 0.522551 -0.280891 1.000000
17.599400 87.723099 -749.715210 0.628647 0.727321 -0.275331 1.000000
17.597700 86.817596 -752.081177 0.894123 0.438023 -0.093167 1.000000
17.561800 90.270302 -745.998901 0.616207 0.514913 -0.595948 1.000000
17.533001 91.100800 -745.291077 0.463810 0.457255 -0.758814 1.000000
17.495399 93.651604 -743.694580 0.388334 0.846848 -0.363380 1.000000
17.483101 204.364899 -769.737915 0.763469 0.182070 0.619649 0.000000
17.477600 201.870804 -760.827087 -0.996780 0.009554 -0.079615 0.000000
17.475300 201.134003 -765.284180 0.607019 0.723567 -0.328600 0.000000
17.442699 202.187393 -767.568787 -0.856562 0.122779 -0.501226 0.000000
17.417700 207.521393 -772.199219 0.684468 0.507076 0.523811 0.000000
17.404400 92.402603 -744.547302 0.337877 0.359281 -0.869918 1.000000
17.339800 200.985901 -766.435486 -0.037613 0.999279 0.005083 0.000000
17.330299 210.204697 -774.186829 0.782766 0.314063 0.537255 0.000000
17.315300 208.316299 -772.668030 0.699059 0.436704 0.566221 0.000000
17.313801 201.474396 -764.440186 0.552253 0.798045 -0.241125 0.000000
17.262800 203.442703 -768.676819 0.732133 0.507370 0.454485 0.000000
17.254801 202.158905 -759.952209 0.788589 0.608506 0.088589 0.000000
17.226200 206.714203 -771.353516 0.686009 0.401687 0.606663 0.000000
17.222799 88.316902 -749.119629 0.575702 0.735528 -0.357163 1.000000
17.205400 209.497803 -773.499084 0.799284 0.406879 0.442260 0.000000
17.205099 201.995804 -757.984009 0.691001 0.681557 0.240827 0.000000
17.166901 201.789597 -762.788574 0.771566 0.609614 -0.181815 0.000000
17.159401 87.771698 -750.653870 0.778674 0.578934 -0.241873 1.000000
17.132799 211.129395 -774.391296 -0.045547 0.503777 0.862632 0.000000
17.085600 87.638802 -752.083313 -0.916588 0.334218 -0.219465 1.000000
17.064100 89.856400 -746.804810 0.360188 0.731784 -0.578582 1.000000
17.060801 202.215897 -761.913330 0.830626 0.549447 -0.090379 0.000000
17.006800 202.400894 -759.104675 0.727629 0.685731 -0.018156 0.000000
17.001499 201.589600 -756.605286 0.662705 0.746082 0.064689 0.000000
17.001499 89.062599 -747.783875 0.525522 0.818335 -0.232709 1.000000
16.990900 201.768997 -766.847778 0.642604 0.521167 0.561646 0.000000
16.982201 205.677902 -770.344299 0.442245 0.727137 0.525063 0.000000
16.944901 203.158905 -767.792480 0.726930 0.505042 0.465301 0.000000
16.904600 202.070007 -765.368225 0.620330 0.726123 -0.296540 0.000000
16.903299 93.253601 -744.444580 0.243178 0.404302 -0.881706 1.000000
16.895000 209.253998 -772.600891 0.474707 0.615610 0.629029 0.000000
16.891800 202.117294 -763.812378 -0.708587 0.596792 -0.376488 0.000000
16.876101 90.880898 -745.894897 0.453411 0.486386 -0.746891 1.000000
16.874599 88.357697 -750.008972 0.619677 0.742667 -0.253863 1.000000
16.867599 202.561996 -761.002930 0.821621 0.547250 -0.159552 0.000000
16.848801 208.073105 -771.759827 0.772920 0.414936 0.480024 0.000000
16.835800 94.148300 -744.150818 0.312265 0.934021 -0.173481 1.000000
16.816900 92.014999 -745.137878 0.376037 0.586224 -0.717591 1.000000
16.760300 204.570801 -769.220276 -0.885501 0.006618 -0.464590 0.000000
16.750900 210.240601 -773.221680 -0.125918 0.981675 0.143034 0.000000
16.718100 88.923500 -748.662476 0.532026 0.789304 -0.306510 1.000000
16.690300 202.181503 -757.248413 0.545083 0.741509 0.391216 0.000000
16.679300 202.589600 -762.660522 0.740203 0.630659 -0.233172 0.000000
16.679199 88.221802 -751.324280 0.811270 0.544425 -0.213169 1.000000
16.633699 202.641205 -767.075806 0.631678 0.435008 0.641678 0.000000
16.628901 202.825607 -760.138916 0.724658 0.673435 0.146137 0.000000
16.605101 204.087204 -768.382874 -0.740878 0.565021 -0.363112 0.000000
16.573700 207.237595 -770.990479 0.584096 0.577324 0.570552 0.000000
16.547100 211.124695 -773.625793 0.733159 0.423420 0.532158 0.000000
16.538900 211.963196 -774.263184 0.685712 0.340413 0.643364 0.000000
16.509501 202.768997 -758.420776 0.698278 0.692139 0.182626 0.000000
16.497101 202.956207 -761.734070 0.982899 0.090451 0.160399 0.000000
16.454399 202.728104 -764.832581 0.803324 0.591395 -0.070166 0.000000
16.365299 90.394096 -746.526917 0.357239 0.531818 -0.767822 1.000000
16.362700 202.651306 -765.954529 -0.262687 0.775477 -0.574136 0.000000
16.361799 203.037003 -759.305115 0.717991 0.695422 -0.029622 0.000000
16.338800 88.650497 -752.130188 0.056033 0.184791 0.981179 1.000000
16.317400 208.965302 -771.838196 0.880946 0.205111 0.426455 0.000000
16.312099 206.444794 -770.396790 0.509184 0.385548 0.769470 0.000000
16.301001 92.745598 -744.923523 0.304927 0.396865 -0.865747 1.000000
16.291201 88.953003 -749.463196 0.541542 0.811545 -0.219378 1.000000
16.284500 88.751099 -750.679016 0.627609 0.765414 -0.142298 1.000000
16.270300 89.814697 -747.412292 0.432953 0.845732 -0.311912 1.000000
16.269300 203.539505 -767.326111 -0.574553 0.802574 -0.160515 0.000000
16.236900 205.926498 -769.621887 0.336808 0.762250 0.552752 0.000000
16.228399 203.025406 -763.931519 0.601472 0.791719 -0.106831 0.000000
16.226000 91.539497 -745.724670 0.357768 0.345484 -0.867550 1.000000
16.222500 210.019897 -772.447876 0.610195 0.100968 0.785791 0.000000
16.216700 94.855698 -744.192383 0.198865 0.747671 0.633593 1.000000
16.162800 205.189301 -768.889587 -0.652241 0.700318 -0.290063 0.000000
16.111799 202.828506 -757.588501 0.604290 0.696498 0.386943 0.000000
16.106199 212.778702 -774.303711 0.745504 0.549748 0.376830 0.000000
16.098400 93.710899 -744.523682 0.161215 0.398044 -0.903089 1.000000
16.084000 203.386902 -763.083801 -0.682278 0.619501 -0.388221 0.000000
16.082800 208.300400 -771.272583 0.639663 0.468414 0.609442 0.000000
16.052500 210.948395 -772.844971 0.788518 0.369265 0.491816 0.000000
16.049000 203.434906 -765.600281 0.796539 0.582724 -0.161115 0.000000
16.045200 89.533600 -748.417480 0.427530 0.831397 -0.354961 1.000000
16.017900 203.582504 -761.285583 0.597343 0.784863 -0.164836 0.000000
15.996000 204.524994 -767.880371 0.795403 0.257842 0.548500 0.000000
15.932000 211.745895 -773.321472 0.746472 0.335184 0.574832 0.000000
15.926500 203.687500 -762.234802 0.881099 0.467607 0.070765 0.000000
15.918100 203.510696 -764.644226 0.964372 0.173561 0.199660 0.000000
15.891700 89.144203 -751.423706 0.714785 0.694404 -0.082979 1.000000
15.870600 207.605804 -770.448608 0.500217 0.286958 0.816969 0.000000
15.870500 203.213898 -766.563171 0.798218 0.569284 0.196884 0.000000
15.865400 203.425201 -758.622375 0.889718 0.334582 0.310576 0.000000
15.770400 91.095299 -746.534912 0.284494 0.803186 -0.523407 1.000000
15.749000 203.789505 -760.447388 0.245618 0.963184 -0.109307 0.000000
15.706900 89.281502 -750.075806 0.584897 0.799211 -0.138411 1.000000
15.696500 209.745193 -771.764099 0.803840 0.405931 0.434812 0.000000
15.669300 92.201797 -745.434570 0.258038 0.552046 -0.792882 1.000000
15.619000 95.492104 -743.755676 0.241160 0.657278 -0.714022 1.000000
15.606800 203.869400 -763.804626 0.807008 0.590527 -0.004110 0.000000
15.573900 206.535995 -769.552429 0.185144 0.887816 0.421312 0.000000
15.566100 89.508202 -749.181702 0.521968 0.802664 -0.288581 1.000000
15.557800 212.530502 -773.611694 0.523000 0.427310 0.737480 0.000000
15.555100 205.753098 -768.490295 -0.482343 0.844481 -0.232803 0.000000
15.544800 213.657700 -774.302917 0.706496 0.457144 0.540262 0.000000
15.539500 93.207703 -745.095215 0.258731 0.278744 -0.924857 1.000000
15.523100 90.227997 -747.719299 0.436226 0.839617 -0.323651 1.000000
15.504900 203.950195 -759.568604 0.927253 0.364710 0.084785 0.000000
15.504600 210.631393 -772.171814 -0.696509 0.716368 -0.041138 0.000000
15.503100 204.273102 -765.991394 0.864797 0.317963 0.388621 0.000000
15.478500 203.498703 -757.779907 0.599012 0.716530 0.357449 0.000000
15.434700 209.009796 -771.205688 0.582816 0.492119 0.646641 0.000000
15.434600 204.241501 -761.653992 0.599854 0.798387 0.052469 0.000000
15.428400 204.287003 -767.090515 -0.740384 0.567899 -0.359615 0.000000
15.406700 204.314606 -762.943604 0.816986 0.574289 -0.052208 0.000000
15.386700 211.484207 -772.557495 0.579564 0.075844 0.811390 0.000000
15.384700 204.317398 -764.646179 0.781532 0.608190 0.138972 0.000000
15.373800 94.431297 -744.435974 0.220364 0.375057 -0.900429 1.000000
15.351900 202.970200 -756.755127 0.739614 0.670946 0.052932 0.000000
15.308300 89.534599 -752.012817 0.563752 0.802086 -0.197084 1.000000
15.270000 208.441406 -770.455872 0.450948 0.349682 0.821199 0.000000
15.239600 89.569901 -750.905212 0.497126 0.866890 0.036976 1.000000
15.184900 204.479797 -760.797791 0.949663 0.003714 0.313252 0.000000
15.170200 91.814796 -746.178284 0.310482 0.731966 -0.606486 1.000000
15.127800 204.124405 -758.738586 0.684712 0.662157 0.304496 0.000000
15.118700 207.592499 -769.920593 -0.821556 0.179386 -0.541172 0.000000
15.103200 214.455597 -774.415527 0.732033 0.641117 0.230426 0.000000
15.076200 90.642097 -746.984924 0.285752 0.446390 -0.847987 1.000000
15.047200 205.465302 -767.728088 -0.851391 0.065923 -0.520372 0.000000
15.041400 204.829498 -765.439880 0.647303 0.761944 -0.020971 0.000000
15.003600 90.095001 -748.513489 0.444050 0.826470 -0.346074 1.000000
14.989000 204.819702 -763.923584 0.970886 0.042743 0.235699 0.000000
14.976600 212.235794 -772.958679 0.307086 0.421279 0.853360 0.000000
14.953300 89.823601 -749.860901 0.475142 0.863494 -0.169168 1.000000
14.944600 210.298706 -771.497925 0.430100 0.562950 0.705763 0.000000
14.944000 213.669907 -773.518982 0.501419 0.113502 0.857728 0.000000
14.925500 204.820404 -762.283325 0.794536 0.605428 0.046571 0.000000
14.887800 207.139801 -769.125916 0.601035 0.657957 0.453706 0.000000
14.873700 92.815903 -745.567505 0.359478 0.278931 -0.890490 1.000000
14.862400 93.809700 -744.877686 0.147999 0.341642 -0.928104 1.000000
14.859100 95.850098 -744.083801 0.450488 0.227504 0.863309 1.000000
14.847900 204.636200 -759.904175 0.800496 0.578220 0.157696 0.000000
14.840700 206.249893 -768.119873 -0.835989 0.270422 -0.477487 0.000000
14.826500 204.834595 -766.704224 0.449644 0.892577 -0.033556 0.000000
14.743100 203.717606 -757.214417 0.617496 0.686655 0.383671 0.000000
14.740700 209.231400 -770.544800 0.447932 0.292938 0.844716 0.000000
14.717400 211.125305 -771.958923 0.407462 0.478889 0.777586 0.000000
14.689000 90.186798 -751.731323 -0.343651 0.905192 0.250061 1.000000
14.651300 94.953400 -744.304688 0.037271 0.340577 -0.939478 1.000000
14.621800 205.165405 -761.445129 0.425861 0.895581 -0.128749 0.000000
14.596100 205.337601 -764.574219 0.822259 0.568832 0.017905 0.000000
14.589100 205.501404 -766.061279 0.811154 0.548407 -0.203170 0.000000
14.581900 91.382500 -746.831421 0.346441 0.490126 -0.799847 1.000000
14.561700 205.286102 -763.215027 0.824067 0.565590 -0.031962 0.000000
14.532100 204.826706 -758.997009 0.701766 0.653809 0.282944 0.000000
14.488300 90.842201 -747.721191 0.308870 0.932202 -0.188677 1.000000
14.471100 90.097099 -750.588379 0.383969 0.923324 0.006421 1.000000
14.445800 96.366997 -743.361877 0.437945 0.135520 -0.888729 1.000000
14.443100 204.470993 -758.166626 0.705841 0.549725 0.446756 0.000000
14.436100 215.035294 -774.161499 0.634617 0.762432 -0.126329 0.000000
14.433600 208.438995 -770.041504 0.541822 0.494853 0.679374 0.000000
14.413300 212.984802 -772.992371 0.501807 0.384881 0.774633 0.000000
14.405900 207.013794 -768.315979 0.236063 0.901730 0.362158 0.000000
14.366700 212.080200 -772.273682 0.662436 0.133085 0.737203 0.000000
14.354200 92.211899 -746.018494 0.457714 0.412428 -0.787656 1.000000
14.326400 90.293900 -749.225586 0.407314 0.903420 -0.133892 1.000000
14.314600 207.946594 -769.221619 0.125544 0.940907 0.314536 0.000000
14.314500 205.831100 -767.235291 0.724360 0.556058 0.407556 0.000000
14.288700 205.310699 -760.544800 0.696887 0.699924 0.156382 0.000000
14.275600 205.716202 -762.468201 -0.702525 0.610820 -0.365182 0.000000
14.224800 210.069702 -770.949524 0.402584 0.537327 0.741084 0.000000
14.190800 205.992401 -765.307983 0.902463 0.390060 0.182796 0.000000
14.185200 205.825897 -763.831787 -0.863863 0.374187 -0.337230 0.000000
14.170100 214.049698 -773.168823 0.216912 0.368314 0.904043 0.000000
14.160900 93.493698 -745.388123 0.214288 0.460046 -0.861649 1.000000
14.056300 94.224998 -744.820129 0.171953 0.530812 -0.829862 1.000000
14.041800 210.849396 -771.371521 0.353682 0.481712 0.801787 0.000000
14.007600 95.573997 -743.869080 0.024838 0.393482 -0.918997 1.000000
14.002700 206.230392 -766.411987 0.801082 0.501672 -0.326485 0.000000
13.994200 204.278900 -757.201599 0.744573 0.647521 0.162259 0.000000
13.981700 215.811295 -774.501587 0.604488 0.506827 0.614590 0.000000
13.961500 205.892502 -761.545288 0.652985 0.756901 0.026681 0.000000
13.953200 205.448700 -759.651123 0.569803 0.818288 0.075688 0.000000
13.940200 209.445404 -770.178894 0.804990 0.176705 0.566363 0.000000
13.901200 90.704002 -748.508118 0.413863 0.844905 -0.338899 1.000000
13.898800 90.531799 -751.376099 0.312794 0.946235 -0.082452 1.000000
13.891000 90.508797 -750.011475 0.347672 0.936240 -0.050784 1.000000
13.882800 206.768097 -767.608276 -0.026862 0.937611 0.346647 0.000000
13.863800 212.933105 -772.276123 -0.789202 0.517063 -0.331369 0.000000
13.839400 208.749100 -769.391479 -0.136952 0.968906 0.206069 0.000000
13.831500 205.179398 -758.484985 0.609542 0.725953 0.318514 0.000000
13.822300 207.799393 -768.415588 -0.729576 0.603396 -0.321919 0.000000
13.806000 92.040001 -746.726318 0.316366 0.434808 -0.843122 1.000000
13.756800 91.372002 -747.445496 0.479609 0.807846 -0.342578 1.000000
13.718600 211.696701 -771.721680 0.407678 0.420468 0.810559 0.000000
13.701000 214.715103 -773.598389 0.092191 0.338034 0.936608 0.000000
13.661800 206.474594 -763.464478 0.978282 0.012857 0.206877 0.000000
13.647800 206.655304 -765.009216 0.438514 0.895011 0.081616 0.000000
13.635100 92.878998 -745.831726 0.136407 0.927294 -0.348596 1.000000
13.609100 205.994003 -760.661377 0.431791 0.888132 0.157409 0.000000
13.596000 96.414902 -743.666382 0.065765 0.505127 -0.860536 1.000000
13.587400 94.961899 -744.442627 0.170702 0.356922 -0.918405 1.000000
13.565700 210.368698 -770.386292 0.252163 0.427317 0.868225 0.000000
13.532700 206.972305 -766.163513 0.914710 0.395514 0.082908 0.000000
13.508200 204.964096 -757.666199 0.587089 0.670720 0.453279 0.000000
13.484100 206.499298 -762.502319 0.812710 0.530971 0.239943 0.000000
13.441900 213.710403 -772.653503 0.148928 0.618279 0.771720 0.000000
13.417100 90.841599 -749.310181 0.398152 0.901231 -0.171047 1.000000
13.338200 205.782104 -759.029602 0.669382 0.697866 0.254777 0.000000
13.317200 96.897003 -742.937012 -0.232018 0.850732 -0.471618 1.000000
13.312300 208.543396 -768.596680 0.749632 0.271009 0.603826 0.000000
13.309600 93.791801 -745.247803 0.178146 0.522463 -0.833844 1.000000
13.305900 216.515198 -774.671814 0.565167 0.639398 0.521303 0.000000
13.304800 212.509705 -771.699524 -0.556408 0.828241 0.066542 0.000000
13.304800 211.180893 -770.923584 0.232282 0.518403 0.822984 0.000000
13.299900 90.802803 -750.695801 0.538618 0.842523 0.006784 1.000000
13.296800 207.544601 -767.709412 0.791768 0.110172 0.600804 0.000000
13.277300 206.560699 -761.620728 0.601785 0.778512 0.178250 0.000000
13.236600 91.356697 -748.210876 0.340695 0.879751 -0.331610 1.000000
13.185000 216.002197 -773.863220 -0.760310 0.185106 -0.622628 0.000000
13.168200 209.348297 -769.193787 -0.750608 0.559309 -0.351797 0.000000
13.129400 207.312698 -765.379822 -0.058432 0.995555 -0.073867 0.000000
13.117800 90.609100 -751.851379 0.513995 0.071819 -0.854781 1.000000
13.110600 95.655403 -743.922729 0.134076 0.555458 -0.820664 1.000000
13.099200 207.069107 -764.387329 -0.759051 0.613139 -0.218867 0.000000
13.080900 92.606400 -746.496399 0.052252 0.405957 -0.912397 1.000000
13.070200 207.111099 -763.095886 0.757414 0.641801 0.120060 0.000000
13.039500 207.363693 -766.849426 0.817357 0.570283 -0.081879 0.000000
13.009900 214.436798 -773.086121 0.452347 0.445815 0.772419 0.000000
13.009600 91.848701 -747.273376 0.290217 0.885688 -0.362395 1.000000
13.002900 206.346802 -759.702087 0.649312 0.735681 0.192789 0.000000
12.943900 205.578598 -758.141479 0.531599 0.759195 0.375533 0.000000
12.910900 94.594002 -744.927185 0.306239 0.518860 -0.798124 1.000000
12.862300 213.156601 -772.148071 0.122865 0.425086 0.896775 0.000000
12.820000 207.918396 -766.115479 -0.929671 0.230649 -0.287250 0.000000
12.812700 210.174393 -769.866516 0.512228 0.699100 0.498880 0.000000
12.795600 217.137497 -775.102783 0.679151 0.709951 -0.186343 0.000000
12.795000 93.254303 -745.842712 0.454252 0.710496 -0.537448 1.000000
12.791400 211.977203 -771.093201 -0.903158 0.122200 -0.411548 0.000000
12.788500 208.285507 -767.891174 0.500682 0.598459 0.625431 0.000000
12.781200 91.107399 -750.021790 0.476814 0.872498 -0.106749 1.000000
12.751700 207.276794 -762.175415 0.409529 0.911102 0.046689 0.000000
12.736100 215.238297 -773.462708 0.381231 0.548122 0.744464 0.000000
12.725600 206.863800 -760.928284 0.591142 0.764544 0.256950 0.000000
12.667400 207.597595 -763.762878 0.786490 0.607141 -0.113196 0.000000
12.661700 96.456802 -743.476624 0.043560 0.389399 -0.920038 1.000000
12.645900 91.414597 -748.897400 0.456092 0.852694 -0.254740 1.000000
12.612800 211.245697 -770.307922 -0.305196 0.885520 0.350299 0.000000
