ply
format ascii 1.0
element vertex 694
property float x
property float y
property float z
property float nx
property float ny
property float nz
property float label
element face 0
property list uchar int vertex_indices
end_header
42.705299 44.288399 -744.801880 0.898947 0.033393 -0.436784 0.000000
42.704700 49.717800 -746.819519 -0.910306 0.249060 0.330623 0.000000
42.704601 14.695500 -739.869873 0.788776 0.579666 0.204498 0.000000
42.704201 6.354200 -738.156982 0.157921 0.980579 0.116298 0.000000
42.703800 35.146198 -747.116272 0.874665 0.130697 0.466775 0.000000
42.703400 17.290501 -740.440186 0.883521 0.050526 0.465658 0.000000
42.702301 -1.002000 -738.728516 -0.654020 0.058676 -0.754198 0.000000
42.701401 28.014999 -741.421814 0.233213 0.405524 -0.883834 0.000000
42.700802 32.355202 -741.862671 -0.666873 0.089014 0.739835 0.000000
42.700199 21.615101 -741.171875 -0.942721 0.330531 0.045014 0.000000
42.698601 45.653500 -744.796875 -0.979611 0.017556 0.200136 0.000000
42.698200 47.345901 -748.425171 0.187433 0.586681 0.787829 0.000000
42.697800 46.457600 -744.735718 -0.945305 0.104739 0.308915 0.000000
42.697800 24.831200 -742.864319 0.881108 0.136550 0.452772 0.000000
42.697498 37.679501 -743.084229 -0.917086 0.108620 0.383609 0.000000
42.697300 25.242300 -741.181213 0.861949 0.006723 -0.506950 0.000000
42.697102 36.994099 -747.393616 0.694437 0.009742 -0.719487 0.000000
42.696400 49.156200 -748.003479 -0.883301 0.198412 -0.424749 0.000000
42.696301 28.523199 -741.462708 -0.300147 0.194049 0.933947 0.000000
42.696301 4.666900 -738.903015 -0.806018 0.009612 -0.591812 0.000000
42.695301 -0.972300 -738.385681 -0.637964 0.743004 0.202356 0.000000
42.694901 35.904800 -742.520874 0.925139 0.027325 -0.378643 0.000000
42.694401 45.973400 -744.800171 0.976258 0.067034 -0.205977 0.000000
42.694302 22.576000 -741.704224 0.994468 0.101969 0.025218 0.000000
42.693298 -1.566100 -738.702515 -0.780992 0.204876 -0.589980 0.000000
42.693100 1.159600 -738.515076 -0.405822 0.464028 0.787392 0.000000
42.692402 41.285500 -744.179626 -0.831408 0.218149 0.511049 0.000000
42.691299 35.625000 -747.227905 0.907377 0.170044 0.384385 0.000000
42.690201 13.679600 -741.231018 -0.545150 0.837737 0.031743 1.000000
42.689899 18.948400 -740.383179 0.429888 0.482194 -0.763338 0.000000
42.689899 0.490000 -738.759888 -0.759515 0.041017 -0.649195 0.000000
42.689602 49.036400 -746.357300 -0.789644 0.402089 0.463452 0.000000
42.689499 3.861100 -739.126770 -0.287200 0.694736 -0.659438 0.000000
42.688599 22.954201 -741.767517 0.991834 0.114748 0.055670 0.000000
42.686501 50.169800 -747.859985 0.955906 0.278860 0.092089 0.000000
42.686298 45.404999 -744.931519 0.918015 0.114579 -0.379630 0.000000
42.686199 22.370001 -741.415771 -0.999628 0.019282 0.019282 0.000000
42.685200 23.255800 -741.251587 -0.979955 0.001152 0.199215 0.000000
42.683701 23.005100 -741.273193 -0.987703 0.141434 0.066626 0.000000
42.682999 -1.734400 -738.318176 -0.245341 0.120723 0.961891 0.000000
42.681801 14.341400 -742.242615 -0.545424 0.717837 0.432692 1.000000
42.678699 38.030499 -743.135986 -0.890028 0.081921 0.448485 0.000000
42.678101 22.732700 -741.335327 -0.995137 0.049702 0.085045 0.000000
42.677399 37.236301 -743.004089 -0.828130 0.026268 0.559921 0.000000
42.676300 23.604300 -741.308777 -0.962792 0.168980 0.210897 0.000000
42.676102 23.370501 -741.903625 0.990745 0.093641 0.098265 0.000000
42.675400 17.957500 -740.446228 -0.938766 0.254510 -0.232258 0.000000
42.674599 24.290400 -742.514221 0.942511 0.147818 0.299705 0.000000
42.674099 32.549099 -745.926025 0.808365 0.253880 0.531122 0.000000
42.673500 42.044899 -744.457703 -0.440002 0.139023 0.887170 0.000000
42.673302 27.632401 -743.703308 0.626916 0.243539 0.740044 0.000000
42.673199 47.681000 -745.396790 -0.940822 0.191470 0.279629 0.000000
42.672901 18.803101 -740.657471 0.938240 0.050751 0.342243 0.000000
42.672298 34.828899 -746.917725 0.865345 0.153223 0.477180 0.000000
42.672001 43.263500 -744.680725 -0.679558 0.159628 0.716044 0.000000
42.670101 2.206500 -738.840271 -0.324168 0.475973 -0.817536 0.000000
42.668301 36.516499 -742.786377 -0.847690 0.167756 0.503269 0.000000
42.668301 19.620399 -740.948120 -0.980155 0.076329 -0.182946 0.000000
42.667099 24.168100 -741.304810 0.965943 0.048359 -0.254196 0.000000
42.666199 -2.275000 -738.312988 -0.804594 0.253673 0.536915 0.000000
42.665901 49.813599 -747.146729 -0.989813 0.140758 0.021395 0.000000
42.665100 23.672800 -742.060425 0.959707 0.280979 0.003649 0.000000
42.660999 45.352901 -748.867188 0.623741 0.122970 0.771898 0.000000
42.660900 17.596399 -740.359314 -0.972999 0.027594 -0.229153 0.000000
42.660702 2.109100 -738.585876 -0.456452 0.227473 0.860179 0.000000
42.660500 29.448999 -744.296875 0.586610 0.459594 0.666830 0.000000
42.660400 24.794800 -741.255310 0.980742 0.005776 -0.195224 0.000000
42.659901 -3.159700 -738.414978 0.863341 0.001339 -0.504619 0.000000
42.659801 49.713699 -747.587891 -0.947579 0.288161 -0.138049 0.000000
42.659401 46.982399 -745.136292 -0.901231 0.171047 0.398152 0.000000
42.659401 26.426300 -741.284973 -0.497822 0.122652 0.858563 0.000000
42.658401 35.868900 -747.279419 0.493832 0.039671 0.868652 0.000000
42.656601 23.332800 -741.626526 0.999445 0.001009 -0.033281 0.000000
42.656601 2.685300 -738.693115 -0.141641 0.430646 -0.891337 0.000000
42.656300 31.823400 -745.480591 0.742612 0.206195 0.637189 0.000000
42.655300 47.876202 -748.470581 -0.730432 0.146086 -0.667179 0.000000
42.654800 50.390301 -747.310425 0.993915 0.009776 0.109711 0.000000
42.654701 17.380899 -740.212097 -0.688436 0.279527 0.669268 0.000000
42.653801 19.636400 -740.458191 -0.657467 0.159432 0.736423 0.000000
42.653400 35.133701 -742.457825 -0.845444 0.114171 0.521718 0.000000
42.652699 27.511900 -741.348328 -0.380965 0.160034 0.910634 0.000000
42.652100 25.689199 -743.103271 0.783909 0.241562 0.571957 0.000000
42.651600 36.471001 -747.560730 -0.952907 0.018684 0.302688 0.000000
42.651402 23.608601 -741.614685 -0.997574 0.020100 0.066646 0.000000
42.651100 33.232300 -742.047974 -0.789776 0.091631 0.606513 0.000000
42.651001 41.752701 -744.386230 -0.911329 0.215195 0.350956 0.000000
42.650799 13.321400 -740.868591 -0.095394 0.905551 0.413374 1.000000
42.649200 19.167700 -740.664612 0.952114 0.103748 0.287604 0.000000
42.648800 1.535200 -738.546082 -0.422425 0.092795 0.901635 0.000000
42.648399 48.337799 -748.242615 -0.924386 0.193345 -0.328828 0.000000
42.647800 43.524601 -744.718689 -0.706680 0.176287 0.685219 0.000000
42.647800 42.404301 -744.487976 -0.803351 0.183753 0.566446 0.000000
42.647701 34.670101 -742.357910 -0.829483 0.139966 0.540711 0.000000
42.647499 46.216900 -744.885925 0.957033 0.091700 -0.275099 0.000000
42.646999 20.042801 -740.942627 0.110894 0.993657 0.018665 0.000000
42.646900 23.911501 -741.420898 -0.989001 0.094804 0.113530 0.000000
42.646400 49.297199 -747.769287 -0.988375 0.028500 -0.149339 0.000000
42.645699 49.276299 -746.552673 -0.786423 0.413480 0.458882 0.000000
42.645100 22.456200 -741.953125 0.969253 0.115599 0.217224 0.000000
42.645000 20.785000 -740.619019 -0.596463 0.070088 0.799575 0.000000
42.644901 14.066800 -741.790771 -0.528648 0.698750 0.481954 1.000000
42.644699 31.587900 -741.821472 -0.563772 0.020676 0.825671 0.000000
42.644600 -1.915600 -738.769714 -0.811314 0.433661 -0.392055 0.000000
42.644501 32.931702 -742.126587 -0.595693 0.017968 0.803011 0.000000
42.644299 0.703700 -738.392822 0.224047 0.176321 -0.958496 0.000000
42.644100 34.305901 -742.275696 -0.813504 0.049346 0.579463 0.000000
42.644100 32.465900 -742.150024 0.842469 0.498850 -0.203458 0.000000
42.643600 31.322800 -745.189514 0.735285 0.328050 0.593076 0.000000
42.643501 29.995300 -744.489685 0.556948 0.220619 0.800710 0.000000
42.640701 48.727901 -748.070496 -0.950657 0.090227 -0.296835 0.000000
42.640499 25.948500 -743.186096 0.749019 0.029511 0.661891 0.000000
42.638401 39.494099 -743.667480 -0.805815 0.150997 0.572592 0.000000
42.638401 25.724400 -741.213501 -0.562072 0.072571 0.823898 0.000000
42.637798 45.006401 -744.957825 -0.843201 0.066161 0.533511 0.000000
42.637299 -3.408100 -738.369629 0.886089 0.001321 -0.463513 0.000000
42.636902 48.673500 -746.143921 -0.801188 0.359815 0.478154 0.000000
42.636101 23.929600 -741.978210 -0.997385 0.035277 -0.063072 0.000000
42.634899 -0.028900 -738.508606 0.694284 0.058935 -0.717284 0.000000
42.634701 45.837700 -748.965027 0.458286 0.022714 -0.888514 0.000000
42.634499 13.826600 -741.454285 -0.467519 0.618332 0.631737 1.000000
42.634499 18.238501 -740.374084 0.935517 0.126274 -0.329943 0.000000
42.634399 26.292900 -743.291870 0.781131 0.178153 0.598411 0.000000
42.633999 24.538200 -741.335083 -0.960538 0.046336 0.274261 0.000000
42.633900 33.456100 -746.429077 0.701329 0.712528 0.020998 0.000000
42.633202 35.384998 -747.015320 0.839602 0.139689 0.524935 0.000000
42.632401 32.861801 -746.036194 0.829431 0.390228 0.399707 0.000000
42.632198 25.448799 -742.986023 0.870330 0.267910 0.413218 0.000000
42.631599 48.272900 -745.894226 -0.776563 0.353570 0.521476 0.000000
42.631500 24.008499 -742.286316 0.986863 0.076455 0.142325 0.000000
42.631500 1.029900 -738.832825 -0.739136 0.126922 -0.661490 0.000000
42.631001 18.547300 -740.503296 0.966695 0.105712 0.233077 0.000000
42.630199 29.860800 -741.690796 -0.261783 0.180400 0.948117 0.000000
42.629101 23.846001 -741.694214 -0.998543 0.043050 -0.032550 0.000000
42.628399 30.911699 -744.945679 0.682786 0.352036 0.640214 0.000000
42.627998 46.471600 -744.975525 -0.953800 0.089540 0.286789 0.000000
42.627102 38.209499 -743.367798 -0.815507 0.046320 0.576891 0.000000
42.626400 26.686701 -743.499329 0.601684 0.188313 0.776218 0.000000
42.625702 39.997299 -743.878784 -0.774424 0.225033 0.591294 0.000000
42.625599 43.713200 -743.903015 -0.334272 0.358694 0.871551 0.000000
42.624699 34.260399 -746.664612 0.792664 0.119564 0.597819 0.000000
42.623901 4.076200 -738.610229 -0.186519 0.034019 -0.981862 0.000000
42.623501 47.581902 -748.514099 -0.586177 0.207700 -0.783108 0.000000
42.621899 46.634499 -748.778870 -0.475482 0.243092 -0.845472 0.000000
42.620701 38.968700 -743.563782 -0.795130 0.213778 0.567510 0.000000
42.620602 29.325399 -741.607971 -0.239606 0.178031 0.954408 0.000000
42.620499 19.456100 -740.652100 0.960745 0.109910 0.254733 0.000000
42.619099 40.515900 -744.048523 0.569445 0.026325 -0.821608 0.000000
42.618999 -1.494300 -738.219177 -0.098536 0.672103 -0.733872 0.000000
42.618801 49.492901 -747.301025 0.112793 0.986642 -0.117542 0.000000
42.618599 45.867802 -745.025818 0.878751 0.003988 -0.477264 0.000000
42.618198 24.633400 -742.513428 0.927554 0.268465 0.259942 0.000000
42.617802 27.274000 -743.582520 0.577828 0.187527 0.794323 0.000000
42.617500 33.901699 -742.231812 -0.832979 0.174970 0.524911 0.000000
42.616501 0.221600 -738.515991 0.705512 0.237266 -0.667801 0.000000
42.616402 13.164300 -740.635681 0.013428 0.960743 0.277114 1.000000
42.616100 33.972401 -746.645508 0.768976 0.336931 0.543281 0.000000
42.616100 25.090300 -741.368103 0.994348 0.059148 -0.088163 0.000000
42.615898 48.091301 -748.208496 0.929952 0.095830 0.354974 0.000000
42.615601 49.471699 -746.763123 -0.851389 0.500210 0.157883 0.000000
42.615398 25.073299 -742.777710 0.879686 0.301304 0.367924 0.000000
42.614601 24.091400 -741.609985 0.993522 0.073302 -0.086835 0.000000
42.613701 0.747700 -738.744629 0.741180 0.117341 0.660972 0.000000
42.613602 5.837900 -738.431396 0.194303 0.015125 0.980825 0.000000
42.612000 37.297199 -747.466614 0.504281 0.399834 -0.765397 0.000000
42.611900 1.846800 -738.805908 -0.726032 0.044045 -0.686249 0.000000
42.611301 21.870600 -740.796875 0.326766 0.681169 -0.655158 0.000000
42.610401 17.109100 -740.267212 -0.327463 0.385884 0.862474 0.000000
42.610199 27.133699 -741.322327 -0.535905 0.040158 0.843323 0.000000
42.608898 42.942799 -744.620117 -0.546997 0.072459 0.833993 0.000000
42.608601 36.047798 -742.752014 -0.728179 0.216738 0.650215 0.000000
42.608501 -0.508900 -738.474670 -0.675923 0.308118 0.669471 0.000000
42.607601 47.223000 -745.395386 -0.873797 0.305449 0.378392 0.000000
42.606899 11.611800 -739.593323 0.901283 0.019852 -0.432775 0.000000
42.606201 24.319401 -742.235229 0.985816 0.021805 0.166407 0.000000
42.605499 1.283800 -738.714294 -0.794158 0.026518 -0.607133 0.000000
42.603600 25.936701 -741.345886 -0.960476 0.041110 0.275311 0.000000
42.602600 25.481300 -741.398071 0.966793 0.235029 -0.100364 0.000000
42.602501 43.314499 -743.936279 0.876124 0.362901 -0.317348 0.000000
42.602200 -2.153200 -739.275879 0.394984 0.599913 0.695767 0.000000
42.601101 36.937500 -743.048096 -0.775879 0.290360 0.560092 0.000000
42.599701 35.559898 -742.564514 -0.803012 0.154023 0.575716 0.000000
42.599400 -1.241100 -738.637512 0.619697 0.104015 0.777918 0.000000
42.598701 20.254700 -740.756592 -0.771473 0.636224 0.006900 0.000000
42.597801 24.474300 -741.626709 0.988662 0.068544 -0.133603 0.000000
42.594898 46.694199 -745.174377 -0.853647 0.205535 0.478583 0.000000
42.594898 24.210699 -741.846313 -0.997835 0.065688 -0.003128 0.000000
42.594799 12.816800 -740.223877 -0.843361 0.243365 0.479078 0.000000
42.594002 47.152000 -748.613403 -0.493025 0.183209 -0.850506 0.000000
42.594002 24.873800 -741.509521 -0.977381 0.077065 0.196944 0.000000
42.593800 47.542702 -745.590088 -0.798904 0.203943 0.565826 0.000000
42.593601 43.817501 -744.856018 -0.517259 0.001344 0.855828 0.000000
42.592701 28.991699 -741.562195 -0.150161 0.864521 0.479641 0.000000
42.591099 6.979700 -738.988770 -0.082321 0.156291 0.984275 0.000000
42.588501 36.793701 -747.508484 -0.017423 0.033822 0.999276 0.000000
42.587799 21.038401 -740.972412 -0.976073 0.020113 -0.216511 0.000000
42.587502 44.820999 -748.811279 0.095413 0.418987 -0.902965 0.000000
42.586498 48.969200 -747.876709 -0.961433 0.139964 -0.236761 0.000000
42.585300 2.428900 -738.753784 -0.163449 0.095648 0.981904 0.000000
42.584499 49.511299 -747.019775 0.998252 0.019944 -0.055633 0.000000
42.584099 30.896400 -741.829529 0.428936 0.044373 -0.902244 0.000000
42.584000 33.306400 -746.229370 0.777400 0.079622 0.623947 0.000000
42.583900 30.565300 -744.709778 0.666026 0.279507 0.691581 0.000000
42.583599 6.303400 -737.926819 0.678520 0.510984 0.527737 0.000000
42.583401 31.242399 -741.843872 -0.542116 0.130754 0.830069 0.000000
42.580799 14.159000 -742.093689 -0.384273 0.795879 0.467880 1.000000
42.580002 5.974900 -738.660278 0.003115 0.997987 0.063348 0.000000
42.578701 24.426500 -742.010071 0.992255 0.122787 0.018805 0.000000
42.577400 -0.224500 -738.667725 0.602356 0.043731 0.797029 0.000000
42.577202 37.818001 -743.290527 -0.779699 0.122799 0.613995 0.000000
42.574799 19.812300 -740.638184 0.996878 0.001053 -0.078950 0.000000
42.573200 21.020901 -740.677429 -0.473185 0.062080 0.878773 0.000000
42.573002 -0.769800 -738.492615 0.754181 0.023787 -0.656236 0.000000
42.572601 21.836800 -741.343872 0.971205 0.167185 0.169737 0.000000
42.572201 21.351801 -741.225586 0.982486 0.140007 0.122963 0.000000
42.571301 15.490200 -740.008606 -0.892357 0.404555 -0.200087 0.000000
42.569302 9.805400 -739.355530 0.309454 0.179012 -0.933913 0.000000
42.569199 47.852699 -745.730286 -0.787891 0.241828 0.566345 0.000000
42.568600 32.188702 -745.549377 0.810750 0.446152 0.378990 0.000000
42.568600 7.981000 -739.190674 0.818202 0.109385 0.564428 0.000000
42.567902 24.947800 -742.557617 0.949123 0.196885 0.245767 0.000000
42.567299 3.715700 -738.682983 -0.297652 0.068292 -0.952229 0.000000
42.566299 38.610699 -743.519226 -0.615061 0.113572 0.780257 0.000000
42.565899 21.429001 -740.765015 -0.716055 0.086043 0.692721 0.000000
42.564400 5.185800 -738.508423 0.050457 0.052605 -0.997340 0.000000
42.564301 8.708500 -739.264282 0.358184 0.024392 -0.933332 0.000000
42.563099 46.155102 -745.113525 0.861589 0.068647 -0.502944 0.000000
42.563099 11.276700 -739.598999 -0.019204 0.150246 -0.988462 0.000000
42.563000 36.116699 -747.274902 0.832037 0.201568 0.516803 0.000000
42.562000 30.511101 -741.740723 -0.471043 0.178672 0.863826 0.000000
42.561501 28.294300 -741.487427 -0.314715 0.011195 0.949120 0.000000
42.561401 24.637400 -741.863770 0.992125 0.112252 -0.055559 0.000000
42.560902 47.716301 -748.252502 0.947139 0.008735 0.320705 0.000000
42.560902 26.649000 -741.391785 -0.716995 0.318844 0.619885 0.000000
42.560501 50.187698 -747.009521 -0.891224 0.257399 -0.373451 0.000000
42.558201 20.700500 -740.883179 0.952233 0.145573 0.268442 0.000000
42.558102 29.147400 -744.138123 0.524862 0.271048 0.806878 0.000000
42.557598 34.620800 -746.758301 0.770626 0.145713 0.620406 0.000000
42.557098 -3.292700 -738.634216 0.974677 0.037349 -0.220477 0.000000
42.556599 25.198900 -741.591003 0.996580 0.031244 -0.076494 0.000000
42.555199 33.705601 -746.446899 0.843001 0.236284 0.483239 0.000000
42.553299 -1.745700 -738.548584 -0.897213 0.072821 -0.435553 0.000000
42.552898 44.138000 -744.933228 -0.503657 0.204185 0.839428 0.000000
42.552898 37.350201 -743.193726 -0.693230 0.185989 0.696305 0.000000
42.552299 35.794601 -742.731812 -0.788776 0.204498 0.579666 0.000000
42.550701 26.203699 -741.444885 -0.997278 0.011609 0.072817 0.000000
42.550400 10.474700 -739.431030 -0.692951 0.485900 0.532654 0.000000
42.550201 24.973200 -741.759216 0.988283 0.012396 -0.152130 0.000000
42.549599 3.027300 -738.706604 0.352578 0.087139 -0.931717 0.000000
42.548199 49.338299 -747.510803 -0.983039 0.183394 -0.001139 0.000000
42.547901 7.530500 -739.107483 0.479229 0.633927 0.607023 0.000000
42.547901 -2.147000 -739.024780 -0.921564 0.173057 -0.347521 0.000000
42.547798 48.754200 -746.404480 -0.817940 0.350999 0.455823 0.000000
42.546600 32.176800 -741.972900 -0.545277 0.093517 0.833023 0.000000
42.545898 46.283199 -748.819214 -0.570955 0.187273 -0.799337 0.000000
42.544201 23.179199 -741.450684 -0.996937 0.077339 0.011654 0.000000
42.543499 24.621799 -742.258423 0.990430 0.127096 -0.053815 0.000000
42.543499 31.827000 -741.966797 -0.514884 0.057209 0.855349 0.000000
42.542099 33.453701 -742.300720 0.500346 0.110391 -0.858760 0.000000
42.542000 48.454899 -746.053223 -0.788657 0.385458 0.479000 0.000000
42.541901 4.713800 -738.535828 -0.097695 0.005368 0.995202 0.000000
42.541000 29.709101 -744.323730 0.637947 0.172048 0.750615 0.000000
42.539501 -2.509600 -738.540222 0.879477 0.221729 -0.421137 0.000000
42.539398 35.966400 -747.064819 0.760926 0.312380 0.568692 0.000000
42.539398 34.452099 -742.465515 -0.624077 0.175474 0.761404 0.000000
42.538601 33.125099 -746.060974 0.834524 0.207495 0.510408 0.000000
42.538300 48.476700 -747.956482 -0.967901 0.161532 -0.192546 0.000000
42.537498 44.705898 -745.029480 -0.676841 0.143207 0.722065 0.000000
42.536701 45.565399 -745.094727 0.795508 0.006870 -0.605905 0.000000
42.536499 40.792900 -744.120117 -0.372280 0.400554 0.837236 0.000000
42.536499 27.077499 -743.439880 -0.737010 0.015325 -0.675708 0.000000
42.534698 37.690201 -747.683899 -0.883929 0.305686 0.353873 0.000000
42.534500 39.764000 -743.887024 -0.557522 0.159933 0.814611 0.000000
42.533501 21.771999 -741.056580 0.940587 0.188668 0.282314 0.000000
42.532700 28.729300 -743.906982 0.669230 0.287271 0.685279 0.000000
42.532600 30.240900 -741.778503 0.107001 0.611227 -0.784189 0.000000
42.532299 12.435500 -740.005615 -0.079989 0.667544 0.740261 0.000000
42.531502 31.692200 -745.243408 0.796200 0.327096 0.508993 0.000000
42.530800 27.910200 -743.677002 0.584522 0.049297 0.809879 0.000000
42.530701 35.180401 -746.859375 0.834376 0.046121 0.549263 0.000000
42.530201 49.175701 -746.823181 -0.953427 0.250761 0.167621 0.000000
42.529400 25.570400 -741.645874 0.939508 0.311357 -0.142762 0.000000
42.529301 45.216599 -745.078613 -0.662914 0.038164 0.747722 0.000000
42.528999 22.198601 -741.189819 0.961034 0.075101 0.266034 0.000000
42.528301 27.741501 -741.477600 -0.492401 0.020236 0.870133 0.000000
42.528099 4.400300 -738.560486 -0.072048 0.033336 0.996844 0.000000
42.527401 24.873600 -742.069885 0.997680 0.026562 -0.062687 0.000000
42.527302 31.172199 -744.988586 0.768411 0.274093 0.578289 0.000000
42.525299 24.968700 -742.304688 0.994301 0.096437 0.045447 0.000000
42.524899 48.719200 -747.838684 -0.965524 0.066372 -0.251712 0.000000
42.524300 22.518801 -740.964111 -0.877485 0.446800 0.174325 0.000000
42.523998 25.365000 -742.762329 0.900518 0.248267 0.356975 0.000000
42.523899 -1.955100 -738.256714 0.568721 0.034763 -0.821795 0.000000
42.523602 28.755301 -741.483582 -0.384572 0.068339 0.920562 0.000000
42.522499 30.290199 -744.523804 0.599549 0.379440 0.704675 0.000000
42.521999 26.908199 -741.446716 0.847184 0.136076 -0.513578 0.000000
42.520000 -1.433400 -738.483521 -0.948452 0.202754 -0.243577 0.000000
42.519299 23.451700 -741.091675 -0.814826 0.090857 0.572541 0.000000
42.517101 34.893600 -742.503784 -0.779573 0.204503 0.591983 0.000000
42.516399 49.181599 -747.245483 -0.995081 0.076374 -0.063092 0.000000
42.515400 49.043301 -747.626587 -0.979329 0.121954 -0.161374 0.000000
42.515099 25.888100 -741.655518 0.966793 0.235029 -0.100364 0.000000
42.513199 -2.183500 -738.748230 -0.879640 0.446363 -0.164296 0.000000
42.512501 32.603199 -745.722229 0.784805 0.126103 0.606777 0.000000
42.512199 25.375900 -741.856079 0.976983 0.170505 -0.128190 0.000000
42.511501 36.543598 -747.299500 0.819194 0.215900 0.531328 0.000000
42.511299 40.201302 -744.058289 -0.283946 0.176952 0.942371 0.000000
42.511002 37.921001 -747.795898 0.748072 0.401045 0.528725 0.000000
42.510799 49.905701 -746.889587 0.549675 0.163255 0.819271 0.000000
42.509499 28.180500 -743.745117 0.734301 0.165712 0.658287 0.000000
42.509300 0.966800 -738.497925 0.919813 0.231029 -0.317127 0.000000
42.508499 48.053799 -745.867310 -0.802485 0.302317 0.514414 0.000000
42.507801 34.098400 -742.422180 -0.929584 0.087190 0.358151 0.000000
42.507702 25.690399 -742.853088 0.919346 0.243145 0.309326 0.000000
42.507301 36.457401 -742.970581 -0.543914 0.051735 0.837544 0.000000
42.506802 46.866402 -745.356018 -0.832034 0.159262 0.531371 0.000000
42.504700 32.714401 -742.113220 -0.394619 0.160982 0.904633 0.000000
42.502399 44.407001 -745.029480 -0.487777 0.119426 0.864761 0.000000
42.501801 13.523800 -741.380981 -0.004095 0.820314 0.571899 1.000000
42.500099 29.552299 -741.651794 -0.288336 0.481599 0.827602 0.000000
42.499901 46.818001 -748.638672 -0.592674 0.281242 -0.754745 0.000000
42.499100 0.451900 -738.598572 0.267070 0.043477 0.962696 0.000000
42.498600 46.384701 -745.231812 -0.814703 0.060926 0.576668 0.000000
42.498199 26.231501 -743.071228 0.861360 0.227785 0.454062 0.000000
42.497601 23.726200 -741.108215 -0.755605 0.038133 0.653916 0.000000
42.497601 -2.013600 -738.538025 -0.931780 0.209405 -0.296539 0.000000
42.497299 27.329800 -741.468811 -0.840894 0.012266 0.541061 0.000000
42.494701 47.458900 -748.224426 -0.937501 0.210346 -0.277211 0.000000
42.494701 48.954399 -746.561890 -0.945613 0.164159 0.280835 0.000000
42.494598 49.751499 -747.334473 -0.983764 0.174709 0.041039 0.000000
42.494400 30.829100 -744.748474 0.566540 0.075634 0.820556 0.000000
42.494301 26.763000 -743.263306 0.877978 0.112415 0.465314 0.000000
42.494301 22.883499 -741.148071 -0.806862 0.561624 0.183171 0.000000
42.493698 39.227798 -743.761292 -0.486950 0.140997 0.861974 0.000000
42.492901 26.436001 -741.607117 0.711247 0.650783 -0.265723 0.000000
42.492901 5.605400 -738.565613 -0.029100 0.178093 0.983583 0.000000
42.489201 14.379400 -742.446716 -0.755485 0.533571 0.380190 1.000000
42.489101 25.280899 -742.494324 0.984858 0.172722 0.014870 0.000000
42.487400 19.148399 -740.454895 -0.938095 0.091814 0.333988 0.000000
42.486301 26.137100 -741.750122 0.770557 0.567194 -0.290746 0.000000
42.486000 45.834499 -745.254822 -0.743797 0.026715 0.667871 0.000000
42.481998 24.085501 -741.122986 -0.597924 0.040799 0.800514 0.000000
42.481899 25.184200 -742.113770 0.993543 0.050292 -0.101701 0.000000
42.480801 37.056000 -747.528015 0.201818 0.185989 0.961602 0.000000
42.480301 13.028400 -740.348816 -0.146045 0.315293 0.937689 0.000000
42.478901 6.139200 -738.318115 -0.181053 0.363532 -0.913819 0.000000
42.478001 35.592999 -746.928589 0.461484 0.181350 0.868415 0.000000
42.478001 26.526699 -743.173584 0.873222 0.267869 0.407100 0.000000
42.477600 46.481998 -748.568420 -0.886371 0.173199 -0.429359 0.000000
42.476398 -1.126200 -738.357971 -0.935098 0.152417 0.319938 0.000000
42.475899 31.927999 -745.320129 0.718578 0.343809 0.604518 0.000000
42.475700 31.483999 -745.082581 0.776588 0.255725 0.575774 0.000000
42.475498 48.745499 -747.593384 -0.971710 0.214403 -0.099052 0.000000
42.474800 48.916401 -747.371887 -0.982628 0.134823 -0.127535 0.000000
42.474701 3.405300 -738.747498 0.612356 0.585365 -0.531383 0.000000
42.472099 25.964500 -742.862488 -0.923045 0.152212 -0.353299 0.000000
42.472099 22.120899 -740.926086 -0.873052 0.036774 0.486239 0.000000
42.471001 33.796299 -742.424011 -0.989432 0.037573 0.140046 0.000000
42.470501 28.484200 -743.851807 0.689308 0.092200 0.718578 0.000000
42.470001 38.378899 -743.505981 -0.559944 0.199871 0.804061 0.000000
42.468601 23.119900 -741.031006 -0.483092 0.068218 0.872908 0.000000
42.468102 41.178600 -744.228516 -0.270476 0.320185 0.907923 0.000000
42.467999 45.585400 -748.824707 0.623434 0.136049 0.769948 0.000000
42.466999 27.475599 -743.576172 0.644337 0.064577 0.762011 0.000000
42.466000 35.342499 -742.639893 -0.579249 0.170901 0.797034 0.000000
42.465099 41.436699 -744.318115 -0.160560 0.183681 0.969784 0.000000
42.465099 1.367300 -738.457886 0.943615 0.085544 -0.319802 0.000000
42.463600 32.938999 -745.841614 0.883088 0.290351 0.368580 0.000000
42.463200 26.682800 -741.667480 -0.979115 0.117001 0.166265 0.000000
42.462799 34.431801 -746.568176 0.850591 0.334327 0.405858 0.000000
42.462502 37.360699 -747.656921 0.692485 0.679866 -0.241344 0.000000
42.462101 47.970600 -748.026184 0.914265 0.174890 0.365422 0.000000
42.461899 48.530800 -746.331177 -0.847170 0.315551 0.427471 0.000000
42.460899 42.556000 -744.691223 -0.324231 0.100071 0.940670 0.000000
42.460201 13.767400 -741.639221 -0.307087 0.728327 0.612566 1.000000
42.459599 25.447100 -742.117493 0.918051 0.381260 -0.108735 0.000000
42.459400 34.040100 -746.449829 0.861237 0.263706 0.434430 0.000000
42.458302 25.731001 -741.934021 0.017738 0.975614 -0.218774 0.000000
42.457401 24.240601 -741.458984 0.406554 0.827346 0.387571 0.000000
42.457001 38.852402 -743.752380 -0.425854 0.198928 0.882653 0.000000
42.455101 34.919300 -746.795593 0.919852 0.129029 0.370438 0.000000
42.454800 33.186298 -742.332397 -0.166093 0.072890 0.983413 0.000000
42.454102 36.728401 -743.036316 -0.523978 0.267464 0.808647 0.000000
42.452999 28.003300 -741.485779 -0.581165 0.087968 0.809017 0.000000
42.452801 44.593201 -748.877319 -0.273078 0.125326 0.953794 0.000000
42.451801 25.562099 -742.393188 0.714195 0.677491 -0.175872 0.000000
42.451401 47.329800 -745.654114 -0.809821 0.280383 0.515340 0.000000
42.451401 2.754600 -738.837219 0.364584 0.006352 -0.931149 0.000000
42.449402 1.898200 -738.443481 0.476715 0.198756 0.856294 0.000000
42.448700 47.045799 -748.338013 -0.955989 0.180501 -0.231309 0.000000
42.448101 33.775200 -746.182129 0.927223 0.125003 0.353032 0.000000
42.446098 18.871700 -740.482971 -0.772394 0.455598 0.442535 0.000000
42.444901 27.101601 -741.638489 0.979467 0.051425 -0.194937 0.000000
42.444698 29.028999 -743.919617 0.726497 0.271840 0.631114 0.000000
42.444401 31.475401 -741.943420 -0.489196 0.144568 0.860109 0.000000
42.444199 49.031200 -747.027222 -0.993956 0.073002 -0.081987 0.000000
42.443199 45.955200 -748.797424 -0.774823 0.116592 -0.621334 0.000000
42.442402 29.442600 -744.086182 0.691633 0.254812 0.675806 0.000000
42.441700 0.695600 -738.562927 -0.970538 0.159838 -0.180298 0.000000
42.441601 26.359900 -741.909729 -0.770137 0.637877 0.001378 0.000000
42.441200 29.997601 -744.322998 0.700260 0.312125 0.642039 0.000000
42.439602 13.393100 -741.075806 0.051765 0.919824 0.388901 1.000000
42.439301 25.743900 -742.184082 0.979514 0.117049 -0.163868 0.000000
42.438499 41.925999 -744.453979 -0.139714 0.120276 0.982860 0.000000
42.437500 47.632301 -745.841980 -0.847758 0.269251 0.456958 0.000000
42.435699 48.203999 -747.905823 0.969909 0.030348 0.241567 0.000000
42.434799 36.326000 -747.064514 0.917352 0.057418 0.393914 0.000000
42.434502 13.870200 -741.959229 -0.114660 0.138799 0.983661 1.000000
42.433998 48.864601 -746.795410 -0.972132 0.203000 0.117261 0.000000
42.433899 25.997900 -741.953430 -0.970016 0.242803 0.010765 0.000000
42.432598 36.801102 -747.231018 0.921840 0.116776 0.369560 0.000000
42.432400 37.590698 -743.272522 -0.467013 0.266644 0.843089 0.000000
42.430099 45.203201 -748.801208 -0.853760 0.123208 -0.505878 0.000000
42.430000 47.281502 -748.431885 -0.794969 0.261854 -0.547227 0.000000
42.428299 -0.222100 -738.432312 0.218477 0.029847 0.975386 0.000000
42.421902 37.131401 -743.235413 -0.451627 0.136205 0.881749 0.000000
42.421902 -0.933700 -738.606079 0.042788 0.026090 0.998743 0.000000
42.420200 42.275200 -744.555481 -0.275294 0.352674 0.894334 0.000000
42.419201 24.649401 -741.437317 0.940101 0.326702 0.097344 0.000000
42.418800 48.541302 -747.456604 -0.931557 0.340613 -0.127217 0.000000
42.418598 25.843700 -742.645386 0.988004 0.130093 -0.083213 0.000000
42.418400 42.803299 -744.720886 -0.397190 0.242479 -0.885124 0.000000
42.418301 39.489899 -743.888916 -0.300416 0.312255 0.901248 0.000000
42.415199 44.962601 -745.137512 -0.540796 0.130436 0.830979 0.000000
42.415100 36.079201 -742.945190 -0.528123 0.229418 0.817590 0.000000
42.414700 48.167400 -746.097412 -0.813757 0.239340 0.529637 0.000000
42.411201 43.570400 -744.818481 -0.343796 0.233550 0.909538 0.000000
42.410000 32.351200 -742.093872 -0.521683 0.130055 0.843168 0.000000
42.409901 34.651501 -742.634583 0.832325 0.377468 -0.405897 0.000000
42.409401 27.590099 -741.641479 0.990553 0.120519 -0.065425 0.000000
42.408798 35.591301 -742.768127 -0.529637 0.239340 0.813757 0.000000
42.408199 48.790600 -747.130615 -0.973948 0.220631 -0.052415 0.000000
42.407501 -0.500300 -738.633911 -0.242925 0.063534 0.967962 0.000000
42.406601 48.523102 -747.720886 -0.928691 0.337327 -0.154088 0.000000
42.406200 37.946800 -743.422119 -0.457534 0.304502 0.835429 0.000000
42.405899 47.079700 -745.562500 -0.825795 0.251597 0.504738 0.000000
42.403702 20.523500 -740.720276 -0.964538 0.122665 0.233710 0.000000
42.403400 26.902000 -741.797791 0.977651 0.069397 -0.198452 0.000000
42.402000 26.028200 -742.205688 0.663279 0.724836 -0.186210 0.000000
42.400600 29.966299 -741.787903 -0.332892 0.039844 0.942123 0.000000
42.399300 37.051201 -747.280823 0.931279 0.171222 0.321563 0.000000
42.399300 33.335999 -745.971191 -0.939253 0.053263 -0.339067 0.000000
42.398701 26.616699 -741.971985 -0.955429 0.277635 0.100366 0.000000
42.397099 25.636299 -741.392090 0.783836 0.064484 -0.617611 0.000000
42.396801 46.185699 -748.608582 -0.902453 0.095652 -0.420036 0.000000
42.396099 33.545898 -746.273682 0.892795 0.102314 0.438689 0.000000
42.395599 26.448200 -742.915527 -0.966600 0.028035 -0.254753 0.000000
42.395199 3.947700 -738.635376 0.152231 0.033193 0.987787 0.000000
42.395100 32.368000 -745.430420 0.781854 0.100837 0.615253 0.000000
42.393501 25.352301 -741.464905 -0.961144 0.061887 0.269019 0.000000
42.392502 6.353900 -738.080688 -0.432373 0.554962 -0.710683 0.000000
42.392300 47.876400 -746.045715 -0.861274 0.250635 0.442029 0.000000
42.391602 27.289900 -743.320984 0.891946 0.036324 0.450681 0.000000
42.391201 46.143799 -745.308472 0.723542 0.009721 -0.690212 0.000000
42.391102 34.270000 -746.361084 0.888891 0.138844 0.436573 0.000000
42.390701 24.881901 -741.348877 -0.901665 0.116389 0.416477 0.000000
42.389999 5.802600 -738.685974 -0.776198 0.221549 0.590282 0.000000
42.389702 43.056999 -744.832214 -0.248355 0.684953 0.684953 0.000000
42.388901 28.478201 -741.570129 -0.501579 0.051125 0.863600 0.000000
42.388302 46.550999 -745.419312 -0.777516 0.138789 0.613357 0.000000
42.387901 35.350399 -746.723999 0.864521 0.150161 0.479641 0.000000
42.387402 44.204800 -748.921814 -0.267910 0.347839 -0.898461 0.000000
42.387402 47.679798 -748.032227 -0.902327 0.272317 -0.334141 0.000000
42.386501 48.666500 -746.604797 -0.937254 0.218646 0.271567 0.000000
42.384701 26.116199 -742.654907 0.969615 0.243312 0.025421 0.000000
42.384499 26.288200 -742.213318 -0.850035 0.526725 -0.001347 0.000000
42.383801 27.707500 -743.440125 0.725631 0.332784 0.602258 0.000000
42.383701 30.524900 -744.479919 0.775825 0.215249 0.593096 0.000000
42.383202 35.038700 -742.675720 -0.496178 0.095255 0.862980 0.000000
42.382301 29.687901 -744.123901 -0.630686 0.175615 -0.755907 0.000000
42.380501 31.107800 -744.789429 0.740384 0.359615 0.567899 0.000000
42.376400 34.237099 -742.603088 0.975464 0.214481 0.049682 0.000000
42.376301 28.078899 -743.552612 -0.635321 0.041034 -0.771158 0.000000
42.375301 5.808400 -738.349121 0.438039 0.725658 0.530606 0.000000
42.374199 27.302200 -741.795593 0.993020 0.050493 -0.106595 0.000000
42.372898 47.240501 -748.130676 -0.957348 0.174426 -0.230349 0.000000
42.372601 43.965401 -744.997070 -0.372700 0.237173 0.897131 0.000000
42.372501 31.093800 -741.958984 -0.424318 0.098776 0.900110 0.000000
42.371300 40.457699 -744.092224 -0.177308 0.137068 0.974564 0.000000
42.370499 4.938400 -738.579895 0.184914 0.091845 -0.978453 0.000000
42.369999 49.253399 -746.629822 -0.123853 0.213232 0.969119 0.000000
42.369801 48.292400 -746.359802 -0.902331 0.379241 0.204877 0.000000
42.368000 44.930099 -748.747375 0.449025 0.064539 0.891185 0.000000
42.367901 35.821301 -746.876892 0.895957 0.044595 0.441897 0.000000
42.366699 27.042000 -743.166077 0.950967 0.143113 0.274189 0.000000
42.366600 29.178400 -741.642395 0.583933 0.040609 -0.810785 0.000000
42.364799 26.733400 -743.006287 0.969398 0.205630 0.134106 0.000000
42.364498 45.376900 -745.261780 -0.549769 0.096678 0.829703 0.000000
42.363098 28.767900 -743.716614 0.770765 0.260074 0.581620 0.000000
42.362598 0.023500 -738.557312 0.985616 0.160558 0.052738 0.000000
42.360401 26.673800 -742.328674 0.987312 0.093187 -0.128575 0.000000
42.360001 35.828499 -742.903809 -0.421921 0.214662 0.880853 0.000000
42.360001 31.966000 -742.090027 -0.514831 0.123269 0.848383 0.000000
42.359798 43.550400 -748.702820 0.909821 0.341001 0.236524 0.000000
42.359100 6.102800 -738.759399 0.432665 0.435906 -0.789168 0.000000
42.358501 38.322399 -747.766174 0.691624 0.422936 -0.585476 0.000000
42.357601 34.682701 -746.568481 0.872345 0.168604 0.458897 0.000000
42.357498 30.632500 -741.866089 -0.318790 0.058079 0.946044 0.000000
42.350399 27.944099 -741.719177 -0.956509 0.263729 0.124648 0.000000
42.349998 32.837101 -745.626221 0.835158 0.158725 0.526609 0.000000
42.349899 26.824800 -742.111877 0.985741 0.094164 -0.139458 0.000000
42.349800 34.044701 -746.167603 0.882871 0.173656 0.436328 0.000000
42.348701 33.688599 -745.929016 0.902483 0.385541 0.192048 0.000000
42.348598 48.130901 -747.674622 0.974783 0.044693 0.218632 0.000000
42.348598 27.546900 -741.880310 0.897171 0.403077 -0.180590 0.000000
42.348000 46.816502 -748.415710 -0.864320 0.128422 -0.486270 0.000000
42.348000 48.477798 -747.157288 -0.988488 0.109310 -0.104608 0.000000
42.347900 33.552898 -742.528381 -0.394081 0.897224 -0.199222 0.000000
42.345299 48.537102 -746.887329 -0.996455 0.048899 0.068459 0.000000
42.344799 26.400200 -742.497620 -0.864673 0.491453 -0.103989 0.000000
42.341202 21.675400 -740.920715 -0.937035 0.190183 0.292910 0.000000
42.340801 31.777000 -745.058716 0.852278 0.218726 0.475164 0.000000
42.340099 27.125000 -742.053406 0.984526 0.119009 -0.128626 0.000000
42.340099 28.798800 -741.745422 -0.553664 0.440604 0.706629 0.000000
42.339500 39.969002 -743.984070 -0.136919 0.269851 0.953118 0.000000
42.339199 31.365700 -744.831726 0.809287 0.315163 0.495708 0.000000
42.338699 28.419500 -743.605225 0.729586 0.346106 0.589843 0.000000
42.335999 28.230101 -741.604797 0.439025 0.465138 -0.768702 0.000000
42.335899 43.246498 -748.695923 -0.620170 0.532299 -0.576235 0.000000
42.335499 47.901001 -747.808228 -0.966613 0.055981 -0.250050 0.000000
42.334400 37.267101 -747.426270 0.596873 0.187763 0.780056 0.000000
42.333599 4.543500 -738.408508 -0.326981 0.382246 -0.864275 0.000000
42.333401 30.791901 -744.520813 0.796447 0.394201 0.458560 0.000000
42.332298 26.017300 -741.439087 0.846909 0.014953 -0.531527 0.000000
42.332001 45.932800 -748.554871 -0.906931 0.038621 -0.419505 0.000000
42.330601 30.284599 -744.327515 0.712657 0.463476 0.526602 0.000000
42.328800 43.846298 -748.828918 -0.914950 0.100137 -0.390946 0.000000
42.328300 36.597698 -747.128906 -0.490513 0.028534 -0.870967 0.000000
42.327702 48.298199 -747.344299 -0.948002 0.296500 -0.115675 0.000000
42.327099 34.968498 -746.541809 0.886184 0.194814 0.420388 0.000000
42.326801 31.703400 -742.023926 -0.427173 0.087093 0.899966 0.000000
42.326500 32.174099 -745.242920 0.783855 0.496172 0.373341 0.000000
42.324402 32.600498 -745.501709 0.878448 0.275739 0.390254 0.000000
42.324001 26.641199 -742.648804 0.988161 0.153316 0.005595 0.000000
42.323299 26.562201 -741.455200 -0.330442 0.899455 -0.285988 0.000000
42.319901 29.720100 -741.733276 -0.538352 0.192593 0.820418 0.000000
42.319901 1.603700 -738.689575 0.939241 0.091666 -0.330793 0.000000
42.319302 4.236000 -738.571106 0.260174 0.373164 0.890538 0.000000
42.319099 46.356800 -748.385681 -0.927921 0.121987 -0.352253 0.000000
42.318501 25.288000 -741.710571 0.994837 0.089635 0.047584 0.000000
42.316299 37.552502 -747.547180 0.897106 0.286184 0.336600 0.000000
42.315800 38.709202 -743.585083 -0.265902 0.243392 0.932768 0.000000
42.314400 29.258200 -743.855713 0.746445 0.209501 0.631608 0.000000
42.313301 13.157700 -740.599426 -0.004004 0.868810 0.495129 1.000000
42.313301 5.343200 -738.565186 -0.362999 0.027128 0.931395 0.000000
42.313099 46.844002 -745.593811 -0.821613 0.201986 0.533061 0.000000
42.313000 1.175800 -738.687927 0.860702 0.401866 -0.312563 0.000000
42.312698 32.899200 -742.216003 -0.453732 0.118056 0.883284 0.000000
42.311600 38.556400 -747.916504 0.834653 0.290652 0.467841 0.000000
42.310699 35.222000 -742.845276 -0.561086 0.140642 0.815722 0.000000
42.310501 45.461899 -748.653809 0.775054 0.004130 0.631882 0.000000
42.308102 1.952200 -738.764771 -0.696078 0.175932 0.696078 0.000000
42.307899 45.630199 -745.302002 -0.570904 0.112429 0.813283 0.000000
42.306000 38.170799 -743.584900 -0.226298 0.168069 0.959449 0.000000
42.305199 25.347200 -742.301208 0.954144 0.295240 0.049418 0.000000
42.305000 36.305500 -743.073303 -0.431117 0.135169 0.892114 0.000000
42.304401 44.233700 -745.044189 -0.347763 0.188786 0.918379 0.000000
42.303699 34.547798 -746.345398 0.928996 0.090076 0.358961 0.000000
42.302101 32.581501 -742.198181 -0.478844 0.144090 0.865995 0.000000
42.300900 46.929699 -748.164612 -0.976455 0.151282 -0.153782 0.000000
42.300900 3.217000 -738.677307 -0.043791 0.981157 -0.188183 0.000000
42.300201 2.534100 -738.867615 0.324998 0.058267 -0.943918 0.000000
42.300098 40.879200 -744.224426 -0.236618 0.287626 0.928053 0.000000
42.299801 48.043701 -746.314697 -0.948696 0.157891 0.273948 0.000000
42.299702 26.869900 -742.792419 0.995888 0.090535 0.003195 0.000000
42.299198 37.812801 -747.897888 0.455811 0.194499 0.868566 0.000000
42.295799 -0.212900 -738.709717 -0.567383 0.820501 0.069679 0.000000
42.295399 35.598598 -746.742676 0.914753 0.183520 0.359926 0.000000
42.295101 27.338900 -742.195923 0.972332 0.111950 -0.205032 0.000000
42.294998 34.759499 -742.835571 0.099326 0.313869 0.944257 0.000000
42.293201 2.197500 -738.868774 -0.942914 0.077374 0.323922 0.000000
42.293201 5.508300 -738.328308 -0.660990 0.323187 -0.677231 0.000000
42.291000 24.409500 -741.312622 -0.955144 0.062486 0.289476 0.000000
42.290901 47.407700 -747.940674 -0.944922 0.063688 -0.321039 0.000000
42.290798 14.131900 -742.106812 -0.871023 0.318816 0.373731 1.000000
42.290501 46.595100 -748.285095 -0.945370 0.229139 -0.231883 0.000000
42.290298 44.564098 -745.117981 -0.439456 0.326855 0.836686 0.000000
42.289501 36.202301 -746.882019 0.874275 0.143063 0.463871 0.000000
42.289398 27.503599 -743.237183 0.728124 0.671075 0.139620 0.000000
42.288502 47.638901 -746.065979 -0.892817 0.257001 0.369903 0.000000
42.287998 30.205500 -741.824890 -0.510580 0.074547 0.856593 0.000000
42.287998 5.059600 -738.340088 0.636965 0.155837 0.754977 0.000000
42.287498 36.542500 -743.168518 -0.498047 0.176918 0.848910 0.000000
42.287498 26.854799 -742.507813 0.975593 0.205453 -0.077506 0.000000
42.286800 48.241100 -746.625122 -0.944502 0.313951 0.096702 0.000000
42.286301 47.423000 -745.920410 -0.883267 0.207914 0.420252 0.000000
42.285999 28.397499 -741.820313 -0.971758 0.164295 0.169389 0.000000
42.285702 48.256302 -747.051086 -0.998497 0.054726 -0.003098 0.000000
42.285301 33.113800 -745.649414 0.909375 0.066407 0.410642 0.000000
42.284801 41.642200 -744.404419 -0.304522 0.371184 0.877205 0.000000
42.284000 3.640200 -738.550293 0.313133 0.249641 -0.916312 0.000000
42.283401 36.891998 -743.187073 -0.416768 0.218024 0.882479 0.000000
42.283199 39.067299 -743.786621 -0.172295 0.214383 0.961434 0.000000
42.281700 33.393200 -742.335693 -0.392491 0.062959 0.917598 0.000000
42.281601 27.054600 -742.355774 0.987125 0.088452 -0.133268 0.000000
42.278702 0.908900 -738.798279 0.939865 0.034620 -0.339787 0.000000
42.278301 29.939100 -744.121582 0.770902 0.350704 0.531712 0.000000
42.277100 27.718599 -742.055176 -0.928812 0.332813 0.162925 0.000000
42.276299 25.898800 -742.394897 0.995098 0.072109 0.067671 0.000000
42.273701 26.151699 -742.415771 0.239775 0.962989 0.123128 0.000000
42.271000 5.873100 -738.919128 0.199201 0.483774 0.852221 0.000000
42.270599 5.582900 -738.907104 -0.787188 0.228238 0.572924 0.000000
42.270100 39.727798 -743.948730 -0.298893 0.244549 0.922420 0.000000
42.268700 35.085800 -746.757874 0.917237 0.281671 0.281671 0.000000
42.268501 13.291000 -740.892822 -0.584083 0.644680 0.493188 1.000000
42.268002 48.054699 -747.231384 -0.995423 0.036058 -0.088506 0.000000
42.265701 37.362301 -743.364014 -0.383500 0.208519 0.899693 0.000000
42.265400 47.683998 -747.695984 -0.959157 0.233522 -0.159640 0.000000
42.264702 45.122799 -748.578918 -0.780791 0.129388 -0.611248 0.000000
42.264599 27.202299 -742.956726 0.958357 0.271427 0.088761 0.000000
42.264000 33.988602 -742.471008 -0.235708 0.117210 0.964730 0.000000
42.263100 29.549900 -743.925476 0.815181 0.290575 0.501046 0.000000
42.262901 34.461800 -742.557312 -0.407933 0.109989 0.906363 0.000000
42.259701 44.476299 -748.755920 -0.611227 0.107001 -0.784189 0.000000
42.259201 37.799400 -747.632690 0.950089 0.303770 0.071095 0.000000
42.259102 26.179199 -742.001526 0.849149 0.460530 -0.258570 0.000000
42.255798 28.009300 -742.001099 0.816222 0.453457 -0.357992 0.000000
42.254200 6.057200 -738.237671 0.178764 0.271557 -0.945674 0.000000
42.254002 35.506001 -742.956787 0.343710 0.080951 -0.935580 0.000000
42.252899 29.099001 -741.893188 0.811647 0.408225 -0.417830 0.000000
42.248199 2.915500 -738.836182 0.128962 0.179044 -0.975352 0.000000
42.247898 47.121300 -745.815613 -0.875695 0.273749 0.397768 0.000000
42.244202 38.054199 -747.703125 0.850881 0.222166 0.476070 0.000000
42.244202 47.776299 -746.296204 -0.943463 0.205220 0.260313 0.000000
42.243599 31.624201 -744.861084 0.792017 0.299982 0.531715 0.000000
42.241501 48.024300 -746.941528 -0.973842 0.225836 -0.025093 0.000000
42.240002 47.880299 -747.470093 0.977602 0.064364 0.200378 0.000000
42.238499 13.561600 -741.367004 0.044045 0.686249 0.726032 1.000000
42.237301 32.416100 -745.232727 0.843690 0.105281 0.526405 0.000000
42.237202 35.378601 -746.497314 0.888298 0.261264 0.377713 0.000000
42.236599 34.332001 -746.156921 0.848292 0.259243 0.461729 0.000000
42.236198 27.083300 -742.655273 0.989358 0.145461 0.003331 0.000000
42.235500 40.221401 -744.049927 -0.246460 0.163863 0.955200 0.000000
42.234299 30.839300 -741.937927 -0.536066 0.146200 0.831420 0.000000
42.233799 37.663399 -743.411682 -0.337164 0.197746 0.920444 0.000000
42.232601 37.480099 -747.299011 0.916118 0.138467 0.376238 0.000000
42.231701 33.936501 -745.914673 0.951081 0.026384 0.307813 0.000000
42.231098 46.334202 -745.499084 -0.786192 0.082528 0.612448 0.000000
42.230000 47.128300 -747.958374 -0.952781 0.120254 -0.278831 0.000000
42.230000 45.919899 -745.465576 -0.591274 0.073014 0.803159 0.000000
42.229900 29.398701 -741.856628 -0.918920 0.032866 0.393072 0.000000
42.228600 36.798401 -746.989075 0.879754 0.142546 0.453556 0.000000
42.228500 29.071501 -743.688782 0.755111 0.344408 0.557844 0.000000
42.228298 36.459400 -746.870300 0.918904 0.128896 0.372828 0.000000
42.226601 31.104300 -744.569519 0.796240 0.336687 0.502637 0.000000
42.225601 42.989899 -748.700989 0.919118 0.198073 0.340572 0.000000
42.223701 33.092999 -742.353821 -0.500795 0.170894 0.848528 0.000000
42.223400 31.443899 -742.101685 -0.582373 0.091041 0.807808 0.000000
42.223000 43.358799 -744.862976 -0.230022 0.312887 0.921516 0.000000
42.222900 28.692600 -743.496521 0.944455 0.016349 0.328233 0.000000
42.222000 28.276100 -743.352905 -0.926978 0.001272 -0.375114 0.000000
42.221699 42.123600 -744.537720 -0.203786 0.278646 0.938524 0.000000
42.220699 27.559299 -742.981873 0.979090 0.152248 0.134919 0.000000
42.220299 26.473600 -742.101685 -0.821910 0.563719 -0.081761 0.000000
42.217499 35.963402 -746.704285 0.914294 0.229657 0.333652 0.000000
42.216202 37.034199 -747.073975 0.891992 0.288366 0.348131 0.000000
42.216000 49.267101 -746.994812 0.771566 0.181815 -0.609614 0.000000
42.215401 47.438599 -747.683899 -0.968295 0.113243 -0.222670 0.000000
42.214600 25.712500 -741.723511 -0.339278 0.535448 0.773425 0.000000
42.213902 29.845501 -741.949585 0.855958 0.014922 -0.516830 0.000000
42.213799 43.712299 -744.971619 -0.293781 0.165337 0.941465 0.000000
42.212200 27.917801 -743.217224 -0.082860 0.742831 -0.664332 0.000000
42.212101 45.065800 -745.324524 -0.521539 0.198034 0.829927 0.000000
42.210800 48.380798 -747.597717 0.989614 0.141374 0.026013 0.000000
42.210400 47.990501 -746.543579 0.985318 0.024144 -0.169010 0.000000
42.209999 39.329102 -743.856079 -0.208625 0.214009 0.954293 0.000000
42.208801 27.680700 -742.294922 0.964462 0.157490 -0.212156 0.000000
42.208401 26.416901 -742.732910 -0.982556 0.132712 -0.130277 0.000000
42.207199 33.499699 -745.747192 0.811971 0.533581 0.236632 0.000000
42.206699 44.063099 -748.784973 0.769625 0.076529 0.633894 0.000000
42.206699 4.695600 -738.585022 -0.079947 0.015989 0.996671 0.000000
42.205101 32.036800 -745.002319 0.803859 0.203644 0.558873 0.000000
42.204498 34.864899 -746.284119 0.903977 0.195259 0.380394 0.000000
42.204300 30.546301 -744.273315 0.847215 0.158206 0.507146 0.000000
42.203400 47.780800 -747.211670 0.993958 0.084044 0.070597 0.000000
42.202702 27.449200 -742.437500 0.947603 0.236559 -0.214681 0.000000
42.201000 40.648800 -744.215271 -0.239606 0.178031 0.954408 0.000000
42.199699 38.439400 -743.619324 -0.332582 0.120816 0.935303 0.000000
42.198399 32.813499 -745.427490 0.878012 0.106383 0.466666 0.000000
42.196602 32.158501 -742.246826 -0.819402 0.072677 0.568594 0.000000
42.195000 36.061798 -743.112671 -0.352087 0.189585 0.916566 0.000000
42.193199 48.499298 -746.616577 -0.596986 0.801983 -0.020777 0.000000
42.191700 47.606701 -747.450806 -0.983285 0.178885 -0.033906 0.000000
42.191502 27.341600 -742.742371 0.991346 0.127153 0.032632 0.000000
42.190800 13.774800 -741.697021 -0.196307 0.808053 0.555441 1.000000
42.190201 28.818701 -742.000183 -0.959206 0.245378 0.140404 0.000000
42.189701 33.759499 -745.708679 -0.892505 0.011900 -0.450880 0.000000
42.188900 42.480801 -744.702576 0.770864 0.616993 0.158397 0.000000
42.188499 45.687500 -748.496582 -0.869829 0.143761 -0.471944 0.000000
42.186501 28.358900 -742.128113 -0.907875 0.286003 0.306536 0.000000
42.185101 47.742901 -746.567505 -0.973943 0.223271 0.039827 0.000000
42.184898 46.567200 -748.041077 -0.951242 0.184851 -0.246918 0.000000
42.183998 44.717201 -748.638306 -0.632735 0.162356 -0.757157 0.000000
42.183899 41.277401 -744.347473 -0.096200 0.208643 0.973249 0.000000
42.182400 46.015099 -748.339478 -0.979109 0.005807 -0.203255 0.000000
