ply
format ascii 1.0
element vertex 684
property float x
property float y
property float z
property float nx
property float ny
property float nz
property float label
element face 0
property list uchar int vertex_indices
end_header
38.017101 67.129601 -748.001770 0.249815 0.112611 -0.961723 1.000000
38.007401 133.646606 -764.660828 0.785007 0.554401 0.276411 0.000000
37.991100 128.639603 -762.317078 -0.859156 0.256986 0.442503 0.000000
37.987202 137.254303 -768.246826 -0.953689 0.266609 0.139273 0.000000
37.980900 63.421700 -750.033691 0.985386 0.103913 0.134968 1.000000
37.973999 154.482407 -760.851013 0.895644 0.320405 -0.308483 0.000000
37.966900 151.494507 -762.229980 0.881476 0.202282 -0.426711 0.000000
37.958099 64.102402 -748.624817 0.374963 0.065385 -0.924731 1.000000
37.940201 63.393299 -752.377197 0.987878 0.109764 -0.109764 1.000000
37.934101 155.177795 -759.626770 0.989124 0.124660 0.078058 0.000000
37.924500 138.323898 -766.437622 -0.978330 0.069101 -0.195181 0.000000
37.920399 148.776901 -762.838501 0.817585 0.209363 -0.536397 0.000000
37.903400 145.113800 -763.538330 0.769876 0.208283 -0.603249 0.000000
37.881500 136.602707 -765.504822 -0.719726 0.136733 -0.680660 0.000000
37.874802 69.601799 -747.317322 0.184957 0.340264 -0.921961 1.000000
37.859798 133.307007 -770.911621 0.600067 0.328338 -0.729461 0.000000
37.850601 138.271805 -768.165894 0.737941 0.544006 -0.399376 0.000000
37.845299 135.336502 -770.050171 0.405555 0.793337 -0.454028 0.000000
37.842999 131.625793 -764.005127 0.681905 0.615861 0.394614 0.000000
37.836899 146.732803 -763.414978 0.823704 0.146931 -0.547652 0.000000
37.831100 71.291801 -746.340881 0.665326 0.568125 -0.484330 1.000000
37.812500 136.831497 -769.141479 -0.994276 0.049992 0.094428 0.000000
37.795799 136.230499 -762.958984 -0.056046 0.255319 0.965231 0.000000
37.789799 150.505005 -762.689819 0.867647 0.020304 -0.496765 0.000000
37.784401 139.292297 -767.802673 0.934712 0.306941 -0.179165 0.000000
37.778999 129.953598 -762.644897 0.429749 0.783279 -0.449210 0.000000
37.769901 153.979599 -761.711670 0.928538 0.250918 -0.273600 0.000000
37.732498 133.845505 -762.735229 0.504237 0.480938 -0.717247 0.000000
37.718800 139.366501 -766.763672 0.856998 0.474116 -0.201911 0.000000
37.717701 156.080597 -758.917603 -0.113734 0.311766 -0.943327 0.000000
37.671101 132.778000 -764.219727 0.139662 0.749372 -0.647253 0.000000
37.662701 140.546097 -763.635620 -0.200172 0.082279 0.976300 0.000000
37.660400 132.197998 -762.397888 -0.278677 0.030964 0.959886 0.000000
37.658199 135.073395 -762.823425 -0.032447 0.661646 0.749114 0.000000
37.649101 64.055298 -751.662781 -0.996634 0.064124 0.051082 1.000000
37.644001 137.818405 -769.143616 -0.724042 0.672648 -0.152669 0.000000
37.639198 140.226898 -767.406128 0.418542 0.790221 -0.447630 0.000000
37.637402 142.380096 -763.842773 -0.399755 0.142669 0.905451 0.000000
37.631199 134.326096 -771.084229 0.415784 0.747754 -0.517676 0.000000
37.630798 152.554001 -762.374878 0.900703 0.269769 -0.340528 0.000000
37.598202 155.526703 -760.779114 0.969720 0.186238 -0.157981 0.000000
37.594299 147.790405 -763.551819 -0.929090 0.139019 0.342731 0.000000
37.588699 131.276398 -762.864990 0.427099 0.784369 -0.449835 0.000000
37.569698 136.399704 -770.113281 0.925676 0.073679 -0.371074 0.000000
37.569599 143.937698 -763.956116 0.619822 0.001374 -0.784741 0.000000
37.560902 64.309303 -750.665527 0.888599 0.374855 -0.264340 1.000000
37.551201 68.605301 -747.719604 -0.157906 0.597034 -0.786521 1.000000
37.548199 65.229500 -748.438721 0.417424 0.670206 -0.613662 1.000000
37.538601 135.356201 -764.842407 0.671079 0.654751 0.347785 0.000000
37.537399 138.993896 -768.802002 0.786696 0.423356 -0.449309 0.000000
37.532299 140.301407 -766.262573 0.990609 0.133805 -0.028110 0.000000
37.528599 140.268494 -768.415588 0.075931 0.893221 -0.443159 0.000000
37.512001 66.309097 -748.306885 0.047920 0.340622 -0.938978 1.000000
37.508301 156.259705 -760.086914 0.970140 0.234172 -0.063189 0.000000
37.464600 138.820999 -763.360474 0.284498 0.117769 -0.951415 0.000000
37.457401 155.146500 -761.739319 -0.668561 0.720816 -0.182894 0.000000
37.452301 141.262695 -767.669800 -0.924130 0.324082 -0.202374 0.000000
37.449200 149.537399 -763.294922 0.819871 0.245498 -0.517245 0.000000
37.431499 64.111603 -749.517700 0.870277 0.469281 0.149647 1.000000
37.417801 70.586998 -746.981323 0.210505 0.504303 -0.837476 1.000000
37.407398 138.079498 -765.609497 0.552372 0.069579 0.830689 0.000000
37.396301 135.613007 -770.950989 0.419524 0.745272 -0.518236 0.000000
37.381302 137.401901 -770.107117 -0.928075 0.032541 0.370970 0.000000
37.366901 145.811707 -764.059204 0.671354 0.136674 -0.728426 0.000000
37.360199 64.313103 -752.813477 0.950345 0.185202 0.250091 1.000000
37.359501 137.462997 -763.241821 -0.281979 0.356577 0.890697 0.000000
37.353500 151.381699 -763.023987 0.528261 0.478268 -0.701570 0.000000
37.347698 139.851807 -769.306824 -0.972126 0.151220 0.179176 0.000000
37.339100 141.193100 -768.752930 0.401816 0.795564 -0.453455 0.000000
37.326401 132.464905 -763.308105 0.422738 0.785548 -0.451893 0.000000
37.321301 157.021606 -759.108826 0.715135 0.101741 0.691543 0.000000
37.310001 72.098396 -746.010376 -0.722288 0.667081 -0.182489 1.000000
37.308800 141.386002 -766.655396 0.413869 0.797141 -0.439635 0.000000
37.279999 153.603607 -762.584717 0.783758 0.297288 -0.545292 0.000000
37.267300 142.296799 -767.618286 0.774912 0.595491 -0.211902 0.000000
37.242199 136.366806 -764.702393 -0.689615 0.698872 -0.189760 0.000000
37.235901 156.559998 -761.028198 0.988518 0.033141 -0.147421 0.000000
37.225800 147.092697 -764.180786 0.742223 0.009711 -0.670082 0.000000
37.210800 134.249695 -764.220520 0.637004 0.040960 0.769772 0.000000
37.210300 142.411896 -768.858826 0.859601 0.447235 -0.247116 0.000000
37.206402 139.012100 -769.919922 0.916566 0.189585 -0.352087 0.000000
37.203300 144.834305 -764.211914 -0.448377 0.133224 0.883861 0.000000
37.178799 65.040298 -749.946777 0.891946 0.450681 -0.036324 1.000000
37.156898 148.830307 -764.022705 -0.871788 0.471198 0.134010 0.000000
37.140800 64.935600 -751.470215 0.769550 0.602324 -0.212129 1.000000
37.138302 139.056702 -765.741516 0.821910 0.563719 -0.081761 0.000000
37.135601 157.180298 -760.215698 0.989688 0.105830 -0.096527 0.000000
37.113300 143.405502 -768.229614 -0.996269 0.042464 -0.075129 0.000000
37.109699 150.577606 -763.625122 0.898677 0.134448 -0.417496 0.000000
37.108700 136.774002 -770.989075 0.926530 0.101742 -0.362201 0.000000
37.106499 140.755707 -769.724609 0.115937 0.903749 -0.412065 0.000000
37.104000 67.705498 -748.101318 -0.044595 0.895957 -0.441897 1.000000
37.064899 142.865204 -766.804077 0.961866 0.142257 0.233615 0.000000
37.059700 154.757599 -762.577881 0.934023 0.100794 -0.342699 0.000000
37.055000 156.209305 -761.961670 -0.978656 0.152566 0.137682 0.000000
37.049400 143.309906 -769.380676 0.372963 0.629272 -0.681848 0.000000
37.044399 141.361298 -763.814209 0.077273 0.111873 0.990713 0.000000
37.028500 152.449707 -763.257019 0.720987 0.435907 -0.538668 0.000000
37.010300 137.248703 -765.153320 0.369560 0.116776 0.921840 0.000000
36.991100 139.954803 -770.369873 -0.968289 0.174060 0.179217 0.000000
36.985699 137.947296 -770.872681 -0.922965 0.306704 0.232524 0.000000
36.967499 135.021103 -763.620422 0.419002 0.787854 -0.451358 0.000000
36.959599 141.982803 -769.827393 0.997014 0.075548 -0.015961 0.000000
36.947800 143.839493 -767.222412 -0.867921 0.143927 0.475394 0.000000
36.933701 136.404602 -763.449280 0.239278 0.947540 -0.211932 0.000000
36.923698 72.912201 -745.518372 0.156261 0.546168 -0.822972 1.000000
36.923401 149.788193 -764.246582 -0.923046 0.197087 0.330368 0.000000
36.894901 144.583603 -769.501709 -0.904316 0.398921 0.151902 0.000000
36.875702 139.891800 -763.691895 0.424946 0.715959 -0.553917 0.000000
36.874699 71.457100 -746.744019 0.231524 0.458509 -0.858001 1.000000
36.847198 158.160095 -759.877930 0.971963 0.135948 0.191851 0.000000
36.837799 133.747192 -763.426880 0.731408 0.679880 -0.052959 0.000000
36.835800 157.205597 -761.862976 0.972052 0.075728 -0.222219 0.000000
36.833599 65.667603 -750.670715 0.860334 0.507941 -0.042673 1.000000
36.822399 69.420998 -747.516479 0.056675 0.490720 -0.869472 1.000000
36.811901 145.029800 -768.571716 0.774331 0.504857 -0.381484 0.000000
36.811600 151.702606 -763.963989 -0.843917 0.534248 0.048822 0.000000
36.801800 148.003906 -764.557495 -0.615571 0.018064 0.787875 0.000000
36.782700 140.050003 -765.606812 0.716161 0.496826 0.490180 0.000000
36.781399 157.905807 -761.020996 0.970126 0.237306 -0.050412 0.000000
36.777699 139.158096 -771.029297 0.862120 0.221172 -0.455886 0.000000
36.776501 144.785904 -767.499878 0.928387 0.165634 0.332660 0.000000
36.772800 141.232407 -770.587830 0.401227 0.794398 -0.456013 0.000000
36.768799 143.156998 -770.352783 -0.686807 0.713858 -0.136760 0.000000
36.762001 143.129501 -764.090515 -0.157843 0.135471 0.978127 0.000000
36.747898 138.768799 -764.854675 -0.737734 0.644937 -0.199513 0.000000
36.744099 65.411003 -749.004883 0.926058 0.370156 -0.073497 1.000000
36.702900 154.016800 -763.382080 0.737039 0.440245 -0.512794 0.000000
36.699799 65.039200 -752.408691 0.808881 0.543876 -0.223405 1.000000
36.694000 155.751999 -762.798218 0.932780 0.138342 -0.332842 0.000000
36.674198 141.261093 -765.857117 0.681518 0.510720 0.524116 0.000000
36.671700 146.346100 -764.585571 0.325310 0.161963 -0.931634 0.000000
36.661098 146.000107 -769.668823 0.999917 0.000989 0.012857 0.000000
36.648499 142.237701 -770.860779 0.930622 0.053968 -0.361982 0.000000
36.640800 146.101700 -768.374084 0.380188 0.778172 -0.499906 0.000000
36.626701 144.224792 -770.500427 0.360679 0.736045 -0.572842 0.000000
36.608898 137.453796 -763.944580 0.677797 0.570688 -0.463580 0.000000
36.606800 137.482300 -771.727417 -0.880777 0.047794 0.471113 0.000000
36.596100 142.267105 -766.103882 0.616662 0.682792 -0.391820 0.000000
36.590599 140.130005 -771.277222 0.885937 0.217417 -0.409690 0.000000
36.563702 138.566605 -763.866882 0.411984 0.790040 -0.453990 0.000000
36.561401 152.923004 -764.050720 0.831216 0.337829 -0.441534 0.000000
36.556000 150.866501 -764.514282 0.905522 0.185711 -0.381500 0.000000
36.554501 135.832199 -764.187622 0.312544 0.767736 -0.559373 0.000000
36.549198 66.208099 -749.642700 0.887929 0.437510 0.142011 1.000000
36.541698 158.846695 -759.178589 0.392374 0.727287 -0.563114 0.000000
36.528000 145.871399 -767.346191 0.973756 0.067537 0.217345 0.000000
36.527000 158.865601 -760.848999 0.982115 0.181259 -0.050942 0.000000
36.524200 158.202194 -762.007629 -0.636508 0.666267 -0.388518 0.000000
36.513000 157.723801 -758.944824 0.745919 0.465993 0.475873 0.000000
36.505901 156.734604 -762.773315 0.927630 0.035226 -0.371835 0.000000
36.500702 149.035904 -764.779907 -0.592554 0.154514 0.790572 0.000000
36.491402 145.218201 -770.783813 0.853969 0.238141 -0.462630 0.000000
36.476898 70.400703 -747.278687 0.281514 0.198308 -0.938842 1.000000
36.460400 147.094101 -768.224487 0.939092 0.340664 -0.045335 0.000000
36.455299 143.583298 -766.362976 0.724464 0.283069 0.628509 0.000000
36.453899 143.521301 -771.232788 -0.954051 0.195116 0.227411 0.000000
36.445999 65.716003 -751.691895 0.755246 0.622421 -0.205415 1.000000
36.442600 147.434799 -769.849670 0.734031 0.216625 -0.643640 0.000000
36.440601 66.797699 -748.460815 0.531855 0.175287 -0.828495 1.000000
36.434299 72.513901 -746.335083 -0.031837 0.999260 -0.021567 1.000000
36.421299 141.237198 -771.525574 -0.917911 0.054622 0.393010 0.000000
36.394901 155.126907 -763.600708 0.923305 0.008989 -0.383961 0.000000
36.391201 146.615997 -770.470520 -0.845060 0.511755 -0.154854 0.000000
36.387100 68.571198 -747.981079 0.306907 0.229823 -0.923575 1.000000
36.349400 142.127701 -764.126526 -0.493986 0.001331 0.869469 0.000000
36.346901 138.857300 -771.940125 -0.886546 0.270598 0.375250 0.000000
36.331600 145.373199 -764.468872 -0.228945 0.037552 0.972715 0.000000
36.326801 144.358002 -764.344727 -0.310430 0.082519 0.947008 0.000000
36.309898 144.485596 -771.461792 0.939945 0.055903 -0.336716 0.000000
36.301899 142.599701 -771.736023 0.808734 0.365286 -0.460994 0.000000
36.299702 152.181000 -764.731201 -0.918838 0.035492 0.393036 0.000000
36.286098 148.325806 -768.892700 0.975207 0.221266 0.003512 0.000000
36.283100 146.142700 -771.395020 -0.235464 0.871368 -0.430435 0.000000
36.278099 159.482101 -759.982483 0.931612 0.358109 0.062107 0.000000
36.264301 144.686905 -766.629517 0.772024 0.426001 0.471702 0.000000
36.256302 148.276001 -770.438599 0.827501 0.452367 -0.332576 0.000000
36.252102 153.917892 -764.353821 0.938623 0.163538 -0.303713 0.000000
36.237701 140.487396 -764.182617 -0.126597 0.991493 -0.030249 0.000000
36.231602 157.825897 -762.908203 0.715214 0.529358 -0.456343 0.000000
36.222900 159.167007 -761.924683 0.848620 0.455769 -0.268551 0.000000
36.207802 147.187897 -771.501221 0.923770 0.304116 -0.232727 0.000000
36.191898 66.560699 -751.193420 -0.985586 0.007939 -0.168990 1.000000
36.189400 142.120499 -765.147827 -0.727278 0.669821 -0.149689 0.000000
36.171902 139.584396 -764.702087 0.952700 0.300652 0.044400 0.000000
36.134201 139.845306 -772.180420 0.724142 0.508722 -0.465638 0.000000
36.133900 148.201096 -767.912109 0.926610 0.373527 0.043251 0.000000
36.130001 145.363907 -772.144287 -0.480619 0.810549 -0.334688 0.000000
36.124500 156.296600 -763.596680 -0.711093 0.699507 0.070965 0.000000
36.112301 73.567703 -745.232422 0.188487 0.464539 -0.865260 1.000000
36.082500 159.941101 -760.958618 0.992125 0.055559 0.112252 0.000000
36.082001 149.280396 -770.429382 0.849155 0.511241 -0.132544 0.000000
36.076099 143.781799 -772.135986 0.865386 0.246174 -0.436469 0.000000
36.073200 65.762901 -752.724487 0.667308 0.549647 -0.502582 1.000000
36.067001 150.161407 -765.045715 -0.372818 0.622458 0.688152 0.000000
36.061901 143.369507 -765.397522 -0.071605 0.997130 -0.024581 0.000000
36.059399 67.149498 -749.885620 0.849341 0.512508 -0.126312 1.000000
36.043900 146.993896 -767.262024 0.854872 0.205830 0.476264 0.000000
36.035000 149.352600 -768.744995 0.982241 0.132669 0.132669 0.000000
36.032299 140.963104 -765.096313 0.500521 0.764640 -0.405960 0.000000
36.023998 148.661896 -771.559692 -0.354290 0.818204 -0.452792 0.000000
36.023998 147.182297 -764.814514 -0.234166 0.108765 0.966093 0.000000
35.991600 141.601196 -772.361877 0.867652 0.034160 -0.495997 0.000000
35.986301 146.594193 -772.292175 0.944766 0.193341 -0.264644 0.000000
35.967499 155.130493 -764.527283 -0.801610 0.596645 -0.037904 0.000000
35.942902 153.189499 -764.991272 0.811620 0.032019 -0.583308 0.000000
35.926701 159.039307 -762.934021 0.873797 0.305449 -0.378392 0.000000
35.921902 151.218307 -765.210388 0.540326 0.043059 -0.840353 0.000000
35.911598 149.674805 -771.632019 0.941413 0.237086 -0.239859 0.000000
35.891602 150.237595 -770.666992 0.590505 0.730404 -0.343241 0.000000
35.883801 160.342102 -759.456787 -0.850112 0.526389 0.014962 0.000000
35.871700 148.215698 -772.469727 -0.734188 0.672640 -0.092323 0.000000
35.869999 149.955597 -769.700928 0.918053 0.382865 -0.102921 0.000000
35.863701 145.989105 -766.463928 0.674011 0.664267 0.323201 0.000000
35.855598 67.757401 -748.409302 0.487636 0.435096 -0.756903 1.000000
35.851002 157.505997 -763.784180 0.705290 0.579758 -0.407978 0.000000
35.850601 144.771393 -765.650513 -0.740607 0.627393 -0.240579 0.000000
35.849800 69.750298 -747.855591 0.452692 0.683214 -0.572964 1.000000
35.834702 142.795807 -772.617676 0.449309 0.786696 -0.423356 0.000000
35.830799 71.911400 -746.892029 0.268596 0.449707 -0.851833 1.000000
35.800301 148.144699 -764.985779 -0.236064 0.105910 0.965949 0.000000
35.795898 142.954803 -764.424683 -0.288218 0.326648 0.900129 0.000000
35.795300 151.317001 -770.260620 0.570327 0.207531 -0.794769 0.000000
35.794998 160.301102 -762.238770 -0.959318 0.278915 -0.043776 0.000000
35.793598 150.252502 -768.374390 0.862708 0.260182 -0.433636 0.000000
35.760700 150.740707 -771.791992 -0.487757 0.739075 -0.464609 0.000000
35.732601 149.263702 -772.687378 0.800590 0.460459 -0.383449 0.000000
35.726799 144.764297 -772.879211 -0.870869 0.315709 0.376716 0.000000
35.720402 156.439102 -764.524780 0.966463 0.124498 -0.224610 0.000000
35.713799 151.121704 -769.275391 0.936068 0.337092 -0.100725 0.000000
35.671501 160.918594 -761.382080 0.969254 0.157905 0.188716 0.000000
35.659698 154.433304 -765.206177 0.628975 0.548034 -0.551407 0.000000
35.650398 146.972702 -773.214600 0.886695 0.163453 -0.432499 0.000000
35.631901 70.943604 -747.401672 -0.633707 0.155780 0.757726 1.000000
35.631401 151.790604 -772.013794 0.989559 0.143916 -0.007809 0.000000
35.630199 146.251495 -764.807312 -0.439927 0.363694 0.821091 0.000000
35.624298 67.955597 -749.451294 0.846477 0.494655 0.196960 1.000000
35.601700 150.917694 -772.834717 0.946077 0.306513 -0.104825 0.000000
35.593601 147.783401 -766.775879 -0.658287 0.734301 -0.165712 0.000000
35.580898 66.482101 -752.114929 0.552306 0.586086 -0.592842 1.000000
35.580002 67.275200 -750.825623 0.800658 0.537428 -0.264797 1.000000
35.577499 160.853500 -760.344727 0.916355 0.373537 0.144099 0.000000
35.576000 148.837402 -767.340027 0.851527 0.225360 0.473407 0.000000
35.575199 149.280396 -765.143616 0.395875 0.560138 -0.727687 0.000000
35.572899 143.780304 -773.058228 -0.711226 0.699685 0.067805 0.000000
35.564201 158.708496 -763.810303 0.740619 0.483299 -0.466804 0.000000
35.561600 73.213303 -746.060486 0.336166 0.776882 -0.532397 1.000000
35.556099 152.563705 -770.414429 -0.850756 0.520612 0.071954 0.000000
35.546398 151.309692 -768.200012 0.903901 0.327756 -0.274845 0.000000
35.533401 155.717102 -765.245789 -0.923364 0.309691 0.226916 0.000000
35.532700 148.009796 -773.432373 0.890770 0.132547 -0.434696 0.000000
35.522800 160.076904 -763.261230 0.956161 0.038950 -0.290241 0.000000
35.522400 146.922394 -766.255371 0.866301 0.372586 0.332721 0.000000
35.514801 149.917099 -773.437317 0.779107 0.470067 -0.414765 0.000000
35.510601 152.720795 -772.409119 0.729001 0.592618 -0.342582 0.000000
35.504902 152.409302 -765.456299 -0.151291 0.850461 0.503813 0.000000
35.500801 161.311707 -759.333679 0.504441 0.537959 -0.675381 0.000000
35.500401 146.000305 -773.464478 -0.749655 0.629092 0.205575 0.000000
35.476398 152.176193 -769.408813 0.777568 0.061575 0.625777 0.000000
35.443901 151.911194 -773.092896 0.996733 0.066016 -0.046536 0.000000
35.440498 161.303299 -762.417480 0.947409 0.304383 -0.098826 0.000000
35.438801 157.473007 -764.722229 0.934310 0.234631 -0.268351 0.000000
35.414600 153.280502 -771.513794 0.976764 0.189411 -0.100276 0.000000
35.392899 68.873901 -748.132690 0.174474 0.159192 -0.971708 1.000000
35.386799 153.492203 -773.033325 -0.720148 0.603104 -0.343005 0.000000
35.355099 149.905594 -767.475220 -0.814367 0.115503 -0.568741 0.000000
35.347401 150.883408 -773.835388 -0.907521 0.375377 0.188408 0.000000
35.340199 153.687805 -770.491699 0.840077 0.001353 0.542465 0.000000
35.330502 68.185303 -750.457886 -0.966118 0.023148 -0.257063 1.000000
35.328800 74.232903 -745.115479 0.561919 0.820373 -0.105995 1.000000
35.317402 149.053497 -773.925415 -0.877972 0.435297 0.199204 0.000000
35.308899 152.292007 -768.388672 -0.732088 0.220095 -0.644675 0.000000
35.295300 161.850403 -760.367676 0.920197 0.391437 0.003850 0.000000
35.290100 154.059601 -772.163879 0.427300 0.758008 -0.492787 0.000000
35.280899 154.550507 -773.062378 -0.999085 0.025829 0.034095 0.000000
35.279499 161.940308 -761.544678 0.992383 0.030140 0.119443 0.000000
35.274101 152.961899 -774.049377 -0.990213 0.091493 0.105391 0.000000
35.259899 151.844894 -774.145325 -0.262571 0.922584 -0.282658 0.000000
35.253799 153.494797 -765.655579 -0.473843 0.301821 0.827271 0.000000
35.239201 153.474594 -769.405579 0.891089 0.443446 -0.096523 0.000000
35.238201 161.061005 -763.389221 -0.981430 0.078466 0.175040 0.000000
35.214401 154.044205 -773.996826 -0.962817 0.269687 0.015864 0.000000
35.210800 159.713898 -764.149170 0.964790 0.013316 -0.262684 0.000000
35.210201 156.836502 -765.486694 -0.837828 0.488605 0.243537 0.000000
35.188301 154.615494 -771.243774 0.459335 0.769917 -0.442989 0.000000
35.185200 155.553802 -772.815796 0.999371 0.019435 0.029664 0.000000
35.174000 145.802704 -765.751099 0.920623 0.380994 0.085419 0.000000
35.165100 150.511993 -765.450623 -0.206174 0.295937 0.932692 0.000000
35.155701 155.306900 -773.866516 0.914319 0.289268 -0.283453 0.000000
35.151901 143.617905 -765.007202 0.911322 0.390567 0.130189 0.000000
35.115299 147.315399 -774.091797 0.199871 0.804061 -0.559944 0.000000
35.115101 150.091705 -774.408203 -0.212650 0.960227 -0.180951 0.000000
35.114700 148.517197 -766.165894 0.887245 0.410517 0.210408 0.000000
35.104500 147.166595 -765.259888 0.674625 0.120628 -0.728238 0.000000
35.097500 158.479401 -764.842224 -0.665979 0.737175 -0.114210 0.000000
35.088699 156.590302 -773.384583 0.432202 0.774702 -0.461560 0.000000
35.085300 67.311798 -751.817871 0.573737 0.641037 -0.509801 1.000000
35.084000 72.568100 -746.767090 0.345912 0.476626 -0.808191 1.000000
35.083698 68.924896 -749.598999 -0.956591 0.210049 -0.202021 1.000000
35.076599 154.434494 -769.785217 -0.426963 0.699421 -0.573160 0.000000
35.049500 157.235596 -774.363220 -0.747590 0.604738 -0.274592 0.000000
35.040501 162.239594 -763.029785 0.996882 0.039962 -0.068043 0.000000
35.039001 153.668106 -775.026428 0.900294 0.017186 -0.434944 0.000000
35.036999 155.509506 -771.721924 0.988547 0.106711 0.106711 0.000000
35.021500 155.826004 -774.715088 0.319323 0.822690 -0.470333 0.000000
35.007198 162.493103 -759.488586 -0.908690 0.246498 0.336930 0.000000
35.000599 158.300507 -774.352722 -0.890436 0.327740 -0.315768 0.000000
34.988899 154.786102 -774.863525 -0.755722 0.622814 -0.202453 0.000000
34.988201 156.373001 -772.225525 0.865424 0.475910 -0.156684 0.000000
34.960800 157.463196 -772.906311 -0.981875 0.103164 -0.158993 0.000000
34.960499 149.575806 -766.574707 0.903977 0.195259 0.380394 0.000000
34.960201 162.799896 -762.124023 0.791324 0.545903 -0.275311 0.000000
34.959900 150.959000 -767.360718 0.579281 0.478536 0.659876 0.000000
34.944901 152.423004 -774.920227 -0.991192 0.060592 0.117754 0.000000
34.936001 75.156197 -744.400513 0.345771 0.921586 -0.176414 1.000000
34.934700 155.145004 -765.874512 -0.541183 0.299952 0.785589 0.000000
34.933300 157.895798 -765.651672 -0.841806 0.497225 0.210074 0.000000
34.932800 155.224197 -770.396606 -0.997948 0.063610 -0.007300 0.000000
34.930099 159.378693 -775.109009 -0.761078 0.547782 -0.347413 0.000000
34.924702 160.700104 -764.272705 0.965575 0.092868 -0.242984 0.000000
34.914001 162.742203 -760.738220 0.958427 0.259493 0.118662 0.000000
34.905201 157.194901 -775.552979 0.562421 0.602955 -0.565798 0.000000
34.893299 70.462502 -747.902283 0.264471 0.273048 -0.924932 1.000000
34.885201 159.280807 -774.099426 -0.875007 0.403501 -0.267489 0.000000
34.876801 160.457901 -775.480530 0.991935 0.099308 -0.078761 0.000000
34.874901 158.463501 -775.528198 0.752870 0.558581 -0.348101 0.000000
34.855000 159.581604 -765.118408 0.953368 0.232627 -0.192287 0.000000
34.854900 153.725906 -768.475220 -0.586177 0.783108 -0.207700 0.000000
34.853100 155.034607 -768.925903 -0.843983 0.425892 -0.326049 0.000000
34.851601 158.590607 -773.288574 -0.927213 0.145527 -0.345106 0.000000
34.842701 156.272598 -770.677612 -0.335529 0.727789 -0.598116 0.000000
34.839500 160.372894 -774.446716 -0.860639 0.366197 -0.353836 0.000000
34.821098 71.591904 -747.524414 0.434773 0.493836 -0.753059 1.000000
34.810600 68.169701 -751.355591 0.619641 0.468509 -0.629717 1.000000
34.793701 162.858902 -776.392273 0.857527 0.435642 0.273614 0.000000
34.782101 161.845306 -763.924988 -0.961097 0.101915 0.256722 0.000000
34.774601 157.316101 -771.785278 0.967201 0.234511 0.097607 0.000000
34.773998 161.634995 -776.205017 0.849739 0.089671 0.519522 0.000000
34.739799 152.219406 -767.528076 0.854543 0.122904 0.504629 0.000000
34.732800 151.434601 -765.645325 -0.073998 0.709508 0.700802 0.000000
34.732700 164.193207 -776.564697 0.725621 0.647260 -0.233515 0.000000
34.713299 155.858002 -769.476196 0.940064 0.091746 0.328424 0.000000
34.706200 149.454102 -765.610474 0.327084 0.851038 -0.410792 0.000000
34.684700 161.364700 -774.467407 0.899604 0.435808 -0.027988 0.000000
34.680302 163.178101 -763.174622 -0.636243 0.701001 -0.322169 0.000000
34.677101 162.040695 -775.253723 0.404185 0.751097 -0.522004 0.000000
34.674400 68.944397 -750.649414 0.346720 0.879670 -0.325523 1.000000
34.672699 159.467300 -776.157104 -0.732931 0.041112 0.679060 0.000000
34.652802 150.772003 -766.411316 0.606252 0.774232 0.181723 0.000000
34.647099 158.859299 -765.806213 -0.904841 0.003906 0.425731 0.000000
34.640301 73.643799 -746.287781 0.442561 0.542013 -0.714396 1.000000
34.631699 159.947800 -773.291016 0.956818 0.209512 0.201506 0.000000
34.623699 157.280502 -770.337219 0.533616 0.661550 -0.526883 0.000000
34.621300 163.193604 -775.333374 -0.962146 0.177688 -0.206644 0.000000
34.613499 69.487000 -748.365723 -0.379613 0.905009 0.191972 1.000000
34.608799 152.707199 -765.797485 0.338173 0.080896 -0.937601 0.000000
34.605301 163.469193 -761.422424 0.922075 0.376163 -0.090985 0.000000
34.603901 158.302094 -772.103516 0.503143 0.690358 -0.519858 0.000000
34.598400 165.189896 -776.444885 0.411030 0.751644 -0.515834 0.000000
34.589401 147.603500 -766.143311 -0.503271 0.617727 0.604262 0.000000
34.578098 166.839798 -776.787109 -0.981280 0.088546 0.171026 0.000000
34.556198 160.802902 -765.198914 -0.457653 0.818708 -0.346803 0.000000
34.537601 163.938797 -762.540527 -0.976516 0.195796 -0.089894 0.000000
34.533401 156.338196 -766.122314 0.432801 0.704753 -0.562144 0.000000
34.529900 163.387604 -759.933472 0.983306 0.139090 0.117319 0.000000
34.504700 161.006302 -773.508118 0.898474 0.316322 0.304442 0.000000
34.495800 159.306595 -772.363220 -0.754283 0.260916 -0.602478 0.000000
34.495201 164.197205 -775.456970 0.859787 0.505178 0.074581 0.000000
34.493099 168.477707 -777.042603 -0.637262 0.012495 -0.770546 0.000000
34.489700 69.801804 -749.685974 0.893466 0.403736 -0.196766 1.000000
34.466599 74.763496 -745.324524 0.663451 0.569393 -0.485411 1.000000
34.446301 157.107300 -769.308594 0.658275 0.597975 -0.457275 0.000000
34.436600 158.031906 -771.151978 0.955641 0.228552 0.185782 0.000000
34.431801 160.075806 -765.890930 0.888775 0.067519 -0.453344 0.000000
34.426800 162.792999 -774.363403 0.896192 0.322510 0.304676 0.000000
34.419102 163.021698 -764.169800 0.980248 0.093763 -0.174131 0.000000
34.398399 162.006699 -764.871582 -0.175605 0.866220 -0.467788 0.000000
34.396301 166.101898 -776.030029 0.947087 0.057985 0.315696 0.000000
34.364899 154.019196 -765.994812 0.322679 0.058315 -0.944710 0.000000
34.358700 154.454803 -767.957275 0.775222 0.135925 0.616892 0.000000
34.353199 153.497803 -767.576477 0.754329 0.410708 0.512158 0.000000
34.351601 161.981705 -773.669373 0.929061 0.287062 0.233326 0.000000
34.346100 165.245300 -775.422913 0.943803 0.326651 0.050353 0.000000
34.335701 158.360504 -770.088013 -0.326151 0.931267 -0.162382 0.000000
34.311298 164.191605 -763.514587 0.730688 0.563205 -0.385869 0.000000
34.303699 169.666306 -777.211914 -0.360366 0.894243 -0.265455 0.000000
34.261002 157.471802 -766.312073 0.333568 0.758988 -0.559169 0.000000
34.254299 167.155807 -775.847717 0.928371 0.059596 0.366846 0.000000
34.251598 160.532898 -772.436523 -0.894975 0.096039 -0.435656 0.000000
34.250099 152.875900 -766.794373 -0.618994 0.753083 -0.222963 0.000000
34.247398 156.003204 -768.525818 0.726930 0.505042 0.465301 0.000000
34.245998 163.983307 -774.483887 0.913832 0.262963 0.309453 0.000000
34.245499 159.003494 -771.378418 0.948804 0.286910 0.132112 0.000000
34.239700 164.564697 -761.725708 0.985648 0.150273 0.076911 0.000000
34.237000 72.803299 -747.246826 -0.394937 0.632890 -0.665939 1.000000
34.210300 164.231995 -760.400024 0.316367 0.911196 -0.263882 0.000000
34.202400 67.826897 -752.086792 0.332572 0.245436 -0.910581 1.000000
34.190399 161.565308 -765.772827 0.108534 0.886592 -0.449639 0.000000
34.109200 168.166794 -776.033203 0.902381 0.430890 0.006548 0.000000
34.096100 151.411407 -767.127808 0.746336 0.240399 0.620637 0.000000
34.091599 159.451004 -770.407288 -0.984272 0.026602 -0.174647 0.000000
34.088200 159.999405 -771.517212 0.685350 0.652946 -0.322423 0.000000
34.088001 75.704300 -744.180481 0.869057 0.492878 0.042560 1.000000
34.083199 161.638702 -772.761475 0.778112 0.627779 -0.020880 0.000000
34.081001 165.058701 -763.022827 -0.888171 0.371689 -0.270183 0.000000
34.072300 70.210503 -748.803711 0.873225 0.464851 0.146261 1.000000
34.049801 170.828293 -777.428528 0.867190 0.461019 0.188262 0.000000
34.046398 166.395401 -775.123474 0.909045 0.033177 0.415374 0.000000
34.032902 163.238998 -765.093628 -0.974563 0.221764 0.032366 0.000000
34.005901 159.350800 -766.503418 -0.606764 0.015204 0.794737 0.000000
34.002998 169.095001 -776.399780 0.877335 0.133539 0.460924 0.000000
33.996601 163.420197 -773.689880 0.871331 0.306721 0.383020 0.000000
33.995800 155.335297 -766.202393 0.453920 0.611368 -0.648218 0.000000
33.992599 68.754097 -751.380005 0.508118 0.279856 -0.814553 1.000000
33.982800 69.844597 -750.608826 0.850772 0.337509 -0.402833 1.000000
33.976501 152.035004 -766.290588 0.678245 0.497380 -0.540922 0.000000
33.969799 160.780807 -766.435181 -0.822060 0.268840 0.501938 0.000000
33.963699 154.379593 -766.994507 -0.884328 0.437081 -0.164087 0.000000
33.952702 164.944107 -774.479126 0.232779 0.912319 0.336879 0.000000
33.946800 70.889999 -747.893372 0.430737 0.871980 -0.232628 1.000000
33.936798 164.272003 -764.456970 0.974960 0.124223 -0.184452 0.000000
33.913601 158.017502 -769.237427 0.739139 0.643467 0.199058 0.000000
33.904400 162.583099 -765.912781 -0.924727 0.361372 0.119541 0.000000
33.903599 155.339905 -767.759277 -0.865851 0.001334 -0.500299 0.000000
33.892700 162.641098 -772.954102 0.918936 0.330131 0.215800 0.000000
33.875000 165.464600 -762.059204 0.937541 0.195842 0.287512 0.000000
33.874100 157.032501 -768.463013 0.853659 0.077605 0.515018 0.000000
33.869801 170.214798 -776.471680 -0.923321 0.085167 -0.374466 0.000000
33.829498 165.212708 -760.961670 0.954912 0.288396 0.070497 0.000000
33.826801 70.738998 -749.858887 -0.989517 0.115114 0.087208 1.000000
33.825600 160.636398 -770.651978 -0.951125 0.303387 -0.057605 0.000000
33.822601 161.202805 -771.619812 0.905847 0.303906 0.295098 0.000000
33.790401 165.220306 -764.007385 0.874319 0.437902 -0.209302 0.000000
33.790100 73.838699 -746.777100 0.374022 0.503553 -0.778808 1.000000
33.764599 159.060806 -769.534485 0.822744 0.502356 0.265953 0.000000
33.755600 74.593300 -746.086670 0.560297 0.583995 -0.587381 1.000000
33.749199 167.814896 -775.114685 0.795851 0.292709 0.530040 0.000000
33.747200 165.362000 -759.773682 0.659141 0.467940 -0.588698 0.000000
33.739899 171.733994 -777.723022 0.823419 0.537405 0.182146 0.000000
33.732300 75.512497 -745.155579 0.597644 0.634681 -0.489900 1.000000
33.707802 166.035507 -763.313599 -0.838856 0.424916 -0.340246 0.000000
33.700298 72.046303 -747.629822 0.230719 0.180041 -0.956218 1.000000
33.691601 163.805893 -765.860474 -0.595375 0.728402 -0.339056 0.000000
33.689098 164.357605 -773.506592 0.117542 0.986642 0.112793 0.000000
33.676399 164.331299 -759.493530 -0.768105 0.521272 -0.371873 0.000000
33.654800 161.912598 -766.626282 0.806892 0.170428 -0.565579 0.000000
33.653000 162.273499 -772.017700 -0.821910 0.081761 -0.563719 0.000000
33.651501 168.828598 -775.435730 0.940783 0.242470 0.236928 0.000000
33.650101 165.973495 -774.302917 0.846336 0.318346 0.427050 0.000000
33.624199 158.431793 -766.671082 -0.229435 0.336216 0.913410 0.000000
33.597099 156.592606 -766.487427 0.416182 0.701375 -0.578676 0.000000
33.595901 76.648697 -743.841675 -0.299454 0.600509 -0.741429 1.000000
33.586300 165.106201 -765.027100 0.999136 0.023764 -0.034097 0.000000
33.545300 171.319702 -776.668030 -0.723671 0.641328 -0.254948 0.000000
33.544998 167.070999 -774.435913 0.800162 0.376830 0.466627 0.000000
33.540501 166.422104 -762.177185 0.833847 0.551790 -0.015061 0.000000
33.530602 71.532600 -749.181274 0.949441 0.298096 -0.098490 1.000000
33.522301 161.833496 -770.766785 0.913948 0.265902 0.306587 0.000000
33.512299 163.586197 -772.727295 0.963479 0.239253 0.120273 0.000000
33.467300 156.224197 -767.455627 0.294665 0.955504 -0.013562 0.000000
33.442799 163.193100 -766.655212 -0.887308 0.366594 0.279809 0.000000
33.437302 166.153198 -764.301270 -0.929689 0.366399 0.037813 0.000000
33.432999 160.455994 -769.693176 0.878120 0.231084 0.418933 0.000000
33.425400 166.110901 -760.753906 0.966769 0.224681 0.121970 0.000000
33.400902 170.049194 -775.564697 0.562642 0.656696 0.502179 0.000000
33.391102 166.997894 -763.093628 0.983419 0.063024 0.170047 0.000000
33.387001 164.837906 -765.995117 0.990713 0.077273 -0.111873 0.000000
33.384899 158.136902 -768.391479 0.593662 0.539539 0.597045 0.000000
33.383301 153.386307 -766.760071 0.879187 0.310212 0.361662 0.000000
33.363998 162.858093 -771.249023 -0.931442 0.293622 -0.214948 0.000000
33.352100 69.578697 -751.367676 0.594358 0.467115 -0.654631 1.000000
33.317299 160.060196 -766.914307 -0.361929 0.056593 0.930486 0.000000
33.306801 165.219193 -773.138123 0.912998 0.118120 0.390491 0.000000
33.269001 76.332001 -744.750122 0.749602 0.479416 -0.456351 1.000000
33.257401 155.244003 -766.909973 -0.967973 0.164129 0.189976 0.000000
33.245399 70.547302 -750.833313 0.711656 0.411143 -0.569655 1.000000
33.210499 172.603394 -777.629517 0.701991 0.508569 0.498564 0.000000
33.207001 159.403702 -768.742615 0.739265 0.303083 0.601355 0.000000
33.197102 68.605904 -751.973572 0.308657 0.942145 0.130741 1.000000
33.193401 73.083199 -747.382324 -0.676431 0.498511 0.542152 1.000000
33.184502 157.660202 -767.268677 -0.379344 0.920487 -0.093816 0.000000
33.179699 166.277496 -773.449585 0.629971 0.633313 0.449502 0.000000
33.177799 167.223206 -761.678589 0.937787 0.313508 0.149225 0.000000
33.169998 168.211700 -774.315125 -0.883046 0.059053 -0.465556 0.000000
33.163799 164.263199 -766.834473 0.879693 0.189450 -0.436175 0.000000
33.160301 166.675201 -759.890686 0.955175 0.196929 -0.221043 0.000000
33.154800 166.132095 -765.334229 0.928001 0.333522 -0.166063 0.000000
33.145302 167.143097 -764.124878 -0.910594 0.400882 -0.100565 0.000000
33.142799 163.847397 -771.415283 0.853473 0.519805 0.037227 0.000000
33.104500 171.191498 -775.744629 0.798118 0.443399 0.407927 0.000000
33.099899 164.466202 -772.456421 0.906833 0.097999 0.409938 0.000000
33.080002 161.828293 -769.821716 0.618274 0.687521 0.380857 0.000000
33.068699 169.287704 -774.685486 0.937669 0.274474 0.213170 0.000000
33.050999 71.457802 -750.256592 0.749602 0.456351 -0.479416 1.000000
33.022900 165.867905 -766.351013 -0.909065 0.413698 -0.049537 0.000000
33.019299 75.548897 -745.954285 0.418574 0.033220 -0.907575 1.000000
33.014599 172.367996 -776.654114 -0.721569 0.642276 -0.258496 0.000000
33.005501 162.871201 -770.251221 0.841115 0.368086 0.396280 0.000000
33.003300 167.946198 -762.868896 0.941619 0.332869 -0.050513 0.000000
32.968102 167.278503 -773.552917 0.837083 0.284204 0.467462 0.000000
32.958099 72.133698 -748.592529 0.856201 0.475334 0.202429 1.000000
32.946701 74.521896 -746.819580 0.511509 0.458537 -0.726707 1.000000
32.945999 160.985001 -767.123901 -0.214142 0.340615 0.915492 0.000000
32.929001 165.433304 -772.189880 0.919167 0.281378 0.275606 0.000000
32.903099 162.499405 -767.215698 -0.442761 0.465635 0.766255 0.000000
32.902199 167.308807 -765.226929 0.993369 0.111602 -0.027624 0.000000
32.899502 160.910706 -768.978516 -0.839272 0.453113 -0.300518 0.000000
32.880901 159.316101 -767.537476 -0.909576 0.409241 0.072059 0.000000
32.878601 168.165604 -763.841614 0.987304 0.157923 0.017042 0.000000
32.851299 77.380898 -743.574585 0.981953 0.015036 -0.188526 1.000000
32.819599 167.373001 -760.572876 0.839123 0.539133 0.072167 0.000000
32.813599 170.461105 -774.856812 -0.889155 0.369111 -0.270482 0.000000
32.782501 164.779495 -771.320190 0.737287 0.658884 0.149267 0.000000
32.780201 163.970001 -770.491089 -0.852120 0.408210 -0.327500 0.000000
32.779900 166.865997 -766.146912 -0.984821 0.167455 -0.045669 0.000000
32.731701 168.193695 -761.803772 0.876194 0.477547 0.065057 0.000000
32.728100 72.204697 -749.587585 0.767628 0.545547 -0.336340 1.000000
32.720600 156.883301 -767.697021 0.029119 0.564345 -0.825025 0.000000
32.715698 165.163803 -766.994080 0.823015 0.420229 -0.382171 0.000000
32.679001 173.547302 -778.352478 0.836761 0.502664 -0.217163 0.000000
32.674801 166.801407 -772.666992 -0.927986 0.222433 -0.298939 0.000000
32.656898 168.896393 -763.153320 0.971163 0.238344 0.005929 0.000000
32.625099 163.595795 -767.424622 0.513485 0.048442 -0.856730 0.000000
32.624100 173.293503 -777.077820 -0.482418 0.852121 -0.202886 0.000000
32.616699 166.362106 -767.138977 0.892357 0.200087 -0.404555 0.000000
32.616100 168.570999 -773.538208 0.866482 0.185146 0.463605 0.000000
32.609100 172.291000 -775.706726 0.703519 0.598073 0.383887 0.000000
32.540600 76.354202 -745.494507 0.480765 0.741798 -0.467548 1.000000
32.533001 78.305099 -743.260376 0.373617 0.923927 -0.082277 1.000000
32.522999 158.304504 -767.661987 -0.900215 0.365666 -0.236435 0.000000
32.516300 169.712708 -773.914673 -0.909630 0.025012 -0.414665 0.000000
32.513199 171.476303 -774.914978 0.810186 0.436254 0.391510 0.000000
32.511200 162.691299 -769.301880 0.670090 0.446170 0.593222 0.000000
32.509201 165.745895 -771.156616 -0.723084 0.640808 -0.257905 0.000000
32.508301 168.240204 -764.952820 0.745908 0.653230 -0.130048 0.000000
32.485600 77.173599 -744.543884 0.601571 0.700459 -0.384017 1.000000
32.452301 160.731293 -768.043274 -0.746856 0.655163 -0.113877 0.000000
32.451000 72.936798 -748.043823 0.472196 0.841340 -0.263015 1.000000
32.450901 168.389099 -760.721924 0.842729 0.478719 0.246242 0.000000
32.441700 69.758698 -751.869873 0.494554 0.850989 -0.176732 1.000000
32.419399 73.791496 -747.449829 -0.367921 0.587038 0.721125 1.000000
32.414501 167.767105 -766.560303 0.662125 0.655553 -0.363101 0.000000
32.413700 71.203796 -751.019226 0.675571 0.521346 -0.521346 1.000000
32.407101 161.753494 -768.742920 -0.726642 0.637988 -0.254879 0.000000
32.393101 167.755096 -772.502808 0.921828 0.158068 0.353904 0.000000
32.384201 169.166000 -761.979004 0.951119 0.034104 0.306935 0.000000
32.373001 73.224297 -749.284912 0.825772 0.507811 -0.245416 1.000000
32.362099 169.053497 -764.249878 0.994175 0.009757 -0.107332 0.000000
32.358700 166.847595 -771.665527 -0.949339 0.171502 -0.263330 0.000000
32.350601 164.785599 -770.090515 -0.868762 0.287559 -0.403191 0.000000
32.340000 163.670700 -769.574707 -0.882899 0.411030 -0.227031 0.000000
32.326801 173.271103 -776.060913 0.896652 0.289962 0.334571 0.000000
32.292099 168.634399 -765.878418 -0.458337 0.774768 -0.435501 0.000000
32.252998 170.897293 -774.077820 -0.857811 0.375582 -0.350853 0.000000
32.238800 159.735504 -768.206482 0.857342 0.441661 -0.264385 0.000000
32.224499 169.859299 -763.207581 0.953118 0.269851 0.136919 0.000000
32.214001 169.470703 -765.171875 0.907641 0.277131 0.315255 0.000000
32.212002 75.301102 -746.739014 0.528695 0.471990 -0.705483 1.000000
32.202702 174.200104 -777.479492 0.796799 0.602869 0.040753 0.000000
32.201401 161.594299 -767.453918 0.574412 0.109621 -0.811193 0.000000
32.190601 165.580399 -767.773193 0.572217 0.081745 -0.816018 0.000000
32.178101 72.805099 -750.249023 0.884443 0.230401 -0.405803 1.000000
32.142200 167.129898 -767.570984 -0.660783 0.722682 0.202723 0.000000
32.138000 162.683304 -767.878296 -0.834930 0.544767 0.078230 0.000000
32.134701 169.312195 -772.995117 0.822183 0.245267 0.513672 0.000000
32.109798 169.237198 -760.233215 0.911076 0.208698 0.355507 0.000000
32.100498 167.808304 -771.544922 0.900353 0.180071 0.396155 0.000000
32.092899 172.362198 -774.657471 0.774400 0.214854 0.595098 0.000000
32.087502 164.438400 -767.685913 -0.374628 0.024630 0.926848 0.000000
32.061298 168.880905 -766.838989 0.959198 0.249941 -0.132168 0.000000
32.042801 166.501999 -770.680725 -0.213095 0.974325 0.072674 0.000000
32.006599 169.760101 -761.260376 0.952184 0.273004 0.137168 0.000000
31.977600 170.198807 -764.205200 -0.998690 0.015556 0.048742 0.000000
31.976900 78.053101 -744.104370 0.646169 0.619454 -0.445806 1.000000
31.961901 174.703400 -778.538818 0.793643 0.585820 0.164150 0.000000
31.931101 165.778793 -769.968872 0.747062 0.463409 0.476603 0.000000
31.904600 170.265900 -762.333008 0.835025 0.549828 0.020567 0.000000
31.903900 173.262299 -775.125000 -0.382763 0.909239 -0.163635 0.000000
31.894600 169.771301 -766.268921 -0.997905 0.062171 0.017914 0.000000
31.889099 72.108299 -750.972412 0.541128 0.487518 -0.685206 1.000000
31.877800 168.698700 -772.225830 0.941893 0.154029 0.298516 0.000000
31.869499 73.732597 -748.466919 0.823986 0.556590 0.106086 1.000000
31.868401 163.365097 -768.712830 0.897753 0.356439 0.258825 0.000000
31.859200 168.313599 -767.716797 0.927905 0.157201 -0.338052 0.000000
31.835300 174.332199 -776.495728 0.663782 0.686283 0.297336 0.000000
31.817200 170.382904 -765.446472 0.998399 0.041030 -0.038926 0.000000
31.813900 164.527298 -769.224426 -0.851185 0.031627 -0.523912 0.000000
31.782600 170.245407 -772.758423 0.929862 0.364316 -0.051294 0.000000
31.779800 76.200600 -746.302917 0.524325 0.618737 -0.585019 1.000000
31.746700 77.206398 -745.371582 0.617985 0.634732 -0.463907 1.000000
31.730900 171.227005 -764.048706 0.995324 0.092664 0.027254 0.000000
31.730499 171.617004 -773.588074 -0.723084 0.640808 -0.257905 0.000000
31.711901 70.542900 -751.734924 -0.805795 0.029226 0.591473 1.000000
31.690701 78.833702 -743.383179 0.750317 0.576050 -0.324331 1.000000
31.689400 171.111404 -762.917725 0.904368 0.426589 0.011813 0.000000
31.680799 169.931702 -767.255127 -0.491020 0.739011 -0.461262 0.000000
31.666401 175.079803 -777.385376 0.899297 0.357658 0.251685 0.000000
31.657400 74.584602 -747.311401 -0.809583 0.192902 0.554405 1.000000
31.657101 73.661903 -749.836426 0.753186 0.562055 -0.341768 1.000000
31.628201 166.396805 -768.041016 -0.309624 0.161005 0.937129 0.000000
31.625999 170.440094 -760.397583 -0.513779 0.731846 -0.447698 0.000000
31.624201 167.692200 -770.599182 0.752088 0.522693 0.401441 0.000000
31.609301 169.001007 -771.297913 0.949253 0.160229 0.270638 0.000000
31.580799 170.797104 -766.704712 -0.979323 0.173255 -0.104445 0.000000
31.580099 161.301804 -768.207214 0.447804 0.704168 -0.551016 0.000000
31.576401 162.349304 -768.662415 -0.934189 0.024415 -0.355943 0.000000
31.551500 171.406494 -765.328003 0.535459 0.844534 0.006778 0.000000
31.536699 174.200607 -775.481323 -0.783401 0.590233 -0.194700 0.000000
31.516399 173.207794 -774.168274 0.691179 0.611999 0.384355 0.000000
31.508499 171.086700 -761.877197 0.883907 0.452594 0.117760 0.000000
31.446899 170.134201 -771.814514 0.815840 0.487610 0.310871 0.000000
31.442301 165.454895 -768.890503 -0.442870 0.837227 -0.320807 0.000000
31.426800 171.179398 -772.596191 -0.930155 0.019298 -0.366659 0.000000
31.420000 166.672302 -769.847473 0.354945 0.642827 0.678813 0.000000
31.418200 74.415802 -749.153381 0.832929 0.523770 -0.178592 1.000000
31.416500 71.562302 -751.674377 0.678234 0.622127 -0.391098 1.000000
31.390600 169.243195 -767.944580 0.816907 0.020734 -0.576396 0.000000
31.378700 172.134705 -763.819092 0.003526 0.224515 -0.974464 0.000000
31.377501 78.127701 -744.950378 0.608767 0.595277 -0.524450 1.000000
31.346001 73.126503 -750.742188 0.474595 0.638943 -0.605402 1.000000
31.339399 175.681900 -778.790222 0.934874 0.338605 -0.106573 0.000000
31.337799 167.579193 -768.210571 -0.341068 0.250312 0.906100 0.000000
31.323900 170.854202 -767.690186 -0.911802 0.386357 -0.139088 0.000000
31.299801 172.535095 -773.459412 -0.213277 0.976832 0.017675 0.000000
31.279200 172.044601 -762.708008 0.947008 0.310430 0.082519 0.000000
31.272900 164.824005 -768.122375 -0.709508 0.073998 0.700802 0.000000
31.272600 175.519104 -776.550171 0.775999 0.597750 0.201299 0.000000
31.259701 171.695602 -767.117371 0.994590 0.058898 0.085568 0.000000
31.258699 172.267105 -764.827820 0.788776 0.579666 -0.204498 0.000000
31.250299 75.586700 -747.097290 0.437323 0.348911 -0.828861 1.000000
31.205601 74.703003 -748.210205 0.839917 0.519949 0.155540 1.000000
31.185200 175.976501 -777.676880 0.711290 0.616885 -0.336927 0.000000
31.178200 172.068207 -766.122192 0.893785 0.420351 -0.156376 0.000000
31.168699 174.222794 -774.322815 0.845369 0.331609 0.418792 0.000000
31.150700 175.099304 -775.254272 -0.961307 0.023386 -0.274483 0.000000
31.144800 168.844299 -770.383728 0.481600 0.711569 0.511596 0.000000
31.136200 171.282806 -760.840698 0.830715 0.461509 0.311323 0.000000
31.131300 74.348297 -750.359070 -0.534766 0.844294 0.034546 1.000000
31.116899 79.607399 -743.047729 0.807886 0.584031 -0.078923 1.000000
31.114000 76.982101 -746.237305 0.548034 0.551407 -0.628975 1.000000
31.098801 172.017105 -761.667480 0.853906 0.520412 -0.004034 0.000000
31.088301 171.160400 -771.648804 0.926295 0.177972 0.332121 0.000000
31.076200 78.857803 -744.306885 0.643958 0.613851 -0.456625 1.000000
31.072800 166.489105 -768.893982 -0.779912 0.621919 -0.070379 0.000000
31.057800 170.075500 -770.861816 0.467169 0.787236 0.402509 0.000000
31.040701 172.141098 -772.293213 0.830126 0.459786 0.315416 0.000000
31.020300 167.638000 -769.719482 0.794509 0.278472 0.539637 0.000000
30.988899 173.120300 -763.573914 0.977028 0.213106 0.001165 0.000000
30.977100 170.076294 -768.335571 0.546353 0.479521 -0.686701 0.000000
30.969999 172.897995 -765.599915 0.952627 0.288794 -0.095393 0.000000
30.959600 72.541000 -751.477905 0.502270 0.224419 -0.835081 1.000000
30.952400 172.656693 -767.305420 0.583574 0.673869 -0.453147 0.000000
30.911600 173.769897 -773.391602 0.574268 0.765161 0.291111 0.000000
30.905899 75.305298 -748.971619 0.501924 0.834506 -0.227315 1.000000
30.893700 171.722305 -768.161621 0.818055 0.400257 -0.413014 0.000000
30.869400 168.600204 -768.650085 0.372357 0.756096 -0.538210 0.000000
30.858700 173.060593 -772.682007 -0.572017 0.797773 -0.190672 0.000000
30.821501 173.013596 -762.508118 0.915641 0.330207 0.229271 0.000000
30.820999 176.551300 -778.929199 0.794530 0.404517 0.452866 0.000000
30.817200 176.002899 -775.667419 0.619625 0.261479 0.740064 0.000000
30.796200 77.881500 -745.766418 0.630079 0.559132 -0.538861 1.000000
30.782400 173.334900 -764.538696 0.912075 0.405516 -0.060625 0.000000
30.772600 173.292206 -766.534180 0.850998 0.515191 -0.101890 0.000000
30.719200 176.473297 -776.841125 -0.688018 0.717610 -0.108011 0.000000
30.707600 175.120102 -774.170471 0.857115 0.367335 0.361135 0.000000
30.647499 75.564796 -748.016418 0.817221 0.567555 0.100157 1.000000
30.645700 73.818802 -751.106018 0.734478 0.268092 -0.623433 1.000000
30.642599 176.918106 -777.984924 0.482668 0.379355 -0.789380 0.000000
30.623400 173.666702 -767.610229 0.959758 0.199894 -0.197247 0.000000
30.616400 171.020599 -770.708923 -0.553248 0.830580 0.063673 0.000000
30.603901 75.216599 -750.288025 0.953008 0.282616 -0.109103 1.000000
30.599899 172.234695 -760.781494 0.898324 0.233770 0.371974 0.000000
30.591801 173.949203 -765.747192 0.984768 0.173783 -0.005679 0.000000
30.589800 174.041901 -763.364319 0.931759 0.337951 0.132718 0.000000
30.560600 172.379395 -771.433472 -0.831216 0.441534 -0.337829 0.000000
30.548700 174.362305 -764.498291 0.912973 0.376760 -0.156631 0.000000
30.543600 172.889496 -761.549927 0.927496 0.337903 0.159913 0.000000
30.539600 80.563103 -742.755920 -0.058487 0.899065 -0.433891 1.000000
30.539400 172.894806 -768.380127 0.910082 0.246086 -0.333454 0.000000
30.527201 79.630402 -743.929016 0.604969 0.724990 -0.329246 1.000000
30.509100 78.704903 -745.213623 0.554603 0.632146 -0.541117 1.000000
30.501600 169.146301 -769.655212 -0.868793 0.419993 -0.262306 0.000000
30.491199 170.905807 -768.714172 -0.519464 0.080680 0.850675 0.000000
30.468000 167.663498 -768.698608 0.792321 0.217772 -0.569915 0.000000
