ply
format ascii 1.0
element vertex 697
property float x
property float y
property float z
property float nx
property float ny
property float nz
property float label
element face 0
property list uchar int vertex_indices
end_header
28.445601 103.677299 -763.347412 0.995154 0.018449 0.096585 0.000000
28.433500 102.215401 -762.434021 0.732927 0.514538 0.445050 0.000000
28.427099 101.927200 -761.858887 0.937217 0.335580 0.094925 0.000000
28.425400 62.646702 -757.409729 0.372064 0.904826 0.207024 1.000000
28.416500 62.378502 -756.753418 -0.076735 0.978062 0.193664 1.000000
28.406000 62.700500 -755.445313 0.908480 0.392971 -0.142258 1.000000
28.397400 67.005302 -761.876282 0.545142 0.714153 0.439096 1.000000
28.391899 64.874702 -759.212280 0.520888 0.615289 0.591689 1.000000
28.387600 103.176399 -761.379822 0.558960 0.606243 -0.565715 0.000000
28.386900 63.045200 -754.015686 -0.170612 0.943142 -0.285263 1.000000
28.375000 66.435402 -761.325073 0.481196 0.739156 0.471274 1.000000
28.371300 64.338303 -758.554382 0.442561 0.714396 0.542013 1.000000
28.369200 65.507500 -760.052979 0.530256 0.661557 0.530256 1.000000
28.366400 61.770401 -756.429321 0.566752 0.759415 0.319500 1.000000
28.362200 66.028503 -760.642212 0.395104 0.769071 0.502416 1.000000
28.347799 67.512001 -762.441223 0.530096 0.728263 0.434316 1.000000
28.346100 102.197701 -760.680481 0.838029 0.060563 -0.542254 0.000000
28.338600 103.208603 -763.159485 0.347489 0.605251 0.716186 0.000000
28.320299 62.854000 -754.575623 0.863045 0.503557 -0.039791 1.000000
28.279400 63.172298 -753.542175 -0.001222 0.956436 -0.291939 1.000000
28.278601 104.136200 -763.464478 0.670757 0.189662 -0.717017 0.000000
28.262899 62.823200 -755.973572 0.804002 0.550919 -0.223762 1.000000
28.245501 63.745300 -757.889587 -0.643985 0.756498 -0.113993 1.000000
28.243900 102.357002 -761.528687 0.927524 0.271297 -0.257093 0.000000
28.217100 103.490402 -761.745728 0.087814 0.963405 -0.253260 0.000000
28.208799 102.702499 -760.975281 0.966879 0.254186 -0.023108 0.000000
28.189600 62.715599 -756.474487 0.986688 0.136217 -0.088837 1.000000
28.180799 63.018902 -755.164124 0.261427 0.958567 -0.113155 1.000000
28.166700 68.636703 -763.104919 0.677562 0.557106 -0.480149 1.000000
28.153601 102.776703 -762.561279 0.597610 0.715495 0.361841 0.000000
28.137800 63.303799 -753.016785 -0.926307 0.169055 -0.336712 1.000000
28.129299 102.610497 -762.060974 0.924501 0.376451 0.059860 0.000000
28.126499 63.192001 -757.378296 0.357194 0.796079 0.488539 1.000000
28.124100 67.995003 -762.674316 0.490055 0.611306 0.621410 1.000000
28.121201 65.264198 -759.463379 0.480622 0.684929 0.547608 1.000000
28.114100 63.165600 -752.401123 0.033137 0.997321 -0.065205 1.000000
28.107201 64.742699 -758.809204 0.388711 0.807816 0.443099 1.000000
28.100700 66.904404 -761.428101 0.472059 0.733763 0.488623 1.000000
28.076900 63.288700 -754.542114 0.718809 0.682943 -0.130013 1.000000
28.076000 65.891197 -760.241089 0.480779 0.710355 0.514051 1.000000
28.073999 66.483803 -760.951782 0.377112 0.816280 0.437577 1.000000
28.064301 64.126404 -758.249512 0.134963 0.368712 0.919694 1.000000
28.062201 67.383797 -761.960022 0.492330 0.731036 0.472438 1.000000
28.059900 102.928001 -761.664795 0.902980 0.195044 -0.382864 0.000000
28.027901 62.927101 -756.919983 0.863587 0.487486 0.128743 1.000000
28.020901 63.206799 -755.785095 0.970628 0.229918 -0.070840 1.000000
27.985600 103.614403 -763.202026 0.486852 0.457146 0.744307 0.000000
27.975500 63.443699 -753.967407 0.617417 0.780894 -0.094875 1.000000
27.955299 63.214802 -756.300476 0.950274 0.260146 -0.171184 1.000000
27.954000 65.622902 -759.830322 0.443498 0.702620 0.556448 1.000000
27.950300 104.518700 -763.546692 -0.179355 0.089068 0.979744 0.000000
27.949900 103.055298 -762.213013 0.962899 0.268630 0.025759 0.000000
27.949800 67.763702 -762.269226 0.743885 0.499772 0.443692 1.000000
27.937799 103.295601 -762.844299 0.769804 0.405246 0.493130 0.000000
27.930201 63.517899 -755.198730 0.730897 0.678793 -0.070919 1.000000
27.925501 103.812202 -761.988525 -0.329666 0.654460 0.680443 0.000000
27.878500 63.386799 -757.864929 0.151037 0.491237 0.857831 1.000000
27.878099 68.899399 -763.407104 0.498938 0.549336 0.670291 1.000000
27.863199 66.228897 -760.585815 0.477951 0.732638 0.484566 1.000000
27.855301 103.369499 -761.322876 -0.964730 0.262221 0.023173 0.000000
27.853600 64.499802 -758.476318 0.165560 0.760970 0.627307 1.000000
27.834299 105.051903 -763.596130 0.961800 0.201307 0.185518 0.000000
27.829100 104.090103 -763.289124 0.431952 0.387322 0.814493 0.000000
27.821100 63.568600 -753.454224 0.499706 0.866068 0.014816 1.000000
27.808701 65.113998 -759.060974 0.402584 0.741084 0.537327 1.000000
27.801901 63.507599 -752.542114 0.110308 0.622138 0.775098 1.000000
27.787100 67.253197 -761.558899 -0.107345 0.978441 0.176440 1.000000
27.784300 63.902100 -757.895203 0.241160 0.657278 0.714022 1.000000
27.772600 104.278503 -762.348328 -0.661149 0.308752 0.683780 0.000000
27.764400 63.638401 -754.692200 0.691840 0.717947 0.076871 1.000000
27.762400 68.356499 -762.893982 0.545183 0.639704 0.541807 1.000000
27.757099 66.836098 -761.061523 0.455598 0.442535 0.772394 1.000000
27.726500 63.475601 -757.405212 -0.525184 0.833411 -0.172069 1.000000
27.724400 63.635502 -756.074097 0.874385 0.480842 -0.065129 1.000000
27.698200 65.496498 -759.441711 0.357392 0.799726 0.482400 1.000000
27.691799 103.583199 -762.541687 0.922077 0.381411 0.065576 0.000000
27.688801 63.542400 -756.656982 0.990672 0.113910 -0.074789 1.000000
27.676901 105.635399 -763.822815 0.579542 0.566025 0.586300 0.000000
27.669600 66.017403 -760.004211 0.388637 0.765892 0.512221 1.000000
27.658701 63.803398 -754.163391 -0.669816 0.650164 -0.358655 1.000000
27.635401 69.452904 -763.467773 0.663324 0.515546 -0.542415 1.000000
27.627899 104.593597 -762.757690 0.217411 0.932765 -0.287544 0.000000
27.614401 67.558701 -761.956482 0.423696 0.730340 0.535803 1.000000
27.600201 63.869801 -755.338013 0.814169 0.567718 0.121759 1.000000
27.568001 68.807297 -763.032715 0.383354 0.402285 0.831389 1.000000
27.560600 63.676601 -752.923706 0.391437 0.920197 0.003850 1.000000
27.545900 68.134598 -762.387817 0.359781 0.782483 0.508211 1.000000
27.545000 103.985001 -762.864807 0.858225 0.402149 0.318945 0.000000
27.520800 64.740501 -758.744507 0.139879 0.979150 0.147306 1.000000
27.519300 105.061203 -762.791077 -0.361823 0.792794 0.490471 0.000000
27.508801 64.116501 -758.356628 0.381120 0.799227 -0.464741 1.000000
27.494400 104.534500 -763.364319 0.609549 0.398107 0.685537 0.000000
27.492201 104.201897 -761.950378 -0.970668 0.091667 0.222262 0.000000
27.483101 66.584602 -760.675171 0.509847 0.661287 0.550231 1.000000
27.471399 63.898300 -753.644226 0.910831 0.115418 0.396316 1.000000
27.470400 63.745602 -757.071411 0.943148 0.265734 -0.199644 1.000000
27.467699 69.732002 -763.880127 -0.179389 0.252223 0.950896 1.000000
27.443399 63.900101 -756.372803 0.811830 0.582673 -0.037727 1.000000
27.432301 63.989201 -754.833313 -0.008134 0.979553 -0.201023 1.000000
27.424101 106.202103 -763.896179 -0.407384 0.184120 0.894505 0.000000
27.403900 64.000900 -755.849609 0.819933 0.572458 0.001360 1.000000
27.386101 105.238503 -763.701477 0.253241 0.311124 0.916008 0.000000
27.367701 63.798401 -757.624878 0.866578 0.446055 0.223778 1.000000
27.365200 65.330200 -759.037720 0.289419 0.743534 0.602822 1.000000
27.361300 67.046097 -761.256104 0.321428 0.785180 0.529317 1.000000
27.358700 65.784103 -759.690186 0.259891 0.763922 0.590661 1.000000
27.313000 104.520203 -762.382874 0.848499 0.353412 0.393890 0.000000
27.287399 66.311699 -760.270813 0.480237 0.722848 0.496854 1.000000
27.284201 64.099701 -756.785583 0.883188 0.452295 -0.124131 1.000000
27.283400 64.116203 -754.164429 0.592041 0.805563 -0.023571 1.000000
27.277300 68.443604 -762.652893 0.228634 0.820936 0.523251 1.000000
27.257601 64.290802 -755.384827 0.698798 0.710469 0.083156 1.000000
27.234301 67.997002 -761.966187 0.163761 0.809792 0.563399 1.000000
27.230801 64.585403 -758.278015 0.250002 0.753149 0.608494 1.000000
27.220200 67.463303 -761.629700 0.275522 0.788779 0.549469 1.000000
27.217300 64.135101 -757.969421 0.466030 0.566251 0.679835 1.000000
27.204399 64.016296 -753.164673 -0.368580 0.850690 -0.374801 1.000000
27.201401 105.704002 -763.591797 0.433868 0.376654 0.818468 0.000000
27.197599 69.288300 -763.259216 0.216772 0.800978 0.558071 1.000000
27.192699 104.947899 -763.250671 0.893891 0.209209 0.396472 0.000000
27.182899 105.639603 -763.071106 0.596125 0.772639 0.218321 0.000000
27.166700 64.314499 -756.281921 0.808912 0.587928 -0.001364 1.000000
27.164200 104.583702 -762.928223 0.960469 0.276367 0.033462 0.000000
27.153000 66.938599 -760.754517 0.386749 0.457359 0.800780 1.000000
27.131701 64.244904 -757.271118 0.787135 0.608971 -0.097844 1.000000
27.130899 106.616798 -763.904724 0.971538 0.182084 -0.151524 0.000000
27.116600 64.355202 -754.680298 0.707106 0.685725 -0.172577 1.000000
27.102200 64.965500 -758.568787 0.186133 0.730687 0.656849 1.000000
27.097799 68.882301 -762.844788 -0.075010 0.847749 -0.525067 1.000000
27.093201 64.222801 -753.693420 0.224618 0.971692 -0.073218 1.000000
27.084900 65.725899 -759.276184 0.204624 0.864797 0.458536 1.000000
27.081900 105.087700 -762.455078 -0.901143 0.140493 -0.410126 0.000000
27.071301 69.707802 -763.602905 0.240129 0.842745 0.481787 1.000000
27.036400 69.945396 -764.031677 0.212993 0.813664 0.540911 1.000000
27.024500 106.240799 -763.405884 -0.353031 0.824794 0.441684 0.000000
26.985701 64.582802 -755.891113 0.625206 0.776068 0.082684 1.000000
26.962601 64.593697 -756.788208 0.782165 0.622081 -0.035106 1.000000
26.947901 66.099800 -759.815674 0.307662 0.896232 0.319552 1.000000
26.931000 64.640099 -755.063477 0.660961 0.747362 -0.067680 1.000000
26.921801 64.458504 -757.703613 0.894100 0.447710 -0.011886 1.000000
26.910299 68.327797 -762.341614 0.271969 0.797041 0.539221 1.000000
26.893299 64.444397 -754.240479 0.797052 0.496760 0.343419 1.000000
26.885201 66.736198 -760.385803 0.223382 0.900828 0.372303 1.000000
26.882500 65.327797 -758.891113 0.234367 0.566517 0.790019 1.000000
26.874500 67.483704 -761.233276 0.328403 0.845131 0.421787 1.000000
26.862801 107.300102 -764.107910 -0.017601 0.510428 -0.859740 0.000000
26.858101 67.786400 -761.631775 0.117468 0.890207 0.440150 1.000000
26.838200 64.313698 -758.355408 0.430098 0.800594 0.417211 1.000000
26.817499 64.323700 -753.177429 -0.989091 0.135033 -0.058861 1.000000
26.810900 64.685402 -757.243225 0.878154 0.458480 -0.136538 1.000000
26.803801 105.551003 -762.764282 -0.259572 0.958721 -0.116090 0.000000
26.795500 64.794403 -756.347595 0.826191 0.559769 0.063771 1.000000
26.726299 105.836899 -763.633911 -0.138130 0.892859 -0.428629 0.000000
26.722300 64.687401 -755.502197 0.595915 0.800716 0.061156 1.000000
26.721300 69.519096 -763.286682 -0.099701 0.919163 0.381050 1.000000
26.714701 105.910301 -763.072815 0.835121 0.321200 0.446547 0.000000
26.712500 69.165199 -762.923218 0.171798 0.832101 0.527346 1.000000
26.712400 106.782303 -763.633911 0.824446 0.335769 0.455574 0.000000
26.701000 64.757698 -758.163086 0.569418 0.777627 0.266570 1.000000
26.686600 64.717903 -754.643494 0.898689 0.288706 0.330161 1.000000
26.680000 68.149597 -761.928589 0.114064 0.922132 0.369677 1.000000
26.663000 67.122498 -760.660278 0.306011 0.351234 0.884868 1.000000
26.661900 64.974197 -756.886597 0.752644 0.658391 0.006930 1.000000
26.661600 64.528397 -753.810486 0.687410 0.687410 0.234380 1.000000
26.661400 68.714600 -762.619202 0.303526 0.743560 0.595811 1.000000
26.637501 70.391502 -764.349121 0.582909 0.708408 -0.397963 1.000000
26.631001 64.989998 -755.870117 0.730127 0.649175 0.213278 1.000000
26.629200 107.705002 -764.307495 -0.576807 0.137900 0.805157 0.000000
26.625799 69.948799 -763.637695 0.222999 0.734494 0.640928 1.000000
26.615101 105.412804 -763.395020 -0.745543 0.630365 0.216347 0.000000
26.611900 65.706200 -759.389221 0.040575 0.370408 0.927983 1.000000
26.610399 106.331001 -763.788879 -0.951091 0.280672 0.129029 0.000000
26.580299 65.128304 -758.544922 0.337288 0.815508 0.470302 1.000000
26.567301 64.971001 -757.726685 0.798044 0.593042 -0.106894 1.000000
26.552799 66.637199 -760.024902 0.445127 0.568495 0.691864 1.000000
26.542200 106.453201 -763.149780 -0.923403 0.119726 0.364682 0.000000
26.538900 65.001404 -755.079102 0.686496 0.726129 0.038217 1.000000
26.518600 66.217201 -759.524780 -0.660662 0.337672 -0.670450 1.000000
26.498301 65.253700 -756.315674 0.820889 0.570023 0.034843 1.000000
26.469601 65.198997 -757.296875 0.825216 0.560121 -0.072687 1.000000
26.440500 67.648399 -761.408997 0.346229 0.841289 0.415161 1.000000
26.428301 64.787697 -754.238281 0.796186 0.519667 0.309893 1.000000
26.415701 67.443604 -760.929382 0.225561 0.817851 0.529378 1.000000
26.408899 107.022499 -763.931274 0.279762 0.947405 0.155423 0.000000
26.392401 68.476303 -762.281128 0.187006 0.804279 0.564060 1.000000
26.350800 70.254700 -763.929688 0.237958 0.794749 0.558346 1.000000
26.340900 64.605301 -753.338013 -0.225932 0.962496 0.150186 1.000000
26.330601 65.337601 -756.767273 0.741523 0.665769 0.083039 1.000000
26.325899 65.328400 -759.047424 0.078737 0.182912 -0.979971 1.000000
26.297501 66.887703 -760.444885 0.301153 0.779173 0.549724 1.000000
26.288401 70.614403 -764.670471 0.712674 0.688668 0.133533 1.000000
26.283100 65.380501 -757.795715 0.802088 0.591088 -0.085267 1.000000
26.282200 69.345497 -763.144775 0.044377 0.899646 0.434358 1.000000
26.281099 65.300598 -755.537292 0.942427 0.324658 0.080179 1.000000
26.276501 107.088203 -763.419128 0.731327 0.629798 -0.261755 0.000000
26.263800 69.063698 -762.619080 0.073356 0.460894 0.884418 1.000000
26.236700 68.305199 -761.761108 0.167657 0.944606 0.282155 1.000000
26.220301 108.165199 -764.388489 -0.244164 0.408938 0.879291 0.000000
26.207500 65.330200 -758.306702 0.799943 0.599610 0.023650 1.000000
26.194201 65.066101 -754.625671 0.533362 0.788102 0.307280 1.000000
26.178400 64.861801 -753.825928 0.790978 0.368908 0.488119 1.000000
26.172400 107.343697 -764.212280 -0.131628 0.937680 0.321607 0.000000
26.156300 65.579002 -757.170471 0.821872 0.568774 0.031985 1.000000
26.133801 66.394897 -759.871521 0.117436 0.729890 0.673401 1.000000
26.132401 69.783501 -763.361877 0.059331 0.878920 0.473265 1.000000
26.107000 65.872002 -759.226196 -0.782664 0.187656 -0.593482 1.000000
26.098101 65.449600 -756.016785 0.609240 0.788684 0.082486 1.000000
26.076700 65.574699 -758.717529 -0.896775 0.122865 -0.425086 1.000000
26.061199 70.518997 -764.220581 0.343539 0.724526 0.597530 1.000000
26.052700 65.387001 -755.099182 0.687658 0.693895 0.213626 1.000000
26.040501 65.713203 -756.637695 0.713077 0.682668 0.159644 1.000000
26.037001 67.763702 -761.130127 0.138245 0.857117 0.496225 1.000000
25.998800 107.701797 -764.506714 -0.374806 0.577758 0.725062 0.000000
25.995701 67.368202 -760.611023 0.128416 0.939468 0.317662 1.000000
25.994699 65.167999 -754.161987 0.360726 0.932198 0.029737 1.000000
25.982201 70.833603 -764.985779 -0.290445 0.895167 -0.338108 1.000000
25.979601 107.523399 -763.739319 0.688852 0.707099 0.159668 0.000000
25.963800 68.748802 -762.255371 -0.061521 0.962994 0.262407 1.000000
25.919800 108.216400 -764.855530 0.398744 0.339786 0.851792 0.000000
25.900499 65.741600 -757.650085 0.451802 0.882090 -0.133389 1.000000
25.889299 70.116501 -763.746826 0.029496 0.754247 0.655928 1.000000
25.861000 66.969299 -760.126282 0.299101 0.923062 0.241857 1.000000
25.850401 66.261299 -759.374390 -0.691617 0.348261 -0.632756 1.000000
25.837099 68.142502 -761.453186 0.214029 0.456495 0.863599 1.000000
25.827000 64.875298 -753.437317 0.923412 0.378184 -0.065481 1.000000
25.825899 65.913803 -758.287170 0.602308 0.791896 -0.100628 1.000000
25.822701 65.664803 -755.675781 0.889958 0.297650 0.345513 1.000000
25.817900 69.502098 -763.004578 -0.001242 0.945148 0.326641 1.000000
25.790199 65.454300 -754.695984 0.731258 0.616049 0.292823 1.000000
25.780701 66.007599 -757.200989 0.699685 0.711226 0.067805 1.000000
25.768400 68.534599 -761.817322 0.172304 0.736483 0.654144 1.000000
25.748699 69.160004 -762.624084 0.190829 0.587752 0.786214 1.000000
25.744301 66.645203 -759.683228 0.173397 0.001133 0.984851 1.000000
25.731701 65.827301 -756.287292 0.427663 0.898511 0.098906 1.000000
25.683901 65.725304 -758.951477 -0.681515 0.601922 -0.416205 1.000000
25.682199 70.733002 -764.595825 -0.651693 0.717967 -0.244582 1.000000
25.658199 66.101799 -756.685303 0.543616 0.838365 0.040319 1.000000
25.652901 71.023300 -765.330078 0.275852 0.948662 -0.154746 1.000000
25.621000 67.623199 -760.835205 0.100706 0.909109 0.404202 1.000000
25.616501 66.272697 -757.956421 0.568594 0.819402 -0.072677 1.000000
25.600901 70.422401 -764.035278 0.215541 0.851612 0.477807 1.000000
25.600401 69.845001 -763.294617 0.080057 0.726333 0.682665 1.000000
25.582899 66.175003 -758.626282 -0.883046 0.465556 -0.059053 1.000000
25.574499 65.740601 -755.258179 0.877580 0.285478 0.385169 1.000000
25.558001 65.333603 -754.020203 0.096461 0.944787 0.313167 1.000000
25.526100 67.192200 -760.405884 0.160826 0.494282 0.854296 1.000000
25.495399 66.445396 -757.069214 0.358759 0.933283 0.016597 1.000000
25.484200 68.861504 -762.083313 0.275346 0.241457 0.930528 1.000000
25.454700 66.084198 -755.903015 0.880263 0.457965 0.124121 1.000000
25.409500 66.301903 -759.593323 -0.310895 0.255946 -0.915334 1.000000
25.408400 66.050903 -759.181580 -0.013219 0.999536 -0.027454 1.000000
25.402300 67.908600 -761.166077 0.130971 0.902717 0.409814 1.000000
25.391500 68.338799 -761.410583 0.319695 0.570310 0.756665 1.000000
25.370001 70.083603 -763.736694 0.092972 0.842472 0.530657 1.000000
25.355499 66.557503 -758.266602 0.554263 0.826330 -0.099854 1.000000
25.346600 65.597603 -754.407227 0.306106 0.942591 0.133500 1.000000
25.337900 66.380203 -757.544678 0.520642 0.853084 0.034343 1.000000
25.332001 66.878899 -759.786987 0.373023 0.632660 0.678672 1.000000
25.329901 66.269897 -756.367493 0.343674 0.938347 0.037328 1.000000
25.328800 65.817398 -754.839111 -0.849275 0.135942 -0.510149 1.000000
25.327499 66.463097 -758.937317 -0.595437 0.795386 -0.113207 1.000000
25.293200 71.227699 -765.656311 0.454638 0.869292 0.193999 1.000000
25.290501 69.592400 -762.928711 0.192926 0.659036 0.726946 1.000000
25.254400 69.213699 -762.356384 0.181202 0.946881 0.265672 1.000000
25.226601 70.844101 -764.479919 -0.684002 0.687161 -0.244850 1.000000
25.198299 71.057098 -765.124023 -0.046194 0.981917 0.183591 1.000000
25.190599 66.152000 -755.502502 0.940726 0.231371 0.247997 1.000000
25.170000 67.569199 -760.651184 0.267707 0.536980 0.799991 1.000000
25.153299 68.695297 -761.674927 0.319263 0.701729 0.636904 1.000000
25.141100 67.257599 -760.048218 -0.220232 0.885364 0.409425 1.000000
25.107901 66.877899 -758.533081 0.871529 0.481672 -0.091814 1.000000
25.104200 66.435997 -756.765930 0.865024 0.475690 0.159539 1.000000
25.095600 66.774696 -759.372070 0.791404 0.594671 0.141588 1.000000
25.082899 66.930000 -757.614685 0.868488 0.479613 0.125304 1.000000
25.082500 70.433296 -763.924377 0.009452 0.857455 0.514473 1.000000
25.082399 69.893303 -763.248230 0.101238 0.411886 0.905594 1.000000
25.040001 66.418198 -755.931030 0.335286 0.927948 0.162774 1.000000
25.021601 68.157204 -760.917725 0.380965 0.910634 0.160034 1.000000
24.961500 65.971901 -754.440979 -0.026203 0.987754 -0.153803 1.000000
24.952499 66.708900 -757.162170 0.582438 0.796150 0.164046 1.000000
24.926300 66.219398 -755.103210 0.913250 0.386214 0.129668 1.000000
24.906401 65.683899 -753.978027 -0.085764 0.988051 -0.128059 1.000000
24.897400 69.030602 -761.948730 0.273063 0.946889 0.169815 1.000000
24.893101 67.120598 -758.176392 0.519223 0.854638 0.001342 1.000000
24.885401 71.324303 -765.944824 0.645096 0.760549 -0.073601 1.000000
24.877199 66.779999 -759.922607 0.101515 0.947916 -0.301909 1.000000
24.868601 71.056198 -764.752319 0.344789 0.815100 0.465545 1.000000
24.867100 66.764000 -756.454712 0.426605 0.896857 0.116859 1.000000
24.827801 69.563400 -762.653076 0.233309 0.840217 0.489491 1.000000
24.818399 68.526802 -761.264709 0.414135 0.366895 0.832994 1.000000
24.816799 67.172501 -758.962585 0.906862 0.408434 -0.103839 1.000000
24.808300 66.502701 -755.495972 0.194772 0.973862 0.116863 1.000000
24.805500 67.339203 -760.436218 0.147103 0.482090 0.863684 1.000000
24.792101 70.232597 -763.525879 0.266563 0.839751 0.473034 1.000000
24.757099 67.152298 -759.580688 0.311133 0.946528 0.085332 1.000000
24.704700 67.277397 -757.503418 -0.475096 0.837222 -0.270820 1.000000
24.702400 67.989601 -760.589111 -0.514908 0.830840 0.211128 1.000000
24.688900 67.083000 -756.844299 0.734766 0.662345 0.146350 1.000000
24.684299 71.298203 -765.430786 0.372465 0.874152 0.311654 1.000000
24.657700 66.284203 -754.709595 0.458570 0.848125 0.265326 1.000000
24.655800 70.825897 -764.362122 0.475691 0.529102 0.702687 1.000000
24.646200 66.855301 -756.005920 0.464061 0.874633 0.140230 1.000000
24.636700 69.923103 -763.024475 0.238700 0.903544 0.355853 1.000000
24.635000 69.344498 -762.239807 0.242703 0.911227 0.332808 1.000000
24.584200 67.448700 -759.961914 0.374777 0.904386 0.204029 1.000000
24.559999 67.584503 -758.617920 0.802126 0.597153 0.001366 1.000000
24.548599 68.853104 -761.538513 0.275242 0.730267 0.625261 1.000000
24.545300 67.581100 -757.912720 -0.874523 0.426050 -0.231711 1.000000
24.542000 66.568802 -755.099670 0.261007 0.955260 0.139116 1.000000
24.540001 67.505402 -759.206116 0.842693 0.529734 -0.096185 1.000000
24.477100 68.164497 -761.037292 0.095595 0.515074 0.851798 1.000000
24.414000 71.194901 -765.005615 0.415052 0.822154 0.389609 1.000000
24.409300 66.937599 -755.573975 0.642895 0.672491 0.366664 1.000000
24.395000 71.516899 -766.522522 0.894674 0.439755 0.078577 1.000000
24.386801 67.225304 -756.473877 -0.655910 0.649301 -0.384955 1.000000
24.351299 67.801697 -760.259399 0.248979 0.926202 0.283125 1.000000
24.332899 69.771500 -762.683899 0.334798 0.567700 0.752082 1.000000
24.330299 69.195297 -761.828430 0.457686 0.632043 0.625337 1.000000
24.322599 70.672699 -763.937622 0.364191 0.736548 0.569967 1.000000
24.321301 70.380096 -763.429077 0.210384 0.869887 0.446134 1.000000
24.313200 67.407303 -757.210022 0.899329 0.411895 0.146800 1.000000
24.291800 67.858002 -759.419189 -0.473285 0.874085 -0.109438 1.000000
24.283600 67.909401 -758.914917 0.797807 0.602198 -0.029341 1.000000
24.282900 71.554100 -766.034180 0.029844 0.999274 -0.023670 1.000000
24.220699 68.689301 -761.125793 0.190888 0.868614 0.457243 1.000000
24.207600 67.917397 -758.410828 0.370304 0.919519 0.131756 1.000000
24.192699 67.235802 -756.007385 -0.848374 0.187031 -0.495259 1.000000
24.191601 68.199203 -760.605713 0.294707 0.772611 0.562334 1.000000
24.176800 71.118301 -764.577698 0.254273 0.874157 0.413758 1.000000
24.147600 66.434196 -754.755127 0.502641 0.863441 0.042690 1.000000
24.131201 66.997398 -755.183411 0.462186 0.846061 0.265642 1.000000
24.107800 69.454201 -762.304626 0.378902 0.366428 0.849802 1.000000
24.102800 67.737701 -757.710388 0.494418 0.860546 0.122523 1.000000
24.076401 67.449997 -760.002930 0.592692 0.723313 0.354309 1.000000
24.074100 71.522400 -765.518372 -0.555333 0.817367 -0.153349 1.000000
24.069599 67.478401 -756.767578 0.206063 0.977291 0.049407 1.000000
24.056400 68.996902 -761.477722 0.014922 0.516830 0.855958 1.000000
24.051701 71.762703 -766.902893 0.251753 0.965681 -0.063878 1.000000
24.020500 68.240501 -759.261780 0.861212 0.508101 0.012130 1.000000
24.018801 70.231400 -763.019775 -0.146004 0.958889 0.243340 1.000000
24.007401 68.175400 -759.766785 0.773360 0.612937 -0.161936 1.000000
23.971701 68.265900 -758.757202 0.794020 0.564946 0.224431 1.000000
23.920099 67.729301 -757.182312 0.562668 0.821697 0.090660 1.000000
23.916000 71.469704 -765.013672 0.245632 0.920761 0.303090 1.000000
23.910900 67.805496 -760.490112 0.811414 0.395304 0.430514 1.000000
23.900700 71.725403 -766.391113 0.312423 0.947640 0.066114 1.000000
23.885300 68.200302 -760.993713 0.194512 0.890660 0.410961 1.000000
23.882500 67.008904 -755.628174 0.726703 0.662176 0.182828 1.000000
23.881701 69.393303 -761.786621 0.207396 0.840181 0.501081 1.000000
23.870100 70.560799 -763.452515 0.342437 0.776512 0.528929 1.000000
23.863701 67.586098 -756.304626 0.217829 0.973463 0.070148 1.000000
23.843700 71.001099 -764.137024 0.389606 0.803261 0.450532 1.000000
23.841299 66.930000 -754.725586 -0.643994 0.763410 -0.049757 1.000000
23.831900 68.275803 -760.221497 0.790269 0.612494 -0.018055 1.000000
23.828300 69.839798 -762.390198 -0.076481 0.987191 0.140019 1.000000
23.826500 68.118301 -758.178711 0.540679 0.807145 0.237031 1.000000
23.789900 71.711899 -765.895386 0.460090 0.868401 0.184924 1.000000
23.785000 68.102097 -757.638306 0.384344 0.917775 0.099847 1.000000
23.743099 68.561798 -759.533875 0.836749 0.544238 -0.060471 1.000000
23.704300 68.593697 -759.028870 0.806190 0.524415 0.273948 1.000000
23.701599 67.401802 -755.415894 -0.107333 0.971050 -0.213404 1.000000
23.700300 68.613800 -761.321899 0.115909 0.406379 0.906323 1.000000
23.655001 68.542702 -760.636475 0.615552 0.786144 0.055442 1.000000
23.647900 71.836800 -767.239624 -0.052009 0.994813 -0.087420 1.000000
23.645300 71.342903 -764.606506 0.156393 0.914405 0.373370 1.000000
23.633400 68.533798 -758.380371 -0.249445 0.895936 -0.367526 1.000000
23.626499 68.072502 -756.942322 0.903565 0.408923 0.127876 1.000000
23.596300 67.651703 -755.900208 0.799433 0.384436 0.461645 1.000000
23.589399 70.120903 -762.778809 0.345386 0.806962 0.479084 1.000000
23.587601 68.648804 -760.020813 0.739218 0.670052 -0.067726 1.000000
23.576300 70.875900 -763.727417 0.335769 0.824446 0.455574 1.000000
23.526300 68.986702 -761.623718 -0.169280 0.060373 0.983717 1.000000
23.522301 69.687202 -762.046387 0.138882 0.382979 0.913257 1.000000
23.484900 71.843102 -766.717773 0.351365 0.935686 -0.032176 1.000000
23.475401 70.571404 -763.176514 0.352568 0.808833 0.470623 1.000000
23.471201 71.737198 -765.534790 0.345901 0.910342 0.227224 1.000000
23.451099 68.381599 -757.348877 0.516514 0.855347 -0.039944 1.000000
23.447300 68.910797 -759.318115 0.486730 0.865776 0.116298 1.000000
23.434299 71.588799 -764.991394 0.410376 0.815962 0.407183 1.000000
23.422001 68.877701 -761.021729 0.470668 0.848420 0.242188 1.000000
23.401699 71.233803 -764.196716 0.260897 0.873174 0.411704 1.000000
23.395901 67.792000 -756.568481 0.878645 0.408637 0.246979 1.000000
23.369400 71.886902 -766.195984 0.400549 0.908563 0.118630 1.000000
23.361401 68.600502 -757.983521 0.834066 0.078416 0.546064 1.000000
23.335100 68.791100 -758.701721 0.883796 0.376626 0.277593 1.000000
23.328199 67.716599 -755.497375 0.369102 0.837154 0.403656 1.000000
23.316099 68.929802 -760.494080 0.900111 0.434765 -0.027921 1.000000
23.301800 69.054398 -759.965027 0.794343 0.606615 -0.032222 1.000000
23.264601 69.462898 -761.637573 0.390256 0.211937 0.895982 1.000000
23.217800 68.262604 -756.736877 0.334257 0.920273 0.203399 1.000000
23.201200 70.242203 -762.463318 0.394695 0.619292 0.678744 1.000000
23.149799 71.119598 -763.785828 0.324872 0.873952 0.361477 1.000000
23.131399 68.183899 -756.222778 -0.801420 0.250541 -0.543098 1.000000
23.114000 72.080704 -767.674500 0.132364 0.991061 -0.016685 1.000000
23.111401 71.949501 -765.779175 0.449318 0.864074 0.226913 1.000000
23.111200 69.186096 -761.218872 0.715795 0.666108 0.209614 1.000000
23.108000 68.676399 -757.567383 0.744311 0.646896 0.165910 1.000000
23.079901 71.531799 -764.628723 0.442877 0.786796 0.429899 1.000000
23.077299 69.763496 -762.215027 -0.077894 0.528261 0.845501 1.000000
23.065399 69.263603 -759.518982 0.637794 0.734952 0.230358 1.000000
23.061701 70.639297 -762.902588 0.254047 0.889909 0.378843 1.000000
23.053400 72.100800 -767.171875 0.337344 0.941279 -0.013898 1.000000
23.053400 69.171501 -759.016113 0.580457 0.779649 0.234984 1.000000
23.026501 69.322601 -760.425720 0.782539 0.618249 -0.073498 1.000000
23.017900 67.995598 -755.748230 0.152074 0.905338 0.396530 1.000000
23.003201 71.844803 -765.242615 0.556351 0.773153 0.304479 1.000000
22.993799 72.121101 -766.672791 0.468984 0.881909 0.047856 1.000000
22.974199 69.106499 -758.414185 0.677164 0.705184 0.210154 1.000000
22.952000 69.449402 -759.953979 0.723373 0.689399 0.038221 1.000000
22.902700 71.008499 -763.373291 0.367027 0.802972 0.469603 1.000000
22.837000 68.742996 -757.171387 0.902610 0.030574 0.429371 1.000000
22.836399 68.942101 -757.968323 0.809140 0.545056 0.219558 1.000000
22.834801 68.492401 -756.543518 0.327347 0.939287 0.102881 1.000000
22.823000 69.638702 -761.448730 0.412846 0.893776 0.175279 1.000000
22.779100 72.135696 -768.046387 -0.858667 0.433160 -0.273977 1.000000
22.778500 71.524803 -764.237671 0.299565 0.883640 0.359779 1.000000
22.773500 69.728600 -760.351379 0.751123 0.660161 0.001378 1.000000
22.752001 70.487396 -762.489197 0.135669 0.853402 0.503288 1.000000
22.750999 69.657898 -760.858276 0.678263 0.723181 -0.130262 1.000000
22.721001 68.376099 -756.038086 0.794933 0.555364 0.244236 1.000000
22.717100 69.525398 -759.020325 -0.112819 0.989779 -0.087231 1.000000
22.705900 72.195702 -766.277222 0.384912 0.919737 0.076982 1.000000
22.695101 69.668404 -761.919128 -0.220258 0.284793 -0.932941 1.000000
22.693300 71.816498 -764.622925 -0.438023 0.894123 -0.093167 1.000000
22.653500 69.631897 -759.591614 0.539375 0.818938 0.195998 1.000000
22.613501 70.870598 -762.960327 0.428441 0.661833 0.615155 1.000000
22.608999 72.271797 -767.015625 0.389866 0.920189 -0.035442 1.000000
22.590000 69.376801 -758.517883 0.891084 0.439187 0.114386 1.000000
22.588400 70.139702 -762.140625 0.119969 0.373696 0.919760 1.000000
22.562799 69.206497 -757.655823 0.699311 0.634410 0.329374 1.000000
22.561501 72.218697 -765.754211 0.467437 0.868935 0.162650 1.000000
22.519600 71.478401 -763.765381 0.257892 0.886971 0.383112 1.000000
22.506100 69.936096 -761.211182 0.940972 0.337426 -0.026739 1.000000
22.498301 72.275497 -767.605286 0.417602 0.905032 -0.080782 1.000000
22.489201 68.897697 -756.747620 0.740248 0.427003 0.519328 1.000000
22.451300 70.023300 -760.729309 0.591395 0.803324 -0.070166 1.000000
22.431999 70.011002 -760.113525 0.582324 0.790188 0.191051 1.000000
22.359699 72.264900 -768.320679 0.430783 0.894051 -0.122879 1.000000
22.355400 70.068703 -761.703186 0.731265 0.679545 0.058903 1.000000
22.347799 69.559303 -758.135010 0.579250 0.738260 0.345603 1.000000
22.339100 72.225800 -765.305481 0.622016 0.727551 0.289421 1.000000
22.330200 72.395699 -766.642822 0.519467 0.851701 0.068981 1.000000
22.303101 68.663902 -756.085999 -0.358426 0.177088 0.916608 1.000000
22.296301 70.705200 -762.630615 0.358516 0.863209 0.355439 1.000000
22.294201 68.981499 -757.229919 -0.888694 0.286240 -0.358175 1.000000
22.286100 69.973900 -759.606812 0.674033 0.661039 0.329708 1.000000
22.254101 71.901901 -764.442810 -0.733836 0.622407 -0.272204 1.000000
22.250999 70.327301 -761.063416 0.778696 0.624386 -0.061438 1.000000
22.248699 71.331100 -763.367920 0.243901 0.839080 0.486268 1.000000
22.227800 72.435204 -766.099976 0.485313 0.871894 0.065357 1.000000
22.192101 69.923401 -759.117188 0.486448 0.864637 0.125582 1.000000
22.170900 70.342697 -760.472717 0.689862 0.710904 0.136770 1.000000
22.150101 72.483902 -767.283813 0.449691 0.889696 -0.078869 1.000000
22.113300 69.969803 -762.157288 0.477393 0.710268 0.517315 1.000000
22.097099 72.482002 -767.803101 0.466029 0.872534 -0.146632 1.000000
22.094400 70.461601 -762.174194 0.639575 0.707238 0.301261 1.000000
22.087700 71.663002 -763.941528 0.536028 0.603665 0.590138 1.000000
22.080900 69.876404 -758.536682 0.921124 0.345598 0.179147 1.000000
22.056999 69.070099 -756.350586 0.457243 0.868614 0.190888 1.000000
22.045799 72.535599 -768.626770 -0.084546 0.560297 0.823966 1.000000
22.039101 70.271599 -759.939819 0.595866 0.749225 0.289147 1.000000
22.025000 69.598999 -757.774475 0.601974 0.731084 0.321160 1.000000
22.009701 69.291100 -756.983826 0.864126 0.361978 0.349655 1.000000
22.003300 70.525803 -761.645325 0.802864 0.594766 -0.040776 1.000000
22.001600 72.531303 -765.672485 0.490003 0.858603 0.150658 1.000000
21.945200 72.617599 -766.835327 0.428870 0.903365 -0.001304 1.000000
21.939600 72.293999 -764.921814 0.423577 0.842464 0.332922 1.000000
21.927000 71.167297 -763.019775 0.358340 0.865860 0.349112 1.000000
21.922701 70.668404 -760.863403 0.670430 0.737328 0.082895 1.000000
21.861900 70.259201 -759.458801 0.493353 0.814899 0.304208 1.000000
21.845600 72.633797 -766.359009 0.513552 0.856842 0.045680 1.000000
21.828699 72.034798 -764.147705 -0.078093 0.973060 0.216924 1.000000
21.810900 70.716003 -762.710815 0.078457 0.992654 -0.092102 1.000000
21.807100 70.652397 -760.357117 0.409205 0.897378 0.165118 1.000000
21.805300 72.560898 -768.177979 0.480074 0.865873 -0.140686 1.000000
21.785101 69.928101 -758.157715 0.679305 0.606226 0.413562 1.000000
21.769100 70.847900 -762.180176 0.724590 0.687577 0.046977 1.000000
21.768999 72.724602 -767.498779 0.541657 0.836067 -0.087180 1.000000
21.762300 71.700203 -763.529419 0.236892 0.729501 0.641647 1.000000
21.739500 69.658096 -757.378418 0.507482 0.838776 0.197271 1.000000
21.724701 69.412697 -756.593079 0.362371 0.758866 0.541119 1.000000
21.718201 70.774002 -761.299377 0.719411 0.694070 0.026749 1.000000
21.713200 72.557503 -765.282471 0.437335 0.848400 0.298254 1.000000
21.697901 70.211502 -758.950317 0.476858 0.841784 0.252995 1.000000
21.634701 70.600197 -759.850220 0.513714 0.841300 0.168260 1.000000
21.622601 72.801804 -765.963013 0.571877 0.813433 0.106226 1.000000
21.597700 72.369698 -764.545227 0.401713 0.833358 0.379658 1.000000
21.542500 71.085297 -761.763916 0.752971 0.657622 -0.023837 1.000000
21.538500 72.885300 -767.019104 0.563166 0.826252 0.012332 1.000000
21.527800 72.647301 -768.762695 0.482999 0.872739 -0.070988 1.000000
21.513201 69.995003 -757.746704 0.719283 0.632776 0.286752 1.000000
21.505501 69.743896 -756.933411 0.450230 0.761298 0.466602 1.000000
21.504700 71.036400 -760.869202 0.680805 0.708467 0.185953 1.000000
21.500601 71.264297 -762.804504 0.028110 0.990609 0.133805 1.000000
21.480499 70.535202 -759.261780 0.643503 0.676251 0.358593 1.000000
21.471201 72.835800 -767.875916 0.591215 0.797624 -0.119422 1.000000
21.449301 70.239304 -758.477295 0.467328 0.815843 0.340595 1.000000
21.444700 72.950897 -766.489929 0.608548 0.793458 0.009659 1.000000
21.415701 71.268898 -762.299072 0.625989 0.778601 0.043805 1.000000
21.408501 71.554901 -763.220215 -0.345874 0.931826 -0.109866 1.000000
21.384800 72.149498 -763.946228 0.327143 0.789930 0.518641 1.000000
21.342600 70.849403 -760.315186 0.686867 0.580427 0.437399 1.000000
21.335400 72.698799 -764.997009 0.459770 0.840590 0.286389 1.000000
21.322901 72.878403 -765.531982 0.561875 0.782218 0.269133 1.000000
21.322599 71.317703 -761.370972 0.685763 0.727663 0.015363 1.000000
21.307400 73.010201 -767.438782 0.601752 0.797144 -0.049556 1.000000
21.288799 71.715401 -763.696472 0.014456 0.902839 0.429736 1.000000
21.271799 70.555397 -758.826782 0.547760 0.802243 0.237414 1.000000
21.267099 72.891296 -768.354492 0.598461 0.783302 -0.168175 1.000000
21.235100 70.799599 -759.646301 0.438044 0.859300 0.264048 1.000000
21.202900 70.041702 -757.373474 0.144057 0.987315 0.066758 1.000000
21.191000 70.314201 -758.051575 0.545007 0.778354 0.311661 1.000000
21.189100 72.822800 -769.094116 0.590940 0.801887 -0.088135 1.000000
21.171499 73.087799 -766.020630 0.543994 0.825626 0.149709 1.000000
21.171000 73.162003 -766.861084 0.626473 0.778516 -0.038011 1.000000
21.159599 71.500298 -761.938416 0.683136 0.728773 -0.047064 1.000000
21.128500 72.576797 -764.550781 0.509984 0.715972 0.476761 1.000000
21.111601 71.271103 -760.611511 0.472541 0.817070 0.330305 1.000000
21.038799 71.675003 -762.903015 0.609364 0.790022 0.067388 1.000000
21.007900 70.726898 -759.226318 0.476752 0.833928 0.277976 1.000000
20.994900 71.173500 -760.141479 0.562055 0.753186 0.341768 1.000000
20.987301 73.181900 -768.047974 0.621925 0.773325 -0.123198 1.000000
20.973101 71.692299 -762.397400 0.768550 0.637854 0.049721 1.000000
20.958300 72.379501 -764.125427 0.329269 0.844238 0.422899 1.000000
20.957701 73.338600 -766.431580 0.580912 0.810408 0.076021 1.000000
20.953501 73.156799 -768.610718 0.663898 0.735833 -0.133379 1.000000
20.945900 73.095802 -765.315430 0.457693 0.839363 0.293234 1.000000
20.940500 70.593201 -758.469971 0.473964 0.798508 0.371138 1.000000
20.936600 71.643501 -761.452698 0.810737 0.544067 0.216094 1.000000
20.936199 73.302399 -767.267517 0.611707 0.789710 -0.046620 1.000000
20.934299 71.424004 -763.339111 0.300836 0.914133 0.271769 1.000000
20.921801 71.921303 -763.367188 0.384286 0.873377 0.299227 1.000000
20.884100 70.363503 -757.673523 0.451033 0.861337 0.233813 1.000000
20.851999 73.049400 -769.363770 0.880885 0.272547 -0.386987 1.000000
20.832100 72.909500 -764.816895 0.415267 0.790138 0.450815 1.000000
20.830099 71.865196 -761.895996 0.637886 0.769670 0.026637 1.000000
20.828501 70.056900 -756.911682 0.309436 0.857493 -0.411042 1.000000
20.785299 73.371597 -765.846191 0.602578 0.772102 0.201887 1.000000
20.769199 71.650299 -760.920776 0.492128 0.831526 0.257634 1.000000
20.761000 70.937897 -759.631470 0.661766 0.577998 0.477477 1.000000
20.736500 71.946800 -763.861328 -0.154259 0.208703 0.965737 1.000000
20.719700 73.526703 -766.818115 0.658376 0.752627 -0.009702 1.000000
20.668400 70.853897 -758.834900 0.287971 0.916008 0.279288 1.000000
20.653700 73.377502 -769.069397 0.747488 0.661405 -0.061693 1.000000
20.650700 72.040398 -762.962219 0.834809 0.549617 0.031842 1.000000
20.646000 73.468002 -769.644287 0.921338 0.122937 -0.368812 1.000000
20.637100 72.756401 -764.332275 0.382137 0.769152 0.512226 1.000000
20.632999 70.643204 -758.090576 0.529493 0.769141 0.357853 1.000000
20.614700 70.432098 -757.260071 0.679627 0.505105 -0.531955 1.000000
20.599400 71.323196 -760.462891 0.717247 0.480938 0.504237 1.000000
20.596500 72.137001 -762.430908 0.768525 0.638314 -0.043875 1.000000
20.592100 73.489601 -768.458618 0.700002 0.705922 -0.108034 1.000000
20.568199 71.358902 -759.910889 0.546909 0.725356 0.418030 1.000000
20.564100 73.625702 -766.303223 0.576807 0.805157 0.137900 1.000000
20.559900 73.629303 -767.772278 0.579237 0.812640 -0.064043 1.000000
20.557501 71.936600 -761.261597 0.546797 0.803931 0.233899 1.000000
20.542700 72.383598 -763.758118 0.360857 0.818683 0.446699 1.000000
20.532101 73.669701 -767.269470 0.539458 0.838366 -0.078285 1.000000
20.515200 73.286201 -765.097900 0.340781 0.872584 0.349950 1.000000
20.471701 72.193199 -761.815674 0.588930 0.782678 0.201436 1.000000
20.374399 72.335602 -763.255005 0.752747 0.658132 0.015305 1.000000
20.372200 73.614197 -765.772888 0.542295 0.808035 0.230205 1.000000
20.351700 73.689697 -769.287476 0.781872 0.622989 0.023693 1.000000
20.349899 73.814400 -768.193970 0.981506 0.188796 0.031661 1.000000
20.345501 71.260803 -759.451721 0.156020 0.931976 0.327227 1.000000
20.342899 71.806900 -760.652588 0.460451 0.821216 0.337031 1.000000
20.337299 73.738503 -768.783325 -0.176607 0.981549 -0.073286 1.000000
20.328899 73.887398 -769.913574 0.514122 0.762206 0.393344 1.000000
20.328899 70.694801 -757.708374 0.477807 0.851612 0.215541 1.000000
20.320101 70.883598 -758.492676 0.440353 0.828621 0.345653 1.000000
20.312500 72.401100 -762.779602 0.731555 0.681770 -0.004149 1.000000
20.297701 71.133301 -758.991211 0.356439 0.897753 0.258825 1.000000
20.271900 73.909203 -766.936523 0.704328 0.709863 0.004151 1.000000
20.261299 73.172302 -764.683228 0.352410 0.805281 0.476790 1.000000
20.249800 72.429703 -762.217224 0.620627 0.778339 0.094919 1.000000
20.218700 73.933098 -766.434082 0.592515 0.786484 0.174269 1.000000
20.201000 72.622101 -764.023499 0.414808 0.792493 0.447089 1.000000
20.174000 72.228897 -761.353088 0.511187 0.782100 0.356380 1.000000
20.172800 71.653099 -760.212830 0.361401 0.828539 0.427684 1.000000
20.147800 73.554100 -765.331482 0.490830 0.756764 0.431733 1.000000
20.094999 72.143204 -763.810425 0.222471 0.948573 -0.225201 1.000000
20.091000 74.351799 -770.263611 0.831486 0.554785 0.029054 1.000000
20.084000 72.670700 -763.489502 0.737050 0.675513 -0.020979 1.000000
20.058599 72.703400 -764.476501 0.477764 0.451495 -0.753587 1.000000
20.047800 74.096603 -767.916992 0.573421 0.814861 -0.084792 1.000000
20.042299 70.949501 -758.083374 0.341975 0.884314 0.317871 1.000000
20.034000 74.145500 -767.413025 0.668719 0.743483 0.006923 1.000000
20.024799 72.764900 -762.955078 0.740862 0.671622 0.006924 1.000000
20.024099 72.083199 -760.919800 0.461678 0.796274 0.390898 1.000000
20.002300 72.512703 -761.715576 0.561516 0.779795 0.276803 1.000000
20.000700 74.171402 -769.630005 0.797363 0.590255 0.125744 1.000000
19.984501 71.350998 -759.876282 0.280319 0.905535 0.318478 1.000000
19.938900 73.794403 -765.981995 0.481341 0.808590 0.338369 1.000000
19.927700 71.152100 -758.668030 -0.547885 0.632175 -0.547885 1.000000
19.911100 72.816200 -762.420471 0.647156 0.753781 0.114030 1.000000
19.899799 71.987297 -760.464417 0.367840 0.816893 0.444275 1.000000
19.897800 74.225899 -769.118286 0.765665 0.638295 0.079606 1.000000
19.880501 71.350197 -759.351379 0.364464 0.813279 0.453590 1.000000
19.879999 72.996597 -764.100586 0.621131 0.741247 0.254458 1.000000
19.868099 73.515503 -764.934021 0.336157 0.822242 0.459256 1.000000
19.841200 74.273598 -766.898315 0.663237 0.746321 0.055867 1.000000
19.812901 74.300697 -768.583008 0.889398 0.446800 0.096643 1.000000
19.799000 74.980499 -770.628418 0.932593 0.339001 -0.123892 1.000000
19.797199 73.031998 -763.342529 0.792868 0.608933 -0.023688 1.000000
19.752501 74.426804 -767.714417 0.326867 0.940902 -0.088664 1.000000
19.745899 74.626198 -770.055298 0.861274 0.442029 0.250635 1.000000
19.724100 72.411102 -761.178772 0.439646 0.786820 0.433157 1.000000
19.679100 73.107300 -762.771423 0.790805 0.603701 0.100860 1.000000
19.664900 74.276199 -766.365784 0.389739 0.910330 0.139293 1.000000
19.653799 74.624397 -769.554810 0.834707 0.536493 0.124256 1.000000
19.647301 73.965897 -765.639404 0.700079 0.275885 0.658617 1.000000
19.612900 71.199203 -758.292175 0.407978 0.842530 0.351705 1.000000
19.605801 72.779800 -761.588989 0.489142 0.749358 0.446321 1.000000
19.602400 71.721603 -759.839783 0.258795 0.870219 0.419218 1.000000
19.596901 75.554298 -770.950012 0.313814 0.533643 0.785332 1.000000
19.572201 74.629303 -769.053406 0.808421 0.565445 0.163484 1.000000
19.552900 73.013496 -762.162476 0.549418 0.793604 0.261404 1.000000
19.551600 73.361298 -764.518127 0.433147 0.830067 0.351243 1.000000
19.522301 71.389297 -759.023071 0.330756 0.897343 0.292193 1.000000
19.515800 72.253403 -760.695923 0.302628 0.861798 0.407088 1.000000
19.510401 74.656601 -768.466675 0.930771 0.358194 0.073237 1.000000
19.474600 75.067299 -770.150208 0.844601 0.495318 0.203246 1.000000
19.474600 73.370499 -764.012817 -0.983189 0.170419 -0.065546 1.000000
19.447901 73.412003 -763.506714 0.765927 0.641799 0.038085 1.000000
19.423000 74.715202 -767.459717 0.428376 0.903171 0.027851 1.000000
19.402500 73.450699 -765.111023 0.424772 0.614670 -0.664643 1.000000
19.393101 73.435402 -763.000793 0.692076 0.710013 0.130045 1.000000
19.377001 73.974998 -765.242126 0.698024 0.293651 0.653094 1.000000
19.359100 71.958603 -760.213806 0.305084 0.765106 0.567041 1.000000
19.336800 74.717400 -766.957397 0.474137 0.877362 0.073693 1.000000
19.323500 74.353600 -765.959290 0.215706 0.955271 0.202308 1.000000
19.321100 74.781799 -767.939880 0.688421 0.722914 0.058925 1.000000
19.319799 75.085800 -769.663025 0.837880 0.508767 0.197770 1.000000
19.314400 72.653099 -761.080627 0.367377 0.830934 0.417832 1.000000
19.304899 73.329102 -762.452881 0.575059 0.773572 0.266260 1.000000
19.262199 71.706398 -759.385986 -0.053270 0.991733 0.116741 1.000000
19.251101 75.957001 -771.167419 0.866578 0.446055 0.223778 1.000000
19.246099 75.535698 -770.529785 0.781342 0.499865 0.373685 1.000000
19.217501 71.278397 -758.593628 0.246838 0.938544 0.241260 1.000000
19.213900 75.075302 -769.162476 0.659573 0.744774 0.101360 1.000000
19.211100 73.147003 -761.790222 0.293956 0.902548 0.314636 1.000000
19.185400 74.677902 -766.456421 0.505528 0.787982 0.351462 1.000000
19.136000 76.464600 -771.393982 -0.733196 0.667492 0.129915 1.000000
19.109800 75.066101 -768.661499 0.819933 0.572458 -0.001360 1.000000
19.099701 74.258598 -765.542480 0.212690 0.873068 0.438765 1.000000
19.099400 75.499001 -770.031677 0.793537 0.581118 0.180556 1.000000
19.088200 73.738701 -764.842712 -0.848145 0.482279 -0.219218 1.000000
19.053400 71.901802 -759.785828 0.226607 0.841033 0.491236 1.000000
19.051701 72.379997 -760.637390 0.241408 0.831860 0.499731 1.000000
19.038300 73.841103 -764.304626 0.153149 0.973319 -0.170869 1.000000
19.029800 75.002998 -767.377686 0.694034 0.711792 0.108027 1.000000
18.989401 76.026604 -770.770386 0.775216 0.565955 0.280599 1.000000
18.983400 73.887703 -763.812622 -0.157308 0.985246 -0.067418 1.000000
18.977699 73.697304 -762.852478 0.523283 0.825352 0.212059 1.000000
18.974400 75.476402 -769.531921 0.784789 0.585136 0.204260 1.000000
18.970301 71.518700 -758.970886 0.216370 0.872941 0.437217 1.000000
18.952400 75.194504 -768.135925 0.554433 0.830951 0.046086 1.000000
18.933800 73.914101 -763.306091 0.592854 0.797791 0.109788 1.000000
18.933800 72.898102 -761.336487 0.304623 0.506653 0.806541 1.000000
18.913601 72.142303 -760.199524 0.259500 0.863483 0.432500 1.000000
18.906200 73.422897 -762.119690 0.297164 0.891491 0.341962 1.000000
18.899000 74.561798 -765.872925 0.256888 0.902778 0.344964 1.000000
18.848301 75.099899 -766.900879 0.522591 0.760281 0.385838 1.000000
18.840900 75.448402 -769.031677 0.631374 0.774804 0.032342 1.000000
18.829700 74.134102 -765.125183 0.194942 0.977160 0.084597 1.000000
18.816000 75.972504 -770.272888 0.589710 0.758199 0.278165 1.000000
18.787901 74.165298 -764.618713 0.989309 0.144859 0.016844 1.000000
18.770399 71.710503 -759.396484 0.192535 0.928947 0.316207 1.000000
18.762100 75.455498 -768.528870 0.630426 0.766894 0.120152 1.000000
18.747999 76.459198 -771.095703 0.625948 0.697859 0.348112 1.000000
18.743401 74.194702 -764.112183 -0.951640 0.293716 -0.090073 1.000000
18.729401 76.997803 -771.713989 -0.083985 0.035993 -0.995817 1.000000
18.714100 72.698700 -760.861328 0.218222 0.825583 0.520377 1.000000
18.697300 74.223099 -763.605530 -0.514433 0.845664 -0.142165 1.000000
18.683599 73.851303 -762.460999 0.635166 0.696896 0.333016 1.000000
18.676100 74.699303 -766.409912 0.076476 0.979621 0.185727 1.000000
18.658600 73.346901 -761.669495 0.289516 0.724590 0.625419 1.000000
18.643299 75.456299 -767.858215 0.674358 0.735007 0.070757 1.000000
18.620100 74.431702 -765.455994 0.578736 0.678806 0.451981 1.000000
18.616100 75.893501 -769.834229 0.805022 0.545437 0.233317 1.000000
18.586500 72.028999 -759.812622 0.165231 0.931683 0.323520 1.000000
18.574499 76.404900 -770.597412 0.780531 0.551618 0.294090 1.000000
18.547199 71.638000 -758.732971 0.428564 0.899846 -0.081303 1.000000
18.544800 75.450897 -767.354980 0.459047 0.855979 0.237856 1.000000
18.538200 74.179497 -763.098816 -0.610739 0.774410 -0.165187 1.000000
18.497900 75.769699 -769.379822 -0.097468 0.993724 0.054896 1.000000
18.480700 72.526497 -760.462219 0.159150 0.828470 0.536944 1.000000
18.479700 75.775803 -768.861206 0.725571 0.678090 0.117219 1.000000
18.445400 73.035797 -761.107788 0.166651 0.907320 0.386003 1.000000
18.443600 76.833504 -771.265625 0.689543 0.627304 0.361969 1.000000
18.443501 73.746696 -762.036682 0.423871 0.737239 0.526128 1.000000
18.427700 75.157997 -766.555481 0.391658 0.775190 0.495666 1.000000
18.401800 74.463699 -765.941772 0.421335 0.792625 -0.440706 1.000000
18.361099 75.702301 -768.330322 0.622559 0.757831 0.195222 1.000000
18.347900 76.316597 -770.099976 0.570300 0.765192 0.298728 1.000000
18.321800 71.616600 -759.188721 0.513109 0.803608 0.301550 1.000000
18.320601 74.566902 -765.086792 0.785794 0.618487 0.001371 1.000000
