ply
format ascii 1.0
element vertex 696
property float x
property float y
property float z
property float nx
property float ny
property float nz
property float label
element face 0
property list uchar int vertex_indices
end_header
45.468498 13.102300 -737.383972 -0.557921 0.128072 -0.819952 0.000000
45.466801 10.735500 -740.933105 -0.894116 0.165577 0.416102 0.000000
45.464100 11.108300 -737.304993 -0.183665 0.118695 0.975797 0.000000
45.461700 13.358800 -737.204407 -0.393496 0.046372 -0.918156 0.000000
45.461399 8.362600 -739.461182 -0.537628 0.836148 0.108685 0.000000
45.461201 11.250400 -737.513306 0.405186 0.022292 0.913963 0.000000
45.460701 9.182900 -737.689514 -0.824556 0.228787 -0.517459 0.000000
45.460602 15.535900 -742.968994 -0.061197 0.433820 0.898919 0.000000
45.459900 15.054600 -742.914001 -0.447747 0.824298 0.346490 0.000000
45.459499 9.487000 -740.100586 -0.405757 0.035685 0.913284 0.000000
45.459000 8.731800 -740.144714 -0.978930 0.161715 0.124681 0.000000
45.456200 10.331200 -740.850098 -0.981256 0.034161 0.189655 0.000000
45.455898 18.386200 -744.334229 -0.474324 0.287705 0.832011 0.000000
45.455898 7.724700 -738.202026 -0.998125 0.057847 -0.019984 0.000000
45.455399 7.903000 -738.003113 -0.927524 0.271297 -0.257093 0.000000
45.455002 15.974200 -743.167480 0.268184 0.956306 0.116431 0.000000
45.454899 25.858500 -745.193604 -0.843732 0.529653 -0.087086 0.000000
45.454201 25.794800 -745.380676 -0.815037 0.552900 -0.173252 0.000000
45.451698 9.141300 -740.575073 -0.944935 0.218697 0.243455 0.000000
45.451500 15.195200 -743.179810 0.266018 0.459766 0.847260 0.000000
45.450298 8.239900 -738.504700 0.995830 0.007487 0.090919 0.000000
45.450001 9.559400 -740.265625 -0.970640 0.236234 0.045288 0.000000
45.449799 11.630400 -737.501221 -0.403123 0.066064 -0.912758 0.000000
45.448299 10.871800 -737.584229 -0.390347 0.043666 -0.919632 0.000000
45.447601 25.734900 -744.735413 -0.733611 0.657352 0.172345 0.000000
45.447601 8.115000 -738.848022 -0.979436 0.185692 -0.078889 0.000000
45.447399 8.985700 -737.945801 -0.926436 0.090351 -0.365450 0.000000
45.446602 19.949800 -744.817200 -0.345397 0.204945 0.915805 0.000000
45.446301 19.519899 -744.725525 -0.450986 0.164924 0.877161 0.000000
45.445999 15.353600 -743.246277 -0.316218 0.408770 0.856103 0.000000
45.445099 14.801300 -737.222473 -0.963002 0.253824 -0.090560 0.000000
45.444099 9.860400 -740.539673 -0.525654 0.051589 0.849133 0.000000
45.443901 19.337299 -744.772583 -0.479845 0.169791 0.860767 0.000000
45.441700 8.168700 -739.322388 -0.984669 0.135858 0.109408 0.000000
45.440201 13.115700 -742.069519 -0.577644 0.037764 0.815415 0.000000
45.438301 9.294000 -740.670715 -0.936607 0.213563 0.277772 0.000000
45.437500 8.010300 -739.006226 -0.971540 0.235997 0.020365 0.000000
45.435501 7.524300 -738.388306 0.939797 0.248484 -0.234602 0.000000
45.433601 8.261300 -737.796997 -0.856593 0.074547 -0.510580 0.000000
45.431599 8.371300 -739.689819 -0.394562 0.912337 0.109370 0.000000
45.430302 13.379700 -742.130188 -0.346055 0.166723 0.923282 0.000000
45.427502 20.478201 -745.011902 0.236741 0.050292 -0.970270 0.000000
45.427299 16.172100 -743.463928 -0.126680 0.213692 0.968653 0.000000
45.426399 10.737600 -741.284424 0.052396 0.043842 0.997664 0.000000
45.425999 7.291300 -738.512512 0.600284 0.339998 -0.723920 0.000000
45.425598 8.080900 -738.682129 -0.987935 0.109509 -0.109509 0.000000
45.425400 12.544600 -737.307678 -0.200653 0.082477 -0.976184 0.000000
45.424900 10.766300 -741.099182 0.992274 0.121389 -0.025614 0.000000
45.424198 25.036699 -745.802124 0.164046 0.796150 -0.582438 0.000000
45.424099 8.193300 -738.257507 -0.971985 0.211955 -0.101588 0.000000
45.420799 11.684700 -741.584229 0.210569 0.973102 0.093448 0.000000
45.418499 15.701900 -743.231018 -0.506211 0.217382 0.834563 0.000000
45.417900 9.355400 -740.220886 0.991141 0.132811 -0.001098 0.000000
45.417702 22.627199 -745.654785 0.122669 0.139673 0.982570 0.000000
45.417500 14.488200 -742.682373 -0.430531 0.401722 0.808246 0.000000
45.415901 8.604600 -740.281677 0.883805 0.420508 -0.205090 0.000000
45.415298 8.950600 -740.521423 -0.929031 0.242541 0.279419 0.000000
45.415100 24.145500 -745.809021 0.496760 0.343419 0.797052 0.000000
45.414200 8.407400 -737.991028 0.990430 0.053815 0.127096 0.000000
45.414101 11.164300 -741.200989 -0.584152 0.208075 0.784520 0.000000
45.413898 12.189600 -737.179993 0.542789 0.162986 0.823903 0.000000
45.411098 8.186400 -739.630188 -0.982810 0.162398 0.087815 0.000000
45.410999 9.402700 -740.805481 -0.899651 0.171294 0.401604 0.000000
45.409901 11.362000 -741.526001 -0.109385 0.564428 0.818202 0.000000
45.409698 25.789700 -745.010315 -0.872133 0.481710 0.085668 0.000000
45.408901 16.366699 -743.563782 -0.608906 0.592039 0.527943 0.000000
45.408901 9.531800 -740.953430 -0.847228 0.200144 0.492084 0.000000
45.408501 23.766100 -745.818970 0.182201 0.024371 0.982959 0.000000
45.408298 10.726300 -737.389709 -0.333454 0.246086 -0.910082 0.000000
45.408298 14.340300 -737.137573 -0.862868 0.083321 -0.498514 0.000000
45.408199 25.407400 -744.958618 -0.261858 0.687178 -0.677656 0.000000
45.407600 8.617200 -739.999329 -0.937217 0.335580 0.094925 0.000000
45.406898 9.006700 -737.737976 -0.901150 0.027953 -0.432605 0.000000
45.405499 18.558300 -744.382324 -0.389543 0.272229 0.879856 0.000000
45.405201 8.382200 -739.919312 -0.871094 0.472384 0.134348 0.000000
45.404800 9.790600 -741.082581 -0.560749 0.308332 0.768434 0.000000
45.402901 9.678000 -740.505615 -0.617604 0.664215 0.421169 0.000000
45.402599 13.699100 -742.157471 -0.290021 0.543591 0.787653 0.000000
45.400299 8.605300 -737.743896 0.905999 0.063650 0.418466 0.000000
45.399899 10.049100 -737.576477 -0.557348 0.057851 -0.828261 0.000000
45.399700 9.413700 -737.632996 0.793542 0.088494 0.602047 0.000000
45.398899 8.043600 -738.514526 -0.987192 0.105474 -0.119696 0.000000
45.398300 24.697701 -745.828430 0.667015 0.676706 0.311705 0.000000
45.397999 8.041200 -739.470276 -0.981424 0.166199 0.095837 0.000000
45.397999 7.632700 -738.062988 -0.934831 0.316213 -0.161559 0.000000
45.396999 12.419300 -741.801880 -0.898308 0.006557 0.439318 0.000000
45.395901 13.534000 -737.265625 0.440842 0.078771 0.894122 0.000000
45.394600 10.548300 -741.030701 -0.845217 0.196667 0.496921 0.000000
45.394600 10.438400 -737.550598 -0.515959 0.023143 -0.856301 0.000000
45.394100 7.890200 -739.186829 -0.991039 0.090932 0.097838 0.000000
45.394001 7.851600 -738.868713 -0.989608 0.130181 -0.061058 0.000000
45.393902 17.438299 -743.909180 -0.482076 0.382113 0.788411 0.000000
45.393200 8.725600 -740.441101 -0.945144 0.184652 0.269455 0.000000
45.393101 9.059400 -740.716919 -0.866555 0.229780 0.443039 0.000000
45.392502 11.976600 -741.654419 0.536018 0.660361 -0.525936 0.000000
45.392300 19.212200 -744.654480 -0.424268 0.456779 0.781889 0.000000
45.391201 8.201700 -739.861816 -0.976201 0.183271 0.115947 0.000000
45.390202 19.688700 -744.750610 -0.495647 0.122828 0.859795 0.000000
45.388302 15.175500 -737.167480 -0.459751 0.486117 0.743182 0.000000
45.388000 25.655399 -745.556396 -0.923180 0.324744 0.205624 0.000000
45.387402 7.530500 -738.216187 0.952479 0.294167 0.079049 0.000000
45.384602 17.909599 -744.191284 -0.345598 0.179147 0.921124 0.000000
45.382000 10.021900 -740.782471 0.768825 0.455419 -0.448889 0.000000
45.380600 9.500500 -740.484192 -0.436760 0.117317 0.891895 0.000000
45.378601 13.870200 -737.232971 0.478876 0.202659 0.854171 0.000000
45.377899 14.959600 -743.032776 0.798115 0.012406 0.602377 0.000000
45.377701 8.000400 -738.268921 0.919829 0.375356 0.114119 0.000000
45.377701 13.223400 -737.294617 -0.914691 0.150341 -0.375150 0.000000
45.377602 14.610700 -737.153015 0.096273 0.926115 0.364751 0.000000
45.377399 14.187800 -742.602417 -0.596132 0.548846 0.585999 0.000000
45.376900 16.835800 -743.662476 -0.343851 0.157309 0.925754 0.000000
45.376202 8.141700 -738.082886 -0.983805 0.090092 0.154958 0.000000
45.375000 10.032600 -741.078918 -0.104150 0.106491 0.988844 0.000000
45.374901 21.627800 -745.385986 -0.183565 0.571935 0.799496 0.000000
45.373901 25.581699 -744.507629 -0.753738 0.608970 0.247050 0.000000
45.373798 14.452700 -742.511780 0.549448 0.559592 -0.620454 0.000000
45.373600 8.389600 -740.146973 -0.962306 0.198780 0.185616 0.000000
45.372898 14.979300 -742.757996 -0.237214 0.160351 0.958132 0.000000
45.372799 7.759700 -739.067078 -0.981186 0.192047 0.019787 0.000000
45.372398 7.914100 -737.825073 -0.872534 0.146632 -0.466029 0.000000
45.372002 12.490900 -737.133606 0.113420 0.776261 -0.620125 0.000000
45.370602 12.272500 -737.428772 -0.479691 0.070911 -0.874567 0.000000
45.369900 21.361200 -745.291992 0.107403 0.857794 -0.502647 0.000000
45.369598 7.754300 -737.931091 -0.950157 0.104109 -0.293876 0.000000
45.369598 9.747700 -737.508301 -0.393450 0.269837 -0.878855 0.000000
45.369301 12.819600 -737.333984 -0.495868 0.113547 -0.860942 0.000000
45.368599 24.463100 -745.809021 0.546426 0.189206 0.815855 0.000000
45.368301 8.439600 -737.702576 -0.808900 0.058082 -0.585071 0.000000
45.366199 6.724600 -738.516724 -0.818396 0.557930 -0.137633 0.000000
45.365799 8.090200 -737.810181 -0.838255 0.165269 -0.519629 0.000000
45.360401 25.682400 -745.267578 -0.773599 0.630074 -0.067457 0.000000
45.360001 8.053900 -739.775818 -0.992290 0.101161 0.071609 0.000000
45.359600 8.082400 -740.013306 -0.981710 0.128368 0.140594 0.000000
45.358200 14.043700 -742.459229 -0.517459 0.228787 0.824556 0.000000
45.356899 7.797600 -738.618286 -0.973269 0.150610 -0.173391 0.000000
45.356499 11.769800 -741.450317 -0.195091 0.034289 0.980186 0.000000
45.355701 7.786400 -739.380005 -0.987164 0.131228 0.091032 0.000000
45.355499 7.663000 -738.881226 -0.992176 0.115998 -0.046174 0.000000
45.353600 7.910800 -739.571411 -0.985403 0.152969 0.074706 0.000000
45.353298 10.381400 -741.206299 0.012949 0.217785 -0.975911 0.000000
45.353100 21.072599 -745.275696 -0.332985 0.178435 0.925895 0.000000
45.351799 13.779700 -742.310181 0.172226 0.528659 -0.831178 0.000000
45.351501 17.044901 -743.819824 -0.312959 0.377077 0.871705 0.000000
45.350101 11.779900 -737.472473 -0.432899 0.055639 -0.899724 0.000000
45.349602 7.573300 -739.070679 -0.962952 0.261246 0.066889 0.000000
45.349499 10.188700 -737.437683 -0.479613 0.125304 -0.868488 0.000000
45.349300 9.197600 -740.856873 -0.833469 0.198157 0.515813 0.000000
45.347500 8.802700 -737.720215 0.886089 0.001321 0.463513 0.000000
45.346100 23.398399 -745.821228 0.204833 0.231963 0.950914 0.000000
45.344700 6.994100 -738.439819 0.370313 0.738994 0.562810 0.000000
45.344601 11.419200 -741.352112 -0.393210 0.206106 0.896050 0.000000
45.343800 23.994600 -745.844604 -0.199659 0.114270 -0.973180 0.000000
45.341099 8.206300 -740.163330 -0.969568 0.136685 0.203111 0.000000
45.340801 11.936600 -741.486084 -0.231023 0.198599 0.952464 0.000000
45.337601 7.846400 -738.178772 -0.976071 0.008222 0.217296 0.000000
45.337502 14.748000 -742.988098 0.780067 0.067520 0.622042 0.000000
45.337502 7.831600 -739.851013 -0.964975 0.245376 0.092811 0.000000
45.336800 25.667101 -744.900085 -0.881210 0.456976 0.121006 0.000000
45.335999 7.621000 -738.635803 -0.986178 0.125210 -0.108515 0.000000
45.335499 7.602100 -739.385071 -0.958488 0.280871 0.049121 0.000000
45.334301 25.483000 -745.609070 -0.651378 0.286478 -0.702592 0.000000
45.334099 15.292000 -742.924377 0.528184 0.558559 -0.639558 0.000000
45.334099 7.156300 -738.260498 0.778766 0.625566 -0.046811 0.000000
45.333302 18.935200 -744.622498 -0.488343 0.271302 0.829408 0.000000
45.332199 9.203600 -737.572327 -0.855747 0.083453 -0.510619 0.000000
45.332001 16.521000 -743.668823 -0.467132 0.316140 0.825738 0.000000
45.330299 22.070101 -745.515808 0.238609 0.171959 0.955770 0.000000
45.330299 11.058600 -737.487122 -0.460355 0.001319 -0.887734 0.000000
45.329300 11.069600 -741.337585 -0.107829 0.516140 0.849690 0.000000
45.329201 8.584400 -740.571777 -0.868505 0.275305 0.412197 0.000000
45.328701 8.813300 -740.614075 -0.883951 0.252771 0.393366 0.000000
45.327900 20.233299 -744.929504 -0.159944 0.548593 0.820648 0.000000
45.327900 7.396400 -738.088013 0.966256 0.195845 -0.167312 0.000000
45.327000 18.663500 -744.609680 -0.276805 0.432795 0.857944 0.000000
45.326801 10.184800 -740.952209 0.967739 0.045613 0.247791 0.000000
45.325699 13.109900 -737.011719 -0.851792 0.398744 0.339786 0.000000
45.324699 22.832701 -745.671082 -0.120531 0.087765 -0.988822 0.000000
45.324699 7.623500 -739.620605 -0.944257 0.313869 0.099326 0.000000
45.323200 23.614799 -745.828430 -0.078318 0.022530 -0.996674 0.000000
45.323002 14.120600 -736.992798 -0.158837 0.621733 0.766955 0.000000
45.322701 20.889999 -745.259583 -0.482825 0.728385 0.486143 0.000000
45.321602 12.985700 -737.321411 -0.422087 0.201484 -0.883882 0.000000
45.320999 13.659200 -737.016174 0.102819 0.883113 -0.457754 0.000000
45.319801 17.298599 -743.988281 -0.357153 0.299888 0.884595 0.000000
45.319599 8.382000 -740.367981 -0.899948 0.344315 0.267472 0.000000
45.319599 8.958900 -737.506775 -0.953306 0.086900 -0.289234 0.000000
45.319302 12.097600 -737.414124 -0.449038 0.096522 -0.888284 0.000000
45.318901 9.171900 -740.407715 0.208752 0.022408 -0.977712 0.000000
45.318699 6.478200 -738.464905 0.812549 0.579987 -0.058140 0.000000
45.318298 15.925500 -743.406677 -0.315480 0.303631 0.899044 0.000000
45.317902 25.632799 -745.091675 -0.810241 0.583203 -0.058178 0.000000
45.316299 12.570200 -741.760315 0.531913 0.669506 -0.518489 0.000000
45.316101 25.396000 -744.525513 -0.840181 0.207396 0.501081 0.000000
45.314301 11.762100 -737.292786 -0.477631 0.047900 -0.877254 0.000000
45.313702 17.503000 -744.070679 -0.541082 0.454509 0.707568 0.000000
45.313599 20.635599 -745.109192 -0.356778 0.142989 0.923181 0.000000
45.313499 25.599001 -744.714172 -0.828057 0.535626 0.165611 0.000000
45.313499 7.481500 -738.500671 0.915014 0.382997 0.126737 0.000000
45.313000 9.843200 -740.749023 -0.534271 0.406046 0.741404 0.000000
45.311901 14.811000 -742.794006 -0.233522 0.447458 0.863278 0.000000
45.311199 14.605600 -742.777893 -0.258825 0.897753 -0.356439 0.000000
45.309898 9.361000 -740.570984 -0.224754 0.949416 0.219306 0.000000
45.309200 12.328800 -741.672485 0.009729 0.668549 0.743604 0.000000
45.309200 10.606300 -741.171814 -0.970983 0.177822 0.159912 0.000000
45.308998 14.545000 -742.956177 -0.962652 0.248717 0.106961 0.000000
45.308800 10.943100 -741.150879 -0.235598 0.169045 0.957036 0.000000
45.307800 25.205799 -744.913025 0.639179 0.571720 0.514379 0.000000
45.307400 10.869300 -741.325623 0.146457 0.921981 0.358471 0.000000
45.307201 7.946500 -740.112183 -0.957245 0.149611 0.247586 0.000000
45.306801 9.351900 -740.933594 -0.848158 0.209403 0.486599 0.000000
45.305698 10.137500 -737.235779 -0.952560 0.084470 -0.292396 0.000000
45.304501 7.535900 -737.940491 -0.757629 0.578232 -0.302731 0.000000
45.303699 15.487800 -743.197571 -0.427050 0.357714 0.830463 0.000000
45.302101 7.637000 -739.852295 -0.848213 0.513583 0.129487 0.000000
45.301201 9.897300 -737.270081 -0.257310 0.857194 -0.446106 0.000000
45.298599 7.298300 -738.818726 0.995403 0.088699 0.036137 0.000000
45.298500 8.674000 -737.582825 -0.795929 0.061225 -0.602286 0.000000
45.297798 7.852100 -738.468079 -0.972875 0.193061 -0.127445 0.000000
45.296501 7.631200 -738.405701 0.994023 0.063877 -0.088532 0.000000
45.293598 9.606600 -741.066101 -0.238465 0.249622 0.938522 0.000000
45.293201 8.425100 -737.859314 -0.983373 0.082646 -0.161700 0.000000
45.292999 10.878100 -737.501587 -0.378210 0.019362 -0.925517 0.000000
45.292301 13.199200 -742.118530 -0.458359 0.245169 0.854283 0.000000
45.292198 18.172800 -744.351013 -0.539975 0.226143 0.810732 0.000000
45.292198 7.763700 -740.054871 -0.977331 0.100081 0.186570 0.000000
45.291801 9.647300 -740.717896 0.200545 0.036786 -0.978994 0.000000
45.290901 13.027600 -742.107422 -0.492747 0.476157 0.728337 0.000000
45.289600 10.351400 -740.941895 -0.826122 0.319434 0.464202 0.000000
45.289200 11.308400 -737.471619 -0.396742 0.043788 -0.916885 0.000000
45.288601 19.552200 -744.816406 -0.416477 0.116389 0.901665 0.000000
45.287300 14.195900 -737.174683 0.203767 0.036940 0.978322 0.000000
45.286999 22.290400 -745.631287 0.104404 0.900661 -0.421793 0.000000
45.286900 6.975500 -738.247620 -0.888097 0.126465 -0.441917 0.000000
45.286098 7.328200 -739.134277 -0.988523 0.141877 0.051906 0.000000
45.283901 11.645200 -741.694885 -0.331014 0.255187 -0.908465 0.000000
45.283699 12.470900 -737.382629 -0.481710 0.085668 -0.872133 0.000000
45.282398 8.914300 -740.773315 -0.727789 0.335529 0.598116 0.000000
45.281601 8.269500 -737.674988 -0.809125 0.061147 -0.584447 0.000000
45.281200 11.580200 -737.459229 -0.390174 0.094463 -0.915883 0.000000
45.281101 8.194500 -740.382629 -0.958355 0.132413 0.253027 0.000000
45.281101 13.425900 -737.193970 0.330719 0.312761 0.890396 0.000000
45.278500 18.399300 -744.440491 -0.361203 0.235440 0.902275 0.000000
45.278400 9.510200 -737.543030 0.676192 0.064880 0.733863 0.000000
45.278099 16.085100 -743.500916 -0.403173 0.270292 0.874296 0.000000
45.278000 25.494301 -744.876282 -0.879461 0.475421 -0.022896 0.000000
45.277302 14.333400 -742.687805 -0.042973 0.355504 -0.933686 0.000000
45.276299 7.350300 -739.370728 -0.957819 0.279311 0.067596 0.000000
45.275501 14.602800 -737.304871 -0.271420 0.382387 -0.883239 0.000000
45.274899 21.840000 -745.480713 0.001181 0.235025 0.971989 0.000000
45.273201 23.115499 -745.775818 0.086316 0.333314 -0.938856 0.000000
45.272999 7.656300 -737.814880 -0.982439 0.120522 -0.142435 0.000000
45.272999 10.533000 -737.462708 -0.357349 0.021774 -0.933717 0.000000
45.272499 20.351101 -745.099426 0.208359 0.316083 -0.925569 0.000000
45.271301 11.926200 -737.398987 -0.416926 0.049602 -0.907586 0.000000
45.269699 7.249900 -738.569824 -0.535391 0.837183 -0.111721 0.000000
45.269299 24.789801 -745.739624 0.829301 0.318238 0.459329 0.000000
45.269199 11.988600 -741.790283 0.695184 0.358224 -0.623212 0.000000
45.268799 12.663800 -741.966980 -0.559310 0.241485 0.793005 0.000000
45.268299 19.387199 -744.697693 -0.505982 0.238381 0.828949 0.000000
45.267601 7.251500 -737.970215 0.983458 0.057990 0.171602 0.000000
45.267101 7.858600 -737.703430 -0.783095 0.238198 -0.574477 0.000000
45.266800 7.896400 -737.994324 0.357421 0.929295 0.093064 0.000000
45.266499 7.115400 -738.094482 -0.955614 0.161268 -0.246567 0.000000
45.265999 10.666200 -741.381226 0.569417 0.066740 -0.819335 0.000000
45.262798 17.242399 -743.793579 0.181106 0.789865 -0.585930 0.000000
45.262501 20.021200 -744.960571 -0.445921 0.586210 0.676396 0.000000
45.261398 8.033100 -737.663391 -0.768654 0.058687 -0.636967 0.000000
45.260899 8.674900 -740.717773 -0.742018 0.282445 0.607976 0.000000
45.259300 13.581200 -742.195923 -0.427637 0.269366 0.862884 0.000000
45.259300 11.492000 -741.593811 -0.230667 0.493414 0.838651 0.000000
45.258999 6.973300 -738.859985 -0.825025 0.564345 0.029119 0.000000
45.258701 15.744900 -743.342712 -0.442760 0.436273 0.783345 0.000000
45.258099 6.602000 -738.351990 0.884838 0.096757 0.455741 0.000000
45.256401 25.953300 -745.034729 -0.312097 0.906986 0.282792 0.000000
45.254398 7.422200 -738.322083 -0.232258 0.972654 0.001179 0.000000
45.253899 14.168000 -742.808777 -0.585198 0.527859 0.615555 0.000000
45.253502 18.335600 -744.278687 -0.552388 0.385197 0.739250 0.000000
45.253399 19.969000 -744.787476 -0.165109 0.622565 0.764952 0.000000
45.252899 7.372800 -739.682373 -0.885819 0.456162 0.085094 0.000000
45.252800 6.796800 -738.321411 -0.718099 0.695703 0.018197 0.000000
45.252701 16.665300 -743.743225 -0.345034 0.021644 0.938340 0.000000
45.252499 6.254100 -738.356506 -0.970437 0.234922 0.055348 0.000000
45.252399 8.974400 -740.326904 0.513747 0.120116 0.849492 0.000000
45.252102 12.661500 -737.312683 -0.561092 0.109304 -0.820505 0.000000
45.250702 23.832500 -745.763672 -0.327785 0.252031 -0.910515 0.000000
45.250198 8.363900 -740.584473 -0.811518 0.091133 0.577176 0.000000
45.249500 7.819900 -740.221008 0.961672 0.059083 -0.267760 0.000000
45.249298 17.813601 -744.065430 0.517245 0.245498 -0.819871 0.000000
45.248299 7.398400 -739.919922 -0.819063 0.555423 0.143669 0.000000
45.248100 17.700500 -744.208008 -0.554923 0.051980 0.830276 0.000000
45.247898 11.619000 -741.431030 -0.361175 0.252085 0.897778 0.000000
45.247601 25.472300 -745.275696 -0.870935 0.473616 -0.131000 0.000000
45.246399 12.276100 -741.868713 0.490133 0.434399 -0.755690 0.000000
45.245701 7.709600 -738.233398 -0.969968 0.102168 -0.220734 0.000000
45.244900 14.842600 -737.171570 -0.186846 0.005731 -0.982373 0.000000
45.242298 9.030800 -740.904419 -0.579278 0.363884 0.729401 0.000000
45.241699 6.990400 -739.094727 -0.587180 0.802819 0.103449 0.000000
45.241299 8.513900 -737.612488 -0.602994 0.119419 -0.788757 0.000000
45.241299 9.653200 -737.388184 -0.946207 0.201292 -0.253326 0.000000
45.240898 9.952100 -737.484497 -0.538688 0.051770 -0.840913 0.000000
45.238400 12.829000 -737.086487 0.346682 0.425116 -0.836115 0.000000
45.236301 6.001200 -738.408325 0.946577 0.304020 -0.107535 0.000000
45.235699 7.630400 -740.150330 -0.694117 0.697182 0.179275 0.000000
45.234600 12.049800 -741.609009 -0.258801 0.071959 0.963246 0.000000
45.234001 15.266400 -743.127686 0.286119 0.001218 -0.958193 0.000000
45.233898 7.175400 -738.942505 -0.903522 0.422373 0.072446 0.000000
45.232899 14.492500 -742.605286 -0.435844 0.504921 0.745047 0.000000
45.232498 6.936100 -738.691711 -0.880777 0.471113 -0.047794 0.000000
45.231499 7.406200 -737.775330 -0.953008 0.109103 -0.282616 0.000000
45.228901 25.248400 -744.547180 -0.321848 0.919771 -0.224579 0.000000
45.228298 10.019800 -740.988220 -0.000993 0.999889 -0.014894 0.000000
45.227600 21.208700 -745.295776 0.058545 0.334358 0.940626 0.000000
45.227299 8.031800 -740.317505 -0.964296 0.111709 0.240111 0.000000
45.223301 25.410400 -744.726929 -0.871870 0.427682 0.238601 0.000000
45.221802 22.536501 -745.607605 -0.195612 0.071684 -0.978058 0.000000
45.220901 7.059100 -737.928528 -0.988523 0.141877 -0.051906 0.000000
45.220200 16.893801 -743.694092 0.545956 0.048871 0.836387 0.000000
45.219200 25.383301 -745.424011 -0.885545 0.458710 0.073449 0.000000
45.218800 13.130700 -737.238403 0.363012 0.104689 0.925885 0.000000
45.218498 9.247500 -737.428284 -0.484905 0.014776 -0.874442 0.000000
45.217800 7.012600 -739.406982 -0.099930 0.991258 0.086146 0.000000
45.217201 16.955799 -743.916504 -0.383829 0.885644 -0.261362 0.000000
45.215801 10.792900 -741.135071 -0.240601 0.184147 0.952996 0.000000
45.215801 7.225700 -739.255981 -0.863838 0.490131 0.116424 0.000000
45.214600 13.944600 -742.492371 -0.458942 0.262472 0.848812 0.000000
45.210499 15.036300 -742.839417 -0.812007 0.441898 -0.381276 0.000000
45.209000 14.166800 -742.474670 -0.193517 0.447601 0.873043 0.000000
45.208199 9.760300 -741.089294 -0.154238 0.047547 0.986889 0.000000
45.208000 7.188900 -738.390381 0.658474 0.731808 0.175695 0.000000
45.207699 13.289200 -742.283813 -0.438099 0.421933 0.793752 0.000000
45.207100 24.278999 -745.754211 0.644292 0.747379 0.162210 0.000000
45.207100 6.787400 -738.135376 -0.454624 0.835820 0.307769 0.000000
45.206799 10.347400 -737.463928 -0.345974 0.034726 -0.937601 0.000000
45.204800 11.056600 -741.530579 -0.414637 0.411435 0.811663 0.000000
45.204498 7.110400 -738.711914 -0.989074 0.120277 -0.085245 0.000000
45.204201 8.051700 -740.494873 -0.860782 0.260520 0.437247 0.000000
45.203400 7.031600 -739.642212 0.471132 0.881516 0.031049 0.000000
45.203098 9.401800 -737.353088 0.849707 0.009486 0.527170 0.000000
45.198101 12.316800 -737.275879 -0.579666 0.204498 -0.788776 0.000000
45.197201 6.433600 -738.286987 0.992820 0.094176 0.073752 0.000000
45.196701 10.984600 -737.409607 -0.432254 0.072728 -0.898814 0.000000
45.195999 10.712600 -737.448120 -0.363730 0.001267 -0.931504 0.000000
45.195801 10.118000 -737.484802 0.464709 0.036581 0.884708 0.000000
45.195702 8.513900 -740.690430 -0.625115 0.311750 0.715571 0.000000
45.195400 8.838600 -737.566895 0.546283 0.099455 0.831675 0.000000
45.194500 11.827500 -741.532715 -0.434322 0.120252 0.892695 0.000000
45.193001 8.198900 -740.580322 -0.781074 0.252010 0.571327 0.000000
45.192699 8.595300 -740.312012 -0.120726 0.147554 0.981658 0.000000
45.192299 13.567500 -742.411316 -0.826843 0.326013 0.458308 0.000000
45.191799 6.889300 -738.518677 -0.912902 0.407052 0.030298 0.000000
45.189999 9.855800 -740.882996 -0.279285 0.452103 0.847114 0.000000
45.188999 8.330800 -737.498474 -0.553097 0.096756 -0.827479 0.000000
45.187599 17.893600 -744.221191 -0.774274 0.418923 0.474345 0.000000
45.186901 8.963700 -737.288574 -0.404675 0.715200 0.569848 0.000000
45.186501 18.802000 -744.641602 -0.476626 0.345912 0.808191 0.000000
45.185501 9.197600 -740.526794 -0.694966 0.172596 0.698021 0.000000
45.185101 19.090200 -744.710815 -0.503533 0.183782 0.844203 0.000000
45.184799 7.384100 -740.139709 -0.591944 0.797582 0.116039 0.000000
45.183998 15.568900 -743.323181 -0.466655 0.580392 0.667367 0.000000
45.181702 7.686400 -738.012512 -0.948761 0.213710 -0.232766 0.000000
45.181198 14.923100 -743.011292 -0.383500 0.208519 0.899693 0.000000
45.181198 13.751000 -737.168884 0.802576 0.281137 0.526150 0.000000
45.180500 8.598500 -737.462280 -0.527307 0.120569 -0.841077 0.000000
45.180401 11.156500 -737.408325 0.457097 0.042047 0.888422 0.000000
45.178299 7.043400 -739.874023 0.815722 0.561086 -0.140642 0.000000
45.178200 23.472099 -745.763916 0.692260 0.169627 0.701429 0.000000
45.178200 6.586200 -739.285889 -0.986081 0.164156 0.026403 0.000000
45.176800 18.526899 -744.503723 -0.564798 0.381443 0.731782 0.000000
45.176300 20.810600 -745.323730 0.104528 0.927179 -0.359740 0.000000
45.176300 10.152300 -741.219299 0.311647 0.021277 0.949960 0.000000
45.175800 11.758900 -737.398682 -0.354651 0.121869 -0.927022 0.000000
45.175598 25.441000 -745.035095 -0.904749 0.415770 -0.092547 0.000000
45.174999 7.798300 -740.436584 -0.882984 0.120859 0.453578 0.000000
45.173698 6.534900 -738.883972 0.958686 0.283276 0.025977 0.000000
45.173500 19.826401 -744.958313 -0.463753 0.091069 0.881271 0.000000
45.173401 9.656900 -740.852600 -0.069661 0.985875 -0.152309 0.000000
45.172298 10.524700 -741.275696 -0.857513 0.199039 0.474400 0.000000
45.171700 19.686001 -744.794312 -0.938434 0.034757 -0.343706 0.000000
45.171398 23.297600 -745.673584 -0.106512 0.585086 -0.803946 0.000000
45.171398 9.785800 -737.469788 0.473297 0.036616 0.880142 0.000000
45.169899 12.571400 -737.084717 -0.058324 0.179733 0.981985 0.000000
45.169701 13.953400 -737.171021 -0.421107 0.324765 0.846875 0.000000
45.169201 8.161400 -737.562683 -0.611753 0.076289 -0.787362 0.000000
45.169201 14.392600 -737.148010 -0.687277 0.496645 -0.530089 0.000000
45.167900 24.587000 -745.694885 -0.696126 0.162988 -0.699173 0.000000
45.167599 12.920000 -737.251770 0.542259 0.017757 0.840024 0.000000
45.167500 6.560600 -738.154785 0.713531 0.602501 0.357582 0.000000
45.165001 6.500100 -738.640686 0.841707 0.515119 0.161810 0.000000
45.162399 11.259100 -741.319519 -0.255921 0.365390 0.894983 0.000000
45.161301 8.169200 -737.335876 -0.986112 0.143241 -0.084050 0.000000
45.160000 6.602700 -739.520386 -0.950265 0.289441 0.114983 0.000000
45.159199 17.452200 -743.936279 0.528695 0.705483 0.471990 0.000000
45.158501 17.124100 -743.965820 -0.469483 0.146804 0.870651 0.000000
45.158199 10.491200 -741.049072 0.098854 0.103506 0.989704 0.000000
45.157398 12.143900 -737.338318 -0.487096 0.163346 -0.857937 0.000000
45.157001 13.112800 -742.177429 -0.457051 0.177824 0.871483 0.000000
45.157001 8.403700 -737.301025 -0.995448 0.062836 -0.071655 0.000000
45.156799 14.730300 -742.736206 -0.362222 0.550642 0.752057 0.000000
45.156101 6.118700 -738.286987 -0.922002 0.032695 -0.385802 0.000000
45.154202 8.730000 -740.845825 -0.465946 0.124730 0.875978 0.000000
45.154202 7.229200 -737.766724 0.940202 0.080438 0.330983 0.000000
45.153702 5.443200 -738.377991 -0.956341 0.228081 -0.182732 0.000000
45.152802 6.681300 -739.085083 0.991020 0.129656 0.032696 0.000000
45.152699 6.721600 -737.983215 0.808313 0.404957 0.427365 0.000000
45.152699 11.006400 -737.242188 -0.964400 0.069155 0.255245 0.000000
45.152599 13.335000 -737.126770 -0.175605 0.467788 0.866220 0.000000
45.151798 12.382700 -741.757080 -0.302371 0.571146 0.763128 0.000000
45.151199 22.815399 -745.635803 0.264950 0.008469 0.964225 0.000000
45.151100 11.337000 -741.703796 -0.003487 0.977609 -0.210401 0.000000
45.150902 25.350201 -745.194397 -0.887714 0.447385 -0.108671 0.000000
45.150902 19.336599 -744.828186 -0.453193 0.224338 0.862722 0.000000
45.150799 7.562200 -737.652771 -0.933103 0.223103 -0.282036 0.000000
45.150799 9.054000 -737.512573 -0.497417 0.080319 -0.863786 0.000000
45.149601 10.361500 -741.184814 0.377012 0.921435 0.093913 0.000000
45.149300 5.723900 -738.392517 -0.877107 0.224861 -0.424407 0.000000
45.148899 9.366900 -741.047119 0.497046 0.244676 0.832514 0.000000
45.148399 25.794100 -744.925415 -0.438039 0.725658 -0.530606 0.000000
45.146000 20.472700 -745.070923 -0.770372 0.629504 -0.101249 0.000000
45.145302 11.483600 -737.355713 -0.427011 0.066848 -0.901772 0.000000
45.144402 8.370700 -740.286316 -0.142300 0.033014 0.989273 0.000000
45.143299 7.596700 -740.361084 -0.648126 0.732056 0.209825 0.000000
45.143200 6.737400 -739.398071 0.982491 0.185877 -0.012700 0.000000
45.143002 13.760800 -742.356628 -0.166965 0.810759 0.561063 0.000000
45.142899 12.913100 -742.091675 -0.545708 0.800683 0.247201 0.000000
45.141499 17.497299 -744.160400 -0.400952 0.259793 0.878490 0.000000
45.140701 8.853100 -740.423279 -0.611770 0.412821 0.674771 0.000000
45.139301 25.190500 -745.460022 -0.762773 0.549906 0.340265 0.000000
45.137901 14.488500 -742.763672 -0.197723 0.979026 -0.049131 0.000000
45.137402 8.703700 -737.260986 -0.827485 0.321887 0.460063 0.000000
45.136799 7.005300 -738.407227 0.087103 0.897297 0.432749 0.000000
45.136700 12.439700 -741.925720 -0.064764 0.464371 0.883270 0.000000
45.133099 7.352700 -738.047607 0.731295 0.523297 0.437456 0.000000
45.132801 25.212601 -744.839600 -0.878854 0.462930 0.115376 0.000000
45.132801 16.345699 -743.651184 -0.372516 0.353967 0.857869 0.000000
45.132000 17.632000 -744.313477 -0.353684 0.130739 0.926183 0.000000
45.132000 13.105800 -737.080078 0.072672 0.342218 0.936806 0.000000
45.129601 11.016000 -741.223694 -0.318688 0.367483 0.873724 0.000000
45.129398 6.775200 -739.633484 0.992912 0.087376 -0.080568 0.000000
45.129002 11.830900 -741.726929 -0.978851 0.204170 -0.012834 0.000000
45.127499 5.343000 -738.786682 -0.645960 0.759185 0.079838 0.000000
45.127300 6.609300 -739.750427 -0.902794 0.394703 0.170799 0.000000
45.126301 7.895300 -737.580078 -0.831485 0.121289 -0.542146 0.000000
45.124500 21.348101 -745.354309 0.025376 0.240467 -0.970326 0.000000
45.124401 7.035600 -740.096985 0.922783 0.290426 -0.253229 0.000000
45.123600 11.317400 -737.402283 -0.388431 0.057397 -0.919688 0.000000
45.123402 20.245399 -744.953003 -0.448902 0.338646 0.826925 0.000000
45.121799 12.476800 -737.288330 -0.335580 0.094925 -0.937217 0.000000
45.121399 18.273100 -744.465088 -0.550512 0.176465 0.815964 0.000000
45.118500 9.421000 -740.664307 -0.510111 0.258932 0.820208 0.000000
45.118401 9.665300 -737.251587 0.967901 0.071188 -0.241039 0.000000
45.117199 23.916201 -745.686401 -0.461170 0.201482 -0.864134 0.000000
45.116901 10.287500 -740.999512 0.318836 0.934424 0.158728 0.000000
45.116901 7.485800 -737.915894 0.962749 0.048699 0.265974 0.000000
45.116299 6.303800 -738.129395 -0.955110 0.108446 -0.275688 0.000000
45.115601 9.126100 -740.976624 0.036804 0.198266 0.979457 0.000000
45.115299 6.447000 -738.464722 0.791825 0.528412 0.306257 0.000000
45.115101 18.063700 -744.354126 -0.498186 0.350812 0.792932 0.000000
45.113899 7.150700 -738.168396 0.479085 0.724429 0.495662 0.000000
45.113899 12.215800 -737.130981 0.944212 0.181737 -0.274655 0.000000
45.111099 12.625700 -741.903381 0.400653 0.180800 -0.898214 0.000000
45.109699 11.657500 -741.525574 -0.315778 0.503023 0.804520 0.000000
45.106400 21.732800 -745.419006 0.059507 0.095436 0.993655 0.000000
45.104801 6.410100 -739.097473 -0.919362 0.387877 0.065765 0.000000
45.104500 7.671700 -737.780396 -0.969171 0.191267 -0.155324 0.000000
45.104099 7.358300 -740.354370 -0.433574 0.900500 0.033352 0.000000
45.100498 6.803400 -739.870789 -0.991659 0.005503 0.128773 0.000000
45.099499 25.189899 -745.258789 -0.852002 0.512925 -0.104884 0.000000
45.099400 14.215400 -742.659973 -0.418398 0.897784 0.137575 0.000000
45.099098 6.459400 -737.964172 -0.842469 0.203458 -0.498850 0.000000
45.098900 19.964800 -744.890320 0.821480 0.567850 0.052135 0.000000
45.098801 9.892400 -737.154480 0.887629 0.295876 0.352949 0.000000
45.098400 8.280900 -740.697876 -0.637283 0.195968 0.745297 0.000000
45.098400 9.543900 -737.475708 0.453344 0.067519 0.888775 0.000000
45.097000 6.117000 -739.363586 -0.988036 0.151567 0.028490 0.000000
45.096901 6.754300 -738.409485 -0.895211 0.435771 -0.093280 0.000000
45.096802 10.056800 -737.325928 0.228096 0.142071 0.963217 0.000000
45.095901 10.569400 -737.147278 0.317470 0.152550 -0.935917 0.000000
45.094101 5.830100 -738.251526 0.983565 0.080267 0.161731 0.000000
45.093498 6.355900 -738.864685 -0.909873 0.413095 0.038520 0.000000
45.092098 11.942100 -737.329102 -0.422288 0.075164 -0.903340 0.000000
45.091801 25.247000 -745.054321 -0.868751 0.484851 -0.100951 0.000000
45.090698 22.121599 -745.499329 -0.074010 0.062964 -0.995268 0.000000
45.090199 7.338100 -737.648193 0.903172 0.047110 0.426685 0.000000
45.090099 9.133300 -737.229004 0.929816 0.135970 -0.341986 0.000000
45.089001 10.785600 -737.245422 -0.719485 0.460271 0.520089 0.000000
45.087700 6.959700 -737.736572 -0.353836 0.860639 0.366197 0.000000
45.087200 6.461500 -739.411621 -0.845381 0.513109 0.148493 0.000000
45.086498 10.552800 -737.410522 -0.355463 0.045572 -0.933579 0.000000
45.085999 24.386600 -745.645325 0.797648 0.281615 0.533339 0.000000
45.083801 12.000200 -737.066589 0.534856 0.409782 -0.738924 0.000000
45.083698 5.165700 -738.413574 -0.731603 0.680660 0.038208 0.000000
45.082500 16.606300 -743.854309 -0.602613 0.691767 0.397890 0.000000
45.082298 22.378901 -745.540527 0.152965 0.830168 -0.536119 0.000000
45.082100 10.791000 -741.497314 -0.218586 0.297559 -0.929343 0.000000
45.081299 6.057800 -738.957825 -0.984795 0.172022 0.024245 0.000000
45.081200 12.100500 -741.695679 -0.402002 0.115454 0.908331 0.000000
45.081100 7.116500 -740.282593 -0.449340 0.882889 0.136381 0.000000
45.080799 6.938600 -738.257019 0.913336 0.178108 0.366189 0.000000
45.080200 16.128000 -743.587219 -0.584103 0.573944 0.573944 0.000000
45.079498 8.993300 -740.512878 -0.572881 0.348922 0.741661 0.000000
45.077599 6.084400 -739.197388 -0.983419 0.170047 -0.063024 0.000000
45.077202 14.718400 -742.964905 -0.485083 0.646218 0.589149 0.000000
45.074799 25.162901 -744.678284 -0.422324 0.892213 -0.159993 0.000000
45.074799 6.024200 -738.714722 0.953174 0.276302 0.122948 0.000000
45.073200 13.750400 -742.556396 -0.419524 0.518236 0.745272 0.000000
45.072701 5.644300 -738.224487 -0.966118 0.023148 -0.257063 0.000000
45.071201 4.744300 -738.810486 -0.970485 0.173072 -0.167944 0.000000
45.070900 6.128300 -739.596130 -0.971862 0.186750 0.143556 0.000000
45.070702 6.599800 -739.973083 -0.760582 0.619222 0.195139 0.000000
45.070499 13.890900 -737.005127 0.772156 0.547412 0.322668 0.000000
45.070400 10.838100 -741.225525 -0.087868 0.450498 0.888443 0.000000
45.069901 6.830600 -740.108276 -0.939296 0.257437 0.226823 0.000000
45.069199 11.565600 -737.163574 0.989358 0.145461 0.003331 0.000000
45.068501 10.229300 -737.424622 -0.314042 0.063325 -0.947295 0.000000
45.068401 11.769400 -737.158508 -0.415686 0.807298 0.418896 0.000000
45.068001 7.703800 -737.450378 0.975629 0.025016 0.217998 0.000000
45.066898 4.964700 -738.706116 0.891809 0.123350 0.435271 0.000000
45.065899 10.489800 -741.404480 -0.434933 0.355855 0.827164 0.000000
45.065601 11.249700 -737.082214 0.466514 0.670510 -0.576872 0.000000
45.063599 22.668400 -745.575928 0.314795 0.201864 0.927445 0.000000
45.062599 8.030000 -737.385620 -0.949578 0.210565 0.232300 0.000000
45.061901 12.719900 -737.205627 -0.215819 0.178746 -0.959933 0.000000
45.061699 9.461200 -737.213928 0.413095 0.038520 0.909873 0.000000
45.061401 8.782800 -737.449219 0.393609 0.001282 0.919277 0.000000
45.061100 15.090300 -743.100098 -0.431830 0.284301 0.855976 0.000000
45.060299 5.985200 -738.468994 -0.497416 0.867461 -0.009385 0.000000
45.058498 12.149600 -741.914612 -0.149183 0.760982 -0.631389 0.000000
45.058498 7.084500 -738.017883 0.137340 0.868857 0.475631 0.000000
45.058399 9.249500 -740.670471 -0.556351 0.304479 0.773153 0.000000
45.058201 6.286300 -738.634277 -0.977308 0.193003 -0.087282 0.000000
45.057899 23.421700 -745.543884 0.823837 0.215512 0.524260 0.000000
45.057499 6.253100 -739.461670 0.463552 0.873337 0.149673 0.000000
45.055801 19.177799 -744.828491 -0.383564 0.227787 0.894982 0.000000
45.054901 18.653099 -744.667114 -0.442887 0.303028 0.843816 0.000000
45.054298 18.453899 -744.606689 -0.536056 0.278246 0.797009 0.000000
45.052799 11.408500 -741.461670 -0.398001 0.351177 0.847508 0.000000
45.051300 7.269800 -737.899719 -0.827348 0.557715 -0.066699 0.000000
45.050800 8.234300 -737.193726 0.819176 0.519892 0.242205 0.000000
45.049599 17.267000 -744.074402 -0.507831 0.458206 0.729490 0.000000
45.049599 8.640500 -740.400879 -0.632996 0.229754 0.739276 0.000000
45.048801 6.294800 -739.696777 0.991095 0.014460 -0.132368 0.000000
45.047199 22.959400 -745.611511 0.351535 0.003780 0.936167 0.000000
45.047001 8.225600 -740.229309 -0.339512 0.283174 0.896964 0.000000
45.046398 7.664500 -740.537292 -0.656805 0.276465 0.701551 0.000000
45.046200 10.659000 -741.130615 -0.374587 0.250218 0.892791 0.000000
45.043900 13.191800 -742.318115 -0.487010 0.383460 0.784717 0.000000
45.043701 8.487000 -737.478577 -0.392215 0.124225 -0.911447 0.000000
45.043098 15.952000 -743.593018 -0.587563 0.493283 0.641437 0.000000
45.042702 10.281700 -737.163086 -0.393914 0.057418 0.917352 0.000000
45.042500 7.835000 -740.588074 -0.514869 0.164699 0.841299 0.000000
45.042301 4.259200 -738.911926 -0.895433 0.354906 -0.268778 0.000000
45.042198 6.293400 -737.933472 -0.956563 0.273860 -0.099939 0.000000
45.041000 6.612700 -737.840576 0.957757 0.008562 0.287450 0.000000
45.040001 15.764400 -743.486877 0.081826 0.294833 0.952039 0.000000
45.037498 5.644100 -739.231995 0.992988 0.104584 0.055104 0.000000
45.036098 5.061000 -738.239929 -0.942476 0.222165 -0.249763 0.000000
45.035198 6.070700 -737.992371 -0.782268 0.610731 0.122738 0.000000
45.035000 10.089700 -740.973511 0.353684 0.926183 -0.130739 0.000000
45.034698 12.529400 -742.060730 0.371113 0.134824 -0.918748 0.000000
45.034599 21.890200 -745.465820 0.224214 0.411306 0.883491 0.000000
45.033699 4.894900 -738.428894 0.972945 0.183455 0.140438 0.000000
45.033100 15.331500 -743.280518 -0.494368 0.406263 0.768473 0.000000
45.031601 9.878900 -737.317627 -0.975092 0.003520 -0.221772 0.000000
45.031101 19.002701 -744.747192 -0.355719 0.205943 0.911620 0.000000
45.030998 11.031400 -737.377625 -0.252184 0.079837 -0.964380 0.000000
45.029400 4.480400 -738.883484 0.984454 0.021928 -0.174270 0.000000
45.029099 25.056200 -745.443726 -0.742114 0.651057 0.159350 0.000000
45.028000 23.786200 -745.767212 -0.681749 0.092366 0.725732 0.000000
45.027199 9.225800 -737.446472 -0.313825 0.028988 -0.949038 0.000000
45.026901 11.131600 -741.334778 -0.366632 0.465895 0.805309 0.000000
45.026299 6.662600 -738.182617 0.724142 0.508722 0.465638 0.000000
45.026100 13.561900 -742.276672 -0.544370 0.001351 0.838844 0.000000
45.025501 25.101601 -744.333313 0.347762 0.790077 -0.504816 0.000000
45.024899 19.892401 -745.053772 0.032200 0.614591 -0.788189 0.000000
45.024101 20.383400 -745.221802 -0.411780 0.894356 -0.174826 0.000000
45.022499 5.662900 -739.468323 -0.974734 0.167710 0.147534 0.000000
45.022499 6.216400 -738.403870 0.260174 0.890538 0.373164 0.000000
45.021198 11.603400 -737.328491 0.321445 0.021430 0.946686 0.000000
45.021099 16.410801 -743.773682 -0.515521 0.312485 0.797867 0.000000
45.020199 9.816600 -740.868286 0.426521 0.869620 -0.248678 0.000000
45.020100 5.788300 -739.336121 0.999568 0.029251 -0.003026 0.000000
45.019299 5.287600 -738.279114 -0.750940 0.345465 -0.562800 0.000000
45.019100 8.229700 -737.475525 -0.444120 0.041847 -0.894990 0.000000
45.018501 5.887800 -739.073486 -0.992395 0.122260 0.014319 0.000000
45.018299 6.121500 -739.820618 -0.930148 0.242093 0.276071 0.000000
45.017601 5.950900 -739.385925 -0.991534 0.122955 0.041737 0.000000
45.016399 5.565500 -739.073975 0.997402 0.013721 0.070715 0.000000
45.015598 20.203600 -745.145874 -0.797703 0.275341 0.536522 0.000000
45.015598 6.850500 -738.029419 -0.310951 0.909495 0.275914 0.000000
45.015499 12.343500 -737.301819 0.235969 0.087069 0.967852 0.000000
45.013802 5.589100 -738.903198 -0.997409 0.044019 -0.056903 0.000000
45.013401 5.821000 -738.761719 -0.991220 0.123761 -0.046552 0.000000
45.012798 6.412900 -737.804688 -0.937532 0.042674 -0.345271 0.000000
45.012699 12.978500 -742.189514 -0.413988 0.306259 0.857216 0.000000
45.012600 4.598800 -738.505676 -0.510439 0.764843 -0.393022 0.000000
45.012100 6.420000 -738.241699 0.485559 0.660293 0.572926 0.000000
45.011799 5.833200 -739.581116 -0.987023 0.001123 0.160574 0.000000
45.011799 4.407800 -738.717224 0.988350 0.042572 -0.146124 0.000000
45.011101 13.217600 -737.172302 0.422463 0.332047 0.843368 0.000000
45.009602 7.816400 -737.325073 -0.099325 0.076492 0.992111 0.000000
45.009399 6.733500 -737.715393 -0.949298 0.137909 -0.282513 0.000000
45.009300 13.941000 -742.656677 0.171397 0.091169 -0.980975 0.000000
45.006802 11.064900 -737.106201 0.395451 0.385998 0.833441 0.000000
45.006401 3.634100 -738.865112 -0.894875 0.028090 -0.445431 0.000000
45.006001 7.186300 -737.681885 -0.853944 0.080721 -0.514066 0.000000
45.005501 5.760400 -738.955811 -0.993340 0.111848 0.027685 0.000000
45.004902 3.955600 -738.877808 -0.937385 0.268819 -0.221462 0.000000
45.004002 7.461400 -737.540283 -0.799211 0.138411 -0.584897 0.000000
45.003101 24.985901 -744.533691 0.463037 0.725259 -0.509507 0.000000
45.002998 5.896900 -738.036621 -0.955832 0.223250 -0.191166 0.000000
45.002102 13.508200 -737.101929 -0.668291 0.333332 -0.665039 0.000000
45.001701 5.897100 -738.606323 -0.968389 0.240539 -0.066055 0.000000
45.001598 17.509501 -744.265625 -0.253216 0.244822 0.935919 0.000000
44.999500 9.834700 -741.049316 0.456165 0.663361 0.593182 0.000000
44.999401 14.231500 -737.145630 0.381623 0.048858 -0.923026 0.000000
44.998199 13.582600 -742.454285 0.125184 0.167325 -0.977922 0.000000
44.996300 5.435600 -739.241089 -0.988643 0.147099 0.030788 0.000000
44.996101 8.033300 -740.760620 -0.094189 0.468131 0.878625 0.000000
44.993401 6.985200 -740.377014 0.375766 0.785399 -0.491882 0.000000
44.993198 12.268300 -741.795227 -0.266602 0.244032 0.932401 0.000000
44.990200 24.012501 -745.592712 -0.401060 0.348002 -0.847376 0.000000
44.989899 11.224200 -737.353088 0.327467 0.013801 0.944762 0.000000
44.989399 14.005800 -737.139587 -0.675923 0.308118 0.669471 0.000000
44.987301 15.588200 -743.424988 -0.479382 0.360739 0.800038 0.000000
44.986900 5.541600 -738.653381 -0.982002 0.156586 -0.105605 0.000000
44.986500 25.075899 -744.946777 -0.883629 0.461929 0.076295 0.000000
44.986500 4.232300 -738.744019 -0.979792 0.058908 -0.191150 0.000000
44.984901 5.392700 -739.072693 -0.988302 0.127788 -0.083238 0.000000
44.983601 8.919400 -737.371521 0.315402 0.021362 0.948718 0.000000
44.983501 3.379700 -738.849792 -0.989497 0.126146 -0.070596 0.000000
44.983299 4.721600 -738.373230 0.960055 0.249484 0.126701 0.000000
44.980701 10.411100 -737.374878 -0.352517 0.078485 -0.932508 0.000000
44.979801 11.486600 -741.608276 -0.533405 0.267484 0.802453 0.000000
44.979599 17.813801 -744.333313 -0.304116 0.232727 0.923770 0.000000
44.979599 8.775900 -740.522522 -0.656249 0.322453 0.682174 0.000000
44.979198 5.516200 -738.106079 -0.995266 0.065318 -0.071960 0.000000
44.978901 21.240999 -745.303589 0.086954 0.531702 0.842456 0.000000
44.978199 7.515800 -737.343506 0.346810 0.034810 -0.937289 0.000000
44.978100 11.316800 -741.595703 -0.917356 0.105902 0.383722 0.000000
44.978100 11.404000 -737.328613 -0.327406 0.129060 -0.936028 0.000000
44.977402 6.565400 -740.184998 -0.707727 0.670232 0.223411 0.000000
44.977200 6.290200 -739.908813 -0.358122 0.930586 0.075885 0.000000
44.977001 24.805599 -744.384827 0.393873 0.750157 -0.531157 0.000000
44.976101 5.220300 -739.327271 -0.985814 0.147931 0.079291 0.000000
44.975601 8.446200 -740.357727 -0.629351 0.247639 0.736609 0.000000
44.975601 5.660000 -739.694885 -0.938967 0.134526 0.316613 0.000000
44.974998 11.158000 -741.527710 -0.961613 0.164435 -0.219685 0.000000
44.974201 9.630300 -740.794128 -0.155639 0.747974 0.645222 0.000000
44.972900 5.470100 -739.481079 -0.971205 0.169737 0.167185 0.000000
44.971100 10.464800 -741.108398 -0.498727 0.394758 0.771646 0.000000
44.971001 5.829800 -738.375183 -0.982697 0.185046 -0.008045 0.000000
44.970901 16.552500 -743.977783 -0.633413 0.685789 0.358443 0.000000
44.969799 5.745200 -738.532227 -0.984195 0.140943 -0.107213 0.000000
44.969299 5.186500 -739.083923 -0.976033 0.213018 -0.044529 0.000000
44.968399 16.814501 -744.005127 -0.484006 0.346632 0.803483 0.000000
44.967499 5.723200 -737.972412 -0.962379 0.003623 -0.271688 0.000000
44.967300 13.337800 -742.361084 -0.502832 0.580191 0.640733 0.000000
44.966900 6.974900 -737.592712 -0.847765 0.142026 -0.511002 0.000000
44.965801 6.592800 -738.032471 -0.904112 0.336653 0.263148 0.000000
44.965000 5.341900 -738.127380 -0.974661 0.022611 -0.222542 0.000000
44.964802 7.283300 -740.472412 -0.393210 0.896050 -0.206106 0.000000
44.964600 5.497200 -738.404724 -0.969064 0.246736 0.005960 0.000000
44.964298 4.902400 -739.118530 -0.995345 0.092464 -0.027195 0.000000
44.963600 13.015200 -737.175720 -0.185320 0.073886 -0.979897 0.000000
44.960999 4.261500 -738.522400 -0.907789 0.017079 -0.419080 0.000000
44.960701 18.820801 -744.765808 -0.443517 0.288981 0.848400 0.000000
44.960300 9.475700 -740.988525 -0.097620 0.788242 -0.607573 0.000000
44.959000 5.304800 -738.734375 -0.957480 0.094327 -0.272643 0.000000
44.958099 4.853300 -738.230530 -0.983033 0.067919 0.170392 0.000000
44.957500 3.034500 -738.747070 0.762455 0.101367 0.639052 0.000000
44.957401 6.143200 -738.254395 0.670700 0.529500 0.519414 0.000000
44.956600 14.796400 -743.107422 -0.333311 0.658493 0.674752 0.000000
44.956402 6.108500 -740.042175 -0.880605 0.240709 0.408158 0.000000
44.955502 7.237900 -737.473511 -0.928023 0.093208 -0.360673 0.000000
44.955200 18.225599 -744.617493 -0.404719 0.370074 0.836210 0.000000
44.955002 11.772200 -737.303589 -0.209734 0.072364 -0.975077 0.000000
44.954300 4.435800 -738.370789 -0.927555 0.304464 0.216665 0.000000
44.953999 5.146900 -738.837524 -0.987023 0.160574 -0.001123 0.000000
44.953499 10.330300 -741.229492 0.382033 0.575510 0.723076 0.000000
44.952702 12.046200 -737.255188 -0.275120 0.075498 -0.958441 0.000000
44.952301 5.233200 -739.561279 -0.966968 0.116548 0.226693 0.000000
44.950100 3.555100 -738.721985 0.958421 0.028517 0.283931 0.000000
44.948101 6.776300 -737.879822 0.808365 0.253880 0.531122 0.000000
44.947899 3.781000 -738.774719 0.915617 0.342461 -0.210635 0.000000
44.947601 4.920200 -739.355225 -0.953174 0.276302 0.122948 0.000000
44.946999 9.691600 -737.389587 -0.180918 0.099689 -0.978433 0.000000
44.946899 8.654700 -737.425781 -0.369677 0.114064 -0.922132 0.000000
44.945301 4.869900 -738.951477 -0.993022 0.100317 -0.061993 0.000000
44.945000 7.895000 -740.161377 0.475004 0.804468 -0.356653 0.000000
44.943699 20.247999 -739.660522 0.677798 0.206286 0.705716 0.000000
44.943699 6.135300 -737.780029 -0.922062 0.024710 -0.386252 0.000000
44.943699 8.371600 -737.228027 0.373120 0.639399 0.672273 0.000000
44.942402 11.719900 -741.604614 0.073226 0.289051 0.954509 0.000000
44.942001 5.884400 -739.766907 -0.941051 0.130964 0.311883 0.000000
44.941799 23.539801 -745.421875 0.113825 0.767212 -0.631213 0.000000
44.940601 5.098800 -738.510681 -0.912501 0.377733 0.157035 0.000000
