ply
format ascii 1.0
element vertex 690
property float x
property float y
property float z
property float nx
property float ny
property float nz
property float label
element face 0
property list uchar int vertex_indices
end_header
40.003899 117.160896 -753.305786 0.125757 0.237253 0.963274 0.000000
39.998901 28.729300 -736.253906 0.894671 0.446677 -0.006588 0.000000
39.993599 73.347603 -745.442505 -0.876651 0.152146 0.456438 0.000000
39.990299 8.242200 -729.809570 0.521756 0.074941 0.849797 0.000000
39.988201 136.982101 -763.255371 0.066161 0.843201 0.533511 0.000000
39.984200 68.007103 -743.196472 0.459742 0.333352 0.823112 0.000000
39.983101 208.378296 -768.349915 0.321452 0.155897 0.934005 0.000000
39.981098 13.604600 -731.075989 0.584988 0.157902 0.795523 0.000000
39.972900 141.889801 -764.064209 0.093395 0.168596 -0.981251 0.000000
39.970501 204.653198 -768.071228 0.345416 0.133487 0.928907 0.000000
39.970001 128.749802 -761.754211 -0.009465 0.850457 0.525959 0.000000
39.968601 53.943401 -740.208923 0.431146 0.424687 0.796087 0.000000
39.967800 3.678100 -731.375488 -0.811636 0.153957 0.563511 0.000000
39.964699 131.694794 -763.304016 -0.111599 0.444985 0.888557 0.000000
39.963299 72.641098 -743.964417 -0.217109 0.406157 -0.887637 0.000000
39.962700 152.941696 -767.651672 0.009201 0.897781 0.440346 0.000000
39.959301 209.494095 -768.333496 -0.285747 0.109295 -0.952052 0.000000
39.956902 38.124802 -734.435486 -0.312268 0.226715 -0.922545 1.000000
39.956501 229.865799 -769.052429 -0.908593 0.212342 -0.359681 0.000000
39.955399 69.250198 -744.456726 -0.794874 0.079343 0.601565 0.000000
39.954601 12.781400 -732.962097 -0.860847 0.119682 0.494590 0.000000
39.954300 227.753296 -768.564209 -0.301313 0.096052 -0.948675 0.000000
39.950699 188.381897 -766.909119 0.131271 0.205191 -0.969879 0.000000
39.950199 75.262497 -746.060486 -0.801353 0.034963 0.597169 0.000000
39.947800 196.694595 -767.625488 -0.233621 0.653824 -0.719677 0.000000
39.947800 95.569099 -748.167114 -0.592751 0.032078 -0.804747 0.000000
39.947498 26.267200 -734.729797 0.638411 0.723954 -0.261384 0.000000
39.945301 35.482399 -734.830017 0.161464 0.919644 0.358029 1.000000
39.941399 131.943497 -756.605225 0.028373 0.275099 -0.960997 0.000000
39.937199 121.759804 -759.181519 0.076808 0.647794 0.757934 0.000000
39.936100 148.919693 -760.344116 0.013587 0.059574 -0.998131 0.000000
39.935501 109.725502 -750.198181 0.400549 0.118630 0.908563 0.000000
39.934399 -0.153400 -728.661621 0.386277 0.269041 0.882274 0.000000
39.933800 23.177099 -734.228088 -0.978876 0.180094 0.096785 0.000000
39.933102 14.940400 -731.404419 0.568692 0.312380 0.760926 0.000000
39.932301 52.900902 -740.008728 0.264436 0.177647 -0.947901 0.000000
39.929699 103.265999 -749.360901 0.491081 0.213053 0.844659 0.000000
39.928799 143.636597 -759.277771 -0.426315 0.860270 0.279626 0.000000
39.925400 51.019600 -739.681824 0.918904 0.128896 0.372828 0.000000
39.925301 52.009701 -740.657715 0.963511 0.264128 -0.043401 0.000000
39.924999 199.155899 -767.768982 -0.155634 0.194221 -0.968533 0.000000
39.922901 220.831802 -768.746826 0.195169 0.022205 0.980518 0.000000
39.921700 21.460800 -734.025879 -0.805436 0.585640 0.091100 0.000000
39.914299 134.197495 -764.579285 -0.140686 0.480074 0.865873 0.000000
39.911098 142.774002 -768.073425 0.132020 0.585930 0.799535 0.000000
39.908401 86.039703 -746.300720 0.582434 0.122385 0.803612 0.000000
39.907398 27.652201 -734.552673 0.905352 0.419421 -0.066510 0.000000
39.906799 110.092003 -751.497620 -0.095272 0.681561 -0.725533 0.000000
39.906101 139.385498 -758.587219 -0.103962 0.245145 0.963896 0.000000
39.900002 200.699402 -768.088074 0.100276 0.189411 -0.976764 0.000000
39.894798 102.343201 -749.246704 0.522081 0.045699 0.851671 0.000000
39.893299 31.933800 -734.722595 0.572308 0.134574 0.808921 0.000000
39.893200 33.482498 -737.789124 0.328035 0.340128 0.881309 0.000000
39.889599 125.218002 -760.472412 -0.188796 0.031661 -0.981506 0.000000
39.886002 125.649498 -755.181824 0.032876 0.139440 0.989685 0.000000
39.882599 210.677002 -768.445801 -0.163847 0.005650 -0.986470 0.000000
39.876701 80.929298 -747.661621 0.539532 0.026084 -0.841561 0.000000
39.873600 118.523399 -758.225098 0.023799 0.662175 0.748971 0.000000
39.872898 70.651100 -743.531189 0.770864 0.158397 0.616993 0.000000
39.872002 49.171398 -739.236877 0.560411 0.322758 0.762737 0.000000
39.869598 111.950203 -752.146118 0.192665 0.485395 -0.852802 0.000000
39.869499 133.498795 -757.165283 0.049902 0.089823 -0.994707 0.000000
39.867500 168.675201 -764.217102 0.160265 0.135418 -0.977741 0.000000
39.865299 33.060501 -736.562012 -0.914797 0.346100 0.208235 0.000000
39.862202 -1.629800 -728.824707 0.606190 0.052527 0.793584 0.000000
39.861801 80.318901 -745.254578 0.496764 0.119511 0.859618 0.000000
39.859901 102.462303 -753.127075 0.301117 0.632829 -0.713341 0.000000
39.859001 212.109497 -768.511597 -0.294636 0.150712 -0.943650 0.000000
39.855202 105.871201 -749.687988 0.434424 0.195859 0.879156 0.000000
39.855000 47.286301 -738.953186 -0.296826 0.538096 -0.788890 0.000000
39.849602 56.528500 -741.751526 -0.138672 0.506516 0.851006 0.000000
39.849400 152.047699 -767.377686 0.003983 0.877635 0.479313 0.000000
39.844398 232.607605 -768.220398 -0.343651 0.250061 -0.905192 0.000000
39.843300 225.118103 -768.661621 0.322050 0.091446 0.942296 0.000000
39.843201 22.050400 -733.107422 -0.702125 0.680330 -0.210171 0.000000
39.837898 71.625099 -743.674500 -0.531603 0.149560 -0.833684 0.000000
39.836102 181.307007 -766.237122 0.141559 0.195122 -0.970509 0.000000
39.836102 47.610298 -739.825684 -0.707763 0.213107 0.673541 0.000000
39.834702 174.874298 -765.320923 -0.034787 0.047436 0.998268 0.000000
39.833500 206.544601 -768.181213 -0.248440 0.013202 -0.968557 0.000000
39.832500 141.321198 -767.687927 0.307946 0.016208 0.951266 0.000000
39.828999 106.279602 -754.481384 0.028582 0.864264 0.502226 0.000000
39.824501 192.110199 -767.515381 0.207814 0.315255 -0.925974 0.000000
39.820099 93.896202 -750.906372 0.080839 0.958522 0.273314 0.000000
39.819901 29.605600 -736.565002 0.710357 0.633039 0.307660 0.000000
39.819000 139.786102 -763.642395 0.044136 0.687667 0.724684 0.000000
39.817600 84.812897 -746.067017 0.455542 0.127095 0.881095 0.000000
39.812901 137.923401 -766.335815 -0.001368 0.805708 0.592312 0.000000
39.812698 130.884506 -756.536682 -0.122366 0.310622 0.942624 0.000000
39.806198 107.423103 -749.851685 -0.385213 0.057315 -0.921046 0.000000
39.806099 44.517502 -738.301086 0.837402 0.388064 0.384922 0.000000
39.805599 6.629200 -732.037903 -0.614225 0.018025 0.788925 0.000000
39.805302 83.266998 -745.849915 -0.464654 0.014645 -0.885371 0.000000
39.803600 144.878403 -759.555481 -0.347000 0.067289 0.935448 0.000000
39.801201 10.653400 -733.167725 -0.843165 0.373871 -0.386385 0.000000
39.797798 161.429504 -762.856628 -0.273909 0.320781 -0.906683 0.000000
39.797798 69.403099 -743.205505 0.598267 0.347223 0.722159 0.000000
39.797401 172.294098 -764.865723 -0.012256 0.137042 0.990489 0.000000
39.796700 167.339493 -772.153198 -0.129836 0.958685 0.253114 0.000000
39.795399 -0.538700 -732.505127 0.883087 0.432025 0.183061 0.000000
39.790699 66.570000 -742.881287 -0.886133 0.198388 -0.418819 0.000000
39.789600 101.115799 -749.044128 0.470582 0.201678 0.858999 0.000000
39.788601 155.419098 -768.349121 -0.013723 0.068614 -0.997549 0.000000
39.788502 58.165401 -742.022583 -0.863781 0.480853 0.150541 0.000000
39.787399 136.056793 -765.459290 -0.143238 0.404186 0.903392 0.000000
39.787300 23.583599 -733.231873 0.487303 0.199420 0.850157 0.000000
39.786800 142.248306 -759.049377 -0.244301 0.499358 0.831239 0.000000
39.784698 99.834198 -752.385193 0.146026 0.660879 -0.736149 0.000000
39.782101 93.531998 -747.730225 0.513277 0.201374 0.834264 0.000000
39.781700 10.616900 -730.233826 0.641371 0.220033 0.735002 0.000000
39.780800 132.750900 -763.877808 -0.103982 0.411769 0.905337 0.000000
39.777500 48.858898 -740.394226 0.838207 0.114763 0.533140 0.000000
39.776100 17.885300 -734.224609 0.811444 0.061107 -0.581227 0.000000
39.775501 116.319000 -757.759399 0.080641 0.272643 -0.958730 0.000000
39.774700 44.622101 -730.319214 -0.133487 0.928907 -0.345416 1.000000
39.773899 214.802597 -768.584717 0.269266 0.025820 0.962720 0.000000
39.773499 55.457802 -741.384094 -0.984252 0.048098 0.170103 0.000000
39.772400 46.037899 -738.440918 0.624523 0.212307 0.751597 0.000000
39.771301 99.497597 -748.777527 0.560152 0.124968 0.818910 0.000000
39.769402 42.034698 -737.635620 0.875855 0.285901 0.388765 0.000000
39.767601 164.178406 -771.222778 0.097244 0.968654 0.228587 0.000000
39.767399 25.292999 -733.443726 0.478106 0.100728 0.872507 0.000000
39.766300 50.220200 -740.375488 0.884839 0.148193 0.441700 0.000000
39.764400 33.615398 -734.849121 0.196406 0.666545 -0.719126 0.000000
39.763500 146.881500 -765.799988 0.030562 0.966970 0.253050 0.000000
39.762402 113.420700 -752.392883 0.008597 0.291053 0.956668 0.000000
39.762100 63.680801 -742.283081 -0.884174 0.059128 -0.463401 0.000000
39.762001 6.756000 -729.312317 0.460240 0.238474 0.855166 0.000000
39.755100 9.197200 -729.848022 0.390585 0.142415 0.909484 0.000000
39.753700 184.542694 -766.498718 0.108264 0.316774 0.942302 0.000000
39.752300 228.692398 -768.442688 -0.176279 0.150915 -0.972703 0.000000
39.750900 88.185501 -751.077881 -0.922179 0.332891 -0.196901 1.000000
39.749699 42.406799 -732.566772 -0.517419 0.034312 -0.855044 1.000000
39.749699 2.256400 -731.434326 -0.568170 0.012322 0.822819 0.000000
39.744701 170.532593 -764.553589 0.005711 0.181595 0.983357 0.000000
39.743301 87.793198 -749.836975 0.980155 0.182946 -0.076329 0.000000
39.737499 92.245201 -747.477173 0.480458 0.131296 0.867134 0.000000
39.736500 90.033302 -747.007996 0.502288 0.187421 0.844144 0.000000
39.735699 9.038600 -732.475281 -0.731734 0.023876 0.681172 0.000000
39.732800 52.029499 -739.654480 0.645096 0.073601 0.760549 0.000000
39.732601 159.791702 -769.948792 0.149301 0.734438 -0.662050 0.000000
39.731899 153.912399 -767.976624 0.004077 0.827627 0.561264 0.000000
39.731899 78.763496 -744.887878 0.521618 0.066081 0.850616 0.000000
39.731300 213.106995 -768.497925 0.251698 0.176323 0.951608 0.000000
39.729900 152.442795 -761.288513 0.160318 0.132977 -0.978067 0.000000
39.729599 54.494400 -741.223083 -0.930040 0.326696 0.168214 0.000000
39.729099 46.170799 -739.582886 -0.574861 0.378327 0.725537 0.000000
39.729099 7.890300 -732.424011 -0.649600 0.120406 0.750681 0.000000
39.728699 30.859900 -734.337219 0.463144 0.109058 0.879548 0.000000
39.727501 85.610298 -749.038025 -0.261115 0.159347 0.952065 0.000000
39.727402 43.386902 -737.989197 0.745272 0.092244 0.660349 0.000000
39.727299 163.098999 -763.274170 -0.067194 0.206468 -0.976143 0.000000
39.726200 17.892000 -731.912415 0.574601 0.119035 0.809731 0.000000
39.726200 15.999700 -731.520874 0.554538 0.137525 0.820716 0.000000
39.721600 203.471695 -767.937073 0.110460 0.423663 0.899060 0.000000
39.721100 77.431503 -744.773071 0.620406 0.145713 0.770626 0.000000
39.715801 197.572403 -767.961975 0.244029 0.719491 0.650218 0.000000
39.715801 62.351700 -741.669983 0.531944 0.023247 0.846461 0.000000
39.712700 -1.379300 -733.510986 -0.857876 0.014908 0.513641 0.000000
39.708000 160.745804 -770.076782 -0.052380 0.797029 0.601665 0.000000
39.704102 155.129105 -761.833008 0.075223 0.543594 0.835971 0.000000
39.704102 60.776402 -742.389587 -0.966849 0.172605 0.188179 0.000000
39.702099 26.107100 -735.812378 -0.961061 0.025908 0.275118 0.000000
39.701801 162.094101 -770.466980 0.051063 0.354823 -0.933538 0.000000
39.697102 139.368896 -766.927124 -0.003988 0.878751 -0.477264 0.000000
39.695999 123.022102 -754.340027 0.019686 0.181805 0.983137 0.000000
39.693802 142.864594 -764.358093 -0.018099 0.644587 0.764316 0.000000
39.691799 135.856293 -757.800476 -0.098042 0.345160 0.933409 0.000000
39.690201 150.502502 -760.675476 0.015619 0.051022 0.998575 0.000000
39.689701 19.028601 -732.154114 0.626693 0.136108 0.767288 0.000000
39.685600 53.248501 -741.034424 -0.805349 0.562683 0.186550 0.000000
39.680401 65.255402 -742.496826 0.787400 0.070278 0.612423 0.000000
39.679600 147.156006 -760.051514 -0.274289 0.481942 0.832164 0.000000
39.679001 233.602402 -768.155212 -0.517227 0.801939 -0.298948 0.000000
39.678398 48.199902 -738.875122 -0.951307 0.297202 -0.081763 0.000000
39.677898 50.138699 -739.154785 0.757426 0.461685 0.461685 0.000000
39.677502 135.566605 -762.734375 0.036324 0.894643 0.445303 0.000000
39.677502 88.765602 -746.701416 0.436669 0.154203 0.886308 0.000000
39.677502 22.815800 -735.263000 -0.795386 0.113207 0.595437 0.000000
39.670300 5.513500 -729.027222 0.479160 0.159720 0.863073 0.000000
39.669701 59.298000 -741.975830 0.993509 0.023156 -0.111370 0.000000
39.668499 158.507095 -762.561218 -0.138472 0.163422 0.976790 0.000000
39.660599 79.075203 -747.399475 -0.560430 0.081700 0.824162 0.000000
39.657299 103.558296 -753.526978 0.028718 0.854716 0.518300 0.000000
39.657200 60.901901 -741.396118 -0.884451 0.142375 -0.444383 0.000000
39.656101 108.907501 -751.286621 0.212129 0.602324 -0.769550 0.000000
39.652599 116.061996 -752.862793 0.052223 0.214962 0.975225 0.000000
39.652500 50.993099 -740.921570 0.703552 0.543881 -0.457392 0.000000
39.648899 176.320908 -765.291321 0.020659 0.568802 0.822215 0.000000
39.640999 156.633804 -762.075623 0.003170 0.083482 -0.996504 0.000000
39.640999 86.550598 -749.395325 -0.516492 0.155392 0.842074 0.000000
39.636002 44.901402 -739.651672 0.876380 0.476384 -0.070833 0.000000
39.634800 120.064201 -753.807312 -0.390577 0.879174 -0.272951 0.000000
39.634701 187.310806 -766.741699 0.061313 0.044102 -0.997144 0.000000
39.633301 137.829498 -763.773804 -0.056185 0.459070 0.886622 0.000000
39.631699 31.836901 -737.107117 -0.879074 0.413419 0.237305 0.000000
39.629601 150.379303 -766.737488 -0.028064 0.991235 0.129096 0.000000
39.627399 217.069901 -768.591187 0.334978 0.006273 0.942205 0.000000
39.627300 97.678001 -748.335388 0.464203 0.073441 0.882679 0.000000
39.625301 5.588000 -731.978882 -0.641801 0.120060 0.757414 0.000000
39.625099 90.499603 -749.965027 0.060375 0.916354 -0.395790 0.000000
39.621700 118.069000 -753.395691 0.110702 0.185333 0.976420 0.000000
39.617401 1.564600 -728.392822 0.475611 0.542364 0.692557 0.000000
39.616299 77.723198 -747.150330 -0.577642 0.262851 0.772813 0.000000
39.613400 43.854000 -739.411682 -0.979069 0.106875 -0.173210 0.000000
39.605301 30.663401 -736.774292 0.937459 0.011386 -0.347910 0.000000
39.602299 154.042206 -761.610229 -0.207495 0.510408 0.834524 0.000000
39.601299 89.155602 -749.408691 -0.092168 0.909297 0.405813 0.000000
39.601200 179.771606 -765.767029 -0.033141 0.147421 0.988518 0.000000
39.599800 34.602501 -735.234009 0.648602 0.129720 -0.749992 0.000000
39.599499 19.335199 -734.720703 -0.917578 0.074325 0.390545 0.000000
39.593498 149.199707 -766.525696 -0.029532 0.648304 0.760808 0.000000
39.590099 189.244598 -767.231995 0.174437 0.364474 -0.914730 0.000000
39.590000 21.268499 -732.644897 0.622082 0.258014 0.739217 0.000000
39.585701 223.349594 -768.684875 -0.163217 0.052840 -0.985174 0.000000
39.584499 107.434898 -754.934509 0.369941 0.867288 -0.333100 0.000000
39.581799 26.510500 -733.508179 0.447457 0.036280 0.893569 0.000000
39.578098 28.185400 -733.782715 0.467772 0.133855 0.873654 0.000000
39.577900 83.766403 -748.501892 0.557928 0.031842 -0.829278 0.000000
39.575001 91.082802 -747.182983 0.452133 0.126940 0.882872 0.000000
39.574600 94.571098 -747.839600 0.474543 0.178878 0.861865 0.000000
39.574100 81.579803 -745.255188 0.474560 0.212422 0.854207 0.000000
39.571701 42.402302 -739.119202 -0.771279 0.342969 0.536192 0.000000
39.563499 0.150400 -731.744324 0.592674 0.281242 -0.754745 0.000000
39.562901 21.138000 -735.032471 -0.781723 0.171524 0.599574 0.000000
39.561600 159.865707 -762.824829 -0.267190 0.053940 0.962133 0.000000
39.561100 58.403900 -740.686829 -0.699115 0.247768 -0.670708 0.000000
39.560902 105.316200 -754.237427 -0.198346 0.519333 0.831235 0.000000
39.560101 138.473602 -758.274475 -0.099661 0.453389 0.885723 0.000000
39.558998 119.380997 -758.426575 -0.089385 0.954738 0.283701 0.000000
39.558899 221.885101 -768.712280 0.187140 0.051255 0.980995 0.000000
39.556900 127.575104 -761.377319 0.011016 0.958406 0.285196 0.000000
39.556702 165.865494 -763.268799 0.003679 0.955321 -0.295548 0.000000
39.554501 195.305496 -767.768799 0.410463 0.649761 -0.639790 0.000000
39.553799 205.636307 -768.020874 -0.147389 0.014626 -0.988970 0.000000
39.549801 11.958700 -733.304993 -0.754452 0.098152 0.648975 0.000000
39.540901 59.803501 -740.956116 -0.156323 0.468968 -0.869271 0.000000
39.539501 37.909599 -737.909729 0.017406 0.879649 -0.475305 0.000000
39.537399 218.808899 -768.777588 0.272035 0.091538 0.957924 0.000000
39.535900 13.464100 -733.614929 -0.793622 0.082398 0.602806 0.000000
39.534599 123.213799 -759.556396 0.195240 0.316035 0.928441 0.000000
39.532799 12.060700 -730.449219 0.355495 0.258139 0.898325 0.000000
39.529202 76.055397 -744.285522 0.634645 0.149239 0.758257 0.000000
39.527302 3.750700 -728.410217 0.426685 0.047110 0.903172 0.000000
39.523998 96.556702 -748.117676 0.401026 0.210061 0.891657 0.000000
39.523499 76.152100 -746.913513 0.172506 0.719029 -0.673231 0.000000
39.521198 156.968597 -768.901306 -0.042631 0.862244 0.504695 0.000000
39.516399 40.587799 -733.134705 -0.333977 0.473265 -0.815156 1.000000
39.514400 141.299500 -758.986084 0.070899 0.129014 -0.989105 0.000000
39.511398 62.492100 -743.366882 0.787618 0.015226 -0.615975 0.000000
39.511002 16.116100 -734.047913 -0.804279 0.187006 0.564060 0.000000
39.510300 24.782900 -735.594177 0.813853 0.091071 -0.573889 0.000000
39.505199 64.508904 -741.843506 0.742185 0.219388 0.633269 0.000000
39.504601 70.838501 -745.356018 -0.489825 0.536634 0.687092 0.000000
39.504501 56.859501 -740.594482 0.906399 0.074965 0.415717 0.000000
39.501801 27.894699 -736.053589 -0.906931 0.038621 0.419505 0.000000
39.500599 130.020798 -762.328674 0.020495 0.528782 0.848510 0.000000
39.500099 107.959000 -750.955994 -0.035122 0.625166 -0.779701 0.000000
39.495499 35.348202 -737.265076 -0.674450 0.162903 0.720124 0.000000
39.493198 230.875305 -768.264771 0.269363 0.122199 0.955254 0.000000
39.492699 167.698395 -764.014893 0.123857 0.025664 -0.991968 0.000000
39.487900 178.538193 -765.620605 -0.110985 0.658512 -0.744341 0.000000
39.487598 68.505096 -744.830200 -0.644082 0.344054 0.683216 0.000000
39.483898 98.256401 -752.121216 0.048015 0.876621 0.478780 0.000000
39.481300 129.117905 -756.208130 -0.176998 0.038682 0.983451 0.000000
39.478298 92.569298 -750.551575 0.039765 0.867978 0.495008 0.000000
39.473499 79.964302 -747.647278 -0.383646 0.198338 0.901930 0.000000
39.469299 207.493103 -768.119873 0.186951 0.084311 0.978745 0.000000
39.468102 108.925003 -749.869385 0.333522 0.166063 0.928001 0.000000
39.466702 136.983307 -758.147522 -0.330962 0.437623 0.836032 0.000000
39.464802 64.332703 -743.701721 -0.647141 0.046936 0.760924 0.000000
39.463100 193.579895 -767.358887 -0.080087 0.694569 0.714955 0.000000
39.462601 138.914505 -763.304077 -0.359813 0.571468 -0.737536 0.000000
39.462299 168.314697 -772.294922 -0.375748 0.420140 0.826012 0.000000
39.458401 126.526398 -755.581116 -0.216176 0.161149 0.962964 0.000000
39.456600 71.769096 -745.789612 -0.154861 0.273363 0.949363 0.000000
39.456600 73.674500 -743.813416 0.597041 0.284987 0.749883 0.000000
39.454700 114.331200 -757.156311 0.093399 0.893563 -0.439114 0.000000
39.448700 66.056999 -744.314819 -0.638417 0.557562 0.530611 0.000000
39.445099 69.833801 -745.294800 0.387901 0.109054 -0.915227 0.000000
39.445000 133.813202 -762.130615 0.348622 0.240681 0.905834 0.000000
39.444901 144.701599 -764.919983 -0.001379 0.663079 0.748548 0.000000
39.443802 74.845703 -743.935913 0.628439 0.168902 0.759300 0.000000
39.442299 124.653503 -755.022705 -0.155276 0.245522 0.956874 0.000000
39.440399 110.339401 -755.751282 -0.081964 0.585252 0.806698 0.000000
39.438801 67.392197 -742.449890 0.824493 0.275870 0.494072 0.000000
39.435101 38.962502 -734.148682 -0.514633 0.051325 -0.855873 1.000000
39.433300 229.836105 -768.281128 -0.260265 0.168565 -0.950709 0.000000
39.423401 226.191895 -768.531128 -0.143902 0.028327 -0.989186 0.000000
39.423302 132.676498 -756.911926 -0.298618 0.402752 0.865227 0.000000
39.417000 164.559692 -763.491882 0.089903 0.241851 0.966139 0.000000
39.414600 39.604301 -738.734985 0.052856 0.681415 0.729986 0.000000
39.412998 169.579605 -764.376770 -0.104364 0.052743 0.993140 0.000000
39.412399 36.556499 -734.737305 -0.286117 0.003653 -0.958188 1.000000
39.404900 67.574097 -744.772522 -0.185612 0.756253 -0.627399 0.000000
39.404900 55.625000 -740.036926 0.788821 0.145191 0.597228 0.000000
39.404598 68.691902 -742.711670 0.763656 0.104469 0.637115 0.000000
39.400398 4.247800 -731.893372 -0.527366 0.202132 0.825244 0.000000
39.399399 96.516899 -751.652771 -0.031261 0.167885 0.985311 0.000000
39.390800 15.009100 -734.094788 -0.798387 0.052469 0.599854 0.000000
39.386200 73.661301 -746.125122 -0.489083 0.169923 0.855526 0.000000
39.381599 94.682899 -751.148682 0.047691 0.887054 0.459197 0.000000
39.381599 36.653400 -737.670227 -0.767263 0.046802 0.639622 0.000000
39.380199 16.989901 -734.389282 -0.827282 0.143553 0.543135 0.000000
39.378502 57.261299 -742.311829 0.731560 0.001383 -0.681775 0.000000
39.376999 115.405800 -757.327209 0.001373 0.627537 0.778585 0.000000
39.376301 12.977400 -730.573181 0.432953 0.311912 0.845732 0.000000
39.375801 165.598801 -771.560425 0.068412 0.237575 -0.968957 0.000000
39.374699 1.146000 -731.645081 -0.668350 0.149360 0.728697 0.000000
39.371799 23.796000 -735.550415 0.796619 0.173835 -0.578947 0.000000
39.370602 72.719498 -745.882019 -0.435477 0.491349 0.754278 0.000000
39.368000 16.959999 -731.449890 0.311318 0.239586 0.919608 0.000000
39.364899 115.010300 -752.658081 -0.085084 0.203461 0.975379 0.000000
39.364601 173.880005 -764.842712 -0.072605 0.160683 0.984332 0.000000
39.363998 58.870499 -742.870178 -0.703657 0.041224 0.709343 0.000000
39.362701 7.594100 -729.461975 0.305652 0.172880 0.936317 0.000000
39.362000 66.065201 -742.160217 0.774400 0.214854 0.595098 0.000000
39.356300 134.919601 -764.862915 -0.073274 0.452084 0.888961 0.000000
39.355900 100.849297 -752.775513 0.017738 0.847328 0.530774 0.000000
39.354900 20.145399 -732.165771 0.503343 0.207081 0.838906 0.000000
39.352001 98.729202 -748.414307 0.463515 0.201204 0.862943 0.000000
39.351799 202.432907 -768.123108 0.349655 0.864126 -0.361978 0.000000
39.351299 22.874399 -732.791321 0.515441 0.152122 0.843315 0.000000
39.351101 24.458900 -733.042603 0.445433 0.161052 0.880711 0.000000
39.350899 108.649597 -755.357788 0.153567 0.987214 0.042722 0.000000
39.350601 9.716000 -733.096680 0.809742 0.318509 -0.492818 0.000000
39.349998 41.571602 -738.430908 -0.740999 0.664698 0.095376 0.000000
39.347698 82.566101 -745.359680 0.371694 0.371694 0.850698 0.000000
39.347301 106.641602 -749.560730 0.236548 0.060685 0.969723 0.000000
39.340900 134.375793 -757.512207 -0.233838 0.180389 0.955395 0.000000
39.338799 54.599701 -739.951599 0.862743 0.098071 0.496041 0.000000
39.337799 119.161003 -753.630371 -0.148238 0.344966 0.926836 0.000000
39.337700 112.869698 -756.724792 -0.164106 0.310285 0.936372 0.000000
39.334099 149.575699 -760.793884 -0.035016 0.132157 0.990610 0.000000
39.331402 185.973495 -766.656616 -0.031932 0.335922 0.941348 0.000000
39.330200 84.611198 -748.879395 -0.719267 0.104862 0.686774 0.000000
39.330002 171.492401 -764.698425 0.039465 0.209284 0.977058 0.000000
39.329498 32.738499 -737.477478 -0.570272 0.440589 0.693304 0.000000
39.326801 105.161301 -749.354614 0.336554 0.011345 0.941596 0.000000
39.325901 127.962402 -755.822388 -0.406907 0.250751 0.878379 0.000000
39.325802 81.719299 -748.240173 -0.527164 0.819179 -0.225928 0.000000
39.324299 74.648697 -746.487793 -0.480268 0.137841 0.866223 0.000000
39.322601 60.881100 -743.232117 -0.752148 0.219571 0.621339 0.000000
39.322102 100.426300 -748.629395 0.283189 0.049086 0.957807 0.000000
39.319500 183.619507 -766.361511 0.100244 0.388618 0.915930 0.000000
39.319500 84.125298 -745.574829 -0.096790 0.020663 -0.995090 0.000000
39.317402 87.803398 -746.481323 0.250704 0.149892 0.956389 0.000000
39.317402 53.522701 -739.578918 0.772981 0.101206 0.626305 0.000000
39.313999 213.970001 -768.423523 -0.155160 0.001116 -0.987889 0.000000
39.313599 140.598694 -767.181885 0.364537 0.593395 0.717632 0.000000
39.313000 29.932699 -733.948975 0.107394 0.146007 0.983437 0.000000
39.310398 120.874199 -758.780212 -0.338777 0.360238 -0.869171 0.000000
39.310299 40.416401 -738.119873 -0.742234 0.662866 0.098475 0.000000
39.307899 -0.516500 -733.363220 0.534748 0.442037 -0.720172 0.000000
39.305698 219.914795 -768.564026 0.326394 0.072095 0.942480 0.000000
39.305302 182.140305 -766.079224 0.003189 0.088235 0.996095 0.000000
39.302200 104.313301 -754.038513 0.047909 0.880162 0.472249 0.000000
39.302200 86.752602 -746.251282 0.189976 0.164129 0.967973 0.000000
39.299400 14.389400 -730.944702 0.212562 0.357162 0.909534 0.000000
39.297798 44.080601 -731.695129 -0.307790 0.113256 -0.944689 1.000000
39.295200 199.863602 -767.767273 0.006844 0.576293 -0.817214 0.000000
39.291302 157.501602 -762.376282 -0.173428 0.170859 0.969912 0.000000
39.291000 104.114502 -749.330872 0.268292 0.048667 0.962108 0.000000
39.289600 106.760399 -750.708191 -0.601806 0.271527 0.751067 0.000000
39.288300 34.063801 -737.377625 -0.587752 0.190829 0.786214 0.000000
39.286701 20.139000 -735.172485 -0.781177 0.040966 0.622964 0.000000
39.284901 121.381897 -754.323486 -0.145796 0.312031 0.938818 0.000000
39.283901 63.459099 -741.479187 0.557909 0.290875 0.777258 0.000000
39.282600 117.418701 -758.038818 -0.111030 0.431471 -0.895268 0.000000
39.279099 136.838699 -765.683228 -0.062211 0.958552 0.278044 0.000000
39.267300 51.336102 -739.087280 0.575173 0.200927 0.792972 0.000000
39.257500 55.697899 -742.141785 -0.909646 0.209031 0.358957 0.000000
39.252998 234.778900 -767.982422 -0.187628 0.909497 0.370960 0.000000
39.251202 72.574402 -743.347778 0.610658 0.155303 0.776516 0.000000
39.250900 61.662601 -741.047791 0.573034 0.280961 0.769866 0.000000
39.248402 45.266701 -737.935974 0.581253 0.170602 0.795638 0.000000
39.248299 124.641701 -759.989624 -0.073679 0.925676 0.371074 0.000000
39.246601 177.567596 -765.447693 -0.137629 0.978283 -0.154988 0.000000
39.245300 18.389400 -734.801514 -0.784890 0.085598 0.613694 0.000000
39.244099 82.757896 -748.629395 -0.904112 0.336653 0.263148 0.000000
39.242500 231.896606 -768.153381 0.353958 0.050939 0.933873 0.000000
39.239201 26.937700 -736.357422 0.768127 0.085670 -0.634540 0.000000
39.238098 163.417892 -770.880676 -0.053955 0.864670 0.499434 0.000000
39.234100 133.550598 -764.358704 -0.187021 0.189637 0.963878 0.000000
39.232399 22.047001 -735.642212 -0.838494 0.048831 0.542719 0.000000
39.230801 147.811707 -766.065674 0.123788 0.669649 0.732289 0.000000
39.229599 141.320007 -763.969116 -0.020422 0.856352 0.515989 0.000000
39.225498 70.118896 -742.789612 0.668660 0.193031 0.718076 0.000000
39.223000 140.085007 -758.878174 -0.168403 0.202345 0.964726 0.000000
39.222000 71.119598 -743.059998 -0.776154 0.049662 -0.628585 0.000000
39.220600 11.327000 -729.850586 0.426347 0.314722 0.848044 0.000000
39.218899 46.989300 -738.263489 0.584802 0.214479 0.782308 0.000000
39.214802 7.016600 -732.729004 -0.555389 0.203490 0.806309 0.000000
39.211800 46.997501 -740.149902 -0.805563 0.023571 0.592041 0.000000
39.211601 151.477005 -761.036987 -0.114581 0.283159 0.952204 0.000000
39.209400 169.303497 -772.656494 0.557005 0.084482 -0.826201 0.000000
39.209301 162.145401 -763.129517 0.006296 0.346282 0.938109 0.000000
39.208302 43.145500 -732.268372 0.788256 0.029402 0.614644 1.000000
39.207199 125.876801 -760.620483 0.182937 0.353111 0.917522 0.000000
39.206100 191.029099 -767.218018 -0.085996 0.730235 0.677763 0.000000
39.203800 110.775703 -751.546692 0.065670 0.384641 0.920727 0.000000
39.198799 132.809494 -761.745178 0.075522 0.825042 0.560002 0.000000
39.195000 158.278397 -769.328918 -0.042631 0.862244 0.504695 0.000000
39.194401 129.162094 -762.073975 0.036368 0.893026 0.448533 0.000000
39.194401 -0.762900 -728.494324 -0.237687 0.148390 -0.959940 0.000000
39.193298 130.976700 -762.952087 -0.001302 0.430994 0.902354 0.000000
39.191700 48.017601 -740.421021 -0.760379 0.117095 0.638837 0.000000
39.191200 211.442307 -768.311523 -0.100177 0.232055 -0.967530 0.000000
39.189899 88.640800 -752.053772 0.982311 0.147286 -0.115638 1.000000
39.189201 216.210800 -768.455688 0.271402 0.059330 0.960636 0.000000
39.185799 85.590698 -745.817322 0.150180 0.288182 0.945726 0.000000
39.185200 0.390100 -728.354126 -0.169154 0.136576 -0.976081 0.000000
39.183998 137.419098 -762.930786 0.386090 0.583242 0.714677 0.000000
39.183800 52.330601 -741.404297 -0.705277 0.133269 0.696293 0.000000
39.183201 -1.949500 -728.074585 0.660286 0.542678 0.519156 0.000000
39.182400 79.941200 -744.691772 0.403140 0.190655 0.895058 0.000000
39.181702 15.395500 -730.987183 0.200790 0.069364 0.977176 0.000000
39.180401 44.087799 -737.663574 -0.006525 0.426730 -0.904355 0.000000
39.180099 148.053497 -760.392578 -0.290332 0.180254 0.939796 0.000000
39.179401 217.932907 -768.540283 0.317170 0.217610 0.923065 0.000000
39.178001 156.111404 -768.548218 0.041106 0.676116 0.735648 0.000000
39.174900 144.080597 -759.601929 -0.292252 0.046811 0.955195 0.000000
39.174500 37.474899 -734.546570 -0.099406 0.374476 -0.921893 1.000000
39.173401 28.470400 -736.779419 0.786305 0.012437 -0.617713 0.000000
39.173000 143.075806 -759.522400 -0.194554 0.079534 0.977662 0.000000
39.170700 224.417694 -768.516785 -0.231963 0.204833 -0.950914 0.000000
39.168499 138.694595 -766.455505 -0.384451 0.688052 -0.615452 0.000000
39.157398 111.814499 -756.263184 0.060047 0.954358 0.292567 0.000000
39.155499 29.009701 -733.865601 -0.026195 0.047151 -0.998544 0.000000
39.153198 153.184296 -761.502991 0.349950 0.340781 -0.872584 0.000000
39.152302 198.602295 -767.706970 -0.115647 0.875205 0.469726 0.000000
39.152199 65.160500 -744.288208 -0.515768 0.174913 0.838683 0.000000
39.147800 101.796799 -748.809387 0.464287 0.175397 0.868143 0.000000
39.147301 91.739197 -750.161072 0.025648 0.878791 0.476518 0.000000
39.145401 49.059101 -738.577026 0.563084 0.109125 0.819163 0.000000
39.143200 2.423500 -728.435425 0.186630 0.210455 0.959624 0.000000
39.139702 227.297302 -768.508301 0.416477 0.116389 0.901665 0.000000
39.139702 89.775597 -752.510498 0.901308 0.155693 0.404232 1.000000
39.138500 101.743599 -753.077515 0.006810 0.832241 0.554373 0.000000
39.137798 53.959099 -741.751099 -0.558713 0.170174 0.811715 0.000000
39.137402 134.847198 -762.343628 -0.329851 0.801522 -0.498760 0.000000
39.136299 204.237106 -768.024780 0.013831 0.077665 0.996884 0.000000
39.134998 12.622000 -733.918274 -0.544392 0.127661 0.829060 0.000000
39.134300 123.678001 -754.893616 -0.396155 0.180071 0.900353 0.000000
39.133999 175.526093 -765.124573 -0.042513 0.227139 -0.972934 0.000000
39.129501 8.556500 -729.456177 0.213869 0.110098 0.970638 0.000000
39.128899 49.583401 -740.801270 -0.608933 0.023688 0.792868 0.000000
39.127201 208.782898 -768.170593 -0.106098 0.195969 -0.974853 0.000000
39.125000 78.141998 -744.460388 0.459151 0.210881 0.862965 0.000000
39.121399 180.665100 -765.963623 0.116535 0.360572 -0.925423 0.000000
39.120499 172.983398 -764.961426 0.032073 0.207880 0.977628 0.000000
39.120098 102.810699 -749.020813 0.208654 0.289875 0.934043 0.000000
39.120098 32.482300 -734.659729 -0.035628 0.155155 0.987247 0.000000
39.120098 41.560699 -732.672302 -0.235324 0.277597 -0.931430 1.000000
39.118599 76.934402 -744.210388 0.522889 0.098847 0.846650 0.000000
39.116100 130.199997 -756.499817 -0.339095 0.240131 0.909589 0.000000
39.114799 166.690903 -763.837830 0.003720 0.316226 0.948677 0.000000
39.111801 209.864594 -768.171082 0.009351 0.055065 0.998439 0.000000
39.111301 201.238403 -767.828125 0.023860 0.742454 -0.669472 0.000000
39.108898 92.940903 -747.362122 0.172295 0.214383 0.961434 0.000000
39.103699 151.139801 -767.051819 -0.006320 0.936674 0.350147 0.000000
39.103199 10.091200 -729.825806 0.088136 0.031555 0.995609 0.000000
39.102100 63.291000 -743.884583 -0.502252 0.164454 0.848939 0.000000
39.101200 131.452103 -756.790588 -0.481817 0.317525 0.816719 0.000000
39.097301 57.742401 -740.217590 0.487867 0.113025 0.865570 0.000000
39.096298 145.827805 -760.101318 -0.225284 0.270061 0.936117 0.000000
39.094501 76.949402 -747.261597 -0.589659 0.029274 -0.807122 0.000000
39.092201 4.706700 -728.737183 0.125453 0.198951 0.971946 0.000000
39.091702 143.721100 -764.732117 -0.186620 0.232268 -0.954581 0.000000
39.091400 145.989807 -765.277283 0.076857 0.685911 0.723615 0.000000
39.088799 122.390297 -759.176514 -0.009425 0.863105 0.504937 0.000000
39.087601 112.771599 -752.167480 -0.115583 0.298922 0.947252 0.000000
39.086899 122.285500 -754.541809 -0.384634 0.296457 0.874168 0.000000
39.084999 95.864899 -747.519226 0.201003 0.919484 -0.337857 0.000000
39.082401 45.578602 -739.970215 -0.806677 0.368995 0.461643 0.000000
39.080399 132.140396 -763.615112 -0.045699 0.522081 0.851671 0.000000
39.078899 91.796303 -746.751770 -0.293424 0.540851 -0.788278 0.000000
39.076801 170.364304 -772.611023 0.024381 0.983372 0.179956 0.000000
39.074100 126.858902 -760.998474 0.039244 0.889090 0.456048 0.000000
39.071999 166.473495 -771.917725 -0.020401 0.970851 0.238813 0.000000
39.069099 154.571701 -768.007996 -0.039885 0.862342 0.504752 0.000000
39.060699 25.497000 -736.320801 -0.786506 0.606480 0.116574 0.000000
39.059299 117.305397 -753.287415 -0.175289 0.214828 0.960793 0.000000
39.057499 8.530400 -733.188416 -0.507705 0.231612 0.829814 0.000000
39.050598 152.760803 -767.383118 0.015254 0.777929 0.628167 0.000000
39.048000 31.563299 -734.422913 0.055847 0.249451 0.966776 0.000000
39.046700 188.141998 -767.125305 -0.053426 0.021999 0.998329 0.000000
39.046398 105.646103 -750.556274 -0.524530 0.356680 0.773077 0.000000
39.045300 52.550098 -739.195129 0.498047 0.176918 0.848910 0.000000
39.043400 136.281097 -762.645813 -0.393722 0.180276 -0.901379 0.000000
39.041599 29.364300 -737.038391 -0.654166 0.136222 0.743983 0.000000
39.040401 89.479103 -746.564026 0.235709 0.151433 0.959953 0.000000
39.040298 94.082703 -747.175293 0.396706 0.001284 0.917945 0.000000
39.038700 131.873306 -761.772888 -0.317557 0.908770 -0.270729 0.000000
39.037102 42.676300 -737.360229 0.417731 0.197873 0.886762 0.000000
39.036999 99.076797 -752.456177 0.045301 0.868952 0.492818 0.000000
39.036098 11.005800 -733.578308 -0.496764 0.119511 0.859618 0.000000
39.033199 59.180302 -740.431030 0.668659 0.085950 0.738585 0.000000
39.029598 18.518499 -731.589478 0.127507 0.190629 0.973346 0.000000
39.027199 192.653793 -767.293213 0.012506 0.746200 -0.665605 0.000000
39.026199 14.034500 -734.164185 -0.428870 0.001304 0.903365 0.000000
39.018101 59.731800 -743.120728 -0.297640 0.508665 0.807880 0.000000
39.016102 114.149498 -752.583191 -0.223170 0.253665 0.941195 0.000000
39.013699 2.907000 -731.835327 -0.486338 0.077085 0.870364 0.000000
39.007999 220.984406 -768.502319 0.168647 0.207867 0.963509 0.000000
39.005100 97.343803 -751.940918 0.045158 0.874425 0.483055 0.000000
39.003700 39.730301 -733.557190 0.189274 0.743247 -0.641685 1.000000
39.003399 196.535095 -767.558716 -0.058558 0.635567 -0.769822 0.000000
39.000198 139.131104 -758.648987 0.227081 0.017834 -0.973713 0.000000
38.999699 62.570202 -741.065186 0.529390 0.136380 0.837345 0.000000
38.999100 155.937500 -762.078674 0.136300 0.166311 -0.976608 0.000000
38.990501 160.604904 -762.955505 -0.220953 0.042259 0.974368 0.000000
38.989700 212.357895 -768.283813 0.266032 0.136325 0.954276 0.000000
38.987801 125.683601 -755.532593 -0.363826 0.366923 0.856153 0.000000
38.981998 6.218900 -729.018677 0.109578 0.246228 0.962998 0.000000
38.980000 35.161499 -734.711304 0.594407 0.412277 0.690440 1.000000
38.976299 140.300903 -763.720825 0.164901 0.253384 0.953207 0.000000
38.976299 25.764500 -733.133484 -0.235475 0.210975 -0.948705 0.000000
38.972401 23.043200 -736.009277 -0.699902 0.021039 0.713929 0.000000
38.969200 109.839302 -751.448181 -0.302490 0.326331 0.895549 0.000000
38.969002 194.392502 -767.436707 -0.001380 0.655665 0.755050 0.000000
38.968498 0.640700 -733.091675 0.899458 0.217918 -0.378796 0.000000
38.967999 161.510803 -770.319580 -0.051125 0.863600 0.501579 0.000000
38.967999 60.560001 -740.676270 0.442897 0.108264 0.890012 0.000000
38.967800 102.573402 -753.555481 0.338586 0.737112 -0.584830 0.000000
38.967800 37.087601 -738.511414 0.016424 0.941243 -0.337331 0.000000
38.960400 93.367897 -750.803406 0.023584 0.803260 0.595161 0.000000
38.955601 133.514297 -757.432678 -0.341001 0.236524 0.909821 0.000000
38.955002 80.995201 -744.866516 0.449590 0.342319 0.825037 0.000000
38.954201 78.347397 -747.609619 -0.555041 0.805804 -0.206420 0.000000
38.953999 97.315300 -747.670715 0.963208 0.192642 0.187400 0.000000
38.953499 21.993099 -732.389771 0.292150 0.189690 0.937372 0.000000
38.951000 56.455898 -739.875916 0.449634 0.288940 0.845188 0.000000
38.948502 87.253799 -749.707520 0.218493 0.197045 -0.955737 0.000000
38.948502 41.649399 -736.885498 0.243882 0.539026 -0.806209 0.000000
38.946899 164.772598 -771.264221 -0.054085 0.863970 0.500631 0.000000
38.945400 163.618896 -763.330811 -0.073269 0.457586 0.886141 0.000000
38.944500 79.086403 -744.413025 0.348426 0.040153 0.936476 0.000000
38.939999 135.199493 -757.730530 -0.450867 0.017290 0.892424 0.000000
38.938599 233.028793 -768.099915 0.405516 0.060625 0.912075 0.000000
38.937500 236.033295 -767.700623 -0.154929 0.986655 0.050090 0.000000
38.937099 130.137894 -761.278809 0.287497 0.871619 0.397020 0.000000
38.936699 43.070900 -739.579407 -0.613539 0.088477 0.784692 0.000000
38.936401 168.663803 -764.207092 0.001180 0.237255 0.971447 0.000000
38.933601 27.384501 -733.392517 0.390822 0.356567 0.848598 0.000000
38.931900 40.557701 -738.974304 -0.158971 0.628313 0.761545 0.000000
38.928501 228.228500 -768.216980 0.309560 0.001233 0.950879 0.000000
38.925499 120.066803 -758.479309 -0.215028 0.939189 -0.267745 0.000000
38.925201 128.355194 -761.655823 -0.165703 0.072719 -0.983491 0.000000
38.924099 65.408501 -741.596130 0.527445 0.218622 0.820979 0.000000
38.922501 142.153397 -759.444397 0.215843 0.042204 -0.975515 0.000000
38.921501 206.346893 -768.056885 0.005024 0.023109 -0.999720 0.000000
38.917500 5.995200 -732.570129 -0.095082 0.767968 0.633391 0.000000
38.915298 90.763199 -746.560425 0.891024 0.030910 0.452903 0.000000
38.913898 137.701904 -765.998108 0.043766 0.619783 0.783552 0.000000
38.912399 57.993999 -742.817627 0.648905 0.185621 -0.737880 0.000000
38.911098 48.047600 -738.271118 0.415417 0.185116 0.890596 0.000000
38.909100 31.270201 -737.292725 -0.341970 0.163308 0.925412 0.000000
38.908600 24.193300 -736.255493 0.737082 0.306716 -0.602192 0.000000
38.907501 49.964500 -738.651611 0.456637 0.149313 0.877034 0.000000
38.906601 137.791107 -758.433777 -0.372063 0.135169 0.918313 0.000000
38.905201 142.349503 -764.201111 0.073759 0.739036 0.669616 0.000000
38.905201 154.637894 -761.820618 -0.190026 0.071411 0.979179 0.000000
38.904999 159.280899 -769.637085 -0.296828 0.193705 -0.935078 0.000000
38.904701 111.859398 -752.128479 -0.202286 0.265587 0.942626 0.000000
38.903599 107.746101 -749.705811 -0.839581 0.443934 -0.313091 0.000000
38.901699 38.416302 -738.621887 0.568199 0.820417 0.063763 0.000000
38.899399 80.917603 -747.805115 0.133056 0.964982 0.226067 0.000000
38.897999 215.115494 -768.595886 0.191914 0.229492 0.954203 0.000000
38.896000 106.501602 -754.800415 0.042873 0.850543 0.524156 0.000000
38.890900 15.659800 -734.646484 -0.500056 0.220389 0.837480 0.000000
38.889301 75.592796 -743.725891 0.504284 0.171070 0.846424 0.000000
38.888901 54.841801 -741.908997 -0.279444 0.123167 0.952229 0.000000
38.887699 51.338299 -741.355286 0.652295 0.038204 -0.757002 0.000000
38.881302 104.737099 -750.327087 -0.595204 0.246562 0.764813 0.000000
38.878799 118.713203 -758.265625 0.128265 0.564662 0.815295 0.000000
38.874199 135.847000 -765.314270 -0.202866 0.974506 -0.095833 0.000000
38.864899 88.109200 -750.788025 0.565692 0.785075 0.252289 1.000000
38.858002 146.842300 -760.367798 -0.111458 0.326317 0.938666 0.000000
38.857601 44.217201 -739.863525 -0.406617 0.155513 0.900265 0.000000
38.857300 159.270294 -762.601379 -0.126823 0.051415 0.990592 0.000000
38.856499 41.793800 -739.436096 -0.172259 0.650924 0.739340 0.000000
38.855202 30.331699 -737.354187 0.364430 0.064935 -0.928964 0.000000
38.854900 99.475899 -748.050781 -0.526242 0.267025 0.807321 0.000000
38.853802 153.666199 -767.654114 -0.390163 0.858976 -0.331562 0.000000
38.851700 150.431900 -761.072388 0.172007 0.136852 -0.975543 0.000000
38.850101 160.284897 -769.938599 -0.349541 0.913410 -0.208574 0.000000
38.845699 17.503500 -735.054382 -0.588244 0.177841 0.788886 0.000000
38.845100 186.870102 -767.018372 0.167193 0.250121 -0.953670 0.000000
38.842300 225.284103 -768.382324 -0.115973 0.067747 -0.990939 0.000000
38.840500 136.298004 -758.043518 -0.338014 0.331951 0.880656 0.000000
38.833599 1.897900 -732.036987 0.488782 0.213369 -0.845911 0.000000
38.832001 116.607201 -757.645325 0.082477 0.200653 0.976184 0.000000
38.831699 66.890800 -741.822815 0.446106 0.257310 0.857194 0.000000
38.826599 69.121101 -745.110413 0.230830 0.895384 -0.380795 0.000000
38.826599 19.023199 -735.401672 0.463513 0.001321 -0.886089 0.000000
38.826302 100.013901 -752.639221 0.268916 0.676269 -0.685816 0.000000
38.826000 165.447906 -763.666077 -0.090952 0.170989 0.981066 0.000000
38.824699 21.014400 -735.704224 -0.386320 0.453645 0.803096 0.000000
38.824600 184.424606 -766.444214 0.116878 0.131337 -0.984424 0.000000
38.819801 189.789703 -767.089172 -0.043296 0.825423 -0.562852 0.000000
38.818199 50.370399 -741.195190 -0.610025 0.208490 0.764462 0.000000
38.818199 33.908901 -734.833374 0.368035 0.923508 0.108085 0.000000
38.816101 61.683800 -743.630981 0.507186 0.054192 -0.860131 0.000000
38.814999 109.418800 -755.526001 0.010458 0.201019 0.979532 0.000000
38.807999 149.673492 -766.680420 0.017865 0.823148 -0.567546 0.000000
38.806900 148.807693 -766.115601 -0.433665 0.216087 -0.874781 0.000000
38.798698 179.272003 -765.961487 0.351640 0.867582 -0.351640 0.000000
38.792099 170.483505 -764.558899 -0.059345 0.143127 0.987924 0.000000
38.789001 222.434494 -768.449524 -0.115947 0.183271 -0.976201 0.000000
38.788101 83.332901 -745.505615 0.302735 0.052372 0.951635 0.000000
38.787498 115.686798 -753.083313 -0.388857 0.124044 0.912909 0.000000
38.785500 123.766197 -759.544678 -0.235636 0.964435 0.119750 0.000000
38.784698 118.330399 -753.713623 -0.504863 0.387981 0.771093 0.000000
38.784302 21.061600 -732.212585 0.145347 0.201943 0.968552 0.000000
38.784100 74.308098 -743.500427 0.473033 0.327484 0.817920 0.000000
38.783699 162.637100 -770.591187 -0.051247 0.862895 0.502778 0.000000
38.783600 35.398300 -738.186707 -0.196373 0.663338 0.722095 0.000000
38.780300 46.113300 -737.906311 0.315667 0.227109 0.921290 0.000000
38.779999 27.594500 -736.998779 0.917215 0.088587 -0.388419 0.000000
38.779800 203.332306 -767.920593 0.045288 0.236234 -0.970640 0.000000
38.778900 23.756399 -732.425781 0.199254 0.749132 0.631743 0.000000
38.775501 90.764702 -753.176270 0.779760 0.082461 0.620625 1.000000
38.774601 66.411102 -744.935913 0.778601 0.043805 -0.625989 0.000000
38.774200 138.291794 -763.019714 0.515490 0.252327 0.818902 0.000000
38.773998 127.588997 -760.221375 0.654955 0.635058 0.409554 0.000000
38.773399 16.290300 -731.144714 0.773881 0.613976 -0.155380 0.000000
38.772900 120.274498 -754.110229 0.367440 0.053997 -0.928478 0.000000
38.772598 4.845600 -732.242798 -0.176980 0.200578 0.963559 0.000000
38.772301 113.688301 -757.043396 0.088025 0.584429 -0.806656 0.000000
38.767502 125.556801 -759.678284 -0.463989 0.520532 -0.716771 0.000000
38.761200 171.195801 -772.964417 0.058760 0.738078 0.672152 0.000000
38.758900 148.839798 -760.782410 -0.215333 0.296962 0.930293 0.000000
38.754902 16.564600 -734.970215 0.907332 0.130420 -0.399675 0.000000
38.754601 133.595993 -761.510010 -0.944013 0.011283 -0.329715 0.000000
38.754200 108.449097 -751.237183 -0.042381 0.479858 -0.876322 0.000000
38.751598 176.783096 -765.591675 -0.001174 0.228974 0.973432 0.000000
38.751202 233.972702 -767.911377 0.486956 0.014756 0.873302 0.000000
38.750500 68.081703 -742.068176 0.198682 0.188156 0.961833 0.000000
38.747398 174.486694 -765.253479 -0.042393 0.143219 0.988783 0.000000
38.741501 85.848396 -749.085693 0.231524 0.858001 -0.458509 0.000000
38.739201 107.994301 -755.090515 0.008582 0.288125 0.957554 0.000000
38.734402 167.321396 -772.118286 -0.076499 0.996645 -0.029091 0.000000
38.732300 73.342201 -743.075012 0.335126 0.061288 0.940178 0.000000
38.731499 95.020798 -747.721497 0.120040 0.275695 -0.953721 0.000000
38.726398 95.833900 -751.542419 0.257310 0.857194 -0.446106 0.000000
38.724602 88.918297 -751.283020 0.619033 0.649067 0.442166 1.000000
38.724602 69.261101 -742.380005 0.324199 0.315235 0.891920 0.000000
38.724098 157.513596 -768.892395 0.018162 0.697143 0.716702 0.000000
38.722599 -1.133100 -733.752686 0.154438 0.307509 -0.938929 0.000000
38.718899 105.934097 -749.380615 -0.044045 0.686249 -0.726032 0.000000
38.718899 64.234901 -744.350281 0.291463 0.433339 -0.852799 0.000000
38.715401 127.070503 -755.942383 -0.518287 0.381810 0.765245 0.000000
38.714600 53.175201 -742.109070 -0.254793 0.038157 0.966243 0.000000
38.709801 48.716599 -740.880676 -0.516993 0.129612 0.846120 0.000000
38.706001 56.353100 -742.525024 -0.177942 0.212212 0.960886 0.000000
38.702099 229.161896 -768.093872 0.360261 0.140488 0.922212 0.000000
38.693199 213.257797 -768.473816 -0.085084 0.203461 -0.975379 0.000000
38.689301 205.237305 -767.960510 -0.030325 0.042873 0.998620 0.000000
38.685799 70.576797 -745.898987 -0.276609 0.245401 0.929121 0.000000
38.684200 230.438904 -768.065186 -0.138502 0.066341 -0.988138 0.000000
38.677799 219.070297 -768.398987 0.258742 0.020651 0.965726 0.000000
38.676102 107.491798 -751.033875 -0.371803 0.217249 0.902533 0.000000
38.674999 31.887400 -737.950684 -0.954738 0.283701 0.089385 0.000000
38.674900 42.346100 -732.380188 0.235548 0.232793 -0.943570 1.000000
38.671398 55.528198 -739.471619 0.028002 0.128810 0.991274 0.000000
38.669601 197.778900 -767.714600 -0.027212 0.204682 -0.978450 0.000000
38.669102 26.369499 -736.904480 0.185862 0.720408 -0.668182 0.000000
38.668499 152.433899 -761.237122 -0.190418 0.450214 0.872381 0.000000
38.665401 182.982605 -766.177917 -0.020967 0.284908 0.958326 0.000000
38.664299 1.513800 -728.283203 -0.086102 0.173417 -0.981078 0.000000
38.663502 71.893898 -742.969788 0.362348 0.428804 0.827545 0.000000
38.662498 81.879501 -745.146423 0.230513 0.219601 0.947966 0.000000
38.659901 13.647400 -730.693787 0.043531 0.588365 -0.807423 0.000000
38.657101 105.493896 -754.475220 0.050583 0.881790 0.468921 0.000000
38.654701 30.625200 -734.193970 -0.156731 0.026313 -0.987291 0.000000
38.652000 131.113907 -761.131287 0.797582 0.116039 0.591944 0.000000
38.649300 19.562099 -731.924988 0.260897 0.411704 0.873174 0.000000
38.648800 217.170898 -768.610596 0.189827 0.392695 -0.899865 0.000000
38.647400 75.857300 -746.628174 0.001375 0.771254 0.636526 0.000000
38.646198 145.220703 -764.942383 0.122128 0.484202 0.866391 0.000000
38.645302 128.571899 -756.353088 -0.530714 0.102116 0.841377 0.000000
38.642300 54.337200 -739.382019 0.323520 0.165231 0.931683 0.000000
38.641701 134.273193 -764.630615 -0.405412 0.380172 -0.831331 0.000000
38.640800 129.591202 -760.550171 0.738617 0.244106 0.628376 0.000000
38.639900 172.166794 -764.866516 -0.012508 0.167151 0.985852 0.000000
38.638302 147.179504 -765.647827 -0.470326 0.450660 -0.758748 0.000000
38.636902 103.863403 -750.088379 -0.726775 0.120386 0.676243 0.000000
38.636501 110.868202 -755.994080 0.006210 0.319201 -0.947667 0.000000
38.630199 121.509804 -758.789612 -0.438516 0.126304 -0.889804 0.000000
