ply
format ascii 1.0
element vertex 687
property float x
property float y
property float z
property float nx
property float ny
property float nz
property float label
element face 0
property list uchar int vertex_indices
end_header
49.379902 124.691399 -740.283630 -0.190116 0.498492 0.845790 0.000000
49.379398 49.140301 -726.281128 0.035137 0.628244 -0.777223 1.000000
49.379299 97.939598 -743.868896 0.940585 0.128200 0.314428 0.000000
49.376701 110.198502 -742.158325 -0.474354 0.031083 -0.879785 0.000000
49.375900 76.200104 -746.839172 -0.439925 0.878379 -0.186858 0.000000
49.375500 118.562401 -741.198730 -0.341409 0.050627 -0.938550 0.000000
49.375198 96.018600 -765.650574 -0.232537 0.531293 0.814650 0.000000
49.368900 96.975700 -744.334778 0.938591 0.324534 -0.117155 0.000000
49.366402 75.270500 -744.499329 0.287833 0.771266 -0.567715 0.000000
49.360001 101.227997 -743.222229 -0.821016 0.043359 -0.569256 0.000000
49.357399 98.025299 -767.024475 -0.056792 0.497276 0.865732 0.000000
49.352501 42.705101 -732.389587 -0.157797 0.393783 -0.905558 1.000000
49.349400 75.675301 -745.850891 -0.602865 0.794751 0.070167 0.000000
49.348000 80.785400 -753.142578 -0.317662 0.947964 0.021345 0.000000
49.345798 78.863297 -750.411377 -0.453234 0.866081 -0.210911 0.000000
49.342701 55.719398 -721.810486 0.423938 0.382656 0.820884 1.000000
49.341999 78.016098 -749.376282 0.462561 0.262784 -0.846748 0.000000
49.340199 93.402100 -763.150879 -0.040649 0.578900 0.814385 0.000000
49.339401 126.758904 -740.221130 0.773274 0.145646 0.617118 0.000000
49.338699 125.380302 -740.223083 -0.561063 0.166965 -0.810759 0.000000
49.338200 98.506203 -767.308105 -0.080655 0.408744 0.909078 0.000000
49.337399 46.791698 -730.565308 -0.727145 0.495254 -0.475377 1.000000
49.333199 88.244598 -758.699890 0.073142 0.600914 0.795960 0.000000
49.333000 73.628197 -743.231506 0.546126 0.244278 0.801296 0.000000
49.328499 79.436302 -751.075317 0.711284 0.471413 -0.521387 0.000000
49.323700 105.764999 -742.528503 -0.602482 0.097739 -0.792125 0.000000
49.321098 113.762001 -741.700195 -0.379647 0.348655 -0.856917 0.000000
49.313099 100.367401 -768.269287 0.079290 0.609810 0.788572 0.000000
49.313099 116.944702 -741.354126 -0.302484 0.031378 -0.952638 0.000000
49.307701 97.344597 -743.916687 -0.948752 0.044692 -0.312846 0.000000
49.296799 43.449699 -732.164978 0.350547 0.157816 0.923153 1.000000
49.293900 53.223801 -722.576477 0.158895 0.749076 -0.643146 1.000000
49.293800 103.808800 -769.776428 0.409309 0.406124 0.817025 0.000000
49.284302 117.929398 -741.246216 0.015195 0.592612 0.805345 0.000000
49.277401 46.176701 -731.226074 -0.569695 0.502474 -0.650360 1.000000
49.275002 127.380096 -740.213074 -0.547779 0.826809 0.127766 0.000000
49.271900 95.457802 -765.142212 -0.367840 0.444275 0.816893 0.000000
49.270901 86.498703 -757.373413 0.202855 0.978685 0.032030 0.000000
49.270302 78.539398 -749.958313 -0.823067 0.222243 0.522655 0.000000
49.269402 122.351997 -740.434387 -0.051720 0.134471 -0.989567 0.000000
49.266602 44.206799 -732.148682 -0.403501 0.267489 -0.875007 1.000000
49.262299 102.196999 -768.915527 0.056140 0.187531 0.980653 0.000000
49.260799 96.495796 -745.961182 0.751309 0.285529 -0.594986 0.000000
49.254101 47.765202 -728.235901 -0.396492 0.832475 -0.387014 1.000000
49.253899 101.967300 -743.051086 -0.775651 0.126062 -0.618445 0.000000
49.253700 109.615799 -742.120178 -0.549982 0.063623 -0.832749 0.000000
49.253300 96.115898 -744.530396 -0.711877 0.678052 -0.182966 0.000000
49.250401 87.715302 -758.212830 0.104253 0.776757 0.621112 0.000000
49.248199 75.031998 -744.992615 -0.208277 0.935151 -0.286556 0.000000
49.244598 99.397598 -767.747070 -0.041897 0.452758 0.890649 0.000000
49.243599 100.409302 -743.186829 -0.806885 0.079106 -0.585387 0.000000
49.243500 123.681801 -740.463623 -0.384545 0.157507 -0.909570 0.000000
49.241100 103.081902 -742.926819 0.301582 0.556889 0.773901 0.000000
49.239101 99.145401 -743.325073 -0.852238 0.176992 -0.492305 0.000000
49.237202 92.325600 -762.173523 -0.032029 0.575129 0.817435 0.000000
49.233002 51.502399 -723.973083 0.159256 0.747743 -0.644606 1.000000
49.232700 96.566597 -744.005127 -0.895757 0.289673 -0.337209 0.000000
49.232101 47.274700 -729.373779 -0.816462 0.450407 -0.361280 1.000000
49.231701 111.496696 -741.911621 -0.353435 0.019139 -0.935263 0.000000
49.229698 85.201797 -756.407471 0.099179 0.843737 -0.527515 0.000000
49.228699 81.984299 -754.181580 -0.009669 0.788720 0.614677 0.000000
49.222000 95.705002 -744.045715 0.989988 0.123604 -0.068156 0.000000
49.217899 82.550400 -754.550110 0.183932 0.582197 -0.791970 0.000000
49.217499 91.804604 -761.726013 -0.089011 0.643509 0.760245 0.000000
49.213001 98.296700 -743.408813 -0.897510 0.084358 -0.432851 0.000000
49.210800 78.678101 -750.962585 0.611911 0.750339 -0.250113 0.000000
49.210201 129.686005 -739.982117 -0.140220 0.056783 0.988491 0.000000
49.209000 97.214500 -746.177429 0.376627 0.679244 -0.629904 0.000000
49.207199 80.349998 -752.827087 -0.593275 0.729809 0.339711 0.000000
49.206402 99.709000 -743.225586 -0.704945 0.258216 -0.660589 0.000000
49.206299 76.249496 -747.665771 -0.333359 0.282985 0.899328 0.000000
49.204700 103.301498 -769.573181 0.232062 0.514840 0.825280 0.000000
49.200298 56.247700 -721.903320 0.584442 0.299426 0.754170 1.000000
49.198601 88.701401 -759.073303 0.146103 0.274781 -0.950342 0.000000
49.197601 44.831299 -731.818970 -0.487713 0.240035 -0.839356 1.000000
49.192001 95.437798 -744.829285 0.339862 0.533148 -0.774756 0.000000
49.191898 106.698898 -742.346313 -0.554928 0.017813 -0.831707 0.000000
49.188702 98.179703 -746.422729 -0.043680 0.793280 -0.607289 0.000000
49.188000 75.138802 -745.606812 -0.915953 0.377813 0.135232 0.000000
49.187302 105.045700 -742.531677 -0.598652 0.091320 -0.795787 0.000000
49.185699 46.992001 -730.047913 -0.764898 0.521300 -0.378389 1.000000
49.178101 75.885696 -747.278076 -0.779849 0.572726 0.252627 0.000000
49.177399 79.153900 -751.554077 -0.824078 0.557592 0.099932 0.000000
49.177200 77.042603 -748.422424 -0.461550 0.882415 0.091188 0.000000
49.176498 73.136497 -743.062622 0.572524 0.459020 0.679350 0.000000
49.172798 78.569901 -751.595276 -0.663978 0.742779 -0.086098 0.000000
49.172199 112.765602 -741.691284 0.488099 0.014791 0.872663 0.000000
49.168900 119.834099 -740.936279 -0.154596 0.796996 0.583864 0.000000
49.165699 74.678299 -744.119690 -0.630822 0.775646 -0.020888 0.000000
49.161800 101.476501 -768.758423 -0.019613 0.176515 0.984102 0.000000
49.158100 96.910301 -743.620178 0.968805 0.068577 0.238149 0.000000
49.157600 104.350700 -742.625122 -0.681984 0.199492 -0.703634 0.000000
49.156700 57.027401 -722.443970 0.167684 0.983508 0.067787 1.000000
49.156399 120.762497 -740.772217 0.525524 0.829696 0.188225 0.000000
49.154701 49.753201 -725.385986 -0.399654 0.190381 0.896678 1.000000
49.146500 56.762100 -721.992493 -0.530746 0.020466 -0.847284 1.000000
49.144699 128.187195 -740.414490 -0.755561 0.586239 0.292321 0.000000
49.143101 75.407600 -746.329712 -0.784615 0.618990 -0.035090 0.000000
49.140800 73.959297 -743.622070 -0.453234 0.866081 -0.210911 0.000000
49.137299 96.712196 -766.220398 -0.212118 0.476889 0.852985 0.000000
49.132000 97.635597 -743.435913 -0.852221 0.199201 -0.483774 0.000000
49.126099 55.297901 -721.575806 -0.149003 0.028436 -0.988428 1.000000
49.125198 108.043198 -742.269287 -0.544728 0.020582 -0.838360 0.000000
49.124100 81.471001 -753.927124 -0.195803 0.056459 0.979017 0.000000
49.123501 41.021301 -732.489685 -0.431274 0.069825 -0.899515 1.000000
49.121899 83.999100 -755.510376 0.139704 0.650450 0.746591 0.000000
49.121201 102.750099 -769.321716 -0.123323 0.021109 -0.992142 0.000000
49.121201 89.332100 -759.595276 0.528901 0.616770 -0.582974 0.000000
49.120499 45.618401 -731.470825 -0.563205 0.385869 -0.730688 1.000000
49.115398 87.255898 -757.900208 0.129416 0.433756 0.891688 0.000000
49.110199 115.852798 -741.360107 0.343423 0.169609 0.923739 0.000000
49.110100 94.834999 -743.995422 -0.613713 0.188246 -0.766759 0.000000
49.096401 100.842903 -768.454895 0.014508 0.433929 0.900830 0.000000
49.095699 93.788101 -763.534485 -0.152688 0.645523 0.748323 0.000000
49.095299 95.881699 -746.079224 -0.485836 0.219459 -0.846051 0.000000
49.093601 77.542099 -748.960571 -0.586461 0.809344 0.032039 0.000000
49.092400 79.045799 -752.098022 -0.165447 0.965326 -0.201924 0.000000
49.092098 41.910599 -732.559082 -0.399430 0.631464 -0.664612 1.000000
49.091999 114.212898 -741.177429 -0.067772 0.653205 0.754142 0.000000
49.090900 78.436600 -752.107300 -0.726882 0.683701 -0.064772 0.000000
49.090000 125.894600 -740.173096 -0.393931 0.400259 -0.827412 0.000000
49.082500 90.520599 -760.598206 -0.073092 0.586172 0.806883 0.000000
49.081100 93.050400 -762.812195 -0.076884 0.706463 0.703562 0.000000
49.078400 99.886902 -768.051514 -0.064627 0.274984 0.959274 0.000000
49.077999 74.664902 -743.423279 0.474628 0.732614 0.487858 0.000000
49.075100 46.365002 -730.765076 -0.728369 0.489451 -0.479496 1.000000
49.072498 80.959099 -753.765381 -0.056786 0.994304 0.090189 0.000000
49.071999 115.054703 -741.039978 0.152965 0.830168 0.536119 0.000000
49.067200 85.747002 -756.794312 -0.016949 0.405475 0.913949 0.000000
49.062500 102.443100 -742.775391 -0.626232 0.058486 -0.777440 0.000000
49.057301 94.305000 -764.144775 -0.277866 0.482773 0.830494 0.000000
49.055901 101.016998 -742.855225 -0.665569 0.133114 -0.734369 0.000000
49.052101 95.967499 -745.234619 -0.598824 0.800736 -0.015213 0.000000
49.051102 96.075203 -743.655701 -0.940464 0.237547 -0.243104 0.000000
49.048500 114.673103 -741.434082 -0.354120 0.084187 -0.931403 0.000000
49.047199 118.957001 -740.885498 -0.250818 0.090396 -0.963804 0.000000
49.046001 124.290901 -740.257874 -0.347199 0.127627 -0.929066 0.000000
49.044899 110.681297 -741.810791 0.301364 0.073724 0.950655 0.000000
49.041302 74.525803 -745.373230 -0.787800 0.600158 0.138498 0.000000
49.041100 112.071198 -741.648682 -0.358190 0.158727 -0.920057 0.000000
49.040798 97.341003 -766.670593 -0.127561 0.549830 0.825479 0.000000
49.040798 77.710297 -749.685608 -0.924833 0.364742 0.107920 0.000000
49.040100 113.163399 -741.295715 0.138112 0.039950 0.989611 0.000000
49.035999 50.866600 -724.977417 0.525473 0.666495 -0.528831 1.000000
49.035301 101.559502 -742.799072 -0.663526 0.052797 -0.746288 0.000000
49.033901 107.231499 -742.264587 -0.490672 0.048105 -0.870015 0.000000
49.031200 50.434200 -725.476807 -0.309246 0.950458 -0.031556 1.000000
49.030602 48.405102 -727.179077 -0.162103 0.752945 -0.637806 1.000000
49.025101 95.059303 -764.816589 -0.258715 0.655517 0.709482 0.000000
49.024799 78.365501 -750.473877 -0.952996 0.184147 0.240601 0.000000
49.021301 95.158401 -743.388977 -0.851679 0.372123 0.369009 0.000000
49.021198 98.692200 -743.078979 0.741572 0.079817 0.666109 0.000000
49.020401 103.499397 -742.702820 -0.692340 0.223487 -0.686089 0.000000
49.015099 75.303703 -746.906982 -0.388711 0.443099 0.807816 0.000000
49.005001 51.313400 -724.581604 -0.129637 0.642226 -0.755473 1.000000
49.002102 79.811401 -752.634521 -0.420140 0.826012 0.375748 0.000000
49.001801 74.218498 -744.373413 -0.790573 0.574822 -0.211128 0.000000
49.000401 123.014198 -740.291504 0.003245 0.109244 0.994010 0.000000
48.997799 72.471100 -742.669678 -0.546234 0.821596 0.163122 0.000000
48.994301 84.663300 -755.988220 0.192524 0.916983 -0.349395 0.000000
48.993698 76.552200 -748.100586 -0.684711 0.605132 0.406185 0.000000
48.985901 94.029701 -743.881287 -0.009727 0.665625 -0.746223 0.000000
48.985802 121.364700 -740.663818 -0.226482 0.955511 -0.188958 0.000000
48.982700 48.023499 -727.654724 -0.208587 0.761729 -0.613401 1.000000
48.977501 108.513298 -742.089172 -0.445889 0.237303 -0.863059 0.000000
48.976002 47.320000 -728.838684 -0.419420 0.805093 -0.419420 1.000000
48.965302 42.335098 -732.242004 -0.442356 0.288225 -0.849263 1.000000
48.964100 126.455704 -739.916626 0.448754 0.014561 0.893537 0.000000
48.961201 74.652702 -745.886230 0.516492 0.715782 -0.469991 0.000000
48.959599 83.076401 -754.881287 -0.045362 0.490735 0.870127 0.000000
48.957001 109.094101 -742.030396 -0.419755 0.162998 -0.892881 0.000000
48.954601 127.979797 -739.888000 -0.457381 0.862276 0.217444 0.000000
48.952400 106.155800 -742.294495 -0.449398 0.213502 -0.867443 0.000000
48.950901 129.156601 -739.971313 0.459905 0.241336 0.854543 0.000000
48.949699 91.099503 -761.040100 0.076559 0.767031 0.637026 0.000000
48.943001 130.395004 -739.836975 0.224990 0.060243 0.972497 0.000000
48.942101 43.891800 -731.878479 -0.387407 0.374859 -0.842257 1.000000
48.940701 116.591904 -741.224182 -0.225603 0.034987 -0.973591 0.000000
48.937302 43.101299 -732.007813 -0.492337 0.213598 -0.843789 1.000000
48.933899 86.900902 -757.563416 0.092353 0.678723 0.728564 0.000000
48.933102 80.467003 -753.295105 -0.037261 0.974797 0.219960 0.000000
48.929699 91.470200 -761.406128 0.049641 0.625480 0.778659 0.000000
48.928501 95.305603 -745.309326 -0.644841 0.763367 -0.038098 0.000000
48.925999 99.006104 -767.612427 -0.084397 0.355004 0.931048 0.000000
48.924198 125.077698 -740.044983 -0.180892 0.503808 0.844663 0.000000
48.922600 73.706802 -744.082520 -0.167155 0.922867 -0.346953 0.000000
48.919300 128.593597 -739.914124 0.789866 0.070242 0.609243 0.000000
48.912601 46.527199 -730.234192 -0.650720 0.583462 -0.485938 1.000000
48.912300 117.371803 -741.111328 -0.388773 0.360669 -0.847805 0.000000
48.909100 97.086601 -743.175476 -0.824795 0.112009 -0.554227 0.000000
48.908298 96.508797 -743.336121 -0.895622 0.039057 -0.443097 0.000000
48.907902 76.617401 -748.626526 -0.837081 0.528140 0.142701 0.000000
48.906502 100.083099 -742.867371 0.670082 0.009711 0.742223 0.000000
48.903400 95.691299 -765.484009 -0.206017 0.652129 0.729579 0.000000
48.900002 118.372101 -741.057983 -0.382721 0.091254 -0.919346 0.000000
48.891499 121.947899 -740.555420 -0.355280 0.620512 -0.699100 0.000000
48.891102 74.081100 -745.115173 -0.957388 0.124421 0.260630 0.000000
48.891102 105.441002 -742.257202 -0.388954 0.769771 0.506129 0.000000
48.890900 110.026199 -741.897888 0.315460 0.011222 0.948873 0.000000
48.889599 130.899994 -739.714172 -0.370010 0.194363 0.908469 0.000000
48.886600 99.390999 -742.948486 -0.627715 0.088841 -0.773357 0.000000
48.883900 127.071098 -739.885193 -0.418001 0.110442 -0.901708 0.000000
48.881699 77.475098 -750.476074 -0.537567 0.837337 -0.099443 0.000000
48.880798 53.032398 -722.902405 0.158895 0.749076 -0.643146 1.000000
48.880001 46.646198 -729.698486 -0.551019 0.674957 -0.490725 1.000000
48.878502 51.967701 -724.071777 -0.241993 0.569854 -0.785306 1.000000
48.874199 45.889801 -731.001221 -0.716963 0.422230 -0.554694 1.000000
48.866901 98.022797 -742.974487 -0.736030 0.250597 -0.628857 0.000000
48.864498 74.657600 -746.487915 -0.790022 0.067388 0.609364 0.000000
48.858002 86.239304 -757.123779 0.155810 0.736693 0.658032 0.000000
48.856499 44.431198 -731.832581 -0.454761 0.244871 -0.856289 1.000000
48.850201 41.463501 -732.387085 0.471316 0.191797 0.860857 1.000000
48.850101 55.838501 -721.611511 0.485411 0.569393 0.663451 1.000000
48.848999 88.040901 -758.509888 0.060513 0.538984 0.840140 0.000000
48.847198 95.664299 -743.384888 0.775222 0.135925 0.616892 0.000000
48.844200 96.150497 -765.812988 -0.267255 0.474261 0.838839 0.000000
48.843700 95.339104 -746.093994 -0.037484 0.973379 0.226114 0.000000
48.843498 98.167801 -767.127075 -0.118828 0.409607 0.904490 0.000000
48.841202 101.917801 -769.075500 0.149267 0.658884 -0.737287 0.000000
48.837200 73.677696 -743.020020 0.548180 0.075464 0.832949 0.000000
48.836300 89.872299 -760.020813 0.164800 0.609307 0.775619 0.000000
48.833500 96.903297 -746.431824 -0.751676 0.635799 0.175340 0.000000
48.833401 94.467300 -744.311218 0.532056 0.823095 -0.198574 0.000000
48.832600 40.525799 -732.536194 0.095503 0.511725 -0.853825 1.000000
48.827900 75.859497 -747.828674 0.473080 0.761184 -0.443615 0.000000
48.827202 78.159103 -750.986877 -0.809682 0.545422 0.216632 0.000000
48.826199 83.584297 -755.233215 0.171145 0.917961 -0.357849 0.000000
48.824799 45.109699 -731.481323 -0.549229 0.354812 -0.756608 1.000000
48.823101 77.322800 -751.325928 0.550899 0.638504 0.537422 0.000000
48.822201 113.604103 -741.512573 0.068680 0.136197 0.988298 0.000000
48.821999 104.676598 -742.317017 -0.501448 0.042589 -0.864139 0.000000
48.817101 79.183800 -752.554321 0.184151 0.839908 0.510532 0.000000
48.816601 103.996696 -742.444824 -0.502252 0.164454 -0.848939 0.000000
48.811199 120.185303 -740.770508 0.093842 0.313246 0.945024 0.000000
48.809200 82.245201 -754.357422 0.121185 0.538763 0.833696 0.000000
48.803501 94.479897 -743.682190 -0.602279 0.796927 -0.046546 0.000000
48.801102 71.568001 -742.226074 0.581947 0.694689 0.422782 0.000000
48.798599 115.407997 -741.307922 -0.190028 0.295445 -0.936270 0.000000
48.796398 93.346100 -763.184021 -0.058658 0.650966 0.756837 0.000000
48.795601 88.997101 -759.262390 0.098152 0.754452 0.648975 0.000000
48.790901 48.710499 -726.793823 0.050258 0.997677 -0.045981 1.000000
48.787498 131.413498 -739.724915 0.687578 0.095293 0.719831 0.000000
48.781502 49.180698 -726.266479 0.069917 0.809034 0.583589 1.000000
48.777000 93.331802 -743.789612 0.343952 0.689533 -0.637370 0.000000
48.776199 57.020599 -721.702087 -0.614948 0.706293 -0.350700 1.000000
48.775600 92.524002 -762.319885 -0.100157 0.567555 0.817221 0.000000
48.773998 72.675598 -743.139893 -0.444907 0.814866 -0.371553 0.000000
48.773800 123.491096 -740.338318 -0.202496 0.237831 -0.949964 0.000000
48.771400 73.587799 -744.938904 -0.766512 0.568908 0.297999 0.000000
48.764099 100.608704 -742.702515 -0.594747 0.129035 -0.793490 0.000000
48.759201 100.440903 -768.336182 -0.155142 0.276558 0.948392 0.000000
48.758301 46.979301 -729.262024 -0.388085 0.825274 -0.410261 1.000000
48.757702 73.430801 -743.614014 -0.976349 0.107932 0.187330 0.000000
48.757000 111.290604 -741.746216 -0.231834 0.207430 -0.950382 0.000000
48.756802 107.619698 -742.028320 -0.479252 0.134654 -0.867287 0.000000
48.753101 122.485703 -740.446228 -0.285034 0.123294 -0.950555 0.000000
48.752701 92.954399 -744.158020 0.657312 0.573257 -0.489201 0.000000
48.752499 76.844704 -749.104187 -0.613357 0.777516 0.138789 0.000000
48.751999 101.967300 -742.631714 -0.525654 0.051589 -0.849133 0.000000
48.748199 94.363098 -744.849304 -0.613176 0.787552 -0.061460 0.000000
48.743900 47.680901 -728.059082 -0.367583 0.726997 -0.579964 1.000000
48.740700 88.504601 -758.872070 -0.046572 0.594143 0.803010 0.000000
48.728802 96.214401 -746.266174 -0.235835 0.588807 0.773103 0.000000
48.722801 77.373596 -749.959595 0.949512 0.068468 -0.306169 0.000000
48.718102 112.478798 -741.606812 -0.121165 0.123564 -0.984912 0.000000
48.715199 85.299698 -756.429810 0.043745 0.616669 0.786006 0.000000
48.712399 96.917503 -766.475098 -0.238907 0.425225 0.872988 0.000000
48.711300 74.224899 -746.079712 0.504668 0.672332 -0.541554 0.000000
48.706001 93.695503 -744.191895 -0.280633 0.919613 -0.274876 0.000000
48.705601 98.570999 -767.431824 -0.142518 0.515711 0.844826 0.000000
48.704102 73.330399 -744.434387 -0.960538 0.274261 0.046336 0.000000
48.701401 99.562103 -767.898499 -0.150026 0.470470 0.869569 0.000000
48.695202 87.522003 -758.115417 0.009649 0.602395 0.798139 0.000000
48.693600 91.893997 -761.772522 0.046436 0.396694 0.916775 0.000000
48.693401 119.653000 -740.814575 -0.313583 0.164389 -0.935223 0.000000
48.688801 106.787201 -742.101685 -0.431117 0.135169 -0.892114 0.000000
48.688599 94.420197 -743.175476 -0.855158 0.380243 -0.352307 0.000000
48.687901 49.794201 -726.025024 -0.614940 0.696932 -0.368964 1.000000
48.686100 93.908997 -745.876282 -0.341118 0.308058 0.888110 0.000000
48.684399 129.911606 -739.776184 0.839653 0.012248 0.542985 0.000000
48.681702 125.558403 -739.968689 0.489476 0.398411 0.775681 0.000000
48.680599 102.774002 -742.501526 -0.521154 0.051420 -0.851912 0.000000
48.680302 72.020302 -742.535400 -0.564885 0.752641 0.338284 0.000000
48.669102 101.216400 -768.660522 0.044001 0.762216 0.645826 0.000000
48.667301 73.893204 -745.575928 -0.942783 0.205073 0.262878 0.000000
48.663101 56.329399 -721.661621 0.495868 0.113547 0.860942 1.000000
48.661598 80.135101 -752.993286 -0.164225 0.577046 0.800030 0.000000
48.659401 94.545998 -764.429016 -0.036280 0.994963 -0.093450 0.000000
48.657501 78.487801 -751.731812 0.738415 0.152515 -0.656873 0.000000
48.653301 97.662697 -766.940918 -0.157200 0.428335 0.889841 0.000000
48.652199 93.749001 -743.461487 -0.951195 0.170865 -0.256971 0.000000
48.647598 46.045200 -730.555725 -0.710724 0.592543 -0.379162 1.000000
48.646599 95.975800 -742.980713 -0.669398 0.095210 -0.736778 0.000000
48.643600 75.125298 -747.252625 0.018501 0.958372 -0.284921 0.000000
48.643600 120.905800 -740.626526 -0.264644 0.193341 -0.944766 0.000000
48.642200 81.768799 -753.976318 0.037012 0.322895 0.945711 0.000000
48.639801 90.299103 -760.372498 0.104379 0.648325 0.754175 0.000000
48.639099 84.207199 -755.799622 0.759898 0.629457 -0.162294 0.000000
48.639099 98.908897 -742.677490 0.599610 0.023650 0.799943 0.000000
48.639000 97.541702 -742.927002 -0.588244 0.138498 -0.796735 0.000000
48.636398 103.313599 -742.360229 -0.446723 0.216638 -0.868047 0.000000
48.634300 57.029900 -722.274475 -0.050231 0.944084 0.325857 1.000000
48.633202 95.348503 -765.189026 -0.070797 0.723865 0.686299 0.000000
48.629002 114.082901 -741.430176 -0.108987 0.201689 -0.973367 0.000000
48.621498 116.141899 -741.179016 -0.158319 0.318016 -0.934773 0.000000
48.621101 94.011299 -763.890686 -0.179632 0.707779 0.683214 0.000000
48.620701 123.994904 -740.184998 -0.179050 0.249055 -0.951794 0.000000
48.617001 76.172897 -748.561584 0.555785 0.630115 -0.542271 0.000000
48.610600 49.805199 -725.459595 0.663018 0.639871 0.388552 1.000000
48.609200 121.345100 -740.185181 0.118960 0.260143 -0.958214 0.000000
48.604698 70.777298 -741.812317 -0.546063 0.670397 0.502378 0.000000
48.603699 40.987099 -732.390991 -0.173920 0.257510 -0.950495 1.000000
48.603600 92.307503 -744.062378 0.663631 0.566187 -0.488903 0.000000
48.601700 93.569397 -744.729187 -0.643633 0.763511 -0.052804 0.000000
48.601002 126.147697 -739.601013 -0.247791 0.045613 -0.967739 0.000000
48.598202 96.529503 -766.147522 -0.202830 0.550538 0.809795 0.000000
48.595600 101.204597 -742.501770 -0.486415 0.050984 -0.872239 0.000000
48.593201 94.200302 -745.380981 -0.436871 0.883903 -0.166911 0.000000
48.591702 45.419498 -731.122620 -0.678864 0.409974 -0.609152 1.000000
48.588100 96.655197 -742.905029 -0.623583 0.158538 -0.765513 0.000000
48.586899 81.043602 -753.591980 0.126500 0.510363 0.850604 0.000000
48.586300 102.912804 -769.262329 0.732241 0.070769 -0.677359 0.000000
48.583000 90.732399 -760.661011 0.135853 0.628505 0.765850 0.000000
48.582199 124.572197 -740.082214 -0.247526 0.071619 -0.966231 0.000000
48.577900 94.957001 -743.064880 -0.761545 0.158971 -0.628313 0.000000
48.575901 51.079601 -724.276306 0.083073 0.671870 -0.735996 1.000000
48.572800 109.643303 -741.718079 -0.003257 0.114005 0.993475 0.000000
48.572399 41.959599 -732.094177 -0.452858 0.171470 -0.874939 1.000000
48.565201 50.533699 -725.193909 -0.226876 0.705664 -0.671241 1.000000
48.564800 102.357597 -769.005920 0.241046 0.456319 0.856545 0.000000
48.560501 99.718002 -742.651978 0.497074 0.039711 0.866799 0.000000
48.558601 74.620201 -747.017883 -0.361174 0.813040 -0.456639 0.000000
48.554699 44.658199 -731.421875 -0.517221 0.273455 -0.810990 1.000000
48.554100 127.685699 -739.707397 0.382667 0.011596 0.923813 0.000000
48.553001 72.790901 -743.761108 -0.995231 0.082660 0.051800 0.000000
48.552502 108.230003 -741.921509 0.300439 0.133379 0.944429 0.000000
48.549702 117.754898 -740.994019 -0.267823 0.231365 -0.935276 0.000000
48.548599 114.900597 -741.273071 -0.275940 0.185333 -0.943138 0.000000
48.548500 76.239601 -749.093079 -0.867797 0.485909 0.104022 0.000000
48.548500 42.759602 -731.872009 -0.336973 0.216523 -0.916279 1.000000
48.548401 129.319504 -739.675293 -0.667308 0.431004 -0.607400 0.000000
48.544201 43.393700 -731.742615 0.498879 0.125804 0.857493 1.000000
48.542000 112.993103 -741.515686 -0.204703 0.234528 -0.950312 0.000000
48.539700 92.841499 -743.686401 -0.980579 0.164855 -0.106240 0.000000
48.538101 118.750099 -740.878418 0.023857 0.040454 0.998897 0.000000
48.536999 47.306801 -728.543213 -0.280891 0.805010 -0.522551 1.000000
48.533600 52.314499 -723.744019 0.777295 0.444867 0.444867 1.000000
48.533501 73.215202 -745.252625 -0.863713 0.493754 0.101027 0.000000
48.530399 111.821701 -741.626709 0.258997 0.144772 0.954967 0.000000
48.528000 78.071999 -751.431213 -0.588866 0.511251 0.625987 0.000000
48.526600 110.555397 -741.774109 0.074351 0.396090 0.915197 0.000000
48.524899 39.631802 -732.679688 -0.904787 0.409741 0.116070 1.000000
48.521999 82.652901 -754.605774 0.160511 0.387783 0.907668 0.000000
48.521900 106.035400 -742.014526 0.265537 0.221049 0.938417 0.000000
48.519798 128.400497 -739.617615 -0.495107 0.059635 -0.866783 0.000000
48.515900 89.367996 -759.515015 0.232078 0.465672 0.853985 0.000000
48.514702 54.006401 -722.549316 0.165958 0.741480 -0.650127 1.000000
48.514599 75.297600 -747.913513 0.572347 0.144202 -0.807233 0.000000
48.512001 72.869202 -744.668274 -0.967806 0.066015 0.242886 0.000000
48.511600 92.831100 -762.673584 -0.026287 0.825971 0.563099 0.000000
48.508900 76.138496 -749.650574 0.193750 0.966149 -0.170344 0.000000
48.507000 78.807602 -752.303223 -0.111556 0.939486 -0.323914 0.000000
48.506302 95.701302 -746.282104 -0.630805 0.129740 0.765018 0.000000
48.504200 94.911598 -746.046570 0.769872 0.067634 -0.634605 0.000000
48.504002 116.854897 -741.049500 -0.225074 0.034905 -0.973716 0.000000
48.503201 76.888298 -751.071594 0.059654 0.869838 0.489717 0.000000
48.501400 86.656998 -757.394287 0.209813 0.890605 -0.403487 0.000000
48.493500 84.827202 -756.088501 0.358689 0.660054 0.660054 0.000000
48.487701 132.345001 -739.432312 0.557725 0.305231 -0.771866 0.000000
48.485901 93.205902 -743.282471 -0.293691 0.656391 -0.694908 0.000000
48.483200 130.594498 -739.574829 0.821199 0.049132 0.568523 0.000000
48.482899 50.906300 -724.806274 -0.230898 0.683271 -0.692695 1.000000
48.482700 46.364899 -729.961670 -0.670510 0.576872 -0.466514 1.000000
48.481300 91.735001 -743.895386 0.934085 0.350117 -0.070023 0.000000
48.477299 44.070900 -731.657715 -0.507840 0.210716 -0.835283 1.000000
48.476601 77.152901 -750.548218 -0.324423 0.941489 -0.091368 0.000000
48.476501 85.883202 -756.792725 0.141197 0.484727 0.863193 0.000000
48.475300 92.955200 -744.641174 0.609304 0.716541 -0.339585 0.000000
48.474201 55.460999 -721.547974 0.159204 0.750535 -0.641366 1.000000
48.471298 108.933899 -741.844116 0.308109 0.142517 0.940615 0.000000
48.471001 131.827606 -739.546814 -0.188225 0.829696 0.525524 0.000000
48.470299 98.412003 -742.651978 -0.567744 0.078655 -0.819439 0.000000
48.469601 72.191597 -743.148315 0.233989 0.727094 -0.645433 0.000000
48.469101 83.265404 -754.982117 0.046751 0.412747 0.909645 0.000000
48.462601 70.253601 -741.583130 0.705822 0.583501 0.401674 0.000000
48.459999 48.019798 -727.555481 -0.136321 0.735535 -0.663630 1.000000
48.455200 79.672997 -752.667725 0.167558 0.578150 0.798541 0.000000
48.448002 76.758003 -749.952271 0.615801 0.247266 -0.748096 0.000000
48.448002 105.112900 -742.062683 -0.527394 0.042911 -0.848537 0.000000
48.447701 126.634598 -739.872681 -0.503875 0.428376 -0.750069 0.000000
48.447399 99.955101 -768.170593 -0.100469 0.283140 0.953802 0.000000
48.446499 76.016899 -750.208374 0.853258 0.435085 -0.287494 0.000000
48.443298 122.919502 -740.321228 0.182844 0.157272 0.970481 0.000000
48.439602 93.394600 -745.261719 -0.643533 0.763393 -0.055649 0.000000
48.437099 73.557899 -746.016479 -0.789680 0.577252 0.207811 0.000000
48.430698 73.873596 -746.452576 -0.851667 0.523998 0.009478 0.000000
48.425900 72.266998 -743.912781 0.889502 0.229406 -0.395170 0.000000
48.422699 92.357399 -743.454285 -0.978441 0.107345 -0.176440 0.000000
48.418800 104.306198 -742.194580 -0.473389 0.137529 -0.870051 0.000000
48.418301 99.136200 -767.736084 -0.184288 0.364291 0.912869 0.000000
48.412201 77.466003 -751.023376 0.612809 0.669274 -0.420164 0.000000
48.410801 40.180500 -732.481201 0.160265 0.135418 0.977741 1.000000
48.410702 107.208603 -741.917725 0.413000 0.009120 0.910685 0.000000
48.407799 91.180298 -761.074280 0.150191 0.557639 0.816383 0.000000
48.404598 122.354797 -740.039124 0.302766 0.945644 -0.118706 0.000000
48.404301 83.965202 -755.390320 0.104108 0.626117 0.772748 0.000000
48.400101 118.239601 -740.876526 -0.071047 0.376684 -0.923613 0.000000
48.398998 121.921799 -740.328918 -0.171710 0.205790 -0.963414 0.000000
48.398300 102.221802 -742.304810 -0.568080 0.137941 -0.811331 0.000000
48.398201 87.091698 -757.669922 0.272204 0.622407 0.733836 0.000000
48.396500 52.890400 -723.188477 0.158895 0.749076 -0.643146 1.000000
48.393501 120.304001 -740.458374 -0.733994 0.657695 -0.169383 0.000000
48.391602 71.307198 -742.560608 0.633643 0.325735 -0.701707 0.000000
48.389301 100.800301 -768.813110 0.694352 0.265347 -0.668929 0.000000
48.389301 94.807503 -764.821899 -0.258887 0.675012 0.690895 0.000000
48.385101 131.058304 -739.812378 0.763410 0.049757 -0.643994 0.000000
48.380699 92.127098 -745.429871 0.751398 0.179050 0.635092 0.000000
48.378700 49.102001 -726.688477 -0.026741 0.685427 -0.727650 1.000000
48.377998 90.949799 -743.773071 -0.058722 0.746199 -0.663128 0.000000
48.377899 92.419098 -744.550781 -0.926553 0.349356 0.139466 0.000000
48.377602 93.485199 -742.846680 -0.783405 0.001372 -0.621510 0.000000
48.375099 75.686501 -748.574524 -0.407305 0.912096 -0.046740 0.000000
48.374100 95.694397 -765.602600 -0.095077 0.936043 0.338797 0.000000
48.372200 46.580200 -729.489624 -0.518833 0.699006 -0.492141 1.000000
48.371201 80.601898 -753.274170 0.161558 0.611504 0.774572 0.000000
48.369400 95.509399 -742.816223 -0.689733 0.061918 -0.721412 0.000000
48.366600 87.922997 -758.341125 0.226341 0.738339 0.635315 0.000000
48.364300 101.618500 -768.824890 0.222624 0.431802 0.874063 0.000000
48.352299 56.961300 -721.390198 -0.296136 0.903141 -0.310869 1.000000
48.350601 91.619698 -761.436707 0.070470 0.772289 0.631350 0.000000
48.344898 48.352600 -727.156677 -0.032436 0.689609 -0.723455 1.000000
48.341900 94.141197 -742.842285 -0.795142 0.160832 -0.584707 0.000000
48.337101 51.577301 -723.881775 -0.154854 0.511755 -0.845060 1.000000
48.334999 127.103203 -739.651917 -0.393675 0.779249 0.487638 0.000000
48.334202 46.992199 -728.911682 -0.429082 0.768432 -0.474764 1.000000
48.333900 41.333900 -732.061279 -0.620425 0.178353 -0.763717 1.000000
48.333900 45.569901 -730.677490 -0.581689 0.467698 -0.665505 1.000000
48.333099 72.709503 -745.193726 -0.911328 0.266837 0.313497 0.000000
48.323799 91.234299 -743.068909 0.795668 0.559915 -0.231101 0.000000
48.320499 103.729103 -742.142273 -0.347717 0.048185 -0.936361 0.000000
48.319401 100.429604 -742.477295 -0.530326 0.063302 -0.845427 0.000000
48.319199 93.412804 -745.794617 -0.371804 0.574904 0.728867 0.000000
48.317799 97.091797 -742.655212 0.581409 0.046456 0.812284 0.000000
48.314800 92.318001 -762.163818 -0.058749 0.760871 0.646239 0.000000
48.312199 88.816002 -759.029297 0.233860 0.638799 0.732970 0.000000
48.311199 115.646896 -741.182312 0.245027 0.022934 0.969245 0.000000
48.308800 56.271000 -721.239929 -0.074385 0.149950 0.985891 1.000000
48.307999 96.131798 -765.960571 -0.297576 0.635364 0.712573 0.000000
48.307098 91.726799 -743.380615 -0.901582 0.366770 -0.229414 0.000000
48.306400 97.159500 -766.713196 -0.240710 0.554410 0.796673 0.000000
48.305000 113.491501 -741.401428 -0.162477 0.175270 -0.971021 0.000000
48.302700 94.334503 -746.154297 -0.437189 0.280721 0.854436 0.000000
48.296101 129.729202 -739.375977 0.475485 0.031157 0.879172 0.000000
48.295300 42.311501 -731.789307 -0.400246 0.196484 -0.895096 1.000000
48.293701 93.193604 -763.098389 -0.079576 0.768270 0.635161 0.000000
48.293301 128.835693 -739.439087 -0.633647 0.475656 -0.610117 0.000000
48.291698 82.267998 -754.219910 0.144548 0.573723 0.806193 0.000000
48.288700 92.687103 -743.032227 -0.882013 0.082210 -0.463998 0.000000
48.285500 89.831703 -759.820618 0.185324 0.632553 0.752018 0.000000
48.285400 92.751503 -745.172119 0.648450 0.470839 -0.598183 0.000000
48.283501 98.250397 -767.377686 -0.293426 0.365654 0.883288 0.000000
48.283401 111.045601 -741.499023 -0.103258 0.395134 0.912802 0.000000
48.282600 110.121300 -741.559326 -0.220917 0.347980 -0.911101 0.000000
48.276798 119.304703 -740.699585 -0.053426 0.021999 -0.998329 0.000000
48.272598 107.735100 -741.848694 -0.371197 0.099258 -0.923234 0.000000
48.269001 101.704597 -742.371521 -0.448721 0.019973 -0.893448 0.000000
48.265400 114.401299 -741.133118 -0.209694 0.027248 -0.977387 0.000000
48.265202 72.159302 -744.438171 0.960482 0.173072 -0.217991 0.000000
48.261398 76.147301 -750.682373 0.927177 0.334231 0.169213 0.000000
48.260300 96.143600 -746.495972 -0.150320 0.057098 -0.986987 0.000000
48.258801 91.428497 -744.308105 0.851128 0.271441 -0.449334 0.000000
48.254200 112.492897 -741.349976 -0.219601 0.230513 -0.947966 0.000000
48.254002 72.991096 -745.721313 -0.878519 0.266720 0.396313 0.000000
48.251900 131.016800 -739.271729 -0.780203 0.588628 -0.211659 0.000000
48.251301 106.515900 -741.934814 0.444491 0.017249 0.895617 0.000000
48.250301 97.666199 -742.535583 -0.577176 0.091133 -0.811518 0.000000
48.250000 94.664101 -742.780579 -0.732733 0.117416 -0.670310 0.000000
48.248600 123.394402 -740.146912 0.440129 0.767362 -0.466307 0.000000
48.248402 44.861401 -731.008118 -0.600139 0.307310 -0.738508 1.000000
48.245098 93.613197 -763.540222 -0.091965 0.754698 0.649595 0.000000
48.243900 125.277397 -739.897705 -0.157314 0.267569 -0.950610 0.000000
48.243198 103.023102 -742.148315 0.433910 0.017145 0.900793 0.000000
48.242401 74.876099 -747.614624 0.111622 0.839343 -0.532019 0.000000
48.241600 71.686699 -743.498230 0.989239 0.007807 -0.146100 0.000000
48.239601 45.933800 -730.167725 -0.529764 0.667670 -0.523036 1.000000
48.239201 99.219902 -742.437317 -0.606834 0.061397 -0.792454 0.000000
48.238098 88.384201 -758.690430 0.205975 0.627218 0.751113 0.000000
48.236698 86.324402 -757.040527 0.259421 0.815545 0.517288 0.000000
48.236599 95.332901 -746.565796 -0.967819 0.053150 0.245972 0.000000
48.235699 57.077599 -721.912781 -0.284400 0.941130 0.182730 1.000000
48.232899 96.099998 -742.634827 -0.687238 0.015334 -0.726270 0.000000
48.225498 125.824303 -739.811523 -0.287286 0.078585 -0.954616 0.000000
48.218800 47.590302 -728.036011 -0.298145 0.773263 -0.559619 1.000000
48.217201 100.174698 -768.631226 -0.627039 0.188572 -0.755819 0.000000
48.214500 91.835999 -744.646484 -0.644685 0.760583 -0.076783 0.000000
48.212200 69.519798 -741.255920 -0.192866 0.927728 -0.319567 0.000000
48.210201 74.977600 -748.301819 -0.690734 0.721938 -0.041132 0.000000
48.205502 121.173798 -740.470703 -0.121015 0.451315 -0.884121 0.000000
48.204498 85.406700 -756.440613 0.146206 0.712942 0.685811 0.000000
48.203999 90.707298 -742.970215 -0.983731 0.152544 -0.094890 0.000000
48.202400 74.268204 -747.307617 -0.607086 0.794096 0.029308 0.000000
48.200401 49.434502 -726.218689 -0.247639 0.711372 -0.657743 1.000000
48.198502 133.038605 -739.287292 -0.467974 0.425579 0.774521 0.000000
48.196400 72.188797 -745.025879 -0.966626 0.235607 -0.100611 0.000000
48.188000 54.421001 -722.836426 -0.266491 0.105297 0.958068 1.000000
48.184898 91.343300 -745.318115 -0.926552 0.048766 0.372993 0.000000
48.184799 43.044399 -731.586121 -0.534857 0.216088 -0.816844 1.000000
48.172199 74.877800 -748.861328 -0.665605 0.741341 -0.085931 0.000000
48.168800 96.638100 -766.422119 -0.366230 0.462186 0.807626 0.000000
48.167599 70.608704 -742.132507 0.556922 0.447200 -0.699893 0.000000
48.164101 81.349098 -753.652527 0.080455 0.407730 0.909551 0.000000
48.164101 92.101898 -742.973022 0.897629 0.022607 0.440171 0.000000
48.161999 92.778801 -745.704407 -0.657008 0.326071 0.679719 0.000000
48.159801 124.271698 -740.009583 -0.374135 0.301428 -0.877020 0.000000
48.159401 90.016701 -743.755310 0.863970 0.500631 -0.054085 0.000000
48.157200 109.339302 -741.599426 -0.358274 0.757077 0.546328 0.000000
48.153801 49.776798 -725.763611 -0.394937 0.665939 -0.632890 1.000000
48.146099 75.345001 -749.212891 -0.625863 0.779922 -0.004127 0.000000
48.145199 39.151798 -732.754578 0.088290 0.600663 -0.794612 1.000000
48.144901 57.030998 -722.466309 0.079586 0.990787 0.109575 1.000000
48.144100 79.273903 -752.459900 0.131353 0.571165 0.810257 0.000000
48.140999 71.033203 -742.941528 0.666593 0.485253 -0.565848 0.000000
48.139900 84.355598 -755.672913 0.162322 0.897800 0.409397 0.000000
48.139599 94.138199 -764.202515 -0.205788 0.741146 0.639026 0.000000
48.137100 116.376701 -741.058105 -0.135693 0.163080 -0.977237 0.000000
48.137001 40.647999 -732.273010 0.482122 0.205765 0.851598 1.000000
48.136101 130.311401 -739.234375 -0.241720 0.781300 0.575449 0.000000
48.135502 128.005600 -739.475281 -0.068685 0.511631 0.856456 0.000000
48.133900 90.428001 -760.368713 0.142159 0.606046 0.782623 0.000000
48.133301 91.963600 -761.787109 0.025925 0.855515 0.517129 0.000000
48.132401 90.641602 -744.206787 0.289550 0.859456 -0.421302 0.000000
48.131599 44.366199 -731.270996 -0.571596 0.294555 -0.765843 1.000000
48.130199 75.778900 -749.543884 -0.483912 0.874816 -0.022915 0.000000
48.129299 97.727898 -767.096375 -0.298676 0.513596 0.804370 0.000000
48.128899 77.540802 -751.468384 0.043356 0.374437 -0.926238 0.000000
48.122200 78.451500 -751.854614 -0.067739 0.673062 0.736477 0.000000
48.118698 101.125397 -742.249817 -0.435117 0.126141 -0.891494 0.000000
48.115898 43.572399 -731.479370 -0.358934 0.190192 -0.913780 1.000000
48.112999 131.557602 -739.282227 -0.820331 0.293311 -0.490944 0.000000
48.108799 99.533699 -767.973083 -0.118502 0.299583 0.946682 0.000000
48.108299 105.728203 -741.812317 0.377046 0.051596 0.924756 0.000000
48.107300 98.716904 -767.667786 -0.357880 0.459677 0.812785 0.000000
48.107101 97.271698 -742.184082 -0.585605 0.184047 0.789426 0.000000
48.105000 108.439301 -741.755676 -0.344364 0.188479 -0.919722 0.000000
48.101898 81.793297 -753.947693 0.136002 0.519146 0.843795 0.000000
48.100399 87.466904 -757.884094 0.215909 0.613553 0.759563 0.000000
48.099400 71.522102 -744.050415 -0.958981 0.208244 0.192327 0.000000
48.098999 83.615799 -755.117310 0.021826 0.358205 0.933388 0.000000
48.098099 74.714500 -749.686829 -0.667044 0.740025 -0.086117 0.000000
48.097401 52.160099 -723.489014 0.158895 0.749076 -0.643146 1.000000
48.096001 80.136803 -752.863892 0.097620 0.607573 0.788242 0.000000
48.093601 73.464699 -746.542175 0.793010 0.158000 -0.588363 0.000000
48.092800 51.236801 -724.392517 -0.187768 0.584677 -0.789237 1.000000
48.090801 70.696800 -741.568970 -0.745927 0.429772 0.508811 0.000000
48.085300 53.725800 -722.983826 0.169200 0.745396 -0.644791 1.000000
48.077400 117.506599 -740.971313 -0.133911 0.068702 -0.988609 0.000000
48.074200 89.517899 -742.711426 0.581550 0.796044 -0.167668 0.000000
48.069099 98.194702 -742.400085 -0.581412 0.034857 -0.812862 0.000000
48.068802 95.055496 -765.155396 -0.272685 0.715997 0.642644 0.000000
48.068401 50.342800 -725.146301 -0.390741 0.690803 -0.608369 1.000000
48.066101 133.787796 -739.222778 0.073532 0.292836 -0.953331 0.000000
48.061600 82.976601 -754.688721 0.133293 0.531706 0.836374 0.000000
48.060001 115.119102 -741.204895 0.167514 0.028882 0.985447 0.000000
48.058701 91.212502 -744.763306 0.799170 0.240527 -0.550884 0.000000
48.058399 41.735199 -731.838623 0.435798 0.066941 0.897552 1.000000
48.057598 76.426498 -750.232483 -0.780180 0.314306 0.540861 0.000000
48.056400 93.054802 -742.646301 -0.812411 0.060966 -0.579889 0.000000
48.056400 46.165501 -729.726624 -0.573366 0.610576 -0.546305 1.000000
48.055500 132.090195 -739.718079 -0.799053 0.488399 0.350687 0.000000
48.052799 113.941200 -741.298401 -0.098349 0.126787 -0.987042 0.000000
48.048901 132.115402 -739.145325 0.650031 0.340492 0.679356 0.000000
48.047401 71.726700 -744.688782 -0.754108 0.647854 0.107730 0.000000
48.046200 104.595200 -741.969421 -0.377990 0.284622 -0.880973 0.000000
48.046001 71.191597 -743.627686 0.896806 0.342417 -0.280159 0.000000
48.039902 101.208397 -768.554688 -0.129076 0.426943 0.895019 0.000000
48.033199 90.112000 -743.230713 -0.976382 0.143769 -0.161272 0.000000
48.030499 77.110901 -750.884888 -0.374710 0.737966 0.561247 0.000000
48.030102 111.700600 -741.484070 -0.192597 0.144129 -0.970636 0.000000
48.029499 93.899002 -742.488098 -0.819226 0.179536 -0.544642 0.000000
48.020699 89.448196 -743.401184 -0.991267 0.055766 -0.119498 0.000000
48.020401 100.618896 -768.372314 0.093833 0.014021 0.995489 0.000000
48.016102 129.323196 -739.065674 0.453645 0.386320 0.803096 0.000000
48.015400 47.169899 -728.355103 -0.340868 0.764126 -0.547650 1.000000
48.015301 75.750702 -750.335205 0.302946 0.597877 0.742137 0.000000
48.009399 90.353500 -742.632874 -0.098088 0.642696 -0.759816 0.000000
48.006401 39.668201 -732.500916 -0.091517 0.327605 -0.940372 1.000000
48.003201 91.378502 -742.632874 0.865440 0.168974 0.471658 0.000000
48.001701 126.361603 -739.771729 -0.372037 0.893779 -0.250495 0.000000
47.999298 72.534401 -745.560730 -0.782358 0.403327 0.474598 0.000000
47.997700 72.938797 -746.176208 -0.721467 0.570271 0.392780 0.000000
47.997501 48.739601 -726.739380 -0.082206 0.803309 -0.589862 1.000000
47.997299 96.655098 -742.392395 0.554758 0.075584 0.828572 0.000000
47.996799 90.541199 -745.231384 -0.745780 0.179171 0.641646 0.000000
47.996300 74.324997 -747.836426 0.896990 0.027989 -0.441164 0.000000
47.996201 124.778603 -739.882690 -0.341633 0.118414 -0.932344 0.000000
47.995800 118.553902 -740.784973 -0.041757 0.003055 -0.999123 0.000000
47.994499 86.776604 -757.390076 0.126804 0.334053 0.933986 0.000000
47.994301 46.616699 -729.056824 -0.456057 0.718082 -0.525709 1.000000
47.990101 89.014000 -743.778076 -0.219966 0.638058 -0.737900 0.000000
47.988701 95.694504 -742.419373 0.641240 0.023750 0.766973 0.000000
47.988602 104.058403 -741.909302 -0.394579 0.311671 -0.864389 0.000000
47.985901 94.521202 -764.656372 -0.251159 0.658700 0.709248 0.000000
47.984501 92.474403 -742.526184 -0.843323 0.040158 -0.535905 0.000000
47.984402 92.783203 -762.669373 -0.006910 0.648154 0.761478 0.000000
47.984299 106.932404 -741.746887 -0.330793 0.091666 -0.939241 0.000000
47.984200 50.702999 -724.733215 -0.303570 0.615172 -0.727605 1.000000
47.984100 90.825401 -760.676270 0.061853 0.668875 0.740797 0.000000
47.983898 45.121300 -730.614075 -0.665999 0.315985 -0.675721 1.000000
47.979698 53.251999 -723.241211 0.359177 0.180298 -0.915688 1.000000
47.974701 70.046600 -741.964111 -0.798453 0.582736 0.151302 0.000000
47.973801 84.877197 -756.007080 0.209017 0.630146 0.747815 0.000000
47.968399 85.989197 -756.726929 0.158469 0.620292 0.768196 0.000000
47.966400 100.109398 -742.165527 0.527454 0.040147 0.848634 0.000000
47.966202 89.367104 -759.411072 0.146081 0.357551 0.922398 0.000000
47.964600 57.082001 -722.995972 -0.417224 0.784121 -0.459433 1.000000
47.961201 75.133698 -750.031616 0.779603 0.565409 -0.269317 0.000000
47.959599 94.974503 -742.388977 0.770716 0.018118 0.636921 0.000000
47.957600 89.636597 -744.069519 -0.937099 0.294833 0.186866 0.000000
47.956299 110.534302 -741.584595 -0.121771 0.051212 -0.991236 0.000000
47.953999 116.895103 -741.028870 -0.045883 0.050151 -0.997687 0.000000
47.952000 55.886501 -721.466492 0.960065 0.113025 -0.255931 1.000000
47.950199 88.747002 -742.339417 0.997429 0.011610 -0.070717 0.000000
47.949799 88.456001 -743.642883 0.105664 0.548585 -0.829391 0.000000
47.949200 98.773598 -742.332214 -0.572215 0.057928 -0.818055 0.000000
47.939899 120.029404 -740.632019 0.032029 0.027896 0.999098 0.000000
47.938202 93.599602 -746.180786 0.547392 0.012286 -0.836786 0.000000
47.935600 94.546700 -746.458801 -0.491919 0.065496 0.868174 0.000000
47.935101 73.919197 -748.192322 0.557665 0.821128 -0.121486 0.000000
47.930698 90.042702 -745.044312 -0.747070 0.133245 0.651254 0.000000
47.928001 122.907700 -740.122314 -0.169110 0.158938 -0.972698 0.000000
47.923698 100.024300 -768.133423 0.107394 0.146007 0.983437 0.000000
47.922699 73.828300 -747.385803 -0.912300 0.115253 0.392970 0.000000
47.921101 88.885399 -743.270203 0.883633 0.463251 -0.067759 0.000000
47.920200 91.825798 -745.454102 0.373334 0.382706 -0.845078 0.000000
47.918499 122.372597 -740.298218 -0.023371 0.276757 0.960656 0.000000
47.918400 47.997700 -727.442505 -0.189294 0.675609 -0.712545 1.000000
47.917702 56.672199 -721.724670 0.076982 0.919737 -0.384912 1.000000
47.916801 91.362198 -761.213013 0.023723 0.632147 0.774485 0.000000
47.915100 54.735802 -723.319824 0.343023 0.260580 0.902460 1.000000
47.913898 45.528702 -730.270325 -0.661437 0.516695 -0.543624 1.000000
47.911999 120.694199 -740.536011 -0.099508 0.372131 -0.922831 0.000000
47.901901 87.855499 -743.427185 0.619534 0.514872 -0.592524 0.000000
47.897598 95.730797 -765.853210 -0.462994 0.579996 0.670255 0.000000
47.895802 102.281197 -742.117004 0.492925 0.086156 0.865796 0.000000
47.894001 90.391998 -744.660706 0.630137 0.552426 -0.545668 0.000000
47.891102 105.096199 -741.854614 -0.234394 0.010708 -0.972083 0.000000
47.889099 106.250298 -741.667114 -0.292626 0.749953 0.593246 0.000000
47.888100 88.132599 -758.328979 0.268417 0.614658 0.741719 0.000000
47.887798 99.524300 -742.180725 0.495948 0.036889 0.867568 0.000000
47.887199 70.976601 -744.154297 0.945619 0.039560 -0.322863 0.000000
47.885601 121.741501 -740.367310 -0.125610 0.065686 -0.989903 0.000000
47.883598 99.055099 -768.204712 -0.955033 0.286638 -0.075837 0.000000
47.880501 70.442802 -742.537781 -0.896678 0.190381 0.399654 0.000000
47.871399 103.397797 -741.943604 0.416891 0.019727 0.908743 0.000000
47.866100 41.096298 -732.077026 -0.390535 0.255868 -0.884315 1.000000
47.864498 69.457199 -741.668518 0.884816 0.114672 -0.451610 0.000000
47.863701 68.729500 -740.798828 -0.457324 0.286796 0.841786 0.000000
47.856800 51.757401 -724.107300 0.351032 0.492086 -0.796635 1.000000
47.855701 73.281197 -747.064575 -0.908575 0.157335 0.386959 0.000000
47.854401 109.808601 -741.589111 -0.183739 0.099885 -0.977887 0.000000
47.853001 97.260597 -767.001404 -0.315996 0.556602 0.768336 0.000000
47.852901 112.863800 -741.371521 -0.031453 0.303209 -0.952405 0.000000
47.851898 74.239197 -748.622375 -0.622638 0.780086 -0.061548 0.000000
47.851799 80.669098 -753.171814 0.035738 0.964939 0.260028 0.000000
47.849400 130.711594 -739.018372 0.099771 0.559583 0.822747 0.000000
47.846699 88.045097 -742.257385 -0.698176 0.672960 -0.244283 0.000000
47.846001 92.331802 -745.761414 -0.568081 0.147611 0.809627 0.000000
47.845402 73.763199 -748.832520 -0.670100 0.737256 -0.086135 0.000000
47.844299 55.720200 -722.226624 0.511375 0.833071 -0.210923 1.000000
47.841000 40.206100 -732.343018 -0.145561 0.883455 -0.445331 1.000000
47.838299 96.236099 -766.355591 -0.308558 0.644580 0.699506 0.000000
47.832100 118.079201 -740.925781 -0.147760 0.798501 0.583578 0.000000
47.831402 71.834999 -745.283020 -0.854001 0.293899 0.429309 0.000000
47.830502 74.263496 -749.437073 0.471104 0.834928 0.284528 0.000000
47.830200 91.921204 -742.376099 0.862131 0.062675 0.502794 0.000000
47.826500 128.532303 -739.444824 -0.260059 0.838653 0.478571 0.000000
47.826199 115.869904 -741.074219 -0.090111 0.027142 -0.995562 0.000000
47.823799 94.387199 -742.243713 -0.741584 0.149525 -0.653984 0.000000
47.821999 82.510101 -754.399292 0.089659 0.349269 0.932723 0.000000
47.821499 42.285198 -731.541504 -0.399431 0.193180 -0.896179 1.000000
47.818298 101.669296 -742.103210 0.444542 0.011872 0.895679 0.000000
47.818100 107.497398 -741.680603 -0.308323 0.074154 -0.948387 0.000000
47.816399 88.775200 -758.841309 0.232040 0.580879 0.780216 0.000000
47.815498 88.328003 -743.017212 -0.994386 0.027469 -0.102186 0.000000
47.814400 78.882599 -752.139221 0.176732 0.494554 0.850989 0.000000
47.812599 108.908897 -741.649780 -0.140135 0.409080 -0.901674 0.000000
47.804501 87.378998 -742.310120 -0.987583 0.143415 -0.064129 0.000000
