ply
format ascii 1.0
element vertex 688
property float x
property float y
property float z
property float nx
property float ny
property float nz
property float label
element face 0
property list uchar int vertex_indices
end_header
40.650799 94.103104 -744.441711 -0.835651 0.492191 -0.243795 0.000000
40.649700 92.519798 -745.009216 0.836399 0.006800 0.548079 0.000000
40.648499 121.346497 -745.785522 -0.614797 0.191645 0.765047 0.000000
40.648201 14.669600 -731.991516 0.997068 0.057253 -0.050772 0.000000
40.646999 114.348801 -750.213013 -0.565377 0.789659 -0.238300 0.000000
40.644901 109.551498 -764.896423 -0.910342 0.227224 0.345901 1.000000
40.644699 97.316299 -744.301025 -0.971350 0.091495 -0.219337 0.000000
40.643101 111.722900 -766.891296 -0.822172 0.555442 0.124571 1.000000
40.642502 131.244598 -808.830322 0.300870 0.952966 0.036507 1.000000
40.638901 179.364502 -748.914490 -0.886992 0.172753 0.428253 0.000000
40.638599 16.183500 -732.146729 0.997993 0.060069 0.020023 0.000000
40.638000 112.660202 -750.453186 -0.339238 0.207551 0.917518 0.000000
40.637600 165.513596 -746.865112 0.616789 0.001374 -0.787127 0.000000
40.637501 44.997299 -731.052673 0.196667 0.496921 -0.845217 1.000000
40.636700 93.039597 -744.282715 -0.999591 0.013193 -0.025370 0.000000
40.635899 86.769798 -743.979614 -0.933340 0.298053 -0.200101 0.000000
40.635101 145.841507 -747.229980 0.567510 0.187141 -0.801817 0.000000
40.633598 32.938202 -734.819702 -0.470623 0.808833 -0.352568 0.000000
40.632000 17.607599 -732.530029 0.993812 0.045629 -0.101273 0.000000
40.629501 83.929497 -745.398376 -0.335551 0.481857 0.809456 1.000000
40.629002 227.750793 -735.760925 0.948002 0.115675 0.296500 0.000000
40.628201 42.368500 -732.069580 0.159311 0.028653 0.986813 1.000000
40.627899 176.589996 -747.853027 -0.827174 0.271586 0.491959 0.000000
40.627602 122.811501 -781.500183 -0.319444 0.802584 0.503800 1.000000
40.625198 134.713699 -820.757874 -0.336712 0.926307 0.169055 1.000000
40.623901 167.951797 -746.838318 -0.622249 0.145441 0.769190 0.000000
40.622501 16.925400 -732.487610 0.989784 0.077744 -0.119517 0.000000
40.622398 90.263000 -744.603088 0.894164 0.001313 0.447738 0.000000
40.621799 113.622803 -768.223328 -0.964248 0.197560 0.176626 1.000000
40.621101 226.628494 -735.080017 0.929193 0.162505 0.331954 0.000000
40.620300 222.079803 -732.883911 0.975909 0.146574 0.161608 0.000000
40.619499 129.607895 -796.930603 -0.137300 0.556581 -0.819370 1.000000
40.618198 12.667200 -731.989380 -0.964192 0.092980 0.248372 0.000000
40.618099 9.847100 -730.941711 0.998311 0.049442 0.030507 0.000000
40.617500 147.482407 -747.245789 -0.540548 0.004064 0.841304 0.000000
40.617100 110.123299 -765.579529 -0.809072 0.525351 0.263455 1.000000
40.616299 137.587799 -824.351379 0.310657 0.448034 -0.838307 1.000000
40.615002 131.816803 -813.762817 0.145453 0.960515 0.237180 1.000000
40.613701 137.704407 -746.904785 -0.431464 0.090177 0.897612 0.000000
40.613499 114.027298 -768.890930 -0.967050 0.174768 0.185125 1.000000
40.611301 7.237200 -729.678284 -0.891106 0.266290 -0.367451 0.000000
40.610699 99.405998 -744.080017 -0.738330 0.009733 -0.674369 0.000000
40.610500 1.315900 -729.762024 0.640271 0.768047 0.012500 0.000000
40.610199 115.991600 -771.760925 -0.905628 0.315575 0.283284 1.000000
40.609200 128.661804 -752.809692 0.051231 0.998489 0.019865 0.000000
40.609100 116.521400 -772.373779 -0.874255 0.398491 0.277277 1.000000
40.606998 33.492802 -733.739319 0.552596 0.670170 -0.495489 0.000000
40.606400 222.603699 -731.660828 0.914416 0.325029 -0.241244 0.000000
40.606201 18.863400 -732.471313 0.995597 0.009645 0.093237 0.000000
40.605598 14.742800 -730.844421 0.359054 0.438140 -0.824083 0.000000
40.604599 25.608200 -733.475525 0.975959 0.097968 0.194696 0.000000
40.601200 130.868103 -803.849426 -0.141719 0.979710 0.141719 1.000000
40.600101 129.992905 -798.817871 0.038867 0.993893 0.103276 1.000000
40.599602 13.875100 -731.247009 0.964749 0.058811 0.256516 0.000000
40.598400 81.767303 -743.699585 -0.875882 0.473792 -0.091384 0.000000
40.596298 155.699295 -747.334290 -0.609203 0.037987 0.792104 0.000000
40.595001 111.063400 -766.520325 -0.735394 0.645598 0.205910 1.000000
40.594799 120.211403 -777.492493 -0.471540 0.796629 0.378197 1.000000
40.594398 11.777200 -730.538025 0.254977 0.947642 -0.192255 0.000000
40.593899 133.419800 -818.096313 -0.283543 0.841333 0.460176 1.000000
40.592300 92.671700 -746.025879 -0.715152 0.658568 0.234192 0.000000
40.591999 96.312897 -743.813599 0.955394 0.084033 0.283128 0.000000
40.591499 151.203995 -747.307922 0.646373 0.076639 -0.759163 0.000000
40.590099 15.715900 -731.089111 0.980336 0.151294 0.126693 0.000000
40.589199 132.200302 -748.971313 0.043955 0.193641 -0.980087 0.000000
40.588299 11.930200 -732.182678 -0.622518 0.142504 -0.769522 0.000000
40.585899 92.315102 -744.159119 0.990895 0.009987 0.134265 0.000000
40.584900 102.806801 -748.509888 -0.713223 0.663062 0.227291 0.000000
40.583302 125.948502 -786.895325 -0.204096 0.865547 0.457354 1.000000
40.579399 23.311199 -733.215881 -0.789635 0.500156 -0.355416 0.000000
40.578201 29.193600 -734.441589 0.962084 0.120422 -0.244729 0.000000
40.577000 224.547195 -734.336304 0.883512 0.173209 0.435206 0.000000
40.573200 85.761101 -743.919922 -0.985424 0.160910 -0.055203 0.000000
40.572899 88.617104 -745.318420 0.910058 0.157102 -0.383555 0.000000
40.572300 121.433296 -779.393372 -0.362262 0.784095 0.503946 1.000000
40.572102 20.475201 -733.276672 -0.990382 0.138321 0.003320 0.000000
40.572102 229.587097 -726.169128 0.258418 0.559122 -0.787783 0.000000
40.568401 116.154800 -750.561218 -0.462088 0.133876 0.876671 0.000000
40.567101 88.107697 -743.973511 0.888122 0.014647 0.459374 0.000000
40.566502 142.536407 -747.048523 -0.452153 0.102826 0.885994 0.000000
40.566399 180.568298 -749.374207 -0.960907 0.082947 0.264154 0.000000
40.563900 17.008900 -731.764099 0.948270 0.115384 0.295754 0.000000
40.563499 34.182800 -733.625488 -0.284648 0.850867 -0.441589 1.000000
40.561199 30.045200 -734.049622 -0.659396 0.662669 -0.355059 0.000000
40.560501 223.571701 -733.654175 0.929582 0.273073 0.247606 0.000000
40.559799 148.881897 -747.257080 -0.425030 0.182573 0.886576 0.000000
40.557598 19.438999 -732.834595 -0.955928 0.266923 -0.122285 0.000000
40.556099 89.926498 -749.102112 -0.635917 0.384854 0.668952 1.000000
40.555698 140.156403 -747.022522 0.485027 0.091915 -0.869655 0.000000
40.555500 81.663200 -742.870117 -0.556541 0.395653 -0.730562 0.000000
40.555099 22.169901 -733.030579 -0.870871 0.356613 -0.338247 0.000000
40.554401 31.720301 -733.698730 0.263552 0.038357 0.963882 0.000000
40.552898 123.910500 -746.181702 -0.508521 0.177460 0.842564 0.000000
40.552399 30.052299 -733.351990 0.446800 0.096643 0.889398 0.000000
40.550999 31.045900 -733.558411 -0.650725 0.417729 -0.634082 0.000000
40.550598 129.966599 -797.596497 -0.221422 0.958610 0.178994 1.000000
40.550598 47.970299 -728.137390 -0.087252 0.833904 -0.544970 1.000000
40.546700 20.227600 -732.582886 -0.806717 0.488485 -0.332552 0.000000
40.546501 27.680901 -734.000427 0.999122 0.017492 -0.038072 0.000000
40.545502 28.389500 -733.813599 0.992849 0.100527 0.064383 0.000000
40.545300 9.021000 -731.325684 -0.939884 0.215188 0.265167 0.000000
40.542900 172.807404 -747.122925 -0.820422 0.310217 0.480285 0.000000
40.542801 93.689796 -743.620300 -0.925096 0.021995 -0.379095 0.000000
40.542599 31.309799 -734.610413 -0.991340 0.111168 -0.069910 0.000000
40.540901 143.958694 -747.044312 0.521176 0.020412 -0.853205 0.000000
40.540100 80.921204 -743.699219 0.239544 0.869289 -0.432384 0.000000
40.539101 32.203800 -734.893799 -0.997567 0.050361 0.048218 0.000000
40.537300 8.347800 -730.158508 -0.949802 0.036775 -0.310683 0.000000
40.536201 33.116501 -735.761719 -0.968737 0.232447 -0.086696 0.000000
40.532902 98.658600 -743.990601 0.902646 0.078074 0.423244 0.000000
40.532799 95.388397 -746.801025 -0.637892 0.149294 0.755517 0.000000
40.531898 124.894997 -746.314026 0.552819 0.031867 -0.832692 0.000000
40.531399 26.858700 -733.916016 0.999346 0.017389 -0.031709 0.000000
40.531300 113.575302 -745.163818 -0.070921 0.051281 -0.996163 0.000000
40.530998 118.152199 -774.788330 -0.718079 0.583337 0.379580 1.000000
40.530998 24.935900 -733.659302 0.999160 0.036015 -0.019551 0.000000
40.530399 112.802498 -768.372314 -0.923464 0.196572 0.329506 1.000000
40.530399 90.468903 -743.957886 0.983938 0.109594 -0.140907 0.000000
40.530201 7.127600 -730.421692 -0.997236 0.001046 -0.074296 0.000000
40.530102 21.172899 -732.976318 -0.946724 0.280360 -0.158465 0.000000
40.528801 130.105896 -752.852783 0.177136 0.803923 0.567742 0.000000
40.528599 18.476700 -733.075073 -0.945823 0.066169 0.317869 0.000000
40.528000 161.503998 -747.244202 -0.513793 0.065799 0.855388 0.000000
40.527500 121.989799 -780.442505 -0.302356 0.796258 0.523979 1.000000
40.526901 175.601501 -747.600708 -0.883982 0.099782 0.456748 0.000000
40.526798 159.171295 -747.305420 -0.612911 0.015219 0.790005 0.000000
40.526501 8.249800 -731.063782 -0.927997 0.008960 0.372479 0.000000
40.525600 12.801900 -730.944702 0.908870 0.169789 0.380955 0.000000
40.524399 95.635399 -743.745789 -0.766047 0.354682 -0.536071 0.000000
40.522598 94.919601 -743.706482 -0.939511 0.019070 -0.341987 0.000000
40.521999 138.842499 -747.128174 0.563837 0.057938 -0.823852 0.000000
40.521999 145.070694 -747.054993 -0.530986 0.346997 0.773077 0.000000
40.520901 173.883301 -747.319214 -0.829104 0.228349 0.510336 0.000000
40.520699 10.424700 -731.749512 -0.748183 0.182073 0.638021 0.000000
40.520500 86.298401 -744.531921 -0.816547 0.575644 0.043418 0.000000
40.519199 18.172800 -732.011597 0.936535 0.086593 0.339711 0.000000
40.517799 48.771999 -727.166382 -0.232707 0.766840 -0.598167 1.000000
40.516300 30.456499 -734.647583 -0.994937 0.067660 0.074315 0.000000
40.514900 94.516701 -752.351929 -0.743258 0.250909 0.620171 1.000000
40.513199 24.231300 -733.803284 -0.998831 0.048248 0.003080 0.000000
40.513000 124.909401 -785.216492 -0.225869 0.847387 0.480540 1.000000
40.512402 88.841499 -743.939697 0.932535 0.029666 0.359858 0.000000
40.511902 223.619507 -730.884399 0.879215 0.416470 -0.231372 0.000000
40.509899 130.399200 -799.802917 0.789298 0.469705 -0.395456 1.000000
40.507999 15.030600 -732.610291 0.864530 0.045502 -0.500517 0.000000
40.506901 96.786400 -754.098022 -0.385919 0.717645 0.579700 1.000000
40.505199 92.790604 -743.406311 -0.955989 0.231309 -0.180501 0.000000
40.504002 169.087402 -746.795288 0.645588 0.026608 -0.763222 0.000000
40.503101 115.228699 -750.522705 -0.766301 0.546897 0.337173 0.000000
40.502499 131.328705 -752.843384 -0.497566 0.132007 -0.857323 0.000000
40.502499 181.569901 -750.409729 -0.769041 0.601926 -0.215084 0.000000
40.502102 84.797501 -743.700012 -0.846742 0.438077 -0.301855 0.000000
40.501598 225.473495 -728.778503 0.871313 0.106604 -0.479009 0.000000
40.500500 109.156303 -744.892273 -0.111859 0.007602 -0.993695 0.000000
40.500099 177.934998 -748.591980 -0.831579 0.224297 0.508102 0.000000
40.495201 113.311501 -750.640381 0.528066 0.350429 0.773528 0.000000
40.493599 11.070800 -730.649414 -0.921406 0.158476 -0.354818 0.000000
40.493301 13.474700 -730.575012 -0.994344 0.052334 0.092419 0.000000
40.492500 17.499500 -731.237671 -0.423093 0.426310 -0.799533 0.000000
40.492401 230.239700 -725.776672 0.099920 0.566211 -0.818182 0.000000
40.492298 103.390999 -759.874573 -0.712706 0.421671 0.560574 1.000000
40.492001 162.501404 -747.201477 -0.582673 0.037727 0.811830 0.000000
40.489201 19.084101 -731.625977 0.439646 0.433157 -0.786820 0.000000
40.488998 91.308800 -743.941711 -0.997539 0.043930 -0.054645 0.000000
40.486599 86.958702 -744.762512 0.741819 0.324849 -0.586667 0.000000
40.485802 28.008900 -732.996216 0.127507 0.190629 0.973346 0.000000
40.484402 21.786301 -733.602173 -0.472230 0.769621 -0.429746 0.000000
40.483898 22.860001 -732.396118 -0.003251 0.993746 -0.111620 0.000000
40.482700 116.672203 -745.555603 0.517140 0.120231 -0.847414 0.000000
40.482399 133.984695 -749.266418 0.011914 0.890895 0.454052 0.000000
40.481998 28.867800 -733.107117 0.828704 0.424612 -0.364630 0.000000
40.481300 10.570200 -729.818909 0.265723 0.711247 -0.650783 0.000000
40.480598 20.494600 -731.915894 0.628523 0.311838 0.712542 0.000000
40.479599 89.523300 -743.783386 -0.986179 0.001127 -0.165678 0.000000
40.479198 91.118698 -745.750183 -0.716682 0.657089 0.233667 0.000000
40.479099 25.198000 -732.718079 -0.735447 0.617393 -0.279183 0.000000
40.477501 104.977699 -761.292114 -0.750465 0.415465 0.513995 1.000000
40.477200 13.493800 -732.507629 0.850756 0.071954 -0.520612 0.000000
40.476299 22.663900 -733.547485 0.996292 0.029144 -0.080955 0.000000
40.475700 153.079498 -747.463928 -0.553097 0.096756 0.827479 0.000000
40.475601 26.259100 -734.249207 -0.984318 0.033702 0.173156 0.000000
40.474499 131.400894 -809.478027 0.319322 0.944931 0.071684 1.000000
40.472801 127.247299 -752.590820 0.027364 0.923845 0.381787 0.000000
40.471699 14.258600 -732.518494 -0.863826 0.178672 0.471043 0.000000
40.470501 128.211197 -791.471924 -0.416761 0.850564 0.320704 1.000000
40.470299 135.651596 -749.430725 -0.282500 0.723009 -0.630438 0.000000
40.467800 166.784607 -746.974976 0.587694 0.122252 -0.799794 0.000000
40.467098 226.016205 -734.818787 0.902478 0.113334 0.415559 0.000000
40.466202 49.753201 -725.952393 -0.567538 0.678032 -0.467089 1.000000
40.464500 24.039700 -732.499817 -0.001184 0.242814 -0.970072 0.000000
40.464100 136.846802 -823.644409 0.001137 0.178585 -0.983924 1.000000
40.462002 107.706398 -744.755127 0.277411 0.059536 0.958905 0.000000
40.461102 28.371000 -734.746277 -0.804214 0.556056 -0.209861 0.000000
40.459900 104.423897 -744.479187 0.384912 0.076982 0.919737 0.000000
40.459702 29.356600 -733.685974 0.928877 0.124489 0.348842 0.000000
40.458401 108.925598 -764.705688 -0.829845 0.436180 0.348000 1.000000
40.457199 100.638199 -743.891602 0.425067 0.061112 0.903097 0.000000
40.457199 79.584801 -743.111816 0.995167 0.097903 -0.007531 0.000000
40.457100 222.648895 -732.511108 0.952464 0.231023 0.198599 0.000000
40.457001 32.316898 -734.196472 -0.533898 0.761088 -0.368373 0.000000
40.456200 96.173401 -747.041504 -0.571364 0.203730 0.795008 0.000000
40.455200 117.661797 -774.278870 -0.726420 0.517926 0.451737 1.000000
40.454899 16.319599 -732.802185 -0.905726 0.069462 0.418132 0.000000
40.452900 32.386002 -735.679077 -0.858863 0.497996 -0.119808 0.000000
40.452801 131.531601 -810.833130 0.214479 0.782308 0.584802 1.000000
40.452099 80.274200 -743.099304 -0.514263 0.778649 -0.359500 0.000000
40.449902 108.371002 -764.254883 -0.810385 0.429968 0.398000 1.000000
40.449902 116.278099 -751.582703 0.707015 0.092219 0.701160 0.000000
40.449699 159.971695 -747.400208 0.568025 0.128359 -0.812940 0.000000
40.449501 23.452299 -733.945313 -0.971890 0.015503 0.234923 0.000000
40.449299 110.771400 -745.022217 0.089701 0.151894 0.984318 0.000000
40.448601 135.344193 -821.857727 -0.219537 0.849381 0.479953 1.000000
40.447601 9.512700 -730.354492 0.930459 0.174374 0.322243 0.000000
40.446800 31.630199 -735.530579 0.469991 0.715782 -0.516492 0.000000
40.446602 226.232193 -728.188599 0.782686 0.468316 -0.409979 0.000000
40.445801 27.196199 -732.825989 0.198368 0.974374 -0.106046 0.000000
40.445499 130.387497 -800.815979 -0.181497 0.969271 0.166050 1.000000
40.445000 114.000999 -769.558289 -0.917457 0.234765 0.321182 1.000000
40.444500 30.939699 -735.209473 -0.978090 0.117470 0.171877 0.000000
40.442501 95.083702 -752.884521 -0.346229 0.841289 0.415161 1.000000
40.442101 26.344601 -732.881409 0.984589 0.147150 -0.094511 0.000000
40.441399 96.164101 -753.695496 0.806928 0.284706 -0.517504 1.000000
40.439899 34.221901 -735.809814 -0.491148 0.441869 -0.750684 0.000000
40.439499 110.428902 -749.571228 -0.542152 0.676431 -0.498511 0.000000
40.437801 131.284698 -746.756775 -0.436358 0.212967 0.874206 0.000000
40.437302 6.490500 -730.185608 -0.870998 0.425721 -0.245203 0.000000
40.436901 106.882599 -744.689819 0.285453 0.001215 0.958392 0.000000
40.436501 224.167404 -730.183472 0.851431 0.387580 -0.353336 0.000000
40.436298 128.663696 -792.762878 -0.376383 0.925980 0.029954 1.000000
40.435699 132.014694 -752.924683 0.226553 0.135932 0.964467 0.000000
40.435699 33.078400 -736.481689 -0.696298 0.465868 0.546018 0.000000
40.435600 5.331600 -730.056580 -0.985059 0.109184 -0.133181 0.000000
40.434502 228.919403 -735.760925 0.195133 0.973145 -0.122115 0.000000
40.431702 21.764999 -732.103210 0.651775 0.129758 0.747230 0.000000
40.429699 126.811302 -788.523499 -0.324398 0.832150 0.449769 1.000000
40.429100 132.522598 -746.814819 -0.510462 0.054245 0.858188 0.000000
40.429100 79.953003 -743.795288 0.609756 0.689074 -0.391632 0.000000
40.428299 106.004799 -762.396423 -0.847921 0.366964 0.382580 1.000000
40.428001 26.872999 -734.652771 0.989154 0.042311 -0.140654 0.000000
40.423698 97.528297 -754.843811 0.018266 0.996038 0.087032 1.000000
40.423302 170.467300 -747.097107 -0.853901 0.051373 0.517894 0.000000
40.423000 98.599701 -755.541870 -0.366895 0.414135 0.832994 1.000000
40.422501 84.031700 -743.403503 -0.984953 0.149235 -0.087153 0.000000
40.421299 100.976402 -757.651123 -0.464121 0.431551 0.773535 1.000000
40.421101 117.929100 -750.940002 -0.489445 0.721725 -0.489445 0.000000
40.419800 25.529301 -734.296814 0.964588 0.015773 -0.263290 0.000000
40.417301 113.394501 -769.057373 -0.868135 0.365934 0.335312 1.000000
40.416901 89.275002 -748.841614 -0.613000 0.398202 0.682397 1.000000
40.416199 117.189598 -773.622925 -0.790322 0.484495 0.375041 1.000000
40.413200 24.557301 -733.076294 0.919115 0.093954 0.382624 0.000000
40.411701 87.525497 -743.601929 -0.880120 0.020155 -0.474324 0.000000
40.411598 120.517197 -778.374573 -0.389606 0.803261 0.450532 1.000000
40.411201 91.989304 -743.461609 0.943709 0.013823 0.330487 0.000000
40.410500 156.595398 -747.474182 -0.551142 0.137416 0.823019 0.000000
40.409901 117.673698 -745.610474 -0.569259 0.309484 0.761685 0.000000
40.409500 80.928200 -742.423523 -0.962826 0.056342 -0.264182 0.000000
40.408901 164.392197 -747.163086 0.566980 0.060798 -0.821485 0.000000
40.408798 127.406197 -789.583313 -0.363192 0.838014 0.407215 1.000000
40.407398 81.399002 -744.285706 0.716040 0.365394 -0.594789 0.000000
40.407398 233.125504 -725.268921 -0.135419 0.593759 -0.793166 0.000000
40.406101 112.918701 -744.975220 0.352327 0.045503 0.934770 0.000000
40.405201 83.344101 -743.296570 -0.959919 0.228426 -0.162407 0.000000
40.404800 91.071701 -743.258118 -0.872374 0.219212 -0.436933 0.000000
40.403198 86.305603 -743.455383 -0.906171 0.027780 -0.421998 0.000000
40.401501 104.132004 -760.599487 -0.767531 0.378086 0.517637 1.000000
40.399502 78.144699 -742.960815 0.948067 0.309970 -0.071332 0.000000
40.398399 36.039101 -733.485107 0.141058 0.025955 -0.989661 1.000000
40.397099 87.884102 -745.347107 -0.250546 0.533772 0.807660 0.000000
40.397099 20.075001 -733.799927 0.997878 0.032874 -0.056204 0.000000
40.396301 78.878098 -742.990417 -0.990372 0.138320 0.005533 0.000000
40.396099 131.117203 -805.815002 0.013991 0.995509 0.093632 1.000000
40.395802 178.561905 -749.143616 -0.915688 0.180298 0.359177 0.000000
40.394199 135.401093 -747.039185 0.461699 0.085086 -0.882946 0.000000
40.393799 228.544098 -726.837830 0.462575 0.439691 -0.769868 0.000000
40.392601 133.807404 -746.890930 0.457790 0.064613 -0.886710 0.000000
40.391899 120.685799 -746.107727 -0.554822 0.237781 0.797266 0.000000
40.391701 96.924202 -743.567017 -0.783646 0.040947 0.619857 0.000000
40.390999 84.964500 -744.361023 0.635717 0.461272 -0.618944 0.000000
40.390900 88.914200 -742.988525 -0.984814 0.099319 -0.142397 0.000000
40.390800 133.721802 -818.774719 -0.201933 0.979315 0.012840 1.000000
40.390800 29.841200 -734.964783 0.972698 0.169110 -0.158938 0.000000
40.390598 16.617901 -731.049988 -0.149982 0.118278 0.981588 0.000000
40.390301 110.461700 -766.200623 -0.889027 0.150804 0.432306 1.000000
40.387798 24.889400 -734.568176 -0.947783 0.036894 0.316776 0.000000
40.387600 223.643906 -732.975220 0.945888 0.294665 0.135896 0.000000
40.387001 93.646301 -751.910828 -0.638569 0.500409 0.584653 1.000000
40.386600 17.618500 -733.243530 -0.849275 0.135942 0.510149 0.000000
40.386398 27.560900 -734.681396 -0.965969 0.033140 0.256528 0.000000
40.386299 11.271900 -732.018982 -0.897105 0.389475 0.208595 0.000000
40.385502 7.535700 -731.141418 0.866391 0.122128 -0.484202 0.000000
40.384800 227.373306 -735.140686 0.968048 0.134629 0.211560 0.000000
40.383202 179.644104 -749.495728 -0.858021 0.303465 0.414377 0.000000
40.382702 227.363800 -727.503113 0.418177 0.513292 -0.749439 0.000000
40.382500 90.108498 -743.082886 0.946661 0.039497 0.319801 0.000000
40.380299 85.404701 -743.346802 0.916927 0.057559 0.394881 0.000000
40.379101 129.243195 -795.178589 -0.141352 0.861224 0.488173 1.000000
40.379002 99.865196 -756.775024 -0.138247 0.986634 0.086257 1.000000
40.378399 172.156403 -747.231995 -0.831087 0.152588 0.534800 0.000000
40.376499 9.423500 -729.663818 -0.894455 0.417795 -0.159365 0.000000
40.376400 97.846497 -743.859924 0.636057 0.126616 0.761183 0.000000
40.374901 99.636101 -747.922424 -0.436427 0.199721 0.877293 0.000000
40.374599 174.819901 -747.701294 -0.868559 0.169009 0.465877 0.000000
40.374298 127.887398 -790.676392 -0.337544 0.795068 0.503916 1.000000
40.373699 92.542198 -751.073975 -0.770025 0.531107 0.353534 1.000000
40.373402 123.657700 -783.224426 -0.330719 0.890396 0.312761 1.000000
40.372200 131.008499 -804.990723 -0.096949 0.985045 0.142431 1.000000
40.371601 75.821098 -742.583923 0.831050 0.475554 -0.288451 0.000000
40.370899 8.581400 -729.449829 -0.993020 0.106595 0.050493 0.000000
40.367100 82.318802 -744.488220 0.909147 0.359901 -0.209581 0.000000
40.366600 105.442299 -761.851685 -0.730137 0.518215 0.445367 1.000000
40.365898 123.056198 -746.299683 0.580658 0.200702 -0.789021 0.000000
40.365398 90.036301 -745.592773 -0.716682 0.657089 0.233667 0.000000
40.365299 94.519699 -746.744385 -0.608473 0.158535 0.777578 0.000000
40.362499 114.801697 -745.479187 -0.506719 0.135807 0.851347 0.000000
40.361698 77.322403 -742.786377 -0.816415 0.503012 -0.283630 0.000000
40.361401 106.884598 -763.078491 -0.772208 0.530389 0.349831 1.000000
40.360401 177.258408 -748.624573 -0.786334 0.297059 0.541696 0.000000
40.359100 89.367996 -745.398987 -0.716682 0.657089 0.233667 0.000000
40.358200 5.849800 -730.502075 -0.697926 0.714983 -0.041222 0.000000
40.356300 131.326096 -808.068970 0.207419 0.976445 0.059436 1.000000
40.355202 124.242996 -784.215271 -0.300763 0.947337 -0.109971 1.000000
40.354900 225.445099 -734.308472 0.878660 0.079624 0.470761 0.000000
40.351299 180.815399 -750.082886 -0.925931 0.125200 0.356339 0.000000
40.350201 146.494797 -747.435425 0.609142 0.132552 -0.781906 0.000000
40.350101 19.017200 -733.477478 -0.915740 0.321590 0.240832 0.000000
40.349800 141.722900 -747.089111 0.609203 0.037987 -0.792104 0.000000
40.348900 79.242699 -743.740417 -0.954947 0.103202 0.278254 0.000000
40.348598 129.391495 -752.710815 0.647807 0.136144 0.749541 0.000000
40.342701 82.752701 -743.635986 0.935364 0.265043 -0.234192 0.000000
40.341400 121.963699 -746.228577 -0.475514 0.047963 0.878400 0.000000
40.340900 21.073500 -733.866516 -0.938373 0.344369 0.029444 0.000000
40.340401 98.249702 -747.565430 -0.433403 0.166693 0.885650 0.000000
40.336498 131.213501 -807.336670 0.151340 0.976828 0.151340 1.000000
40.336201 11.336400 -730.017395 0.364561 0.122437 0.923095 0.000000
40.335300 75.153503 -742.290222 -0.898855 0.342068 -0.273951 0.000000
40.334702 19.706600 -732.168213 -0.636908 0.593215 -0.492386 0.000000
40.334499 90.968102 -749.962219 0.264099 0.190206 -0.945555 1.000000
40.334499 130.383301 -746.748779 -0.441691 0.253479 0.860615 0.000000
40.334202 118.447197 -745.695923 -0.551790 0.015061 0.833847 0.000000
40.333302 6.397900 -729.272888 0.271569 0.620955 -0.735300 0.000000
40.332401 87.585602 -742.877625 0.879151 0.073610 0.470825 0.000000
40.331699 91.729500 -750.457825 -0.613793 0.762217 -0.205628 1.000000
40.331501 93.382896 -746.498230 -0.636126 0.202756 0.744469 0.000000
40.331100 132.145599 -814.377686 0.234034 0.795095 0.559511 1.000000
40.329399 115.335403 -771.270020 -0.767807 0.563484 0.304888 1.000000
40.328899 129.396500 -746.670471 -0.473792 0.091384 0.875882 0.000000
40.328400 80.143501 -742.164185 0.121289 0.542146 -0.831485 0.000000
40.327202 119.767799 -746.086670 0.513179 0.266728 -0.815784 0.000000
40.326900 46.735199 -729.628296 -0.192239 0.742811 -0.641309 1.000000
40.326599 22.608601 -734.213196 0.933647 0.014011 -0.357919 0.000000
40.324501 123.025597 -782.166321 -0.284528 0.834928 0.471104 1.000000
40.323299 134.223694 -819.916077 -0.211189 0.343361 0.915151 1.000000
40.323101 3.793400 -729.955627 -0.990186 0.114653 -0.079910 0.000000
40.322800 154.585907 -747.477600 -0.574511 0.023534 0.818159 0.000000
40.322800 158.353806 -747.363892 -0.611227 0.107001 0.784189 0.000000
40.322399 224.999603 -729.566101 0.805690 0.443690 -0.392433 0.000000
40.321999 15.453100 -733.135071 -0.840570 0.096270 0.533080 0.000000
40.321800 131.474701 -748.962830 -0.341968 0.388389 0.855694 0.000000
40.321201 84.001602 -744.171570 0.926202 0.248979 -0.283125 0.000000
40.320099 127.348701 -746.603699 0.446465 0.030837 -0.894270 0.000000
40.318802 118.722198 -775.887329 -0.542709 0.759792 0.358026 1.000000
40.317402 88.278900 -743.357971 0.942648 0.238767 0.233247 0.000000
40.317101 85.685898 -744.749695 -0.958356 0.113438 0.262081 0.000000
40.314400 33.337898 -737.136719 0.006727 0.856998 0.515275 1.000000
40.313999 23.765900 -734.538574 -0.959130 0.077905 0.272030 0.000000
40.313900 12.550100 -730.182312 -0.255994 0.431706 -0.864926 0.000000
40.313599 139.499207 -747.166626 -0.482826 0.195821 0.853541 0.000000
40.313000 102.016197 -758.815979 -0.539887 0.486400 0.686977 1.000000
40.312000 130.550903 -802.022217 0.014594 0.989020 0.147062 1.000000
40.310200 116.646698 -773.075378 -0.845996 0.443877 0.295403 1.000000
40.308701 136.226501 -823.413086 0.097673 0.057257 -0.993570 1.000000
40.308201 29.193399 -735.385193 -0.966523 0.241315 0.087177 0.000000
40.306702 126.295998 -752.365479 0.030010 0.922468 0.384905 0.000000
40.303501 74.196198 -742.277771 -0.109361 0.812189 -0.573053 0.000000
40.301300 82.317802 -742.919800 -0.893023 0.050292 -0.447191 0.000000
40.301300 224.655899 -733.647827 -0.977534 0.102573 -0.184137 0.000000
40.299801 78.545898 -743.612305 -0.974960 0.124223 0.184452 0.000000
40.299702 140.888000 -747.190186 -0.421260 0.014436 0.906825 0.000000
40.298500 125.252403 -785.808777 -0.238241 0.825389 0.511834 1.000000
40.298401 76.615898 -742.688721 0.962659 0.263001 -0.064177 0.000000
40.297699 107.496399 -763.698486 -0.763828 0.462876 0.449792 1.000000
40.297699 73.418900 -741.924316 0.721755 0.659668 -0.209542 0.000000
40.291401 176.014297 -748.191223 -0.788189 0.032200 0.614591 0.000000
40.291199 138.120804 -824.693176 0.043130 0.836166 0.546778 1.000000
40.289299 129.069305 -794.372009 -0.314732 0.930206 0.188839 1.000000
40.289299 91.898201 -746.140686 -0.695487 0.202915 0.689291 0.000000
40.286900 83.171898 -745.127014 -0.170383 0.883954 -0.435424 1.000000
40.286400 77.797997 -743.592224 0.911434 0.181146 -0.369423 0.000000
40.285099 226.755402 -734.382019 0.915930 0.100244 0.388618 0.000000
40.283501 125.411598 -752.176270 0.030010 0.922468 0.384905 0.000000
40.283401 165.941193 -747.312317 -0.540740 0.028895 0.840693 0.000000
40.282600 80.504303 -744.297302 -0.874488 0.136864 0.465337 0.000000
40.282299 101.316299 -744.117371 0.240539 0.066055 0.968389 0.000000
40.282101 18.388599 -731.338074 -0.148277 0.079477 0.985747 0.000000
40.282001 106.134804 -744.568420 0.162623 0.033447 0.986121 0.000000
40.281502 149.694199 -747.598999 -0.476528 0.053558 0.877526 0.000000
40.279301 2.950900 -730.081787 0.971655 0.094031 -0.216898 0.000000
40.278702 97.048401 -747.334473 -0.414382 0.171817 0.893737 0.000000
40.278599 109.523697 -765.576599 -0.802617 0.439107 0.403721 1.000000
40.278301 77.933403 -742.259888 -0.886915 0.404220 -0.223580 0.000000
40.278198 128.047897 -752.678406 0.027364 0.923845 0.381787 0.000000
40.276299 122.294197 -781.011719 -0.336539 0.820018 0.462939 1.000000
40.273800 173.266098 -747.643494 -0.820065 0.299488 0.487648 0.000000
40.273602 4.682100 -729.653076 0.985842 0.096558 0.137088 0.000000
40.271999 105.118401 -744.543518 0.139993 0.078820 0.987010 0.000000
40.271400 232.309601 -725.013000 0.124730 0.875978 0.465946 0.000000
40.270100 131.649597 -812.042603 0.336885 0.923262 0.184652 1.000000
40.269901 111.502701 -749.873779 -0.551018 0.652123 -0.520687 0.000000
40.268299 171.194794 -747.090820 0.791073 0.088542 -0.605280 0.000000
40.267601 103.209000 -744.321228 0.105469 0.064643 0.992319 0.000000
40.266899 79.378601 -742.485291 0.871853 0.384954 0.302790 0.000000
40.266300 30.497499 -735.848572 -0.908870 0.169789 0.380955 0.000000
40.264801 88.535896 -748.541809 -0.611233 0.409145 0.677491 1.000000
40.262501 131.768402 -813.093628 0.212902 0.850097 0.481671 1.000000
40.262001 26.155199 -734.926270 -0.930379 0.043061 0.364061 0.000000
40.260700 100.350700 -757.373901 0.911147 0.006499 -0.412031 1.000000
40.260601 120.974998 -778.892212 -0.386881 0.804262 0.451093 1.000000
40.258801 148.066605 -747.538513 0.546304 0.057580 -0.835606 0.000000
40.257401 228.354996 -735.324829 0.960948 0.153804 0.230049 0.000000
40.255402 17.097200 -734.030029 -0.269488 0.950581 -0.154184 0.000000
40.254700 131.495499 -810.124329 0.277639 0.959910 0.038596 1.000000
40.254200 72.451599 -741.960876 0.987348 0.156378 -0.026253 0.000000
40.252701 71.753799 -740.931274 -0.478068 0.419329 -0.771761 0.000000
40.252602 4.591500 -730.496887 0.948923 0.308561 -0.065844 0.000000
40.252300 165.035797 -747.323914 0.588716 0.009606 -0.808283 0.000000
40.251598 78.729698 -741.763489 0.421671 0.712706 -0.560574 0.000000
40.250900 223.292007 -731.448486 0.855076 0.383310 -0.349169 0.000000
40.249802 111.379204 -767.388489 -0.797017 0.524479 0.299476 1.000000
40.249699 119.667702 -777.206482 -0.425790 0.801771 0.419363 1.000000
40.248901 84.415703 -745.912170 -0.609349 0.052555 0.791159 1.000000
40.247200 114.452797 -770.536316 -0.884609 0.381684 0.267927 1.000000
40.247002 86.316597 -742.745789 -0.965338 0.108969 -0.237168 0.000000
40.245399 14.554700 -733.315186 0.505158 0.092494 0.858056 0.000000
40.244900 6.696800 -731.128418 0.480639 0.867459 0.128459 0.000000
40.244801 85.773399 -746.860474 -0.905318 0.304717 0.295884 1.000000
40.244701 0.329200 -729.507629 0.997462 0.070570 0.009480 0.000000
40.244499 115.825104 -745.762024 0.529365 0.260779 -0.807321 0.000000
40.243801 74.228699 -741.309570 -0.233874 0.689064 -0.685925 0.000000
40.243698 74.793701 -742.893372 0.968373 0.156023 -0.194706 0.000000
40.243599 84.775002 -742.922180 0.956876 0.008576 0.290371 0.000000
40.243198 49.139400 -726.467224 -0.492711 0.693136 -0.526115 1.000000
40.243099 0.492000 -730.358521 0.903474 0.183000 -0.387615 0.000000
40.242500 77.013901 -742.125122 0.967563 0.210004 0.140432 0.000000
40.242298 28.437599 -735.484619 0.946964 0.044728 -0.318211 0.000000
40.242100 32.429798 -736.377075 -0.663360 0.695329 -0.276533 0.000000
40.240601 70.722702 -741.684509 0.299735 0.840189 -0.451931 0.000000
40.239498 143.068893 -747.438171 -0.416299 0.162774 0.894539 0.000000
40.238499 168.603806 -747.217529 -0.659653 0.041140 0.750444 0.000000
40.238098 132.823807 -749.247925 0.255011 0.126852 -0.958581 0.000000
40.237099 136.980804 -747.102722 0.491076 0.006690 -0.871091 0.000000
40.235401 76.941498 -743.407104 0.315293 0.677477 -0.664542 0.000000
40.235001 2.189900 -729.416626 0.944241 0.104916 0.312091 0.000000
40.234901 69.505501 -741.508911 -0.999413 0.031582 0.013244 0.000000
40.233501 134.653503 -749.340881 -0.064059 0.590766 0.804296 0.000000
40.232899 157.386200 -747.507019 0.594028 0.034943 -0.803685 0.000000
40.230999 231.757904 -725.591675 0.168939 0.238110 -0.956433 0.000000
40.228901 102.338203 -744.185425 0.126224 0.121415 0.984544 0.000000
40.227798 21.671301 -734.335388 -0.946079 0.242339 0.214956 0.000000
40.227600 7.832000 -729.325623 0.983386 0.122167 0.134263 0.000000
40.227501 129.592194 -796.309509 -0.386174 0.916649 0.103071 1.000000
40.227100 37.187302 -733.468994 0.256121 0.132658 -0.957499 1.000000
40.225498 150.679703 -747.613586 0.528570 0.045782 -0.847654 0.000000
40.225101 163.111206 -747.434387 0.610626 0.055511 -0.789971 0.000000
40.224201 71.643501 -741.973877 -0.740783 0.634734 -0.219895 0.000000
40.223499 174.174194 -747.905029 -0.808858 0.213342 0.547936 0.000000
40.222599 160.614197 -747.454407 0.539241 0.069351 -0.839291 0.000000
40.222599 229.174301 -726.606323 0.423191 0.455620 -0.783147 0.000000
40.222301 128.651703 -746.761108 0.491481 0.023017 -0.870584 0.000000
40.222198 102.737602 -759.603882 -0.507478 0.287519 0.812280 1.000000
40.220200 68.965103 -740.482788 -0.924737 0.208172 -0.318631 0.000000
40.219799 167.494995 -747.269470 -0.634373 0.052746 0.771226 0.000000
40.219002 94.069397 -743.144592 -0.086875 0.107725 0.990378 0.000000
40.217701 223.179901 -732.155029 0.956112 0.228665 0.183199 0.000000
40.217499 151.792694 -747.683472 -0.542259 0.017757 0.840024 0.000000
40.216900 169.596802 -747.255005 0.791522 0.023648 -0.610682 0.000000
40.216499 134.875198 -821.405212 -0.171817 0.893737 0.414382 1.000000
40.214001 86.796204 -747.517822 -0.383956 0.185507 0.904525 1.000000
40.210800 68.556396 -741.417908 0.999110 0.036162 -0.021697 0.000000
40.210499 101.441498 -758.102478 -0.660827 0.660827 0.355830 1.000000
40.209900 16.508600 -733.528625 -0.990052 0.118991 0.075091 0.000000
40.208000 133.184204 -817.554016 -0.052937 0.897208 0.438424 1.000000
40.207699 126.132004 -787.595093 -0.285254 0.744209 0.603973 1.000000
40.207600 69.655998 -740.621887 0.997145 0.074918 -0.009497 0.000000
40.207100 76.035896 -741.873108 -0.953176 0.016156 -0.301984 0.000000
40.206902 18.291201 -733.740601 0.945636 0.031733 -0.323674 0.000000
40.204399 138.416504 -825.346985 -0.167076 0.934795 0.313439 1.000000
40.200001 27.450899 -735.356018 -0.930608 0.104304 0.350841 0.000000
40.199699 5.040600 -729.012512 0.961672 0.059083 0.267760 0.000000
40.199402 70.841301 -740.751404 -0.085765 0.167905 -0.982065 0.000000
40.196899 84.095299 -742.513794 0.989062 0.075545 0.126684 0.000000
40.196800 24.329399 -734.954590 -0.938708 0.105789 0.328079 0.000000
40.196701 31.182600 -736.092407 0.872490 0.056691 -0.485331 0.000000
40.194500 130.650696 -802.791382 -0.102562 0.992931 -0.059734 1.000000
40.194199 227.912506 -734.668579 0.941583 0.225371 0.250259 0.000000
40.190399 3.342400 -729.393799 -0.952629 0.021225 -0.303393 0.000000
40.189899 86.228302 -745.213684 -0.001071 0.099610 0.995026 0.000000
40.189899 44.362202 -731.262390 -0.118992 0.902937 0.412971 1.000000
40.187698 138.181107 -747.142883 -0.502616 0.004021 0.864500 0.000000
40.187000 25.439199 -734.970581 0.948677 0.003720 -0.316226 0.000000
40.186699 34.509899 -734.093872 0.717410 0.247546 0.651187 0.000000
40.186199 40.081001 -733.149719 -0.118545 0.992948 -0.001088 1.000000
40.185902 111.973503 -768.114014 -0.442817 0.862964 0.243323 1.000000
40.185902 75.039200 -741.271912 0.077093 0.388172 -0.918357 0.000000
40.185799 115.957703 -772.432617 -0.834187 0.408420 0.370574 1.000000
40.185699 229.496902 -735.427124 -0.121677 0.928300 -0.351360 0.000000
40.184700 101.443802 -748.417419 -0.459305 0.161850 0.873409 0.000000
40.183601 45.847801 -730.515381 0.041160 0.665649 -0.745129 1.000000
40.181198 75.932098 -743.231812 -0.968498 0.097483 0.229148 0.000000
40.180599 73.064400 -742.557983 0.638409 0.651675 -0.409577 0.000000
40.177898 97.976501 -755.325012 -0.577670 0.305637 0.756891 1.000000
40.177601 104.615402 -749.100098 -0.476713 0.327839 0.815638 0.000000
40.177502 144.435394 -747.444824 0.540711 0.139966 -0.829483 0.000000
40.177502 67.485901 -741.230286 0.975296 0.216330 0.044716 0.000000
40.176498 9.602900 -731.832581 -0.772387 0.273257 0.573367 0.000000
40.176102 73.203003 -740.960388 -0.891106 0.367451 -0.266290 0.000000
40.175701 180.002808 -750.058289 -0.881599 0.100150 0.461252 0.000000
40.175701 66.206001 -740.930115 0.999852 0.002991 0.016947 0.000000
40.175598 15.284800 -730.703491 0.234953 0.052895 0.970566 0.000000
40.175098 100.458900 -748.106812 0.483142 0.050929 -0.874060 0.000000
40.173401 51.319500 -738.383179 -0.951061 0.213005 -0.223859 0.000000
40.173199 39.077202 -733.176880 0.217804 0.290874 0.931640 1.000000
40.171600 114.094803 -745.629272 -0.567828 0.150527 0.809267 0.000000
40.171501 126.019798 -746.555908 -0.394540 0.183541 0.900361 0.000000
40.170898 12.789800 -732.673523 -0.886700 0.416146 0.201456 0.000000
40.170601 67.647598 -740.229126 0.151631 0.389707 -0.908370 0.000000
40.169998 70.079399 -742.081421 -0.954250 0.103127 0.280662 0.000000
40.169800 10.404300 -732.392395 -0.578930 0.426318 -0.695048 0.000000
40.167099 128.795105 -793.534302 -0.316298 0.888934 0.331289 1.000000
40.164299 110.668198 -766.902283 -0.796186 0.309893 0.519667 1.000000
40.160999 130.053101 -798.206482 0.142201 0.988470 0.052025 1.000000
40.157001 100.008797 -743.982422 -0.119513 0.053496 -0.991390 0.000000
40.155602 98.984299 -756.282715 -0.835307 0.401136 0.375967 1.000000
40.151199 66.647400 -740.011292 -0.683080 0.430457 0.590008 0.000000
40.150398 136.153000 -747.219971 -0.451504 0.090860 0.887631 0.000000
40.150101 47.351700 -728.799622 -0.214448 0.791453 -0.572376 1.000000
40.148998 65.280998 -740.560486 -0.992612 0.048338 -0.111289 0.000000
40.148800 226.061905 -728.869812 0.831749 0.264859 -0.487897 0.000000
40.148701 65.081001 -739.867188 0.989448 0.070758 -0.126436 0.000000
40.148300 145.429901 -747.553101 0.551701 0.410071 -0.726270 0.000000
40.147202 85.003197 -745.077087 -0.852601 0.074691 0.517197 0.000000
40.145599 226.062302 -734.002502 0.892786 0.147603 0.425614 0.000000
40.145500 77.601097 -741.619812 0.846813 0.177102 0.501540 0.000000
40.144600 130.537201 -748.887329 -0.435141 0.236391 0.868776 0.000000
40.144600 66.800003 -741.308472 -0.990851 0.081898 0.107275 0.000000
40.144001 70.267197 -741.181396 -0.982255 0.088198 -0.165521 0.000000
40.143902 83.041901 -742.718384 0.935453 0.109339 0.336115 0.000000
40.143501 92.952599 -751.638123 -0.741372 0.339052 0.579146 1.000000
40.139301 230.858994 -725.837830 0.213579 0.205520 -0.955063 0.000000
40.137501 98.897903 -747.876099 -0.457288 0.174975 0.871935 0.000000
40.137100 108.476501 -744.778320 -0.240297 0.125994 0.962488 0.000000
40.132000 22.369900 -735.023010 0.917015 0.065789 -0.393390 0.000000
40.128799 38.390701 -733.614075 0.689788 0.716376 -0.104871 1.000000
40.127602 121.514297 -779.921082 -0.456013 0.797621 0.394782 1.000000
40.126999 84.943703 -746.511780 0.627288 0.046728 -0.777384 1.000000
40.125099 1.022500 -729.340515 -0.932276 0.135529 -0.335400 0.000000
40.124401 86.895897 -743.087585 0.946976 0.050111 0.317372 0.000000
40.124298 153.889008 -747.750183 0.621591 0.040876 -0.782275 0.000000
40.122898 43.400600 -731.680603 0.177731 0.791436 -0.584842 1.000000
40.122398 224.218399 -730.823303 0.881503 0.303914 -0.361371 0.000000
40.122101 20.573700 -734.523071 -0.966107 0.239940 0.095214 0.000000
40.121899 85.493797 -742.579407 -0.945287 0.034351 -0.324426 0.000000
40.121899 14.323600 -730.593018 0.427682 0.238601 0.871870 0.000000
40.121300 23.066700 -734.877686 -0.956312 0.083887 0.280054 0.000000
40.120701 72.571899 -741.285828 0.968566 0.058288 0.241831 0.000000
40.120201 64.163200 -739.678284 0.047317 0.315874 -0.947621 0.000000
40.117298 62.408699 -739.452209 -0.066597 0.330373 -0.941498 0.000000
40.116600 63.116501 -739.418274 0.846564 0.268872 -0.459388 0.000000
40.115700 58.825600 -740.056824 0.996331 0.001057 -0.085581 0.000000
40.114899 155.313004 -747.619873 0.640198 0.091874 -0.762696 0.000000
40.114700 120.016998 -777.943115 -0.442761 0.766255 0.465635 1.000000
40.114498 125.659302 -786.482727 -0.253549 0.894093 0.369203 1.000000
40.113800 108.919998 -765.301575 -0.733087 0.448457 0.511341 1.000000
40.112900 61.021400 -739.220581 -0.821049 0.269528 0.503223 0.000000
40.112701 72.052399 -742.593201 -0.973751 0.121876 0.192237 0.000000
40.111198 68.036102 -740.798523 0.849692 0.520596 0.083692 0.000000
40.111099 64.113899 -740.818420 -0.997923 0.054085 0.034996 0.000000
40.109901 18.942301 -734.334473 0.732388 0.067894 -0.677495 0.000000
40.109600 226.844299 -728.363220 0.831331 0.405412 -0.380172 0.000000
40.109299 131.209000 -806.649170 0.082044 0.990305 0.112088 1.000000
40.107300 32.667000 -733.713928 0.072401 0.207387 0.975576 0.000000
40.106899 33.675201 -736.096619 0.526150 0.522788 -0.670715 0.000000
40.106400 62.114700 -740.349915 -0.508544 0.771752 -0.381814 0.000000
40.106300 59.918201 -740.118713 0.998081 0.022086 -0.057845 0.000000
40.105999 118.152496 -775.373230 -0.525142 0.754176 0.394265 1.000000
40.105999 21.302500 -734.924316 0.899310 0.038867 -0.435582 0.000000
40.105701 96.901497 -754.664978 -0.772208 0.349831 0.530389 1.000000
40.105598 115.406403 -771.953674 -0.905004 0.281066 0.319327 1.000000
40.104401 130.644394 -752.671326 0.196906 0.079496 0.977194 0.000000
40.103802 64.739304 -741.112488 -0.989570 0.073087 0.124131 0.000000
40.102901 224.272202 -732.840881 0.910447 0.394574 0.124088 0.000000
40.102798 26.729300 -735.482422 -0.954736 0.100293 0.280038 0.000000
40.102798 48.267200 -727.675720 -0.334375 0.747901 -0.573444 1.000000
40.102200 1.591100 -730.271790 -0.576847 0.147566 0.803412 0.000000
40.101799 132.883301 -816.695374 0.043038 0.932481 0.358646 1.000000
40.101799 112.688301 -768.957825 -0.898950 0.297675 0.321371 1.000000
40.101501 130.022598 -799.353088 -0.087850 0.813690 -0.574623 1.000000
40.100899 135.507004 -822.454102 -0.245116 0.851056 0.464351 1.000000
40.100498 49.667500 -738.239624 -0.592106 0.740535 -0.317833 0.000000
40.098400 40.722198 -732.684875 0.003717 0.318455 -0.947931 1.000000
40.097900 119.044701 -776.518372 -0.469705 0.789298 0.395456 1.000000
40.096699 119.140999 -745.956726 -0.564371 0.121670 0.816506 0.000000
40.096199 134.383698 -747.110413 -0.450975 0.073094 0.889538 0.000000
40.096001 60.908401 -740.266724 -0.998025 0.028515 0.055974 0.000000
40.095798 29.616600 -735.888184 -0.862850 0.204871 0.462081 0.000000
40.094700 179.016800 -749.700317 -0.869310 0.172097 0.463338 0.000000
40.093498 25.407400 -735.674500 0.955033 0.075837 -0.286638 0.000000
40.092800 63.032902 -740.346680 -0.987147 0.081184 -0.137659 0.000000
40.092701 177.756302 -749.192871 -0.886199 0.142194 0.440945 0.000000
40.092602 7.184800 -729.127380 0.181161 0.031557 0.982947 0.000000
40.092300 73.745598 -742.953674 0.932698 0.118115 -0.340768 0.000000
40.091702 31.819000 -736.637573 -0.736999 0.136592 0.661948 0.000000
40.090099 130.926498 -804.361328 -0.005470 0.992313 0.123629 1.000000
40.087502 23.413401 -732.443420 0.561162 0.029097 0.827194 0.000000
40.087299 111.612297 -745.218079 -0.554433 0.046086 0.830951 0.000000
40.087200 180.406906 -750.762085 -0.854001 0.293899 0.429309 0.000000
40.086102 2.762800 -729.037476 -0.850616 0.066081 -0.521618 0.000000
40.082901 65.657097 -741.368530 -0.964739 0.066490 0.254671 0.000000
40.080002 175.222900 -748.202576 -0.596153 0.281384 0.751947 0.000000
40.079700 30.547300 -733.486511 -0.351070 0.170600 -0.920677 0.000000
40.078999 147.113602 -747.575989 0.569966 0.037626 -0.820807 0.000000
40.077999 113.820900 -770.146912 -0.861339 0.371347 0.346693 1.000000
40.077400 3.789300 -728.710571 0.993684 0.103486 -0.043397 0.000000
40.075802 90.025101 -749.637817 -0.718160 0.655302 0.234149 1.000000
40.075100 81.135696 -744.866028 -0.475720 0.623647 0.620285 0.000000
40.074200 54.430401 -738.036072 0.447408 0.560507 -0.696892 0.000000
40.074100 132.554596 -815.711121 0.083889 0.970362 0.226627 1.000000
40.073299 109.846603 -766.182373 -0.619245 0.565251 0.545003 1.000000
40.070400 161.981598 -747.570313 0.560607 0.020661 -0.827824 0.000000
40.069901 79.850502 -744.478210 -0.793418 0.484420 -0.368545 0.000000
40.069099 69.245697 -742.152710 -0.946682 0.118502 0.299583 0.000000
40.068298 156.012207 -747.643188 0.567764 0.054945 -0.821356 0.000000
40.068001 83.979599 -744.857971 -0.772550 0.566325 -0.287128 0.000000
40.067402 2.306400 -730.231628 -0.802656 0.109653 0.586275 0.000000
40.067200 224.718201 -730.333984 0.916625 0.207349 -0.341768 0.000000
40.066200 223.908707 -732.255493 0.952373 0.233703 0.195878 0.000000
40.064899 59.696999 -738.987305 0.896642 0.438085 -0.064143 0.000000
40.063400 78.852097 -744.239014 -0.979405 0.191544 0.063848 0.000000
40.063400 76.572098 -741.393677 0.696949 0.089128 0.711560 0.000000
40.062901 126.944099 -789.121826 -0.312416 0.804034 0.505891 1.000000
40.061798 102.287804 -748.612976 -0.431778 0.198942 0.879767 0.000000
40.061798 57.144199 -739.420471 0.999471 0.017320 0.027508 0.000000
40.061401 24.681400 -732.497314 0.277597 0.235324 0.931430 0.000000
40.061001 67.909302 -741.826721 -0.982383 0.003439 0.186848 0.000000
40.060902 103.908096 -744.249695 -0.163863 0.246460 0.955200 0.000000
40.059700 131.846695 -746.983215 -0.447247 0.111459 0.887439 0.000000
40.059601 89.521103 -742.885071 0.564423 0.015106 0.825348 0.000000
40.058300 46.316399 -736.794617 0.559927 0.106168 0.821711 0.000000
40.058201 117.103203 -745.977112 0.548787 0.040291 -0.834990 0.000000
40.057400 66.961998 -740.631714 0.992116 0.030132 0.121643 0.000000
40.057301 83.432098 -743.887024 -0.953654 0.044327 0.297621 0.000000
40.056400 58.045300 -738.735229 -0.857070 0.505085 -0.101589 0.000000
40.056198 172.501907 -747.725586 -0.875279 0.003997 0.483602 0.000000
40.054001 227.977905 -727.509705 0.588841 0.448721 -0.672247 0.000000
40.053799 112.421799 -745.395508 -0.501617 0.151515 0.851718 0.000000
40.053699 121.318703 -746.313599 -0.469656 0.198299 0.860291 0.000000
40.052601 114.680199 -771.174377 -0.832862 0.417218 0.363688 1.000000
40.052399 52.241699 -737.659607 0.470553 0.587773 -0.658105 0.000000
40.051998 70.846901 -742.419922 -0.903292 0.019780 0.428569 0.000000
40.050499 19.618401 -734.504578 0.870717 0.065269 -0.487435 0.000000
40.048000 230.124100 -735.064819 -0.237672 0.926494 -0.291753 0.000000
40.047501 47.463402 -736.810791 -0.115199 0.112824 0.986914 0.000000
40.047298 109.678200 -745.082886 -0.516803 0.201568 0.832037 0.000000
40.045399 149.080795 -747.789612 -0.573878 0.248628 0.780287 0.000000
40.045101 82.198196 -742.216492 0.930544 0.016686 0.365800 0.000000
40.044300 99.101799 -743.809875 0.118848 0.223639 0.967399 0.000000
40.041901 11.802400 -732.812012 -0.418195 0.822079 -0.386393 0.000000
40.041000 53.123501 -737.783997 0.260814 0.950011 -0.171624 0.000000
40.040401 133.039795 -747.055298 0.432166 0.075458 -0.898631 0.000000
40.040401 57.934101 -739.687988 -0.999443 0.033348 0.001011 0.000000
40.038898 233.811600 -725.007874 -0.374167 0.159551 -0.913533 0.000000
40.038700 103.571297 -760.399170 -0.477568 0.717184 0.507520 1.000000
40.038601 23.857700 -735.439880 -0.824162 0.081700 0.560430 0.000000
40.038101 96.283302 -754.265076 -0.812617 0.297069 0.501402 1.000000
40.037399 35.455200 -733.602600 -0.249535 0.043023 0.967410 1.000000
40.036701 170.812500 -747.609619 -0.686172 0.555950 0.469135 0.000000
40.035900 124.285301 -746.487976 0.453652 0.053130 -0.889594 0.000000
40.034901 55.119099 -739.267273 -0.998584 0.028291 0.045057 0.000000
40.034599 108.214996 -764.812012 -0.615547 0.461241 0.639029 1.000000
40.031799 159.521301 -747.706116 0.571487 0.084931 -0.816204 0.000000
40.031700 140.145798 -747.479919 0.555584 0.150440 -0.817737 0.000000
40.030899 41.630699 -732.359680 -0.031518 0.011184 -0.999441 1.000000
40.030300 63.420399 -741.078430 -0.960959 0.010962 0.276474 0.000000
40.030102 55.399399 -738.200195 0.978111 0.054139 -0.200916 0.000000
40.029499 28.578600 -736.228577 -0.924985 0.037941 0.378105 0.000000
40.028900 95.215302 -753.460815 -0.435128 0.719699 0.541015 1.000000
40.028801 53.723400 -738.867615 0.999995 0.000979 -0.002938 0.000000
40.028702 24.612801 -735.555115 -0.805463 0.131534 0.577865 0.000000
40.028500 152.482193 -747.679382 -0.493350 0.012098 0.869747 0.000000
