ply
format ascii 1.0
element vertex 682
property float x
property float y
property float z
property float nx
property float ny
property float nz
property float label
element face 0
property list uchar int vertex_indices
end_header
59.421799 225.785599 -982.042419 0.970321 0.239241 -0.035218 0.000000
59.412800 240.661697 -937.176697 -0.726190 0.654660 0.209926 0.000000
59.406200 223.205795 -986.232910 0.435477 0.754278 0.491349 0.000000
59.390701 228.466705 -877.782898 -0.495091 0.803925 0.329530 0.000000
59.390301 236.127197 -910.019287 0.597051 0.778161 0.194924 0.000000
59.382801 211.255997 -846.470825 -0.413562 0.679305 0.606226 0.000000
59.380501 232.748993 -780.904419 -0.137341 0.014516 -0.990417 0.000000
59.377800 198.295700 -788.382874 -0.957409 0.217048 -0.190416 0.000000
59.368698 195.852707 -825.731812 -0.622425 0.645787 0.442206 0.000000
59.364498 220.752502 -782.238220 -0.521280 0.149148 -0.840251 0.000000
59.356400 234.591797 -780.884094 0.210389 0.494944 0.843070 0.000000
59.353802 217.227203 -854.893677 -0.306257 0.791825 0.528412 0.000000
59.342400 221.457504 -861.626099 -0.197364 0.797107 0.570673 0.000000
59.339699 237.319107 -924.860413 0.174287 0.900241 -0.398987 0.000000
59.335300 201.557999 -786.712219 -0.855581 0.281097 -0.434702 0.000000
59.330700 192.416397 -821.308228 -0.712107 0.590407 0.379900 0.000000
59.325600 197.173706 -790.337280 -0.998304 0.030571 -0.049546 0.000000
59.324600 235.149902 -902.493408 0.329907 0.938965 0.097503 0.000000
59.319599 233.350906 -894.140686 0.114306 0.722947 -0.681382 0.000000
59.314899 175.112701 -805.860718 -0.972759 0.173752 -0.153460 0.000000
59.304699 182.576797 -812.320801 -0.644256 0.486136 0.590428 0.000000
59.297298 238.148895 -930.216675 0.044253 0.294597 -0.954596 0.000000
59.296101 237.151703 -922.595276 0.129925 0.990823 -0.037283 0.000000
59.291500 238.709000 -933.166077 0.508090 0.744869 0.432452 0.000000
59.289001 204.355606 -837.667725 -0.320840 0.749701 0.578801 0.000000
59.281399 232.792694 -891.750427 -0.054668 0.987517 0.147720 0.000000
59.277000 236.644608 -781.059021 0.033993 0.300897 0.953051 0.000000
59.276798 189.530304 -818.302795 -0.727137 0.525063 0.442245 0.000000
59.267399 250.027893 -781.591125 0.383018 0.891736 0.241050 0.000000
59.264198 213.146500 -783.640625 -0.797367 0.227598 -0.558931 0.000000
59.262100 239.760193 -780.901184 0.150940 0.581344 -0.799535 0.000000
59.260300 236.399902 -911.090088 0.565590 0.824067 0.031962 0.000000
59.260101 236.026993 -907.591675 0.485670 0.826108 0.285780 0.000000
59.257198 224.756393 -867.924011 -0.268245 0.871417 0.410703 0.000000
59.255501 225.046204 -781.572327 0.379675 0.288916 0.878849 0.000000
59.249401 208.745697 -784.713318 -0.678041 0.029603 -0.734427 0.000000
59.249100 223.818298 -865.895325 -0.240652 0.838449 0.488968 0.000000
59.242699 203.519394 -785.829529 -0.889218 0.247912 -0.384487 0.000000
59.237701 50.366901 -766.227905 -0.505296 0.845141 -0.174394 1.000000
59.232700 236.853195 -916.179504 0.437430 0.895559 -0.081414 0.000000
59.232601 196.715897 -792.407715 -0.987937 0.125695 -0.090453 0.000000
59.212700 234.703796 -899.943604 0.320695 0.946995 0.018864 0.000000
59.205601 195.061295 -824.858582 -0.531925 0.705342 0.468561 0.000000
59.197399 222.427597 -863.452698 -0.218248 0.897894 0.382301 0.000000
59.191601 198.743393 -787.335815 -0.927460 0.210337 -0.309153 0.000000
59.190800 203.121399 -836.055786 -0.358305 0.692069 0.626625 0.000000
59.189800 50.704300 -770.820129 -0.267236 0.960258 -0.080554 1.000000
59.187000 196.377197 -791.186401 -0.995021 0.099609 0.003213 0.000000
59.183300 239.768097 -935.820313 0.535602 0.826658 0.172533 0.000000
59.181801 205.424393 -785.134583 -0.889306 0.047520 -0.454836 0.000000
59.180099 196.945297 -789.244385 -0.943112 0.329768 -0.042344 0.000000
59.163601 218.276794 -782.307312 -0.322085 0.177077 -0.930003 0.000000
59.163300 207.485306 -841.793884 -0.233391 0.731502 0.640651 0.000000
59.162201 228.055695 -982.316895 -0.932748 0.179321 -0.312770 0.000000
59.157200 199.850098 -786.998230 -0.877485 0.174325 -0.446800 0.000000
59.156502 228.521896 -781.323975 -0.088926 0.750768 -0.654553 0.000000
59.153400 211.706696 -783.959778 -0.781072 0.079407 -0.619371 0.000000
59.151600 197.753906 -828.674622 -0.500459 0.734997 0.457515 0.000000
59.144901 210.035706 -844.971375 -0.385155 0.729337 0.565441 0.000000
59.142700 198.516998 -829.732422 -0.749875 0.424984 0.507027 0.000000
59.140499 197.291901 -787.646423 -0.992849 0.112798 -0.039089 0.000000
59.139999 181.017197 -811.331116 -0.690405 0.513206 0.509863 0.000000
59.138500 224.580902 -983.586975 0.115454 0.908331 -0.402002 0.000000
59.124599 248.328293 -781.664978 -0.511002 0.142026 0.847765 0.000000
59.123501 53.746201 -776.928406 -0.511876 0.816823 0.266051 1.000000
59.114601 230.028198 -983.193787 -0.437945 0.888729 -0.135520 0.000000
59.105400 235.618393 -904.857117 0.309727 0.947478 0.079719 0.000000
59.090099 223.807800 -781.665283 -0.439029 0.183541 -0.879526 0.000000
59.083801 219.647797 -782.198608 -0.442829 0.084679 -0.892599 0.000000
59.081600 247.146393 -781.488098 -0.240769 0.148671 0.959128 0.000000
59.079399 216.530807 -782.461121 -0.459235 0.300449 -0.835963 0.000000
59.076099 226.863297 -982.325623 0.485257 0.074117 0.871225 0.000000
59.074902 174.020493 -805.048279 -0.635398 0.369417 0.678086 0.000000
59.068802 208.883698 -843.581116 -0.352956 0.821454 0.447922 0.000000
59.066200 202.414902 -785.904724 -0.904558 0.101122 -0.414185 0.000000
59.061600 230.559799 -781.023682 -0.235841 0.307308 -0.921923 0.000000
59.058800 237.066101 -920.403992 0.195554 0.902445 -0.383865 0.000000
59.056999 190.512604 -819.677185 -0.660152 0.442887 0.606672 0.000000
59.053200 227.497696 -875.289001 -0.497767 0.814956 0.296776 0.000000
59.051998 216.033707 -853.564514 -0.283881 0.769176 0.572521 0.000000
59.050098 51.084000 -773.192017 -0.630666 0.750940 0.195830 1.000000
59.037998 243.666794 -781.090393 0.325996 0.766011 0.554033 0.000000
59.037201 50.561501 -769.141907 -0.468837 0.881304 0.059120 1.000000
59.028099 200.421997 -832.681213 -0.388069 0.828408 0.403908 0.000000
59.026798 230.395599 -883.938171 0.471243 0.156108 0.868079 0.000000
59.021301 223.235901 -864.952515 -0.196623 0.876671 0.439075 0.000000
59.018600 193.405502 -823.032288 -0.676246 0.576061 0.459179 0.000000
59.014801 241.934296 -780.992615 0.078663 0.137366 0.987392 0.000000
59.013000 51.702999 -761.859619 -0.862866 0.336841 -0.376831 1.000000
59.008499 196.972397 -827.756897 -0.186863 0.953133 0.237947 0.000000
59.004002 178.779907 -809.489929 -0.610117 0.475656 0.633647 0.000000
59.002998 231.430893 -886.277100 0.059436 0.976445 0.207419 0.000000
59.000801 188.312393 -817.592712 -0.755223 0.182295 0.629608 0.000000
59.000599 195.951706 -788.697327 -0.975207 0.221266 -0.003512 0.000000
59.000500 214.975906 -782.698914 -0.911376 0.193757 -0.363115 0.000000
58.995300 237.954102 -928.980896 0.100728 0.872507 0.478106 0.000000
58.994400 52.312000 -775.570496 -0.255124 0.714665 0.651280 1.000000
58.992401 238.239502 -781.057617 0.012857 0.000989 0.999917 0.000000
58.991402 201.269608 -833.846497 -0.458271 0.736211 0.497977 0.000000
58.989601 196.047699 -790.058472 -0.941243 0.337331 -0.016424 0.000000
58.988998 229.781006 -882.134521 0.243471 0.882767 0.401801 0.000000
58.983398 176.784805 -807.713501 -0.508908 0.502234 0.699123 0.000000
58.975700 177.820999 -808.714478 -0.623130 0.521808 0.582602 0.000000
58.975399 236.806198 -913.546570 0.546304 0.835606 0.057580 0.000000
58.974400 209.759293 -784.152588 -0.552076 0.133970 -0.822961 0.000000
58.966499 236.324203 -908.638977 0.573444 0.804019 0.157210 0.000000
58.964600 237.032806 -917.830322 0.411419 0.906772 -0.092191 0.000000
58.957401 195.924301 -793.159180 -0.965199 0.247324 -0.084978 0.000000
58.953999 184.948395 -814.821716 -0.679742 0.521975 0.515261 0.000000
58.943802 50.268902 -767.372070 -0.460094 0.875194 0.149494 1.000000
58.942101 237.576401 -926.643982 0.156176 0.986801 0.042804 0.000000
58.937901 213.132797 -849.509827 -0.431663 0.719439 0.544127 0.000000
58.936100 194.227997 -824.169128 -0.651480 0.607936 0.453859 0.000000
58.932701 50.564201 -764.376099 -0.801126 0.467190 -0.374073 1.000000
58.932301 234.109802 -897.340210 0.260652 0.747204 0.611348 0.000000
58.927101 195.477905 -791.871704 -0.968970 0.226135 0.099803 0.000000
58.925800 214.342896 -851.090698 -0.285703 0.797126 0.531944 0.000000
58.913200 228.735199 -879.060974 -0.097566 0.473692 0.875270 0.000000
58.904202 207.280807 -784.416687 0.793434 0.012419 0.608529 0.000000
58.887901 172.940598 -804.159607 -0.512744 0.856437 0.060076 0.000000
58.886101 183.737595 -813.790710 -0.597197 0.499627 0.627478 0.000000
58.883099 226.062805 -871.477112 -0.489413 0.801872 0.342748 0.000000
58.877998 195.047104 -789.471985 -0.989797 0.131896 0.053906 0.000000
58.867699 223.831207 -985.437927 0.615413 0.778535 0.123083 0.000000
58.867401 245.870605 -781.414673 -0.182809 0.255932 0.949252 0.000000
58.866402 200.725006 -786.051270 -0.919268 0.146915 -0.365189 0.000000
58.866199 222.473206 -781.655029 -0.424733 0.001299 -0.905318 0.000000
58.856701 219.586197 -858.860291 -0.254293 0.636522 0.728131 0.000000
58.853600 51.106098 -762.835388 0.006055 0.962820 -0.270074 1.000000
58.853100 233.611206 -895.358215 0.167340 0.437995 -0.883265 0.000000
58.839600 225.044296 -868.951172 -0.416203 0.864423 0.282043 0.000000
58.836300 218.301697 -856.934082 -0.156464 0.961134 0.227464 0.000000
58.827000 206.709702 -840.875916 -0.374073 0.801126 0.467190 0.000000
58.826000 204.362503 -784.989197 -0.861032 0.101382 -0.498342 0.000000
58.825699 194.820206 -787.883728 -0.883640 0.465721 -0.047801 0.000000
58.824299 199.583099 -831.573914 -0.616045 0.551909 0.562036 0.000000
58.820702 225.644897 -983.463074 0.650506 0.282898 -0.704848 0.000000
58.813099 228.914093 -983.465088 -0.898769 0.159112 -0.408531 0.000000
58.810299 191.455399 -821.052185 -0.594655 0.694041 0.405823 0.000000
58.810001 187.182098 -816.838928 -0.746891 0.453411 0.486386 0.000000
58.808701 226.682007 -873.274170 -0.450944 0.831183 0.325245 0.000000
58.807201 185.766907 -815.578430 -0.692677 0.433546 0.576400 0.000000
58.806000 237.327606 -923.688110 0.309558 0.950873 -0.003700 0.000000
58.801300 198.875900 -786.268127 0.930908 0.032368 0.363818 0.000000
58.798901 195.997894 -787.474304 0.982742 0.026813 0.183026 0.000000
58.796902 211.557098 -847.407715 -0.338460 0.843811 0.416446 0.000000
58.792000 233.031296 -893.126282 -0.005014 0.999721 0.023063 0.000000
58.777000 197.678802 -786.633728 -0.972523 0.025182 -0.231439 0.000000
58.773399 194.576599 -791.204102 -0.990726 0.134846 0.016716 0.000000
58.769100 196.100906 -826.771606 -0.598823 0.672217 0.435356 0.000000
58.768398 215.307297 -852.642212 -0.248054 0.718884 0.649365 0.000000
58.750500 220.515793 -860.358704 -0.160323 0.813601 0.558883 0.000000
58.748001 206.139999 -784.395996 0.769349 0.018086 0.638573 0.000000
58.732399 213.816803 -782.875488 -0.868637 0.219776 -0.444036 0.000000
58.728100 234.519608 -898.489929 0.282159 0.957824 0.054407 0.000000
58.728100 171.754303 -803.151978 0.361931 0.786598 -0.500270 0.000000
58.727699 224.699600 -984.611328 0.794902 0.465977 -0.388583 0.000000
58.721298 235.063904 -901.045898 0.334522 0.106133 0.936392 0.000000
58.718102 238.396301 -931.178101 0.441691 0.860615 0.253479 0.000000
58.713501 193.964996 -789.284180 -0.977628 0.207880 0.032073 0.000000
58.708302 232.304306 -890.229614 -0.150440 0.817737 0.555584 0.000000
58.705502 229.483398 -881.012329 0.222935 0.890265 0.397150 0.000000
58.704601 231.651306 -887.407227 -0.152215 0.974934 0.162279 0.000000
58.693100 237.329498 -919.057617 0.077800 0.974348 0.211170 0.000000
58.683998 208.097702 -842.703125 -0.508561 0.815263 0.276970 0.000000
58.679199 175.427902 -806.762512 -0.526352 0.543169 0.654157 0.000000
58.677700 205.676193 -839.708618 -0.225942 0.850693 0.474629 0.000000
58.675900 239.435501 -934.091797 0.452281 0.817280 0.357064 0.000000
58.675800 50.698601 -772.109314 -0.491848 0.869345 0.048220 1.000000
58.671001 227.807693 -983.480408 -0.931662 0.174077 -0.318910 0.000000
58.666401 235.628494 -781.074524 0.023737 0.145811 0.989028 0.000000
58.650101 192.139801 -822.168823 -0.679244 0.629904 0.376627 0.000000
58.650002 233.607101 -780.976074 -0.028056 0.131303 0.990945 0.000000
58.649899 50.019501 -765.319885 -0.580035 0.795087 -0.177191 1.000000
58.649200 231.850998 -888.504089 -0.138536 0.945539 0.294556 0.000000
58.648300 202.264694 -835.489929 -0.435356 0.672217 0.598823 0.000000
58.647800 194.555496 -792.479919 -0.983159 0.075443 0.166454 0.000000
58.646500 227.897797 -877.136780 0.039556 0.877052 0.478764 0.000000
58.646099 224.128494 -866.784119 -0.511199 0.714347 0.477896 0.000000
58.644699 221.835098 -862.542419 -0.215916 0.813130 0.540555 0.000000
58.638802 51.497398 -774.656311 -0.209363 0.817585 0.536397 1.000000
58.636398 222.904999 -987.057312 0.210242 0.366837 -0.906217 0.000000
58.636200 227.266907 -781.370789 0.348522 0.050908 0.935917 0.000000
58.635601 203.034302 -784.967712 -0.845969 0.048779 -0.530996 0.000000
58.631302 52.026600 -760.198975 -0.760612 0.519561 -0.389264 1.000000
58.626900 198.770905 -830.779724 -0.603167 0.656634 0.452793 0.000000
58.626801 181.548004 -812.190674 -0.583995 0.587381 0.560297 0.000000
58.621899 180.036606 -810.947510 -0.499729 0.617510 0.607414 0.000000
58.619801 193.626404 -788.182495 -0.936980 0.315974 -0.149096 0.000000
58.618599 210.712402 -783.566772 -0.825562 0.130971 -0.548903 0.000000
58.604900 237.203400 -915.320984 0.032504 0.693900 -0.719338 0.000000
58.598499 237.132599 -921.568115 0.183794 0.953852 -0.237457 0.000000
58.596600 210.506500 -846.161926 -0.406349 0.728797 0.551122 0.000000
58.590801 193.681198 -790.426575 -0.990209 0.139231 -0.010025 0.000000
58.583599 182.729004 -813.238098 -0.597236 0.546480 0.587085 0.000000
58.577999 212.407700 -783.125977 -0.769047 0.311776 -0.557999 0.000000
58.575699 236.891907 -911.909302 0.574460 0.817662 0.037738 0.000000
58.574699 204.806000 -838.565918 -0.340258 0.717960 0.607254 0.000000
58.574600 201.723099 -785.140625 -0.886099 0.185395 -0.424802 0.000000
58.572201 236.309402 -906.766602 0.536675 0.843735 -0.009511 0.000000
58.564999 188.659698 -818.562683 -0.722146 0.414780 0.553590 0.000000
58.553699 235.641998 -903.393982 0.419076 0.898826 0.128404 0.000000
58.551102 231.980804 -780.943481 0.381230 0.668391 0.638684 0.000000
58.548199 196.190201 -786.383118 -0.955675 0.094660 -0.278793 0.000000
58.547100 199.735107 -785.609924 -0.917773 0.111454 -0.381144 0.000000
58.538399 195.069397 -825.800476 -0.546434 0.712523 0.440137 0.000000
58.533100 193.460098 -791.699829 -0.966693 0.237545 0.095272 0.000000
58.532501 208.696793 -783.843018 -0.892424 0.017290 -0.450867 0.000000
58.518101 203.696793 -837.185974 -0.340626 0.766813 0.544033 0.000000
58.510502 194.163895 -787.021423 -0.935992 0.222456 -0.272823 0.000000
58.508900 229.377106 -781.036682 -0.076392 0.459742 -0.884761 0.000000
58.495499 238.937698 -932.382080 0.561516 0.779795 0.276803 0.000000
58.491199 218.944901 -858.025818 -0.147920 0.802352 0.578231 0.000000
58.490398 217.405807 -855.659790 -0.226641 0.869041 0.439774 0.000000
58.486698 225.507294 -870.578979 -0.449707 0.851833 0.268596 0.000000
58.483898 225.833603 -781.382629 -0.187143 0.146404 -0.971362 0.000000
58.468700 192.870697 -789.517883 -0.973465 0.226862 0.030008 0.000000
58.466801 212.414001 -848.666626 -0.267240 0.859748 0.435219 0.000000
58.465698 236.751801 -910.053772 0.498492 0.845790 -0.190116 0.000000
58.462799 237.299393 -916.849426 0.431157 0.881444 -0.192770 0.000000
58.455299 170.832199 -802.432678 -0.538877 0.753777 0.376074 0.000000
58.445400 229.705307 -984.214478 0.838381 0.142923 -0.526014 0.000000
58.444500 174.426804 -806.184326 -0.544798 0.534678 0.645999 0.000000
58.443501 52.818600 -776.439575 -0.252710 0.843899 0.473257 1.000000
58.428200 216.563705 -854.556091 -0.293234 0.839363 0.457693 0.000000
58.425400 230.995193 -885.045105 -0.134406 0.961722 0.238799 0.000000
58.417301 221.021393 -781.629211 -0.339557 0.136098 -0.930687 0.000000
58.416100 209.223404 -844.565796 -0.001249 0.942782 -0.333408 0.000000
58.401901 240.714401 -781.056519 0.163868 0.117049 -0.979514 0.000000
58.399502 192.525696 -788.003723 -0.957402 0.268904 -0.105223 0.000000
58.395199 50.082901 -768.349792 -0.516740 0.854768 0.048488 1.000000
58.390900 217.386795 -782.077881 -0.473033 0.327484 -0.817920 0.000000
58.382702 244.675797 -781.315613 -0.262407 0.061521 0.962994 0.000000
58.375801 237.809296 -927.753418 0.057704 0.109751 0.992283 0.000000
58.375301 237.529297 -925.406006 0.058729 0.340629 -0.938362 0.000000
58.374500 50.150501 -769.969727 -0.254371 0.934569 0.248750 1.000000
58.372398 229.178497 -879.973572 0.298172 0.949684 0.095888 0.000000
58.363499 222.662506 -864.203979 -0.433486 0.780923 0.449721 0.000000
58.360802 190.435898 -820.628174 -0.737810 0.460512 0.493524 0.000000
58.355499 226.515106 -984.027283 0.849506 0.071849 -0.522664 0.000000
58.347198 240.212601 -935.084595 -0.646472 0.757379 0.091936 0.000000
58.340000 200.633698 -784.988220 -0.818311 0.373404 -0.436962 0.000000
58.334099 169.937393 -801.471008 -0.622846 0.589088 0.514819 0.000000
58.332500 193.274796 -792.904785 -0.981085 0.051135 0.186703 0.000000
58.328602 192.581894 -790.646179 -0.975574 0.210705 0.062115 0.000000
58.318699 191.763397 -788.882080 -0.978879 0.199600 0.044223 0.000000
58.313499 197.953796 -785.632324 -0.842087 0.063262 -0.535618 0.000000
58.305302 195.113098 -786.240723 -0.950868 0.156913 -0.266887 0.000000
58.305199 186.131699 -816.606018 -0.649216 0.481460 0.588824 0.000000
58.304199 234.068100 -896.370789 0.095685 0.161091 -0.982290 0.000000
58.302799 235.479797 -902.094421 -0.108960 0.547704 -0.829547 0.000000
58.298302 192.948502 -786.950623 -0.944361 0.156261 -0.289423 0.000000
58.298302 239.245605 -781.105408 0.181659 0.053429 -0.981909 0.000000
58.297199 184.048904 -814.776428 -0.642801 0.551695 0.531450 0.000000
58.288898 236.248795 -905.667908 0.426048 0.850548 0.308304 0.000000
58.280300 189.283798 -819.465027 -0.580650 0.563721 0.587421 0.000000
58.278000 218.850601 -781.802429 -0.573736 0.001363 -0.819039 0.000000
58.277500 205.038300 -784.255310 -0.394819 0.060227 -0.916783 0.000000
58.272099 201.507797 -834.744019 -0.254273 0.874157 0.413758 0.000000
58.268902 221.111206 -861.510376 -0.225942 0.850693 0.474629 0.000000
58.265999 176.937302 -808.578918 -0.486042 0.586951 0.647496 0.000000
58.253101 230.340607 -882.947876 -0.099906 0.941784 0.321032 0.000000
58.250702 197.373398 -829.330872 -0.563958 0.700373 0.437525 0.000000
58.239799 49.639198 -766.376282 -0.500645 0.862456 0.074325 1.000000
58.235500 242.877899 -781.146179 -0.184553 0.086776 0.978984 0.000000
58.235401 223.665405 -986.344482 0.409833 0.362726 -0.836939 0.000000
58.232899 50.887501 -761.780273 -0.814500 0.462026 -0.350886 1.000000
58.231998 232.833298 -892.114990 0.153149 0.973319 0.170869 0.000000
58.229500 237.187698 -781.150879 0.020215 0.489201 0.871937 0.000000
58.222099 228.428604 -984.531372 -0.953268 0.041666 -0.299238 0.000000
58.220798 50.409599 -763.496582 -0.804392 0.525285 -0.277539 1.000000
58.219299 236.694397 -907.901794 0.650450 0.746591 0.139704 0.000000
58.215401 215.898193 -782.153625 0.517634 0.012164 0.855516 0.000000
58.214802 209.716995 -783.263184 -0.558612 0.163240 -0.813207 0.000000
58.213501 227.539795 -876.050598 0.135408 0.973169 0.186028 0.000000
58.207901 173.360397 -805.383484 -0.489311 0.529391 0.693051 0.000000
58.206100 223.418793 -865.776672 -0.500142 0.804990 0.319138 0.000000
58.205898 237.435593 -914.081421 0.607271 0.746800 0.271131 0.000000
58.205399 179.006195 -810.322327 -0.485313 0.636448 0.599504 0.000000
58.203899 187.508896 -817.935486 -0.658459 0.537208 0.527104 0.000000
58.200001 192.315002 -791.753906 -0.987510 0.100285 0.121522 0.000000
58.197498 228.392807 -878.050293 0.094056 0.264131 -0.959890 0.000000
58.195099 172.009003 -804.120483 -0.577344 0.580730 0.573957 0.000000
58.190800 213.495102 -850.354370 -0.444292 0.516964 0.731678 0.000000
58.188202 192.695206 -823.254517 -0.635655 0.581700 0.507512 0.000000
58.182301 224.729706 -781.368286 -0.283065 0.086600 -0.955183 0.000000
58.182201 238.329102 -929.980591 0.110442 0.418001 0.901708 0.000000
58.180500 191.412003 -787.807922 -0.996014 0.081641 -0.035922 0.000000
58.178699 50.824299 -773.877014 -0.242381 0.868658 0.432071 1.000000
58.175900 246.882904 -782.105896 -0.479784 0.874736 -0.068143 0.000000
58.172501 202.838593 -836.414612 -0.400899 0.704460 0.585675 0.000000
58.171700 203.782806 -784.201904 -0.565656 0.004089 -0.824631 0.000000
58.169300 207.649796 -783.595886 -0.858408 0.042714 -0.511187 0.000000
58.168900 214.662399 -851.933777 -0.222444 0.766887 0.601999 0.000000
58.163502 51.162800 -759.331116 -0.163580 0.484846 0.859166 1.000000
58.160500 234.987701 -899.562500 0.385548 0.509184 0.769470 0.000000
58.158298 211.282196 -782.732727 -0.927467 0.059538 -0.369134 0.000000
58.151798 178.060699 -809.551819 -0.405948 0.651174 0.641232 0.000000
58.150902 191.479904 -790.393005 0.988161 0.005595 -0.153316 0.000000
58.144199 225.688202 -984.878113 0.989570 0.124131 -0.073087 0.000000
58.143101 175.806305 -807.663574 -0.553515 0.506408 0.661190 0.000000
58.140301 226.041595 -872.647217 0.178942 0.539834 -0.822532 0.000000
58.139999 226.756805 -874.193420 -0.105432 0.151483 0.982821 0.000000
58.136799 236.022797 -904.425476 0.372037 0.893779 0.250495 0.000000
58.134102 50.345501 -771.205627 -0.458532 0.881573 0.112149 1.000000
58.130901 224.389008 -868.363525 -0.052335 0.908474 -0.414651 0.000000
58.130699 233.508606 -894.471619 0.243356 0.745769 0.620166 0.000000
58.128300 199.772705 -832.556885 -0.470211 0.684399 0.557225 0.000000
58.126301 237.321899 -922.629028 0.037788 0.580823 0.813152 0.000000
58.113701 219.802795 -859.682983 0.044485 0.899132 -0.435412 0.000000
58.110699 234.625900 -781.047424 -0.005245 0.070277 0.997514 0.000000
58.109100 193.981293 -824.968811 -0.697927 0.561340 0.444741 0.000000
58.102100 196.366104 -827.997803 0.559944 0.818605 -0.127861 0.000000
58.099701 193.987701 -785.973022 -0.854009 0.284670 -0.435468 0.000000
58.099499 51.104698 -760.531921 -0.830294 0.497560 -0.251091 1.000000
58.082600 207.034897 -841.882507 -0.341553 0.755949 0.558464 0.000000
58.079399 168.952805 -800.680481 -0.785663 0.445479 0.429280 0.000000
58.076000 184.902496 -815.709473 -0.596322 0.562536 0.572672 0.000000
58.075100 190.672195 -788.717896 -0.948074 0.279163 0.152393 0.000000
58.074501 236.926697 -909.029175 0.648407 0.761293 -0.001377 0.000000
58.068199 196.862198 -785.497925 -0.873135 0.112525 -0.474313 0.000000
58.066601 191.687195 -786.672974 -0.986603 0.096167 -0.131784 0.000000
58.061901 224.746399 -985.515015 0.814493 0.387322 0.431952 0.000000
58.054699 200.476700 -833.514282 -0.535563 0.468827 0.702406 0.000000
58.053600 192.190201 -792.894470 -0.958021 0.280427 0.059638 0.000000
58.045799 237.260300 -919.963928 0.236210 0.959358 0.154395 0.000000
58.038898 208.456802 -843.561829 -0.301543 0.688549 0.659524 0.000000
58.036800 219.958405 -781.558716 -0.308308 0.099241 -0.946096 0.000000
58.036301 191.203201 -821.919922 -0.542364 0.692557 0.475611 0.000000
58.033199 223.224701 -781.523621 -0.070575 0.761920 -0.643815 0.000000
58.025101 198.990295 -784.950317 -0.910948 0.052323 -0.409189 0.000000
58.025101 228.181503 -781.070129 0.141672 0.030601 0.989441 0.000000
58.023499 222.514297 -987.906616 0.335551 0.809456 -0.481857 0.000000
58.007599 180.670197 -811.867615 -0.461040 0.777088 0.428458 0.000000
58.004002 202.392303 -784.310120 -0.807879 0.072924 -0.584819 0.000000
58.000999 227.329407 -984.893921 -0.988852 0.061441 -0.135634 0.000000
58.000301 49.621899 -764.367676 -0.714192 0.660824 -0.230739 1.000000
58.000099 197.937302 -830.282288 -0.411343 0.748940 0.519505 0.000000
57.996799 214.639694 -782.234985 -0.433499 0.069743 -0.898451 0.000000
57.988300 237.460693 -912.976685 0.602865 0.794751 0.070167 0.000000
57.978100 195.273102 -826.805725 -0.608180 0.621657 0.493619 0.000000
57.976700 206.047897 -840.598572 -0.308463 0.808331 0.501450 0.000000
57.974201 190.601395 -787.045776 -0.949660 0.299962 -0.090381 0.000000
57.968800 215.786697 -853.635925 -0.389394 0.790097 0.473412 0.000000
57.965199 237.237106 -911.013672 0.616255 0.751109 0.236780 0.000000
57.958801 230.337997 -780.951172 0.023758 0.644255 -0.764442 0.000000
57.958599 195.704498 -785.367310 -0.868655 0.059573 -0.491822 0.000000
57.951900 206.479294 -783.648621 -0.773996 0.325303 -0.543239 0.000000
57.948898 209.705200 -845.452881 -0.448451 0.581819 0.678512 0.000000
57.937401 232.099304 -889.453491 0.001195 0.966452 0.256844 0.000000
57.936600 51.870800 -775.454773 0.158905 0.764258 -0.625027 1.000000
57.933701 192.541901 -785.947388 0.957803 0.107867 0.266417 0.000000
57.928699 224.803299 -869.550293 -0.277032 0.840381 0.465847 0.000000
57.927502 189.714600 -787.758972 -0.983101 0.164450 -0.080425 0.000000
57.916401 237.503601 -918.065430 0.335175 0.941315 0.039810 0.000000
57.906898 191.155807 -791.442871 -0.943142 0.285263 0.170612 0.000000
57.903999 50.248501 -772.801270 0.073233 0.989233 -0.126706 1.000000
57.895100 230.610703 -884.075684 -0.066331 0.945548 0.318651 0.000000
57.890900 234.568604 -897.441406 0.100722 0.161398 -0.981736 0.000000
57.878899 211.604095 -848.031311 -0.357521 0.729735 0.582808 0.000000
57.878799 239.588501 -933.241272 0.507498 0.833637 0.217934 0.000000
57.873299 231.277405 -886.490906 -0.013650 0.951772 0.306503 0.000000
57.866001 238.328995 -928.912109 0.332259 0.607791 -0.721245 0.000000
57.861698 190.049103 -790.063110 -0.995468 0.082497 0.047298 0.000000
57.861401 213.345505 -782.289795 -0.352628 0.340416 -0.871648 0.000000
57.858200 199.018600 -831.647888 -0.216549 0.705732 0.674573 0.000000
57.858101 229.995193 -881.921570 -0.054756 0.917490 0.393973 0.000000
57.854198 167.694794 -799.461975 0.750524 0.653965 0.095096 0.000000
57.848301 182.892395 -814.149597 -0.463647 0.600900 0.651115 0.000000
57.843300 241.709793 -781.130615 -0.232537 0.153711 0.960364 0.000000
57.835300 222.037994 -781.470215 0.248915 0.213159 0.944777 0.000000
57.833302 189.558502 -788.994324 -0.976870 0.213285 0.015319 0.000000
57.820301 210.853897 -846.904419 -0.163439 0.889513 0.426677 0.000000
57.815102 237.791702 -926.577087 0.302048 0.950220 -0.076484 0.000000
57.813000 171.164993 -803.498474 -0.521927 0.616516 0.589491 0.000000
57.803600 218.259399 -857.419617 -0.270422 0.835989 0.477487 0.000000
57.803299 237.687607 -915.985474 0.021039 0.713929 -0.699902 0.000000
57.801601 174.802002 -807.062317 -0.459466 0.669985 0.583104 0.000000
57.799702 232.573395 -890.949280 -0.045357 0.094033 0.994535 0.000000
57.796600 197.799301 -784.650330 -0.872771 0.140396 -0.467504 0.000000
57.791599 181.904907 -813.260803 -0.545375 0.599406 0.585899 0.000000
57.778900 205.031296 -839.424927 -0.339557 0.732727 0.589756 0.000000
57.778000 237.505096 -924.237427 0.111980 0.283243 -0.952488 0.000000
57.774300 203.959000 -838.105408 -0.469534 0.767288 0.436814 0.000000
57.771301 221.813599 -863.270874 -0.520504 0.655262 0.547455 0.000000
57.770199 49.993000 -762.500427 -0.893947 0.426300 -0.138298 1.000000
57.766399 201.272598 -784.213074 -0.631250 0.247148 -0.735147 0.000000
57.764900 228.921494 -879.077087 -0.003426 0.983367 0.181597 0.000000
57.761501 192.988098 -824.333984 -0.625695 0.618986 0.474723 0.000000
57.757801 245.594406 -781.763489 -0.410786 0.285565 0.865857 0.000000
57.753899 208.723206 -783.018982 -0.624960 0.261059 -0.735713 0.000000
57.753502 238.964905 -931.311523 0.396570 0.859491 0.322502 0.000000
57.750801 49.533501 -767.456726 -0.450661 0.882724 0.133052 1.000000
57.750702 217.686203 -856.466675 -0.382940 0.721506 0.576876 0.000000
57.743198 229.135605 -985.436279 -0.359459 0.504532 -0.785007 0.000000
57.742901 189.144608 -786.801880 -0.988952 0.115865 -0.092458 0.000000
57.730801 223.504105 -866.865479 -0.241968 0.969101 0.047902 0.000000
57.728699 226.629501 -781.113770 0.217918 0.378796 0.899458 0.000000
57.724701 188.254898 -819.164612 -0.606188 0.552155 0.572417 0.000000
57.722900 234.016403 -895.398621 0.284024 0.775910 0.563288 0.000000
57.722599 225.638794 -871.422485 -0.137379 0.985543 -0.099152 0.000000
57.721600 194.637894 -785.154724 -0.883520 0.136036 -0.448204 0.000000
57.721298 190.487000 -785.937378 0.976521 0.022490 0.214243 0.000000
57.705200 233.273605 -893.094482 0.358515 0.754342 0.549940 0.000000
57.705200 220.341797 -860.834717 -0.454657 0.759949 0.464505 0.000000
57.702400 49.571800 -769.068970 -0.402851 0.829398 0.387053 1.000000
57.697102 227.322006 -875.049072 0.113202 0.417871 -0.901426 0.000000
57.697102 188.694397 -788.161621 -0.941502 0.319176 0.108173 0.000000
57.696499 191.017105 -792.558716 -0.967356 0.134890 0.214540 0.000000
57.695999 235.376007 -900.622314 0.340572 0.919118 0.198073 0.000000
57.690201 169.978897 -802.378174 -0.621608 0.513795 0.591285 0.000000
57.688000 199.802200 -784.266479 0.829637 0.072575 0.553566 0.000000
57.672798 234.889496 -898.539429 0.308915 0.945305 -0.104739 0.000000
57.668098 210.320801 -782.259583 -0.364010 0.158815 -0.917755 0.000000
57.665798 191.615707 -822.903687 -0.691558 0.504017 0.517412 0.000000
57.657600 212.683701 -849.420288 -0.298017 0.671747 0.678190 0.000000
57.654900 186.582001 -817.653076 -0.628317 0.434989 0.644983 0.000000
57.650200 189.965897 -791.267273 -0.977624 0.084637 0.192581 0.000000
57.645699 232.726898 -781.070923 -0.102613 0.034204 0.994133 0.000000
57.641800 231.622803 -887.776184 0.158567 0.919129 -0.360635 0.000000
57.634201 222.713196 -865.132324 -0.512508 0.849341 -0.126312 0.000000
57.626999 189.525406 -820.648682 -0.625816 0.592079 0.507737 0.000000
57.622501 226.406296 -985.562988 0.278304 0.038688 -0.959713 0.000000
57.622299 237.527405 -909.954407 0.645392 0.625380 -0.438600 0.000000
57.615700 236.866104 -906.349121 0.607790 0.747439 -0.268189 0.000000
57.608501 179.643906 -811.435913 -0.705130 0.098630 0.702185 0.000000
57.606098 166.457901 -798.485901 0.620256 0.310933 -0.720141 0.000000
57.585400 188.018097 -786.382202 -0.988617 0.090087 -0.120506 0.000000
57.584801 189.007904 -790.403076 -0.989022 0.030729 0.144541 0.000000
57.582901 237.688202 -911.961426 0.624135 0.773927 0.107204 0.000000
57.578701 216.797897 -781.591003 -0.292010 0.202591 -0.934712 0.000000
57.571400 191.621597 -785.242188 -0.932470 0.162108 -0.322831 0.000000
57.564701 205.280197 -783.337402 -0.843431 0.108132 -0.526243 0.000000
57.561699 193.514999 -785.068115 -0.922451 0.076759 -0.378407 0.000000
57.561600 188.464905 -789.406616 -0.990939 0.067747 0.115973 0.000000
57.555000 194.186493 -825.980286 -0.856730 0.048442 0.513485 0.000000
57.553101 187.650497 -787.464783 -0.967624 0.252372 0.003588 0.000000
57.553001 215.098999 -852.808594 -0.401739 0.749367 0.526360 0.000000
57.552299 218.029800 -781.559570 -0.539778 0.185974 -0.821007 0.000000
57.551601 49.300301 -765.570679 -0.406134 0.913472 0.024973 1.000000
57.542801 223.512894 -987.198914 -0.002961 0.008884 0.999956 0.000000
57.539501 238.434692 -781.256714 -0.213889 0.034652 0.976243 0.000000
57.539398 237.439194 -921.431274 0.197699 0.978908 -0.051521 0.000000
57.534901 196.649597 -784.527527 -0.915578 0.091421 -0.391611 0.000000
57.530102 236.288605 -781.169373 -0.172007 0.136852 0.975543 0.000000
57.528099 216.714905 -855.237915 -0.247679 0.708330 0.661003 0.000000
57.526501 196.536499 -828.939575 -0.365335 0.869771 0.331705 0.000000
57.519501 219.018997 -858.748291 -0.408237 0.772560 0.486306 0.000000
57.517899 243.852097 -781.342224 -0.323207 0.667529 0.670777 0.000000
57.515701 231.493500 -780.848572 0.093647 0.038560 -0.994858 0.000000
57.515598 169.039902 -801.634216 -0.516965 0.634839 0.574218 0.000000
57.511600 201.853394 -835.547424 -0.370333 0.774628 0.512645 0.000000
57.511299 173.749298 -806.245483 -0.507367 0.396431 0.765128 0.000000
57.507000 236.008606 -903.192627 0.385894 0.824193 0.414478 0.000000
57.504601 207.573807 -842.764099 -0.326634 0.757855 0.564771 0.000000
57.493801 213.843399 -851.172180 -0.370747 0.800879 0.470255 0.000000
57.492100 212.149002 -782.284790 0.359280 0.035020 0.932572 0.000000
57.485901 229.498596 -880.645325 -0.083871 0.935898 0.342142 0.000000
57.484501 185.321899 -816.653809 -0.645999 0.534678 0.544798 0.000000
57.480801 52.095001 -776.526672 0.059128 0.884174 -0.463401 1.000000
57.472000 228.047501 -876.740173 0.067536 0.930941 0.358869 0.000000
57.468102 203.115204 -783.586487 0.778694 0.040984 0.626064 0.000000
57.457199 189.390594 -785.749329 -0.965162 0.018211 -0.261019 0.000000
57.450500 239.977097 -781.196228 -0.230017 0.089241 0.969086 0.000000
57.443298 237.472504 -908.160828 0.685427 0.727650 -0.026741 0.000000
57.442299 167.984695 -800.509888 -0.598499 0.608615 0.520947 0.000000
57.440601 237.886200 -914.777588 0.454638 0.869292 -0.193999 0.000000
57.439800 176.181000 -808.463623 -0.443026 0.613549 0.653672 0.000000
57.439400 51.158001 -774.661682 -0.285474 0.828343 0.482030 1.000000
57.438301 186.931107 -786.206177 -0.947118 0.303343 -0.104647 0.000000
57.436199 50.490101 -758.726990 -0.702101 0.572636 0.423252 1.000000
57.429100 203.070297 -837.247681 -0.339802 0.840893 0.421229 0.000000
57.428699 50.322102 -760.111023 -0.193785 0.980672 0.027013 1.000000
57.426998 207.478607 -782.757507 -0.868489 0.077168 -0.489665 0.000000
57.422501 229.188400 -780.899780 0.054993 0.102131 -0.993250 0.000000
57.419300 172.240799 -804.926575 -0.402316 0.644037 0.650660 0.000000
57.417900 177.232803 -809.404480 -0.514379 0.571720 0.639179 0.000000
57.409698 225.556595 -781.093811 -0.149695 0.164790 -0.974903 0.000000
57.409599 198.729904 -784.003479 -0.813892 0.084991 -0.574766 0.000000
57.408401 190.210693 -821.524902 -0.625766 0.551551 0.551551 0.000000
57.407501 224.511703 -986.689880 0.708245 0.337027 -0.620325 0.000000
57.406399 239.670898 -932.217773 0.039630 0.976344 0.212562 0.000000
57.404400 226.518997 -873.328003 0.295500 0.951588 0.084615 0.000000
57.401699 227.455307 -986.016174 -0.097074 0.001067 0.995277 0.000000
57.399300 187.350494 -788.582092 -0.995962 0.020502 0.087403 0.000000
57.395401 49.877201 -770.416077 -0.454993 0.866725 0.204374 1.000000
57.389198 50.265800 -761.409729 -0.648254 0.723596 -0.237013 1.000000
57.380001 195.529602 -784.420471 -0.897328 0.061274 -0.437090 0.000000
57.379398 189.918594 -792.348816 -0.947991 0.157774 0.276441 0.000000
57.375500 183.844696 -815.388672 -0.564691 0.514122 0.645602 0.000000
57.364799 208.735794 -844.448425 -0.322098 0.632866 0.704084 0.000000
57.363998 238.309097 -927.671692 0.119476 0.898178 0.423086 0.000000
57.363998 200.840607 -834.503174 -0.439245 0.772353 0.458840 0.000000
57.361900 178.282501 -810.376404 -0.482052 0.576111 0.660092 0.000000
57.355099 186.561295 -787.661621 -0.995971 0.073410 0.051497 0.000000
57.338001 237.591599 -919.027588 0.383312 0.834452 -0.395931 0.000000
57.335800 49.370499 -763.445190 -0.734181 0.608872 -0.300420 1.000000
57.325199 220.856506 -781.342407 -0.184228 0.146112 -0.971963 0.000000
57.325001 197.126801 -829.907288 -0.498743 0.774920 0.388272 0.000000
57.323700 221.129898 -862.411804 -0.493316 0.755544 0.431037 0.000000
57.321499 195.361404 -827.713379 -0.648450 0.598183 0.470839 0.000000
57.320999 225.061493 -870.443787 -0.139642 0.674187 -0.725239 0.000000
57.315899 187.171707 -818.649902 -0.679749 0.518624 0.518624 0.000000
57.314999 236.652695 -905.238281 0.600661 0.549901 0.580357 0.000000
57.313000 165.566193 -797.856628 -0.802568 0.548963 0.233503 0.000000
57.312000 180.964706 -812.767822 -0.527727 0.578308 0.622145 0.000000
57.302898 188.973007 -791.663330 -0.964411 0.160518 0.210108 0.000000
57.299702 223.861801 -867.849487 -0.012490 0.650855 0.759099 0.000000
57.298302 187.476501 -790.143494 -0.974191 0.170578 0.147834 0.000000
57.292099 233.872406 -781.008484 0.074451 0.001049 -0.997224 0.000000
57.290501 244.668701 -782.368530 -0.760496 0.219284 -0.611196 0.000000
57.275600 215.490494 -781.648987 -0.243365 0.479078 -0.843361 0.000000
57.272202 230.980698 -885.423218 -0.098398 0.750469 0.653540 0.000000
57.264999 235.794907 -901.701782 0.411797 0.889541 0.197839 0.000000
57.260799 237.738495 -925.344971 0.063524 0.551950 0.831454 0.000000
57.260399 222.065704 -988.872375 0.629880 0.340168 -0.698239 0.000000
57.249699 201.997101 -783.533630 -0.819368 0.096821 -0.565032 0.000000
57.247601 224.037704 -781.178284 -0.210897 0.168980 -0.962792 0.000000
57.244999 206.429901 -841.460205 -0.225154 0.822503 0.522297 0.000000
57.228100 190.152695 -784.906677 -0.916244 0.011664 -0.400452 0.000000
57.225201 164.783401 -796.961914 0.711490 0.478214 -0.514872 0.000000
57.224300 49.690201 -771.594482 -0.461550 0.882415 0.091188 1.000000
57.221901 185.955200 -786.715271 -0.998413 0.047343 0.030510 0.000000
57.218498 209.219101 -782.165710 0.110417 0.016399 0.993750 0.000000
57.213299 225.587708 -986.444580 0.961984 0.061779 0.266027 0.000000
57.212002 188.360306 -785.253784 -0.963611 0.040926 -0.264156 0.000000
57.211498 237.889893 -916.945923 0.435464 0.889489 -0.138492 0.000000
57.207298 187.954697 -791.167175 -0.935204 0.042804 0.351512 0.000000
57.205799 239.064407 -930.265381 0.349202 0.916476 0.195268 0.000000
57.203999 222.014999 -864.208313 -0.151641 0.987404 0.045145 0.000000
57.203400 234.504700 -896.407288 0.311764 0.945814 0.090767 0.000000
57.194099 186.261795 -788.776001 -0.982370 0.041177 0.182356 0.000000
57.192902 48.953701 -766.588623 -0.557861 0.821417 0.118600 1.000000
57.192501 191.990295 -823.848816 0.488190 0.375407 -0.787871 0.000000
57.189098 166.745102 -799.505920 -0.666405 0.538831 0.515331 0.000000
57.175098 48.846802 -764.584412 -0.558142 0.829744 0.001358 1.000000
57.173302 219.212097 -781.370422 0.249601 0.197771 0.947938 0.000000
57.172401 192.520401 -784.541809 -0.900079 0.116547 -0.419850 0.000000
57.169399 199.683197 -833.254700 -0.561939 0.672649 0.481422 0.000000
57.163101 194.270096 -784.236572 -0.868935 0.162650 -0.467437 0.000000
57.162701 242.650497 -781.504517 -0.435151 0.001307 0.900357 0.000000
57.145699 188.482895 -820.143005 -0.629426 0.582177 0.514678 0.000000
57.134800 185.313995 -787.649475 -0.999340 0.025677 0.025677 0.000000
57.131500 193.246307 -825.379089 -0.556169 0.667067 0.495679 0.000000
57.128700 238.056107 -913.699829 0.534379 0.844842 0.026101 0.000000
57.127102 210.000397 -846.139221 -0.207573 0.785701 0.582741 0.000000
57.117401 216.008606 -854.458130 -0.440129 0.767362 0.466307 0.000000
57.116501 197.997803 -831.093994 -0.394889 0.669164 0.629510 0.000000
57.113201 228.702103 -986.259399 -0.106491 0.104150 -0.988844 0.000000
57.108601 202.362503 -836.450623 -0.368094 0.731280 0.574227 0.000000
57.104000 235.357407 -899.638977 0.301819 0.573296 -0.761733 0.000000
57.097500 205.375397 -840.292114 -0.313856 0.748426 0.584255 0.000000
57.097301 190.619202 -822.555725 -0.740988 0.527399 0.415676 0.000000
57.092899 235.242493 -781.150085 -0.177368 0.134599 0.974897 0.000000
57.092701 227.574295 -781.155029 0.029104 0.317612 -0.947774 0.000000
57.092201 204.265503 -783.076904 0.601072 0.009628 0.799137 0.000000
57.090698 185.932007 -785.558472 -0.968737 0.086696 -0.232447 0.000000
57.088902 230.189301 -882.771973 -0.060394 0.913961 0.401284 0.000000
57.088001 228.558197 -878.256714 -0.036446 0.981696 0.186934 0.000000
57.086300 206.139999 -782.594299 -0.933859 0.003791 -0.357621 0.000000
57.085400 50.550301 -773.786987 -0.212813 0.816040 0.537392 1.000000
57.083500 214.026306 -781.843872 -0.423060 0.178819 -0.888281 0.000000
57.081902 219.559494 -860.105713 -0.535430 0.736423 0.413517 0.000000
57.079102 237.986893 -910.962524 0.464621 0.879815 -0.100268 0.000000
57.076599 184.934601 -786.094971 -0.992599 0.109287 -0.052954 0.000000
57.073601 233.861404 -894.278992 0.345998 0.823128 0.450272 0.000000
57.069500 197.485001 -783.807007 0.822021 0.040473 0.568018 0.000000
57.067600 237.342896 -781.305298 0.191758 0.048833 -0.980227 0.000000
57.067501 200.419693 -783.576477 -0.493082 0.247309 -0.834092 0.000000
57.062099 233.100601 -892.171326 0.307792 0.951015 0.028895 0.000000
57.061298 182.097794 -814.074219 -0.657374 0.265815 0.705125 0.000000
57.059399 224.426102 -868.824829 0.229548 0.760474 0.607443 0.000000
57.056301 171.229294 -804.315430 -0.409590 0.641747 0.648380 0.000000
57.051701 231.938202 -888.663208 0.055453 0.794828 0.604296 0.000000
57.039700 187.122299 -785.112976 -0.890444 0.288833 -0.351688 0.000000
57.032001 170.158005 -803.261230 -0.496368 0.513080 0.700263 0.000000
57.022499 237.910095 -909.098511 0.637842 0.765701 0.082818 0.000000
57.021099 237.469894 -923.049316 -0.144676 0.589144 -0.794971 0.000000
57.015400 175.214798 -807.924988 -0.437942 0.674398 0.594469 0.000000
57.010101 237.602905 -907.112488 0.656805 0.701551 0.276465 0.000000
57.003300 49.197800 -762.273315 -0.790835 0.575851 -0.207306 1.000000
57.002800 198.888596 -832.420776 -0.490874 0.710520 0.504186 0.000000
56.996601 211.860703 -848.956482 -0.453431 0.740329 0.496300 0.000000
56.988998 194.421906 -826.910583 -0.596295 0.576024 0.559132 0.000000
56.984402 184.337708 -787.086914 0.999298 0.001012 -0.037461 0.000000
56.975899 184.303406 -816.339905 -0.727249 0.407325 0.552445 0.000000
56.974400 48.990601 -768.165222 -0.251683 0.919004 0.303458 1.000000
56.969700 186.144104 -789.902588 -0.995103 0.069890 0.069890 0.000000
56.963600 232.502899 -890.084473 0.211026 0.977320 0.017684 0.000000
56.962101 218.262604 -858.148926 -0.454869 0.826319 0.332101 0.000000
56.945400 222.909607 -781.139099 -0.077566 0.119243 -0.989831 0.000000
56.943802 212.891403 -850.249695 -0.504157 0.628932 0.591837 0.000000
56.940899 191.133698 -784.359070 0.899217 0.090060 0.428133 0.000000
56.928799 204.356598 -839.054871 -0.394769 0.675566 0.622710 0.000000
56.928501 207.881805 -843.697021 -0.273903 0.761546 0.587388 0.000000
56.921600 188.996796 -792.793396 -0.683141 0.006928 0.730254 0.000000
56.915100 184.794205 -788.678589 -0.958253 0.257539 0.124194 0.000000
56.912201 236.641296 -903.965698 0.604883 0.664872 0.438249 0.000000
56.910702 211.082306 -847.870483 -0.519858 0.690358 0.503143 0.000000
56.909599 185.653900 -817.632324 -0.707717 0.501230 0.497900 0.000000
56.905300 189.158905 -784.457581 -0.901849 0.011815 -0.431890 0.000000
56.902699 163.646103 -795.991577 -0.816308 0.276265 0.507266 0.000000
56.890900 226.641205 -986.744324 0.938240 0.050751 -0.342243 0.000000
56.885101 216.911407 -856.166870 -0.531383 0.612356 0.585365 0.000000
56.884899 196.208801 -783.686584 -0.724736 0.219759 -0.653042 0.000000
56.884201 186.806503 -791.043274 -0.940819 0.008816 0.338795 0.000000
56.883301 223.028305 -988.382874 0.525473 0.528831 -0.666495 0.000000
56.883099 209.232605 -845.367188 -0.389953 0.709155 0.587398 0.000000
56.881901 217.568893 -857.221497 -0.479912 0.693950 0.536766 0.000000
56.874599 227.020004 -874.202881 -0.041803 0.951341 0.305291 0.000000
56.872101 179.933105 -812.249573 -0.431145 0.725182 0.536866 0.000000
56.858601 188.022598 -792.229614 -0.958438 0.135417 0.251114 0.000000
56.856300 183.822403 -786.096130 -0.969486 0.244479 -0.018065 0.000000
56.855099 174.211304 -807.113770 -0.466030 0.566251 0.679835 0.000000
56.852901 49.801800 -772.695374 -0.307703 0.864935 0.396492 1.000000
56.851299 49.378601 -760.936218 -0.774567 0.625780 -0.091898 1.000000
56.849098 238.186295 -912.630127 0.544928 0.838455 -0.006795 0.000000
56.843399 223.150696 -866.191772 0.055145 0.907872 0.415604 0.000000
56.837898 238.982803 -929.147278 -0.559511 0.795095 0.234034 0.000000
56.837601 241.301697 -781.500916 -0.298193 0.399120 0.867055 0.000000
56.837002 227.644608 -875.869080 -0.071047 0.923613 0.376684 0.000000
56.833199 220.330093 -861.776428 -0.216977 0.804814 0.552444 0.000000
56.830601 172.744202 -805.855774 -0.420350 0.589819 0.689507 0.000000
56.826401 243.405106 -782.276917 -0.901151 0.429571 -0.058270 0.000000
56.825901 229.147293 -879.776428 -0.032205 0.936530 0.349105 0.000000
56.823799 234.932404 -897.490112 0.341904 0.909319 0.237150 0.000000
56.823002 237.938797 -918.056519 0.494129 0.817274 -0.296478 0.000000
56.816399 237.679596 -920.581177 -0.015325 0.675708 -0.737010 0.000000
56.814800 169.181396 -802.486816 -0.507789 0.622506 0.595514 0.000000
56.813702 168.190399 -801.454407 -0.609530 0.558877 0.562254 0.000000
56.812698 211.029800 -781.986084 -0.479691 0.070911 -0.874567 0.000000
56.799702 226.118500 -872.056213 -0.246935 0.756533 0.605541 0.000000
56.798599 183.596405 -787.997681 -0.924455 0.378486 0.046157 0.000000
56.791698 212.929596 -781.917725 -0.401415 0.136622 -0.905649 0.000000
56.787800 230.331497 -781.048584 0.064674 0.766024 0.639551 0.000000
56.784599 165.636200 -798.965088 -0.814824 0.419371 0.400237 0.000000
56.783401 238.239105 -915.901978 0.578652 0.813509 -0.058007 0.000000
56.782501 230.604706 -884.151794 0.124961 0.973185 0.193122 0.000000
56.779999 182.739899 -814.951172 -0.662032 0.441910 0.605334 0.000000
56.779499 224.348602 -987.606384 0.635026 0.268971 -0.724152 0.000000
56.776699 51.617699 -775.716797 -0.572270 0.779228 0.255562 1.000000
56.774399 229.795502 -881.775085 0.065224 0.374040 -0.925116 0.000000
56.774399 188.837906 -821.146973 -0.609322 0.511425 0.605946 0.000000
56.767300 183.001602 -786.893616 0.997539 0.054645 -0.043930 0.000000
56.765701 195.058899 -783.555481 -0.682334 0.162605 -0.712727 0.000000
56.761902 231.371902 -886.558289 0.119744 0.983352 0.136677 0.000000
56.756500 214.328201 -852.445923 -0.612795 0.555399 0.562151 0.000000
56.753899 49.840199 -758.118103 -0.755382 0.651786 -0.067625 1.000000
56.752102 215.116898 -853.673401 -0.700373 0.563958 0.437525 0.000000
56.749001 49.382099 -769.616272 -0.443190 0.876074 0.189939 1.000000
56.743801 184.857803 -784.989075 -0.936839 0.024284 -0.348918 0.000000
56.742599 203.003799 -782.752014 -0.833608 0.317490 -0.451994 0.000000
56.741699 227.808395 -986.958618 0.580268 0.125503 -0.804697 0.000000
56.730301 237.454102 -905.854126 0.639796 0.730970 0.237369 0.000000
56.727299 178.831894 -811.325806 -0.417251 0.733901 0.535995 0.000000
56.724998 205.068604 -782.227112 -0.838709 0.171317 -0.516931 0.000000
56.724800 48.411499 -763.641724 -0.366299 0.930426 -0.011487 1.000000
56.723999 193.375305 -783.719971 0.881603 0.042241 0.470097 0.000000
56.709099 237.926102 -926.487915 0.139083 0.963184 0.230072 0.000000
56.704399 199.272003 -783.303101 -0.783446 0.164539 -0.599283 0.000000
56.701599 49.799500 -759.409119 -0.610248 0.778179 0.148439 1.000000
56.701000 48.495098 -765.580383 -0.631566 0.775292 -0.006910 1.000000
56.698299 186.190506 -784.523010 -0.889117 0.079063 -0.450800 0.000000
56.692001 167.151794 -800.414917 -0.686540 0.476068 0.549566 0.000000
56.689301 192.325897 -824.900574 -0.592727 0.616369 0.518425 0.000000
56.686199 187.725601 -784.233276 0.937788 0.008835 0.347095 0.000000
56.684502 185.063004 -790.031128 -0.963340 0.035862 0.265877 0.000000
56.682301 190.091095 -783.840027 -0.932937 0.056422 -0.355592 0.000000
56.681900 237.667297 -924.370728 0.122202 0.966037 -0.227681 0.000000
56.677299 195.744293 -828.804077 -0.475961 0.532743 0.699747 0.000000
56.665699 162.742401 -795.242310 0.957466 0.246960 -0.149233 0.000000
56.647202 191.039902 -823.582275 -0.622499 0.544897 0.561767 0.000000
56.636799 221.820099 -990.050171 0.894676 0.259649 -0.363508 0.000000
56.636700 187.539200 -819.766785 -0.648259 0.500086 0.574173 0.000000
56.636398 182.424393 -785.564392 0.991613 0.076630 -0.104079 0.000000
56.629902 208.266403 -782.193481 -0.146427 0.047272 -0.988091 0.000000
56.629700 234.354202 -895.446594 0.192534 0.660777 0.725468 0.000000
56.629200 239.086395 -781.492493 0.385372 0.019463 -0.922556 0.000000
56.628300 233.597595 -893.223816 0.282580 0.954522 -0.095062 0.000000
56.628201 221.740707 -781.163025 -0.039242 0.117727 -0.992270 0.000000
56.625999 235.275208 -898.585388 0.100560 0.156292 -0.982579 0.000000
56.624298 164.690506 -797.929993 -0.717343 0.490989 0.494317 0.000000
