ply
format ascii 1.0
element vertex 682
property float x
property float y
property float z
property float nx
property float ny
property float nz
property float label
element face 0
property list uchar int vertex_indices
end_header
55.535000 146.559692 -774.795715 -0.876575 0.183537 0.444895 1.000000
55.529499 209.909897 -823.043884 -0.286593 0.693267 0.661245 1.000000
55.528301 187.651505 -773.136780 0.450453 0.050353 0.891379 0.000000
55.522499 280.282104 -786.999084 0.982303 0.070592 0.173488 0.000000
55.503399 250.988297 -877.340820 -0.345873 0.745331 0.569959 1.000000
55.503201 45.081402 -760.331116 -0.514665 0.756476 0.403563 1.000000
55.497501 189.229401 -766.600220 -0.456167 0.017289 0.889726 0.000000
55.496899 275.093414 -785.392578 0.993026 0.045901 0.108595 0.000000
55.492001 257.513611 -894.718323 0.333290 0.655200 0.677961 1.000000
55.490799 162.100006 -762.548218 -0.377564 0.159793 0.912092 0.000000
55.488800 167.911194 -763.756775 -0.927161 0.110279 0.358066 0.000000
55.486500 202.608994 -774.052673 0.475463 0.878721 0.042233 0.000000
55.486000 277.582001 -785.632385 0.985847 0.086603 -0.143547 0.000000
55.482800 186.744003 -766.561218 -0.482012 0.039599 0.875269 0.000000
55.480999 46.479301 -763.362915 -0.774861 0.607406 0.175067 1.000000
55.476299 136.157806 -762.703186 0.875269 0.039599 0.482012 0.000000
55.472599 121.845001 -763.549622 0.444045 0.741175 0.503471 0.000000
55.470600 194.779694 -766.630920 0.519190 0.020441 -0.854415 0.000000
55.470100 238.209396 -767.465027 -0.952780 0.001229 0.303660 0.000000
55.467899 147.378296 -762.411682 -0.761897 0.023766 -0.647263 0.000000
55.455700 158.369202 -702.863586 -0.689027 0.715699 0.114097 1.000000
55.443199 176.973602 -766.075073 0.992886 0.016530 0.117912 0.000000
55.436501 264.976196 -763.603088 0.722200 0.278995 -0.632921 0.000000
55.434601 252.664200 -765.643677 0.739881 0.152818 -0.655151 0.000000
55.422501 127.157204 -765.598572 -0.947610 0.107352 0.300850 0.000000
55.421001 158.638000 -697.866028 0.243848 0.955403 -0.166563 1.000000
55.403900 144.179703 -773.838074 -0.914116 0.198845 0.353344 1.000000
55.403599 132.512604 -767.818176 -0.902913 0.176563 0.391884 1.000000
55.396000 190.741394 -773.114807 0.498185 0.197167 0.844356 0.000000
55.390301 142.481506 -772.895630 -0.421232 0.899841 0.113355 1.000000
55.389301 169.101105 -765.051880 -0.930303 0.001269 0.366791 0.000000
55.383301 126.083000 -762.750610 -0.917739 0.046485 -0.394455 0.000000
55.380299 159.121002 -782.409607 -0.936352 0.111823 0.332776 1.000000
55.373699 47.056801 -767.036011 -0.588100 0.798454 0.128878 1.000000
55.369900 240.179306 -767.631104 0.925885 0.104689 -0.363012 0.000000
55.369801 146.215805 -719.589905 0.028220 0.885584 -0.463621 1.000000
55.364498 269.610596 -762.645813 0.649613 0.146201 -0.746075 0.000000
55.363899 145.835495 -762.183594 -0.690734 0.041132 -0.721938 0.000000
55.360100 130.511398 -767.151672 0.619788 0.692124 -0.369900 0.000000
55.360100 261.129913 -764.325012 0.851514 0.356484 -0.384504 0.000000
55.357700 185.221207 -766.573914 -0.185889 0.961087 0.204346 0.000000
55.353802 236.744995 -767.791626 -0.951334 0.008660 0.308039 0.000000
55.352200 140.631302 -771.843872 -0.911679 0.218167 0.348201 1.000000
55.348400 193.228806 -766.696289 0.186752 0.913804 -0.360675 0.000000
55.344898 237.505798 -857.929871 -0.184059 0.845472 0.501298 1.000000
55.340801 258.048706 -896.178894 0.324199 0.891920 0.315235 1.000000
55.340099 258.915192 -764.724182 0.825872 0.009556 -0.563777 0.000000
55.339802 166.264297 -763.616577 -0.913790 0.109212 0.391229 0.000000
55.338799 183.593094 -772.808472 0.490766 0.183478 0.851754 0.000000
55.337898 124.455704 -762.671692 -0.935541 0.242652 -0.256678 0.000000
55.332699 120.422897 -763.349792 -0.942524 0.165044 -0.290532 0.000000
55.328899 178.646194 -772.426025 0.430392 0.089953 0.898149 0.000000
55.327801 193.820602 -807.918274 -0.010702 0.236641 -0.971538 1.000000
55.322701 274.402100 -761.507996 0.645960 0.079838 -0.759185 0.000000
55.319901 147.319000 -718.351685 0.048577 0.850796 -0.523246 1.000000
55.319401 216.430603 -766.537476 -0.934399 0.289119 0.208110 0.000000
55.319401 140.427795 -762.354309 -0.812938 0.032071 -0.581467 0.000000
55.311298 192.102203 -806.085083 -0.421281 0.657732 0.624429 1.000000
55.303299 186.263794 -772.743530 -0.404541 0.011707 -0.914445 0.000000
55.295200 215.669998 -829.394775 -0.071230 0.238684 0.968481 1.000000
55.293400 244.982697 -767.128784 0.828495 0.175287 -0.531855 0.000000
55.287399 125.417000 -765.304871 -0.954089 0.114176 0.276909 0.000000
55.286999 154.601807 -770.570984 0.368580 0.374801 0.850690 0.000000
55.284698 160.211807 -762.458801 -0.795932 0.079161 0.600188 0.000000
55.278900 138.682693 -771.012878 -0.751144 0.650794 0.110679 1.000000
55.277901 156.988602 -769.921021 0.049685 0.146745 -0.987926 0.000000
55.275902 163.453201 -770.763916 0.091070 0.036209 0.995186 0.000000
55.268700 196.770096 -810.186829 -0.229440 0.537412 0.811508 1.000000
55.265301 154.657303 -712.643188 0.800717 0.592964 0.085121 1.000000
55.264301 138.806000 -762.311218 -0.841104 0.057571 -0.537801 0.000000
55.263901 234.391205 -767.734680 -0.945149 0.050151 0.322765 0.000000
55.260601 210.859695 -824.164185 -0.258824 0.665322 0.700255 1.000000
55.258301 198.233307 -811.503113 -0.377633 0.644780 0.664569 1.000000
55.249802 128.669800 -761.971985 0.712030 0.123896 0.691132 0.000000
55.246601 152.844193 -770.332886 -0.026665 0.762049 -0.646970 0.000000
55.244499 118.573402 -763.402222 -0.925565 0.297148 0.234590 0.000000
55.243000 159.942902 -770.211975 0.328833 0.419223 0.846239 0.000000
55.242401 236.535904 -856.562927 -0.163871 0.851834 0.497518 1.000000
55.233299 158.410400 -762.154785 -0.917775 0.099847 0.384344 0.000000
55.229801 159.152206 -696.188904 0.516405 0.749197 -0.414764 1.000000
55.228401 149.935806 -716.064514 0.077142 0.495114 -0.865397 1.000000
55.226101 208.489807 -821.697876 -0.265672 0.181202 -0.946881 1.000000
55.223499 200.740295 -814.276978 -0.023379 0.554231 -0.832034 1.000000
55.222198 156.113007 -780.918213 -0.856397 0.307068 0.415082 1.000000
55.221199 246.190201 -870.646179 -0.293612 0.620917 0.726810 1.000000
55.218800 207.660797 -774.059387 0.502944 0.861589 0.068647 0.000000
55.215599 217.024994 -830.854614 -0.305975 0.751322 0.584717 1.000000
55.213299 180.482895 -772.474182 0.459218 0.094090 0.883327 0.000000
55.202801 214.612000 -828.259888 0.038922 0.292539 0.955461 1.000000
55.196602 254.372498 -765.634521 0.787124 0.032271 -0.615949 0.000000
55.192902 158.357498 -704.390625 -0.367907 0.920461 0.131891 1.000000
55.192699 129.838593 -736.832886 0.471966 0.455521 -0.754817 1.000000
55.190899 43.969799 -759.485474 -0.682438 0.568976 0.458852 1.000000
55.188702 225.082397 -767.277588 0.488236 0.872333 -0.025697 0.000000
55.187698 200.960800 -773.562195 0.475463 0.878721 0.042233 0.000000
55.178398 177.281097 -794.499573 -0.440604 0.553664 0.706629 1.000000
55.176601 164.616104 -763.675598 -0.928717 0.101684 0.356573 0.000000
55.175301 194.136703 -773.112000 0.564001 0.179936 0.805932 0.000000
55.173401 242.755493 -767.663574 0.836908 0.114585 -0.535215 0.000000
55.173199 145.267303 -720.668518 0.020971 0.669667 -0.742366 1.000000
55.172100 220.060898 -834.213928 0.094032 0.016212 0.995437 1.000000
55.168098 199.339096 -773.513428 0.476604 0.878098 0.042334 0.000000
55.165699 174.391403 -765.672424 -0.730201 0.044125 0.681806 0.000000
55.162998 124.075600 -764.770508 -0.965980 0.127340 0.225095 0.000000
55.160599 218.079407 -832.074585 -0.155369 0.457395 0.875585 1.000000
55.158100 148.240799 -776.603271 -0.852386 0.297487 0.430046 1.000000
55.157700 140.807098 -728.528687 -0.503213 0.737496 -0.450417 1.000000
55.156300 211.496597 -774.262085 0.463641 0.885379 0.033793 0.000000
55.154301 131.871307 -735.656799 0.598119 0.513877 -0.614967 1.000000
55.149200 181.315308 -797.637573 -0.391901 0.462863 0.795092 1.000000
55.145500 229.408798 -845.232788 -0.436557 0.763566 0.475798 1.000000
55.141399 144.496201 -722.154785 -0.160206 0.911615 -0.378540 1.000000
55.139400 46.180302 -765.016174 -0.993773 0.077656 0.079907 1.000000
55.138199 122.585503 -762.257324 -0.977674 0.132924 -0.162739 0.000000
55.136200 258.527100 -897.529480 0.012058 0.872191 0.489017 1.000000
55.127899 250.893906 -766.344788 0.686203 0.241354 -0.686203 0.000000
55.124599 128.727097 -766.862427 -0.882616 0.208457 0.421349 0.000000
55.119801 133.463303 -768.900085 -0.863474 0.156862 0.479382 1.000000
55.110401 204.189102 -773.645325 0.472269 0.880570 0.039469 0.000000
55.107101 40.922100 -756.917603 0.308694 0.654560 0.690116 1.000000
55.106602 49.036800 -774.945313 -0.244994 0.936579 0.250594 1.000000
55.106201 152.776398 -779.235718 -0.832787 0.258025 0.489784 1.000000
55.106098 182.931595 -798.791870 -0.010477 0.203711 0.978975 1.000000
55.098000 117.177399 -763.124878 0.904693 0.069382 0.420376 0.000000
55.096298 148.728699 -716.849426 0.017865 0.823148 -0.567546 1.000000
55.091702 263.627289 -764.219482 0.731332 0.243777 -0.636966 0.000000
55.087399 214.707596 -766.761108 -0.991134 0.104754 0.081731 0.000000
55.083500 181.705093 -766.624023 0.572396 0.207168 -0.793375 0.000000
55.082600 235.488205 -854.844788 -0.197848 0.832168 0.518028 1.000000
55.080700 210.259705 -766.843628 0.601311 0.510356 -0.614786 0.000000
55.079300 251.516693 -878.632874 -0.466340 0.781566 0.414344 1.000000
55.076302 133.534195 -734.668518 0.460924 0.877335 -0.133539 1.000000
55.075401 223.311600 -767.306213 0.819642 0.081821 -0.567003 0.000000
55.074902 238.450806 -859.509583 -0.366770 0.901582 -0.229414 1.000000
55.073101 47.853901 -770.813293 -0.483092 0.858338 0.172850 1.000000
55.071701 154.152100 -780.148193 -0.802483 0.203296 0.560974 1.000000
55.068100 248.574493 -766.907715 -0.752421 0.079736 0.653838 0.000000
55.064400 135.237396 -769.819275 0.749053 0.398293 -0.529418 1.000000
55.061600 127.392097 -738.285278 0.470333 0.822690 -0.319323 1.000000
55.059502 209.356003 -773.828308 0.863661 0.089052 0.496145 0.000000
55.058498 136.868195 -770.505127 0.753878 0.271396 -0.598341 1.000000
55.050900 151.167801 -778.432007 -0.840887 0.253650 0.478091 1.000000
55.049900 144.128403 -761.987915 0.630074 0.067457 0.773599 0.000000
55.048901 215.471695 -774.614380 0.458289 0.888355 0.028223 0.000000
55.045300 235.397598 -768.820129 -0.964588 0.015773 0.263290 0.000000
55.043201 179.970795 -796.687988 -0.433862 0.583470 0.686533 1.000000
55.041199 130.124207 -762.167297 -0.842497 0.114556 -0.526379 0.000000
55.041100 159.823502 -694.367615 -0.254510 0.938766 -0.232258 1.000000
55.040901 151.278503 -714.998413 -0.236391 0.435141 -0.868776 1.000000
55.039398 122.561600 -764.726379 -0.956218 0.180041 0.230719 0.000000
55.029301 223.506500 -774.641724 0.053908 0.075912 0.995656 0.000000
55.029202 211.761993 -766.854187 0.649595 0.091965 -0.754698 0.000000
55.023800 172.134796 -765.619080 -0.719757 0.067793 0.690909 0.000000
55.016602 157.151398 -781.879883 -0.819066 0.292859 0.493319 1.000000
55.007401 267.774414 -763.401184 -0.630542 0.107295 0.768703 0.000000
55.002998 248.890396 -874.577820 -0.529025 0.695910 0.485635 1.000000
55.001701 45.496201 -762.197571 -0.799211 0.584897 0.138411 1.000000
54.993999 155.691803 -711.496521 -0.880885 0.272547 -0.386987 1.000000
54.989101 225.141602 -839.939514 -0.508714 0.663175 0.549008 1.000000
54.988800 135.010101 -761.988403 0.824311 0.037659 0.564883 0.000000
54.987900 149.527206 -777.648621 -0.826122 0.319434 0.464202 1.000000
54.986801 145.267303 -775.142212 -0.795418 0.474037 0.377623 1.000000
54.984100 167.213303 -764.993713 -0.908984 0.089116 0.407192 0.000000
54.977798 128.763596 -737.802429 -0.783734 0.178052 -0.595029 1.000000
54.977600 231.771896 -848.856079 -0.333352 0.823112 0.459742 1.000000
54.976002 199.246201 -812.589905 -0.065735 0.305472 0.949929 1.000000
54.974998 256.097687 -765.591675 0.891947 0.111317 -0.438223 0.000000
54.974300 247.950302 -873.214172 -0.514867 0.672513 0.531637 1.000000
54.973301 230.632004 -847.075317 -0.467746 0.784972 0.406243 1.000000
54.970901 213.013107 -774.090027 0.462533 0.885961 0.033712 0.000000
54.969101 49.703499 -777.706604 -0.331473 0.861831 0.383892 1.000000
54.964100 137.441193 -761.861511 -0.776155 0.001374 -0.630540 0.000000
54.961899 158.119003 -706.338379 -0.686901 0.686901 -0.237350 1.000000
54.961300 207.477402 -766.840698 0.905605 0.107115 -0.410374 0.000000
54.957802 143.458893 -723.205994 -0.205805 0.933823 -0.292607 1.000000
54.957600 183.846802 -766.792114 0.262687 0.775477 -0.574136 0.000000
54.952202 219.033905 -833.147583 -0.272436 0.670733 0.689852 1.000000
54.951099 121.156998 -762.088501 0.958281 0.105035 0.265829 0.000000
54.946602 240.110397 -862.028992 -0.164129 0.189976 -0.967973 1.000000
54.944302 171.970596 -771.544312 0.523137 0.650978 0.550051 0.000000
54.943699 192.315506 -772.841125 0.610599 0.110349 0.784215 0.000000
54.937500 187.030396 -802.111206 -0.383887 0.598073 0.703519 1.000000
54.936699 115.331497 -762.908020 0.910639 0.019654 0.412736 0.000000
54.931499 194.934906 -808.740906 -0.353151 0.584245 0.730713 1.000000
54.931400 178.500397 -795.525391 -0.615284 0.471103 0.632050 1.000000
54.928600 124.026497 -740.002686 0.870374 0.153081 -0.467990 1.000000
54.927399 238.995102 -768.649719 0.882997 0.036622 -0.467948 0.000000
54.925701 201.878296 -815.165222 -0.272984 0.290316 -0.917168 1.000000
54.919701 125.652802 -739.187988 -0.848795 0.365994 -0.381569 1.000000
54.919601 246.468307 -767.328613 0.735652 0.012516 -0.677244 0.000000
54.917900 133.366104 -761.924011 -0.834513 0.026208 -0.550365 0.000000
54.913799 219.315094 -767.486389 -0.804132 0.052290 0.592146 0.000000
54.913200 131.929794 -762.060791 -0.840024 0.017757 -0.542259 0.000000
54.909500 126.970299 -761.699890 -0.860770 0.092175 -0.500579 0.000000
54.901501 259.027405 -899.230530 0.251817 0.952057 0.173713 1.000000
54.898899 179.752502 -766.622620 0.196542 0.217934 -0.955969 0.000000
54.898499 213.285706 -767.013672 -0.993931 0.070754 0.084231 0.000000
54.897301 237.575195 -768.956970 0.845969 0.048779 -0.530996 0.000000
54.895100 139.854797 -730.138489 -0.852811 0.419441 -0.311098 1.000000
54.887798 162.647293 -763.726318 -0.939724 0.116961 0.321308 0.000000
54.886799 232.550507 -850.218994 -0.317693 0.810829 0.491555 1.000000
54.883202 197.005402 -772.948975 0.666270 0.545435 0.508513 0.000000
54.874001 218.395996 -774.552124 0.457197 0.888920 0.028156 0.000000
54.871899 161.355301 -770.417603 0.299429 0.104206 0.948411 0.000000
54.869202 221.263504 -767.624023 0.771670 0.012469 -0.635901 0.000000
54.866001 204.918106 -818.156311 -0.258067 0.156445 -0.953376 1.000000
54.863800 188.311203 -803.144409 -0.453513 0.594085 0.664371 1.000000
54.861401 160.440201 -692.593323 -0.424933 0.857536 -0.289936 1.000000
54.859299 257.628204 -765.634827 0.803771 0.112733 -0.584161 0.000000
54.856998 226.897400 -767.895325 0.449799 0.892963 0.017249 0.000000
54.853699 119.105698 -762.111877 -0.951146 0.162785 -0.262339 0.000000
54.848598 174.067200 -792.504822 -0.608321 0.412730 0.677938 1.000000
54.846500 252.177704 -879.887024 -0.472815 0.789101 0.392130 1.000000
54.845100 149.909393 -761.777893 -0.345386 0.479084 0.806962 0.000000
54.844799 120.756104 -764.729614 -0.425702 0.903778 0.044316 0.000000
54.842800 177.400803 -771.866211 -0.264351 0.799309 -0.539651 0.000000
54.838100 271.526093 -762.752930 0.717057 0.541519 -0.438846 0.000000
54.837200 205.881104 -766.820679 -0.968503 0.003574 0.248976 0.000000
54.835201 205.562500 -773.268127 0.473350 0.879859 0.042288 0.000000
54.833500 225.418198 -774.534119 0.555648 0.048987 0.829973 0.000000
54.828602 217.480698 -767.471497 -0.834327 0.006805 0.551228 0.000000
54.822701 165.711899 -764.939819 -0.943325 0.085757 0.320599 0.000000
54.815899 122.745499 -740.696289 0.495207 0.511881 -0.701960 1.000000
54.813900 153.257904 -762.367126 0.229441 0.042489 0.972395 0.000000
54.811600 131.303299 -768.470520 -0.815529 0.253202 0.520385 1.000000
54.811100 157.061005 -762.708008 -0.846511 0.009481 0.532286 0.000000
54.810902 141.180695 -773.264282 -0.884477 0.243119 0.398238 1.000000
54.809799 212.701904 -826.200012 -0.292473 0.739973 0.605723 1.000000
54.809799 146.863495 -776.254883 -0.836686 0.326855 0.439456 1.000000
54.805099 165.868607 -770.851379 0.411594 0.900981 0.137198 0.000000
54.804699 161.196304 -763.548584 -0.959533 0.107478 0.260278 0.000000
54.801800 142.613693 -761.813171 -0.626484 0.015280 -0.779285 0.000000
54.801201 226.010803 -841.152405 -0.528184 0.639558 0.558559 1.000000
54.797401 203.684906 -816.843872 -0.396014 0.819064 0.415099 1.000000
54.797401 174.723404 -771.693604 0.478685 0.059318 0.875980 0.000000
54.796398 113.692398 -762.830017 -0.980338 0.104031 -0.167673 0.000000
54.794498 241.220993 -768.519775 0.837727 0.057532 -0.543049 0.000000
54.793400 241.053299 -863.328674 -0.313299 0.790405 0.526406 1.000000
54.787800 48.379200 -773.282410 -0.222186 0.961055 0.164339 1.000000
54.785801 175.928406 -793.834595 -0.673235 0.233828 0.701483 1.000000
54.783501 155.598007 -769.623474 0.157663 0.183299 0.970332 0.000000
54.777302 175.705704 -766.504822 0.255959 0.043278 -0.965718 0.000000
54.774399 139.115601 -772.293518 -0.756813 0.573636 0.313330 1.000000
54.772701 170.415298 -771.245483 -0.211622 0.386758 -0.897571 0.000000
54.772701 129.483307 -764.137878 -0.355888 0.887468 -0.292820 0.000000
54.764702 171.911194 -791.095825 0.154254 0.986995 -0.045232 1.000000
54.760601 266.463806 -763.952881 0.720816 0.023887 -0.692714 0.000000
54.758099 142.697098 -774.316406 -0.811139 0.249701 0.528869 1.000000
54.751202 126.332603 -766.672729 -0.844473 0.206964 0.493994 0.000000
54.750198 254.705307 -884.567993 -0.689567 0.686426 0.230903 1.000000
54.746700 227.174393 -842.636414 -0.477370 0.681717 0.554419 1.000000
54.746498 190.651596 -767.087830 -0.565385 0.046297 0.823527 0.000000
54.744801 259.559387 -900.733826 0.410566 0.909208 0.069105 1.000000
54.737202 134.745605 -733.900879 0.179481 0.485044 -0.855873 1.000000
54.736198 216.979004 -774.088013 0.458289 0.888355 0.028223 0.000000
54.732101 157.474304 -709.050598 -0.473690 0.554033 -0.684591 1.000000
54.730499 125.520798 -761.593994 0.859609 0.004023 0.510937 0.000000
54.728001 221.526398 -836.061218 -0.174342 0.358605 0.917065 1.000000
54.718102 188.086395 -767.026001 0.139809 0.206508 -0.968405 0.000000
54.709301 152.399597 -713.996399 -0.330506 0.569116 -0.752910 1.000000
54.706299 151.338501 -770.070984 -0.602681 0.026446 -0.797544 0.000000
54.702499 142.718201 -724.496704 -0.325851 0.805885 -0.494339 1.000000
54.697800 221.013397 -774.419983 0.456171 0.889601 0.022742 0.000000
54.695702 246.932800 -872.169312 -0.024326 0.179546 0.983449 1.000000
54.694801 47.303200 -769.458313 -0.581303 0.801336 0.141237 1.000000
54.693100 214.681595 -773.466675 0.461471 0.886616 0.030944 0.000000
54.690701 242.042603 -864.851990 -0.358977 0.748816 0.557145 1.000000
54.690601 168.425903 -770.984680 0.517800 0.393659 0.759549 0.000000
54.689899 119.173798 -764.593384 -0.951333 0.109213 0.288163 0.000000
54.689301 208.961197 -767.341675 0.857575 0.045572 -0.512336 0.000000
54.687401 184.359802 -800.066772 0.082930 0.319873 0.943824 1.000000
54.683498 210.726593 -773.092712 0.485248 0.872896 0.050862 0.000000
54.676399 116.346397 -761.771423 0.958645 0.006106 0.284540 0.000000
54.675098 112.247398 -762.380981 0.035308 0.732990 -0.679322 0.000000
54.673698 136.034302 -733.195618 -0.426422 0.866502 0.259495 1.000000
54.673500 163.646103 -764.907227 -0.932631 0.084057 0.350904 0.000000
54.667900 222.824905 -837.524780 -0.646240 0.762981 0.015287 1.000000
54.667301 239.194794 -860.754028 -0.163468 0.184063 -0.969226 1.000000
54.660099 185.845795 -801.353882 -0.528575 0.521863 0.669528 1.000000
54.658798 252.546204 -766.846802 0.868751 0.100951 -0.484851 0.000000
54.657200 123.960800 -766.174072 -0.812555 0.078819 0.577530 0.000000
54.650299 184.762299 -772.198730 -0.558635 0.251933 -0.790226 0.000000
54.648102 228.403900 -844.282104 -0.390185 0.719456 0.574577 1.000000
54.646999 123.816704 -761.512329 -0.881881 0.076383 -0.465244 0.000000
54.646500 244.006897 -768.138611 0.828565 0.099775 -0.550931 0.000000
54.644699 262.432098 -764.928284 0.728418 0.152953 -0.667842 0.000000
54.643600 160.876801 -691.071472 -0.509540 0.801613 -0.312708 1.000000
54.643101 170.210007 -765.788818 -0.735731 0.038275 0.676192 0.000000
54.637699 249.999207 -876.542175 -0.486210 0.700075 0.522968 1.000000
54.633999 204.148697 -767.099304 -0.982219 0.186703 0.019714 0.000000
54.630798 129.619705 -768.106628 -0.835971 0.250945 0.488035 0.000000
54.627602 159.194397 -763.229309 -0.933421 0.103713 0.343466 0.000000
54.624802 42.676899 -758.533081 -0.301520 0.947065 0.110247 1.000000
54.621101 158.601105 -770.059814 0.531366 0.833312 0.152453 0.000000
54.617401 260.280701 -905.524719 -0.176125 0.727472 0.663148 1.000000
54.611500 203.030396 -772.971924 0.472269 0.880570 0.039469 0.000000
54.610901 259.971313 -903.065918 0.238168 0.931534 0.274810 1.000000
54.595901 138.889893 -731.222290 -0.402785 0.614951 -0.677938 1.000000
54.595798 141.804993 -725.843079 -0.341790 0.898123 -0.276687 1.000000
54.593601 157.998001 -783.036621 -0.766964 0.315432 0.558811 1.000000
54.591301 137.356705 -732.376526 -0.886085 0.188934 -0.423270 1.000000
54.590302 244.419800 -868.401123 -0.374490 0.740803 0.557646 1.000000
54.589901 208.334396 -772.932922 -0.860831 0.034214 -0.507740 0.000000
54.589401 216.093094 -767.781616 0.591876 0.802128 -0.079205 0.000000
54.587399 182.018997 -771.963684 -0.540796 0.130436 -0.830979 0.000000
54.584999 249.967804 -767.307983 0.846489 0.074898 -0.527112 0.000000
54.584099 260.414703 -765.398987 0.723811 0.139947 -0.675657 0.000000
54.583302 156.599899 -710.325684 -0.569241 0.599646 -0.562485 1.000000
54.582001 225.417297 -768.560730 0.450845 0.892380 0.019949 0.000000
54.576698 242.828995 -866.088318 -0.369537 0.668451 0.645458 1.000000
54.576000 155.445694 -762.406128 -0.876735 0.167761 0.450767 0.000000
54.572102 189.926193 -804.647705 -0.396294 0.567309 0.721880 1.000000
54.571899 233.356293 -851.785522 -0.282426 0.862545 0.419823 1.000000
54.570099 121.216202 -741.563477 -0.986212 0.110904 -0.122829 1.000000
54.564999 227.161896 -774.147522 0.449799 0.892963 0.017249 0.000000
54.564301 117.663902 -764.447571 0.901476 0.128379 -0.413353 0.000000
54.558998 212.242203 -772.892883 0.463641 0.885379 0.033793 0.000000
54.555698 151.589401 -761.773682 -0.850946 0.083816 0.518523 0.000000
54.555099 213.630005 -827.303589 -0.209091 0.744983 0.633468 1.000000
54.541401 153.907700 -769.549377 0.508746 0.309051 0.803533 0.000000
54.540901 110.551498 -762.023193 -0.901379 0.180276 -0.393722 0.000000
54.535400 192.872803 -807.057983 -0.336706 0.609974 0.717329 1.000000
54.534401 219.694901 -773.833923 0.963431 0.008483 0.267822 0.000000
54.533699 137.675705 -771.867676 -0.750920 0.573283 0.327821 1.000000
54.520500 117.789597 -761.401184 -0.928436 0.067740 -0.365264 0.000000
54.519199 255.581207 -889.342712 -0.395443 0.766476 0.506102 1.000000
54.508801 114.489899 -761.472473 -0.945596 0.023987 -0.324457 0.000000
54.508099 44.396301 -761.263489 -0.847508 0.468802 0.248908 1.000000
54.505501 253.516006 -882.638489 -0.657815 0.748247 0.086056 1.000000
54.501598 45.490101 -763.854980 -0.532509 0.804229 0.263912 1.000000
54.493000 199.393097 -767.137024 0.547392 0.836786 0.012286 0.000000
54.490002 158.249603 -700.354980 -0.120175 0.508210 0.852808 1.000000
54.488899 223.639801 -768.576782 -0.945636 0.031733 0.323674 0.000000
54.487499 195.706497 -772.447876 -0.657576 0.026640 -0.752917 0.000000
54.484901 166.332504 -787.789124 -0.146595 0.900921 0.408474 1.000000
54.480400 255.929199 -890.978821 -0.461208 0.871170 0.168377 1.000000
54.479401 188.198105 -772.213623 0.856617 0.065894 0.511727 0.000000
54.479301 206.432297 -819.819824 -0.192724 0.686099 0.701517 1.000000
54.478100 141.221695 -761.495789 -0.550634 0.001353 -0.834745 0.000000
54.474701 154.801102 -781.291626 -0.801573 0.380707 0.461025 1.000000
54.473598 161.783798 -764.922485 -0.941226 0.102801 0.321753 0.000000
54.470402 121.737701 -765.789917 0.725622 0.165813 -0.667816 0.000000
54.469898 234.643906 -853.805298 -0.203006 0.813549 0.544910 1.000000
54.466000 177.730194 -766.805176 0.555255 0.265830 -0.788052 0.000000
54.465698 222.371201 -773.909729 -0.953706 0.003682 -0.300718 0.000000
54.464401 223.994003 -839.077881 -0.518534 0.809916 0.274150 1.000000
54.457901 245.432098 -768.202576 0.854062 0.098711 -0.510720 0.000000
54.457600 216.330505 -772.798889 0.461471 0.886616 0.030944 0.000000
54.454201 217.841293 -772.776428 0.458289 0.888355 0.028223 0.000000
54.451401 153.453796 -712.937927 -0.467257 0.571092 -0.674926 1.000000
54.443600 51.169998 -779.895813 -0.004074 0.829738 0.558138 1.000000
54.440102 227.153305 -770.331787 0.449799 0.892963 0.017249 0.000000
54.437599 133.901199 -770.249329 -0.966768 0.061125 0.248241 1.000000
54.435600 127.580498 -767.438171 -0.851881 0.301483 0.428260 0.000000
54.433899 190.001007 -772.265930 0.816121 0.066942 0.573991 0.000000
54.433701 49.053398 -776.420105 -0.439041 0.873617 0.209847 1.000000
54.433601 255.000504 -886.545471 -0.556351 0.773153 0.304479 1.000000
54.419998 139.744095 -761.298889 0.527930 0.004051 0.849278 0.000000
54.419300 161.280106 -687.430725 -0.380045 0.921035 0.085206 1.000000
54.416801 265.263611 -764.674072 -0.043810 0.981592 0.185899 0.000000
54.414600 235.590302 -770.105591 0.860432 0.039924 -0.507999 0.000000
54.414299 173.244598 -766.290527 0.575722 0.012366 -0.817552 0.000000
54.413399 116.259499 -764.016602 -0.856168 0.466589 0.221970 0.000000
54.412601 108.915901 -761.921082 0.908247 0.385188 0.163456 0.000000
54.408600 260.366791 -907.085999 0.318792 0.940234 -0.119715 1.000000
54.407600 247.854202 -767.958679 0.890088 0.041998 -0.453850 0.000000
54.405499 254.597794 -766.813416 0.807569 0.137805 -0.573448 0.000000
54.401001 214.645996 -768.027588 -0.874060 0.050929 0.483142 0.000000
54.400799 132.346405 -769.568604 -0.828560 0.140309 0.542035 1.000000
54.398998 201.969894 -767.337708 0.998197 0.051649 -0.030568 0.000000
54.386101 160.105698 -764.384277 -0.972086 0.096333 0.213934 0.000000
54.379398 225.568802 -770.834106 0.450845 0.892380 0.019949 0.000000
54.378799 256.704010 -893.591980 -0.078192 0.129542 -0.988486 1.000000
54.378799 168.776596 -766.484497 0.953024 0.278130 0.119952 0.000000
54.373600 143.772797 -775.211487 -0.133216 0.880945 -0.454081 1.000000
54.372700 221.141602 -773.015808 0.456142 0.889544 0.025416 0.000000
54.372501 130.715897 -735.995605 -0.797644 0.361106 -0.483080 1.000000
54.371601 157.888504 -701.992004 -0.223451 0.963061 -0.150274 1.000000
54.366199 242.559692 -768.846802 0.880658 0.148946 -0.449729 0.000000
54.365700 122.059196 -761.046875 -0.868952 0.045301 -0.492818 0.000000
54.365200 157.690994 -707.618408 -0.769239 0.547621 -0.329215 1.000000
54.363602 194.391800 -767.478210 -0.545607 0.303822 0.781029 0.000000
54.360600 219.239304 -772.471985 0.457230 0.888984 0.025476 0.000000
54.359200 40.168900 -755.934998 0.041034 0.635321 0.771158 1.000000
54.359001 116.301399 -744.455627 0.305400 0.507945 -0.805433 1.000000
54.358898 119.968002 -761.060120 0.827312 0.109048 0.551057 0.000000
54.355202 136.063904 -761.208923 -0.647141 0.046936 -0.760924 0.000000
54.351101 148.204605 -762.011292 -0.113310 0.018702 -0.993384 0.000000
54.350899 220.040100 -768.781921 0.456142 0.889544 0.025416 0.000000
54.348301 197.911804 -767.292786 -0.943573 0.071978 0.323249 0.000000
54.345501 212.172195 -768.205627 -0.915489 0.043848 0.399945 0.000000
54.343399 218.487106 -768.645325 0.455072 0.890008 0.028190 0.000000
54.343201 224.307907 -773.590515 0.451917 0.891836 0.019996 0.000000
54.342899 186.087708 -767.252075 -0.217287 0.113091 0.969534 0.000000
54.342201 192.295593 -767.411621 0.478762 0.056568 -0.876120 0.000000
54.341400 161.434097 -689.560181 -0.536071 0.766047 -0.354682 1.000000
54.338902 179.600494 -771.724304 0.619517 0.116806 0.776244 0.000000
54.338299 167.805099 -788.665771 0.145493 0.021429 0.989127 1.000000
54.337101 221.948395 -768.771484 -0.957554 0.008582 0.288125 0.000000
54.330799 222.871796 -772.468628 0.455114 0.890208 0.020020 0.000000
54.329700 155.934204 -782.277527 -0.874496 0.174313 0.452628 1.000000
54.327702 46.816502 -768.060730 -0.504303 0.837476 0.210505 1.000000
54.326698 207.560806 -821.039490 -0.419526 0.591980 -0.688156 1.000000
54.321400 120.120003 -742.540100 -0.657559 0.593979 -0.463471 1.000000
54.320301 173.437698 -771.118713 -0.477370 0.681717 -0.554419 0.000000
54.317101 140.949707 -727.311584 -0.440118 0.884565 -0.154402 1.000000
54.316799 201.379593 -772.474670 0.475463 0.878721 0.042233 0.000000
54.316299 240.059692 -769.404724 0.911620 0.205943 -0.355719 0.000000
54.315899 213.783600 -772.344421 0.462574 0.886038 0.031018 0.000000
54.314400 113.071999 -761.220825 0.954524 0.031275 0.296490 0.000000
54.311901 224.278397 -771.637512 0.454035 0.890760 0.019972 0.000000
54.303001 170.086807 -790.516418 0.264324 0.742324 0.615701 1.000000
54.297600 211.645798 -825.242188 -0.089167 0.744029 0.662171 1.000000
54.292198 158.495804 -698.806885 -0.049338 0.913412 -0.404035 1.000000
54.285801 209.177200 -822.552917 -0.161599 0.783831 0.599578 1.000000
54.282001 245.279999 -870.034119 -0.253871 0.404090 0.878784 1.000000
54.280800 193.466202 -772.166992 0.859473 0.062888 0.507298 0.000000
54.275200 152.994095 -780.484070 -0.151197 0.885580 -0.439190 1.000000
54.273899 46.154301 -766.661316 -0.474256 0.846340 0.242465 1.000000
54.273499 152.487900 -769.302124 -0.592802 0.029291 -0.804816 0.000000
54.269600 151.583893 -779.661926 -0.696896 0.333016 0.635166 1.000000
54.269299 221.670395 -771.523804 0.427199 0.903639 0.030609 0.000000
54.264301 199.778397 -772.445007 0.476604 0.878098 0.042334 0.000000
54.262100 210.316299 -768.210571 0.914445 0.011707 -0.404541 0.000000
54.261200 157.888306 -763.841980 -0.942474 0.128090 0.308765 0.000000
54.256302 251.373398 -767.645813 0.894875 0.028090 -0.445431 0.000000
54.255600 150.588104 -776.526123 -0.498027 0.795883 0.344295 1.000000
54.252602 106.933197 -761.551514 0.731916 0.342426 0.589103 0.000000
54.251099 198.221497 -772.410095 0.201924 0.965326 -0.165447 0.000000
54.248798 227.276398 -771.754883 0.449799 0.892963 0.017249 0.000000
54.242401 224.276596 -770.042480 0.451917 0.891836 0.019996 0.000000
54.233799 206.874802 -768.073303 -0.892290 0.041847 0.449520 0.000000
54.231300 225.695999 -773.265381 0.451917 0.891836 0.019996 0.000000
54.227402 114.378403 -764.043274 -0.742022 0.625934 0.240020 0.000000
54.227001 111.648598 -761.108582 -0.966776 0.055847 -0.249451 0.000000
54.226799 163.620697 -786.041382 0.070379 0.779912 0.621919 1.000000
54.222500 130.982300 -761.047974 0.647900 0.009712 0.761664 0.000000
54.216801 260.567413 -908.509705 0.302310 0.926799 0.222829 1.000000
54.215099 258.893799 -766.018677 0.783306 0.180997 -0.594704 0.000000
54.214699 129.226196 -761.090027 -0.781002 0.001373 -0.624527 0.000000
54.213299 207.076797 -772.365479 0.469022 0.882306 0.039425 0.000000
54.212502 204.612595 -772.344727 0.472269 0.880570 0.039469 0.000000
54.203300 257.315796 -895.645630 -0.482563 0.837163 0.257470 1.000000
54.199299 256.896515 -766.694580 0.846644 0.249553 -0.470018 0.000000
54.196301 186.407501 -771.798279 -0.843816 0.303028 -0.442887 0.000000
54.196201 164.660294 -765.809692 -0.784937 0.064339 0.616226 0.000000
54.189899 237.105301 -770.157471 0.932664 0.147408 -0.329256 0.000000
54.187500 220.198898 -771.405701 -0.950029 0.049867 -0.308152 0.000000
54.185398 191.166504 -805.940613 -0.496448 0.476524 0.725578 1.000000
54.183998 209.747803 -772.165283 0.908249 0.017038 0.418083 0.000000
54.176601 132.339294 -734.698120 -0.803248 0.291947 -0.519192 1.000000
54.176498 161.300201 -685.932678 -0.140714 0.896876 -0.419300 1.000000
54.176300 196.274307 -767.378784 -0.734286 0.089049 0.672974 0.000000
54.175800 196.850906 -811.230591 -0.126246 0.976217 -0.176244 1.000000
54.171299 50.324699 -778.767090 0.067791 0.751471 0.656275 1.000000
54.171299 175.975906 -771.195007 -0.306649 0.842116 -0.443629 0.000000
54.167400 181.771500 -798.653870 -0.405599 0.540252 0.737304 1.000000
54.162998 126.288696 -738.130005 -0.742245 0.334738 -0.580536 1.000000
54.162399 195.796402 -809.893188 -0.558837 0.818350 0.134180 1.000000
54.161400 216.165604 -830.327026 -0.058818 0.715853 0.695769 1.000000
54.160900 217.110992 -769.030884 0.458289 0.888355 0.028223 0.000000
54.160500 156.144104 -763.704773 -0.955902 0.097541 0.277016 0.000000
54.155998 222.921997 -770.833008 0.455114 0.890208 0.020020 0.000000
54.149101 162.559494 -770.145020 0.416054 0.137738 0.898848 0.000000
54.148899 118.679199 -743.298279 -0.901271 0.309303 -0.303384 1.000000
54.147099 146.700195 -718.996887 -0.257681 0.731940 -0.630765 1.000000
54.146900 160.456406 -783.948486 -0.252494 0.098690 -0.962552 1.000000
54.146599 52.324699 -781.059082 0.213053 0.491081 -0.844659 1.000000
54.142700 47.802200 -771.988525 -0.286382 0.886135 0.364350 1.000000
54.139301 252.582703 -881.473328 -0.648273 0.624942 0.434960 1.000000
54.139198 171.779602 -766.806213 -0.401345 0.401345 0.823313 0.000000
54.134899 166.268799 -766.065796 -0.754260 0.052755 0.654453 0.000000
54.129700 119.857300 -765.774292 0.778659 0.049641 -0.625480 0.000000
54.126301 125.013496 -767.132874 -0.850198 0.139017 0.507777 0.000000
54.121300 157.748901 -703.555176 -0.369911 0.914149 -0.165822 1.000000
54.120899 154.494598 -711.713501 -0.711394 0.558834 -0.426173 1.000000
54.116901 158.800293 -697.293701 -0.108837 0.992995 -0.046003 1.000000
54.116798 221.191193 -770.012573 0.452939 0.891180 0.025386 0.000000
54.114899 146.440598 -761.828003 0.205589 0.034463 0.978031 0.000000
54.111801 167.150299 -770.548828 -0.411158 0.112894 -0.904547 0.000000
54.111599 164.295303 -770.307678 -0.314795 0.201864 -0.927445 0.000000
54.110699 210.132294 -823.696777 -0.073886 0.743204 0.664972 1.000000
54.110699 183.587402 -771.577698 -0.849278 0.004051 -0.527930 0.000000
54.106998 250.521606 -877.999084 -0.567041 0.700071 0.434011 1.000000
54.106400 205.106094 -768.251770 -0.916683 0.024846 0.398842 0.000000
54.105801 135.914902 -771.020508 -0.289419 0.602822 -0.743534 1.000000
54.104099 191.748993 -771.804626 0.852746 0.225682 0.471055 0.000000
54.100800 127.672501 -737.242493 -0.776254 0.374352 -0.507239 1.000000
54.097198 154.397598 -763.282898 -0.943177 0.099491 0.317046 0.000000
54.096401 157.647003 -705.246399 -0.497257 0.866412 -0.045456 1.000000
54.092800 182.727203 -767.323303 -0.888679 0.276312 0.365926 0.000000
54.092499 158.814301 -765.017212 -0.925197 0.096177 0.367098 0.000000
54.091301 211.436203 -771.783325 -0.924742 0.090714 -0.369626 0.000000
54.089500 237.747498 -858.724182 -0.187006 0.804279 0.564060 1.000000
54.087799 229.608597 -846.336304 -0.362624 0.756144 0.544749 1.000000
54.086899 172.767807 -792.221375 -0.381814 0.508544 0.771752 1.000000
54.086201 213.292404 -769.202881 0.462533 0.885961 0.033712 0.000000
54.085201 208.409195 -768.549622 -0.946320 0.047509 0.319720 0.000000
54.080601 43.237099 -760.143188 -0.869201 0.417156 0.265463 1.000000
54.079899 128.994400 -736.513123 -0.776384 0.332736 -0.535271 1.000000
54.077499 111.333702 -763.342773 -0.882616 0.421349 0.208457 0.000000
54.076302 215.403793 -771.773682 0.461471 0.886616 0.030944 0.000000
54.074799 112.831902 -763.876587 -0.866770 0.012094 0.498561 0.000000
54.073700 115.791801 -760.546326 0.884644 0.050590 0.463515 0.000000
54.071499 238.641602 -770.185303 0.940071 0.074943 -0.332641 0.000000
54.071499 44.531898 -762.790894 -0.324872 0.873952 0.361477 1.000000
54.067101 105.079903 -761.290771 -0.445305 0.572058 -0.688805 0.000000
54.065601 174.530106 -767.031677 -0.328116 0.444291 0.833634 0.000000
54.061699 236.904099 -857.414490 -0.115820 0.804875 0.582032 1.000000
54.061600 235.912506 -855.835693 -0.103490 0.808970 0.578669 1.000000
54.059898 138.247696 -760.805115 -0.975974 0.210266 0.057124 0.000000
54.059799 134.179306 -760.940430 0.520809 0.012175 0.853586 0.000000
54.058701 199.983307 -813.696228 -0.286171 0.737010 0.612310 1.000000
54.056801 218.003006 -771.403687 0.458289 0.888355 0.028223 0.000000
54.055698 230.864105 -848.205688 -0.303377 0.792592 0.528924 1.000000
54.055099 255.073196 -888.088074 -0.467481 0.854779 0.225420 1.000000
54.053001 147.788193 -717.865173 -0.280941 0.585691 -0.760288 1.000000
54.052200 215.052902 -829.021179 -0.428590 0.903336 -0.017144 1.000000
54.043400 180.991104 -767.312317 -0.214872 0.101782 0.971324 0.000000
54.041100 41.549599 -757.685791 -0.310364 0.747767 0.586957 1.000000
54.035500 214.883301 -769.392578 0.461471 0.886616 0.030944 0.000000
54.034500 178.933701 -796.660706 -0.395384 0.539757 0.743191 1.000000
54.034500 196.909698 -771.732178 -0.726703 0.662176 -0.182828 0.000000
54.031898 220.316193 -835.051392 -0.386645 0.869568 -0.307176 1.000000
54.030899 144.582001 -721.192993 -0.227324 0.710193 -0.666296 1.000000
54.027100 108.162399 -760.721985 -0.974342 0.082949 -0.209230 0.000000
54.027100 109.669601 -760.702026 0.952780 0.001229 0.303660 0.000000
54.024799 200.525604 -768.114929 0.546835 0.837213 0.006785 0.000000
54.021900 193.426407 -808.392212 0.663717 0.446379 -0.600188 1.000000
54.021900 150.138596 -769.696472 -0.676569 0.182566 -0.713389 0.000000
54.021301 219.346100 -770.226501 0.453987 0.890564 0.028123 0.000000
54.020699 203.130707 -768.262024 0.475516 0.878819 0.039513 0.000000
54.012600 253.406906 -768.145020 -0.846878 0.089972 -0.524122 0.000000
54.009602 159.592697 -695.414978 -0.086877 0.900489 0.426112 1.000000
54.005699 132.395493 -760.951477 0.571313 0.026283 0.820311 0.000000
54.005100 139.881195 -728.842529 -0.758988 0.559169 -0.333568 1.000000
54.003101 243.389206 -867.437012 -0.393294 0.755581 0.523848 1.000000
53.999298 249.448303 -768.518982 0.885116 0.099910 -0.454519 0.000000
53.996799 127.566803 -760.772400 0.576928 0.125419 0.807109 0.000000
53.995300 187.253403 -803.562195 -0.605402 0.638943 0.474595 1.000000
53.993500 211.392502 -769.432129 0.463597 0.885294 0.036493 0.000000
53.993198 241.418198 -769.907715 -0.944876 0.003735 0.327408 0.000000
53.989300 236.757202 -772.476929 -0.510995 0.174304 -0.841726 0.000000
53.982101 248.893204 -875.736572 -0.450417 0.737496 0.503213 1.000000
53.981800 246.727402 -768.767517 -0.911128 0.009098 0.412022 0.000000
53.972301 176.901306 -795.216370 -0.424301 0.597349 0.680546 1.000000
53.962399 150.396606 -715.476013 -0.333079 0.693779 -0.638537 1.000000
53.959999 261.578705 -765.964111 0.822503 0.225154 -0.522297 0.000000
53.959702 243.986404 -769.464111 0.938416 0.177762 -0.296269 0.000000
53.956501 122.516502 -766.917786 0.456874 0.096998 -0.884227 0.000000
53.953899 152.282501 -762.977417 -0.946547 0.124159 0.297715 0.000000
53.951000 184.684097 -767.503418 0.875568 0.033937 -0.481902 0.000000
53.947800 261.058197 -910.164673 0.094520 0.594751 -0.798334 1.000000
53.947102 215.901398 -770.416016 0.461471 0.886616 0.030944 0.000000
53.946400 147.810104 -777.413574 0.428478 0.895137 0.123028 1.000000
53.946301 118.182602 -765.660889 -0.820418 0.192593 0.538352 0.000000
53.942402 217.315796 -831.549988 -0.088878 0.770765 0.630890 1.000000
53.941299 109.753502 -763.060120 -0.950752 0.044547 0.306735 0.000000
53.939499 161.702698 -684.238892 -0.565848 0.666593 -0.485253 1.000000
53.936901 212.960205 -770.951172 0.462533 0.885961 0.033712 0.000000
53.936298 139.965302 -773.135925 -0.720899 0.139966 -0.678759 1.000000
53.936298 124.702797 -760.619324 -0.733083 0.026734 -0.679614 0.000000
53.935299 133.512100 -733.683105 -0.801296 0.244278 -0.546126 1.000000
53.931900 189.523407 -767.694702 0.545242 0.105577 -0.831603 0.000000
53.925201 124.485100 -739.030579 -0.585499 0.378852 -0.716703 1.000000
53.923801 180.203705 -797.599915 -0.611029 0.624495 0.486466 1.000000
53.921600 145.644196 -719.993896 -0.118186 0.878562 -0.462776 1.000000
53.921200 160.666901 -765.653687 -0.852461 0.060190 0.519315 0.000000
53.919899 162.903107 -766.017822 -0.764307 0.085894 0.639106 0.000000
53.916000 148.895096 -776.285522 0.087541 0.085267 -0.992505 1.000000
53.911900 238.801193 -772.096130 -0.760911 0.041092 -0.647554 0.000000
53.900101 247.884598 -874.341675 -0.475611 0.692557 0.542364 1.000000
53.894699 203.356003 -771.661926 0.475463 0.878721 0.042233 0.000000
53.894699 118.644699 -760.435303 0.789499 0.001373 0.613750 0.000000
53.893700 209.615295 -769.508484 -0.988362 0.075848 0.131859 0.000000
53.891800 103.412697 -761.096924 -0.146350 0.734766 -0.662345 0.000000
53.891602 245.971298 -871.328125 -0.432373 0.710683 0.554962 1.000000
53.890598 116.639900 -765.417175 -0.821942 0.130864 0.554333 0.000000
53.890400 45.397099 -765.167419 -0.564265 0.751814 0.341146 1.000000
53.887100 149.776596 -778.569702 0.379675 0.878849 -0.288916 1.000000
53.886299 251.195801 -879.478088 -0.640733 0.686383 0.344007 1.000000
53.884899 178.954803 -767.375305 -0.827409 0.248069 0.503841 0.000000
53.884800 174.724701 -793.732178 -0.283454 0.508965 0.812778 1.000000
53.882198 201.978195 -816.142822 0.485928 0.137801 -0.863067 1.000000
53.880699 178.053894 -771.000916 0.693282 0.077031 0.716537 0.000000
53.880299 180.923599 -771.346313 -0.611675 0.776992 0.148786 0.000000
53.877701 145.511200 -776.045227 -0.165629 0.740013 -0.651880 1.000000
53.877701 171.393494 -770.627380 0.726673 0.226597 0.648536 0.000000
53.876499 157.199203 -765.085022 -0.922577 0.102206 0.372029 0.000000
53.875401 164.932205 -786.961182 0.258496 0.642276 0.721569 1.000000
53.871498 208.261902 -771.520874 -0.964370 0.048530 -0.260069 0.000000
53.871300 160.322098 -770.003113 0.386554 0.890111 -0.241411 0.000000
53.867802 257.997101 -897.985107 -0.488968 0.838449 0.240652 1.000000
53.867500 114.002701 -760.222473 -0.866480 0.020276 -0.498800 0.000000
53.865101 156.943802 -769.489380 0.534803 0.394151 0.747416 0.000000
53.862099 150.594101 -762.613586 -0.924340 0.048788 0.378439 0.000000
53.856899 189.107803 -771.283386 -0.916175 0.074431 -0.393806 0.000000
53.844799 206.009094 -771.432312 0.471139 0.881180 0.039375 0.000000
53.839802 210.203796 -770.810974 -0.682471 0.730315 -0.029550 0.000000
53.839100 144.910904 -761.359985 -0.798454 0.128878 0.588100 0.000000
53.835800 156.236893 -708.989075 -0.880922 0.391688 -0.265627 1.000000
53.834499 48.437099 -774.438782 -0.456781 0.874160 0.164908 1.000000
53.828800 142.549301 -773.207397 0.361570 0.530194 0.766917 1.000000
53.828499 155.327698 -710.223083 -0.881974 0.375404 -0.284945 1.000000
53.823399 241.128494 -771.540100 -0.646693 0.178873 -0.741480 0.000000
53.822601 160.119293 -693.545227 -0.263417 0.945844 -0.189715 1.000000
53.822300 194.904602 -771.371582 0.881916 0.130072 0.453107 0.000000
53.816700 259.735901 -904.351807 -0.547588 0.834755 -0.057715 1.000000
53.811699 107.722702 -762.735901 0.728445 0.571297 -0.378137 0.000000
53.808800 170.351303 -766.962524 0.432839 0.256666 -0.864160 0.000000
53.806499 167.398804 -766.990295 0.302331 0.127651 -0.944617 0.000000
53.800301 143.705002 -722.369324 -0.245753 0.850213 -0.465557 1.000000
53.798801 246.175995 -770.259888 -0.524619 0.477986 -0.704488 0.000000
53.794399 154.707001 -764.708923 -0.948959 0.076802 0.305906 0.000000
53.792198 199.038498 -768.514099 -0.612865 0.599359 0.514942 0.000000
53.791901 243.690094 -770.862427 0.406716 0.846157 0.344384 0.000000
53.789200 153.196793 -764.163208 -0.972678 0.091150 0.213515 0.000000
53.788601 208.238403 -770.000610 0.445088 0.894234 0.047350 0.000000
53.783401 126.128197 -760.664917 -0.440356 0.006572 -0.897799 0.000000
53.782700 205.950394 -769.403015 0.471139 0.881180 0.039375 0.000000
53.779301 106.251404 -760.347717 -0.965796 0.188480 -0.178081 0.000000
53.775799 247.873199 -769.837830 0.981461 0.177024 -0.073459 0.000000
53.773201 101.769203 -760.842224 -0.894985 0.113805 -0.431335 0.000000
53.771999 149.187897 -716.417297 -0.290021 0.787653 -0.543591 1.000000
53.769199 168.999603 -789.708374 0.258576 0.384127 0.886332 1.000000
53.764599 191.186295 -768.140503 -0.901730 0.362158 0.236063 0.000000
53.762901 156.018906 -780.948425 0.293254 0.250339 0.922677 1.000000
53.761200 255.724594 -767.447327 0.730451 0.410570 -0.545777 0.000000
53.760101 162.244797 -785.113403 0.139023 0.445735 0.884304 1.000000
53.754398 254.087494 -885.488098 -0.640337 0.736933 0.216562 1.000000
53.754299 143.453003 -761.193970 -0.405103 0.103695 0.908371 0.000000
53.752800 176.457001 -767.366272 -0.344795 0.121291 0.930809 0.000000
53.750599 183.165695 -800.015320 -0.429563 0.413475 0.802816 1.000000
53.746101 123.084503 -739.756775 -0.508811 0.429772 -0.745927 1.000000
53.744202 187.617905 -771.109070 -0.897208 0.052937 -0.438424 0.000000
53.743801 169.344803 -770.421204 -0.674839 0.275998 -0.684411 0.000000
53.742599 255.942398 -892.211914 -0.421944 0.902988 -0.081090 1.000000
53.738998 197.489502 -768.600403 0.451585 0.890965 0.047464 0.000000
53.738098 219.354706 -833.975708 -0.015301 0.755325 0.655172 1.000000
53.737999 198.470398 -813.025085 0.609031 0.531426 -0.588786 1.000000
53.735600 200.836197 -771.273376 0.476604 0.878098 0.042334 0.000000
53.735500 201.080597 -814.966370 -0.150405 0.425432 0.892405 1.000000
53.733601 204.091797 -769.320923 0.472269 0.880570 0.039469 0.000000
53.733398 193.382996 -768.398926 0.950429 0.092820 -0.296764 0.000000
53.731899 203.685501 -817.839417 0.432802 0.329680 -0.839043 1.000000
53.730999 161.836700 -682.810425 -0.633891 0.767955 0.091805 1.000000
53.729198 144.515701 -774.164307 -0.177109 0.255524 -0.950442 1.000000
53.729000 195.640305 -768.591309 -0.944470 0.052973 0.324298 0.000000
53.722698 138.959198 -729.998596 -0.827412 0.393931 -0.400259 1.000000
53.721802 117.196899 -760.116699 0.764008 0.004145 0.645193 0.000000
53.721600 224.959793 -840.704224 -0.318758 0.776874 0.543011 1.000000
53.721100 134.958298 -732.730225 -0.867276 0.245854 -0.432884 1.000000
53.719101 121.847000 -740.494019 -0.486938 0.437753 -0.755820 1.000000
53.716999 115.115501 -765.157776 -0.751634 0.435849 0.495058 0.000000
53.716000 112.461197 -760.018127 -0.861479 0.004019 -0.507777 0.000000
53.713699 159.132996 -782.891113 0.327196 0.234947 0.915283 1.000000
53.711201 47.144402 -770.729370 -0.245632 0.920761 0.303090 1.000000
53.709801 192.986099 -770.896973 0.905911 0.075151 0.416746 0.000000
53.706600 137.637100 -731.260620 -0.847872 0.385680 -0.363820 1.000000
53.706200 238.436600 -859.990295 -0.182935 0.253399 -0.949907 1.000000
53.705399 259.293213 -901.782288 -0.590466 0.761432 0.267530 1.000000
53.704601 240.219406 -862.770508 -0.232537 0.814650 0.531293 1.000000
53.703499 151.330399 -714.347229 -0.459179 0.676246 -0.576061 1.000000
53.702999 174.681107 -770.674377 0.840421 0.020565 0.541544 0.000000
53.697201 218.334106 -832.677429 -0.098200 0.766547 0.634636 1.000000
53.693501 123.259598 -760.378418 -0.644917 0.009708 -0.764191 0.000000
53.689899 201.557404 -769.136292 0.473350 0.879859 0.042288 0.000000
53.689400 188.129395 -804.712585 -0.825289 0.322256 0.463734 1.000000
53.684399 187.412506 -767.752380 -0.904845 0.011785 0.425578 0.000000
53.684299 185.286896 -770.936096 0.900882 0.052675 0.430857 0.000000
53.681000 156.990204 -706.477783 -0.761388 0.561786 0.323550 1.000000
53.679798 226.196304 -842.202087 -0.360188 0.731784 0.578582 1.000000
53.679298 154.613800 -780.075073 0.481596 0.565498 0.669536 1.000000
53.676601 253.320694 -883.811584 -0.643443 0.744315 0.178819 1.000000
53.675598 190.641296 -770.846497 -0.802483 0.560974 -0.203296 0.000000
53.674999 231.858505 -849.899719 -0.289951 0.781125 0.552967 1.000000
53.673500 186.222000 -802.482117 -0.480515 0.564228 0.671381 1.000000
53.672100 151.649902 -778.326172 0.357753 0.486095 0.797324 1.000000
53.671799 148.850204 -768.978027 0.071684 0.319322 0.944931 0.000000
53.668499 199.239304 -771.182373 0.476604 0.878098 0.042334 0.000000
53.666801 136.221100 -732.000610 -0.902661 0.245113 -0.353726 1.000000
53.658298 110.889702 -759.947021 0.857386 0.037158 0.513331 0.000000
