ply
format ascii 1.0
element vertex 689
property float x
property float y
property float z
property float nx
property float ny
property float nz
property float label
element face 0
property list uchar int vertex_indices
end_header
41.851200 92.438797 -748.647888 0.973573 0.119341 0.194715 0.000000
41.850300 88.300903 -748.398193 -0.838034 0.004062 -0.545602 0.000000
41.845100 88.624901 -747.763672 0.341272 0.654786 0.674380 0.000000
41.842999 91.584999 -748.248718 0.876036 0.441711 0.193526 0.000000
41.842602 41.335602 -755.079590 0.762434 0.577795 -0.291285 1.000000
41.840302 48.645100 -762.363098 -0.704590 0.521363 0.481387 1.000000
41.839100 103.327103 -737.803589 0.989124 0.120000 0.085048 0.000000
41.838799 87.271202 -747.890198 0.355815 0.654240 0.667358 0.000000
41.837601 78.113701 -750.550781 -0.937295 0.193013 -0.290214 0.000000
41.835800 79.621002 -749.780273 -0.935129 0.219455 -0.278162 0.000000
41.835800 85.374199 -748.199707 -0.669402 0.589274 -0.452389 0.000000
41.833599 47.753399 -761.501587 -0.548770 0.458699 0.698890 1.000000
41.829102 31.099800 -746.797607 -0.611368 0.648218 0.453920 1.000000
41.826599 76.903099 -751.983276 0.806637 0.257437 0.532037 0.000000
41.824402 99.568703 -739.963623 0.654301 0.230653 0.720201 0.000000
41.824299 98.983101 -740.324219 -0.919106 0.287130 -0.269816 0.000000
41.823502 37.853001 -751.330994 -0.797621 0.394782 0.456013 1.000000
41.823200 95.064796 -744.051880 -0.224297 0.831579 0.508102 0.000000
41.821800 116.670097 -726.846680 0.525583 0.288834 0.800211 0.000000
41.818501 50.659801 -764.641724 -0.444292 0.731678 0.516964 1.000000
41.813400 96.097198 -743.024719 0.762600 0.521950 0.382113 0.000000
41.812302 92.406097 -746.660583 -0.883268 0.354817 -0.306501 0.000000
41.809502 115.088203 -727.801575 -0.130055 0.701101 -0.701101 0.000000
41.808399 93.532799 -748.452271 0.418676 0.893464 -0.162579 0.000000
41.806900 93.372002 -746.060181 -0.957240 0.254123 0.138253 0.000000
41.805000 115.907997 -727.242798 -0.109437 0.576366 -0.809831 0.000000
41.804798 98.138702 -740.914124 -0.204829 0.859682 0.467966 0.000000
41.804600 46.953602 -760.594116 -0.395443 0.766476 0.506102 1.000000
41.803600 90.914101 -748.152100 -0.961580 0.088348 -0.259921 0.000000
41.799400 41.601501 -755.723816 -0.980677 0.184102 0.066181 1.000000
41.798199 40.693199 -754.322571 -0.920761 0.245632 0.303090 1.000000
41.797901 81.710098 -748.859802 -0.840052 0.127103 -0.527406 0.000000
41.790501 104.366798 -736.572021 -0.333684 0.925023 -0.181625 0.000000
41.788799 49.184601 -762.993530 -0.482421 0.724461 0.492368 1.000000
41.788799 42.213402 -755.780396 -0.603414 0.752288 0.264489 1.000000
41.785500 111.690804 -730.843323 -0.015027 0.550533 -0.834678 0.000000
41.781700 39.989399 -753.373230 -0.837402 0.388064 0.384922 1.000000
41.780800 94.053902 -745.258484 -0.957480 0.272643 -0.094327 0.000000
41.776501 83.859802 -748.314575 -0.814567 0.163514 -0.556546 0.000000
41.775002 110.599701 -731.685730 -0.271419 0.832869 -0.482350 0.000000
41.769402 90.793999 -746.553406 0.835959 0.204077 0.509436 0.000000
41.764900 43.856300 -757.695679 -0.411533 0.450265 0.792403 1.000000
41.761002 91.330704 -747.010681 0.926322 0.124882 0.355433 0.000000
41.759899 77.206703 -751.023499 -0.887452 0.319843 -0.331856 0.000000
41.757599 107.967697 -733.555298 -0.716106 0.450266 -0.533341 0.000000
41.757500 114.582001 -728.322205 -0.292738 0.126987 -0.947723 0.000000
41.753700 45.282299 -759.010498 -0.484985 0.649443 0.585674 1.000000
41.753201 97.178902 -741.733826 -0.264734 0.828262 0.493861 0.000000
41.752300 93.501198 -745.560425 0.892279 0.294437 0.342264 0.000000
41.751598 92.625198 -746.159424 0.550768 0.517082 0.655195 0.000000
41.748001 90.149498 -747.011780 0.919064 0.222238 -0.325472 0.000000
41.747799 106.618301 -734.706421 -0.684422 0.503695 -0.527122 0.000000
41.746899 94.538498 -744.384399 -0.840818 0.358561 0.405534 0.000000
41.746700 55.094898 -770.414612 -0.226863 0.736914 0.636781 1.000000
41.745399 80.209999 -749.377014 -0.889336 0.090749 -0.448158 0.000000
41.744999 113.088699 -729.502014 -0.124256 0.536493 -0.834707 0.000000
41.743801 101.605904 -738.572327 -0.839883 0.028961 -0.541994 0.000000
41.743301 89.545097 -747.679382 0.985808 0.093943 0.139131 0.000000
41.737099 95.652298 -743.277588 -0.073727 0.744497 0.663542 0.000000
41.735901 116.984100 -726.347778 0.211198 0.953754 -0.213888 0.000000
41.733898 87.822197 -748.141479 -0.871459 0.085879 -0.482892 0.000000
41.733898 118.443802 -725.226624 0.268838 0.941623 -0.202663 0.000000
41.732601 124.030403 -719.976196 0.013614 0.061786 -0.997997 0.000000
41.730598 49.876701 -763.865112 -0.488121 0.659215 0.571991 1.000000
41.729301 81.186798 -748.984924 -0.828927 0.305559 -0.468524 0.000000
41.729301 91.531700 -746.490784 0.237849 0.694645 0.678893 0.000000
41.729099 90.343697 -747.820496 0.939296 0.122987 0.320307 0.000000
41.723301 56.736599 -771.864685 -0.274255 0.765696 0.581802 1.000000
41.723099 36.446201 -750.315308 -0.546348 0.414300 0.727914 1.000000
41.716499 55.833801 -771.100830 -0.202289 0.634662 0.745844 1.000000
41.716499 48.046501 -761.953491 -0.751122 0.504583 0.425690 1.000000
41.716301 75.980003 -751.689026 -0.877770 0.036744 -0.477670 0.000000
41.714600 103.183701 -737.309814 -0.021259 0.951670 0.306385 0.000000
41.714100 43.241901 -756.907288 -0.769112 0.536927 0.346665 1.000000
41.713902 122.745903 -721.133789 -0.203296 0.802483 -0.560974 0.000000
41.712299 57.516300 -772.428772 -0.256035 0.820864 0.510518 1.000000
41.710999 93.190399 -748.912415 0.994833 0.034077 -0.095636 0.000000
41.710300 78.647003 -750.049072 -0.866549 0.153436 -0.474921 0.000000
41.707401 124.320198 -719.253601 -0.217041 0.842362 -0.493275 0.000000
41.706501 100.764603 -739.134827 0.988935 0.016876 0.147384 0.000000
41.700600 108.838501 -732.724609 -0.707717 0.497900 -0.501230 0.000000
41.687099 34.343300 -748.897522 -0.430279 0.485905 0.760760 1.000000
41.687000 84.822899 -748.403381 -0.992396 0.023285 -0.120862 0.000000
41.685501 31.804600 -747.301025 -0.109331 0.464300 0.878904 1.000000
41.683998 40.820599 -754.972229 -0.771561 0.628083 0.101020 1.000000
41.683300 51.693699 -766.574280 -0.363617 0.817742 0.446185 1.000000
41.681999 38.679298 -752.431213 -0.804362 0.369399 0.465346 1.000000
41.679401 97.423302 -741.245483 -0.962826 0.264182 -0.056342 0.000000
41.676899 96.382797 -742.338989 0.857623 0.322961 0.400224 0.000000
41.676300 46.384899 -760.130371 -0.487272 0.674813 0.554251 1.000000
41.675499 121.428398 -722.628113 0.091874 0.640198 -0.762696 0.000000
41.674099 99.940399 -739.551880 -0.863634 0.330983 -0.380245 0.000000
41.673599 82.995796 -748.366028 0.325161 0.736062 0.593703 0.000000
41.672501 40.987000 -755.505615 -0.976516 0.195796 0.089894 1.000000
41.670300 92.218399 -747.884705 0.986110 0.040557 0.161068 0.000000
41.668400 39.470699 -753.086975 -0.857820 0.326126 0.397225 1.000000
41.667500 93.974701 -744.691284 -0.891515 0.449171 -0.058706 0.000000
41.667400 104.898300 -736.015503 -0.949242 0.243082 -0.199626 0.000000
41.661400 119.720398 -724.527771 0.522552 0.660331 0.539354 0.000000
41.657501 92.976402 -745.647217 0.828276 0.486399 0.278164 0.000000
41.654202 49.398300 -763.470825 -0.514913 0.595948 0.616207 1.000000
41.653999 118.934196 -724.922974 0.293166 0.738521 -0.607157 0.000000
41.650799 111.270897 -731.115417 0.522133 0.246348 0.816511 0.000000
41.649700 80.622498 -749.053894 -0.754666 0.649159 -0.095249 0.000000
41.646099 123.511299 -720.159485 -0.213620 0.696993 -0.684519 0.000000
41.641300 91.691101 -747.354309 0.990240 0.093812 0.103078 0.000000
41.639400 51.255901 -765.765930 -0.369752 0.823611 0.430055 1.000000
41.637600 82.161102 -748.534912 -0.788076 0.396466 -0.470904 0.000000
41.635601 105.779404 -735.261902 -0.816566 0.252562 -0.519069 0.000000
41.632999 40.104698 -753.861023 -0.942087 0.219959 0.253160 1.000000
41.631802 54.647499 -769.994080 -0.219480 0.754947 0.617967 1.000000
41.631199 84.466904 -747.937195 0.259432 0.072135 0.963064 0.000000
41.628399 108.247803 -733.140625 -0.488269 0.729921 -0.478339 0.000000
41.625198 56.900501 -772.361877 -0.917162 0.225343 -0.328686 1.000000
41.616501 89.669998 -746.727112 -0.809925 0.112774 -0.575589 0.000000
41.616001 42.672901 -756.675171 -0.305211 0.464860 0.831114 1.000000
41.614498 96.673698 -741.899414 -0.857575 0.045572 -0.512336 0.000000
41.614101 98.384499 -740.462891 -0.933508 0.246401 -0.260481 0.000000
41.610500 93.365601 -744.992920 -0.257506 0.737762 0.624017 0.000000
41.609501 95.722702 -742.729675 -0.871388 0.328106 -0.364732 0.000000
41.606499 92.071404 -746.012817 -0.227254 0.802346 0.551903 0.000000
41.605999 48.730999 -762.820007 -0.463475 0.740570 0.486566 1.000000
41.604698 36.848202 -750.695007 -0.745917 0.380303 0.546788 1.000000
41.603199 79.062798 -749.700806 -0.689271 0.582974 -0.430171 0.000000
41.601501 77.543602 -750.621216 -0.888909 0.279371 -0.363033 0.000000
41.598400 109.723198 -732.276184 -0.224104 0.799048 -0.557943 0.000000
41.598099 76.653999 -751.133484 -0.928258 0.265826 -0.260140 0.000000
41.596699 90.902496 -747.660828 -0.965779 0.008440 -0.259229 0.000000
41.590302 53.386398 -768.669006 -0.072254 0.415800 0.906581 1.000000
41.583199 89.057701 -747.678711 0.958147 0.031068 0.284586 0.000000
41.582802 32.639500 -747.848816 -0.276051 0.633482 0.722839 1.000000
41.582401 53.919201 -769.305786 -0.012516 0.757919 0.652228 1.000000
41.582100 79.703300 -749.286926 -0.888405 0.064536 -0.454501 0.000000
41.581100 102.138802 -737.960388 -0.336544 0.013865 -0.941566 0.000000
41.580799 86.814697 -748.030579 -0.885946 0.114819 -0.449352 0.000000
41.579201 112.611603 -729.786499 -0.043603 0.808757 -0.586525 0.000000
41.577702 85.880096 -747.683716 0.130210 0.835393 0.534008 0.000000
41.577400 88.316399 -747.335388 0.057317 0.851360 0.521441 0.000000
41.574600 94.708900 -743.603577 0.338460 0.843811 0.416446 0.000000
41.570900 33.616501 -748.456726 -0.312949 0.566518 0.762312 1.000000
41.566799 50.749500 -765.089905 -0.447069 0.744015 0.496560 1.000000
41.566299 95.147797 -743.285217 0.250829 0.638904 0.727246 0.000000
41.565601 44.822800 -758.712097 -0.437109 0.556774 0.706355 1.000000
41.565399 37.828098 -751.851379 -0.937046 0.222042 0.269523 1.000000
41.565201 40.282600 -754.557922 0.962952 0.261246 -0.066889 1.000000
41.565102 47.356499 -761.279480 -0.701430 0.551481 0.451514 1.000000
41.563099 86.975098 -747.466370 -0.355127 0.908834 0.218874 0.000000
41.559700 52.169701 -767.355774 -0.239548 0.811373 0.533188 1.000000
41.558899 34.717400 -749.234314 -0.476311 0.414537 0.775427 1.000000
41.557598 35.265099 -749.615417 -0.324854 0.447263 0.833322 1.000000
41.556900 106.144402 -734.855103 -0.838122 0.404123 -0.366383 0.000000
41.553398 123.213402 -720.887207 -0.103695 0.908371 -0.405103 0.000000
41.552601 78.108803 -749.966370 -0.869999 0.344024 -0.353198 0.000000
41.551701 103.714203 -737.297180 -0.222610 0.891912 -0.393621 0.000000
41.547298 91.213997 -746.115112 0.417036 0.599801 0.682876 0.000000
41.543701 120.559402 -723.675476 0.167257 0.167257 0.971622 0.000000
41.542900 37.406601 -751.429626 -0.871705 0.312959 0.377077 1.000000
41.540798 92.862396 -745.132813 0.175733 0.728909 0.661672 0.000000
41.539700 30.646999 -746.626221 0.221613 0.512003 -0.829904 1.000000
41.536900 111.964600 -730.393494 -0.289461 0.937631 -0.192512 0.000000
41.536800 110.106400 -731.693115 -0.091519 0.389297 -0.916555 0.000000
41.532902 45.616402 -759.358215 -0.494836 0.471666 0.729841 1.000000
41.529800 107.295502 -733.903076 0.648152 0.120138 0.751975 0.000000
41.527199 74.788399 -752.162476 -0.554419 0.681717 0.477370 0.000000
41.522598 85.243698 -747.749207 0.684060 0.216593 0.696526 0.000000
41.521801 -1.884100 -744.354614 -0.911608 0.014346 0.410810 0.000000
41.521599 75.965500 -752.200317 -0.046336 0.960538 0.274261 0.000000
41.517899 97.668999 -740.823914 0.509140 0.294765 0.808634 0.000000
41.517200 43.424099 -757.357117 -0.425962 0.518062 0.741733 1.000000
41.516102 39.520000 -753.585022 -0.932779 0.337330 0.127011 1.000000
41.514999 99.086800 -739.930908 -0.855907 0.382295 -0.348244 0.000000
41.513901 90.204498 -746.550781 -0.623654 0.775551 0.097857 0.000000
41.511002 52.702099 -768.084290 -0.162527 0.748840 0.642514 1.000000
41.510300 94.010498 -744.127075 -0.895734 0.385561 -0.221368 0.000000
41.504601 48.244099 -762.549011 -0.902183 0.226642 0.367014 1.000000
41.503502 116.328300 -727.095520 0.533502 0.159010 0.830717 0.000000
41.501900 101.093697 -738.596008 -0.794250 0.459150 -0.397930 0.000000
41.501701 87.837502 -747.662292 0.900850 0.009179 0.434034 0.000000
41.499199 92.288002 -745.527588 0.924626 0.340947 0.169772 0.000000
41.496799 106.814102 -734.232971 -0.535995 0.417251 -0.733901 0.000000
41.495399 44.127998 -758.107422 -0.519414 0.529500 0.670700 1.000000
41.491001 50.305500 -764.476318 -0.498208 0.665955 0.555242 1.000000
41.489899 89.405800 -747.257324 0.937301 0.003774 0.348500 0.000000
41.489799 121.749298 -722.209778 0.199313 0.971173 0.130759 0.000000
41.489498 40.256401 -755.243530 -0.960277 0.277027 -0.033541 1.000000
41.487900 38.824501 -752.906982 -0.905337 0.411769 0.103982 1.000000
41.487701 113.640602 -729.112671 0.451219 0.177842 0.874513 0.000000
41.487301 46.833199 -761.163391 0.102650 0.088810 -0.990745 1.000000
41.487202 74.300301 -752.375305 -0.857910 0.357076 -0.369442 0.000000
41.481701 81.525200 -748.472473 -0.826496 0.130654 -0.547572 0.000000
41.480400 42.259602 -756.315430 -0.136743 0.989374 0.049411 1.000000
41.480301 103.909203 -736.588684 -0.595375 0.339056 -0.728402 0.000000
41.479801 89.903999 -747.399170 -0.965231 0.056046 -0.255319 0.000000
41.477100 75.436401 -751.738525 -0.348846 0.895125 -0.277593 0.000000
41.475700 80.887001 -748.649902 -0.812341 0.137610 -0.566715 0.000000
41.473999 76.164299 -751.217712 -0.826280 0.302603 -0.475072 0.000000
41.469501 102.529800 -737.548218 -0.537428 0.264797 -0.800658 0.000000
41.468899 121.043800 -723.012390 0.047635 0.888736 -0.455937 0.000000
41.468399 105.236198 -735.400574 -0.885904 0.271317 -0.376247 0.000000
41.466400 122.359001 -721.985229 0.637449 0.373904 0.673687 0.000000
41.465801 93.360298 -744.460815 -0.877910 0.118482 -0.463936 0.000000
41.464298 96.920097 -741.332520 0.254430 0.722202 0.643187 0.000000
41.462898 80.109703 -748.892273 -0.856130 0.189093 -0.480922 0.000000
41.462601 90.397202 -746.027527 0.905961 0.155023 0.393958 0.000000
41.462299 76.981903 -750.610229 -0.778959 0.473230 -0.411433 0.000000
41.461399 117.625900 -726.092224 0.549724 0.779173 0.301153 0.000000
41.461102 38.160702 -752.302490 -0.469656 0.860291 0.198299 1.000000
41.459801 31.379999 -747.068115 -0.162461 0.663510 0.730316 1.000000
41.458698 83.485199 -748.451599 -0.833759 0.060663 -0.548786 0.000000
41.457001 95.824303 -742.202271 -0.924238 0.032682 -0.380415 0.000000
41.455299 87.894302 -749.532593 -0.887476 0.460420 0.020018 0.000000
41.454498 35.721298 -749.979187 -0.487272 0.554251 0.674813 1.000000
41.451099 92.071602 -746.518677 -0.972934 0.042513 -0.227139 0.000000
41.449299 118.043900 -725.627380 0.221684 0.075546 0.972188 0.000000
41.448601 90.867302 -746.951782 -0.976356 0.024913 -0.214727 0.000000
41.445000 115.686302 -727.638123 -0.379624 0.526260 -0.760878 0.000000
41.444302 91.733803 -745.616272 0.496072 0.045347 0.867096 0.000000
41.438499 46.556400 -760.617981 -0.729889 0.475007 0.491558 1.000000
41.438400 119.942596 -724.003174 0.061501 0.895181 -0.441440 0.000000
41.434601 104.313004 -736.148315 -0.903596 0.060962 -0.424026 0.000000
41.433601 32.148998 -747.606384 -0.211911 0.529016 0.821728 1.000000
41.431099 45.850300 -759.812073 -0.539354 0.660331 0.522552 1.000000
41.428799 39.862400 -754.822388 -0.585898 0.809630 0.034958 1.000000
41.428799 100.389603 -739.424316 0.455650 0.871485 0.181375 0.000000
41.426800 41.884899 -755.929321 -0.536927 0.769112 0.346665 1.000000
41.425598 47.466301 -761.865723 -0.975449 0.193097 0.105892 1.000000
41.423302 83.988403 -747.845398 -0.763628 0.225511 -0.604993 0.000000
41.422401 88.862099 -747.224976 -0.886593 0.233158 -0.399487 0.000000
41.418999 89.168602 -746.528809 0.089998 0.841412 0.532847 0.000000
41.415501 94.168999 -743.580811 -0.893974 0.237901 -0.379754 0.000000
41.414001 114.320000 -728.772522 0.389222 0.901431 -0.189547 0.000000
41.413799 56.095100 -771.461670 -0.168583 0.520669 0.836949 1.000000
41.409302 86.373802 -747.802979 -0.860200 0.062737 -0.506082 0.000000
41.407700 107.592903 -733.500488 -0.458842 0.347704 -0.817659 0.000000
41.405998 103.448799 -736.842285 -0.813898 0.444379 -0.374297 0.000000
41.403900 122.690598 -721.577271 -0.282012 0.737692 -0.613416 0.000000
41.400002 55.389000 -770.794128 -0.233249 0.634000 0.737319 1.000000
41.393002 82.478699 -748.154114 -0.024823 0.209222 -0.977553 0.000000
41.392502 36.216599 -750.657593 0.993814 0.106992 0.029781 1.000000
41.391602 36.932701 -751.155823 -0.817955 0.393830 0.419341 1.000000
41.386398 101.667900 -738.058228 -0.851629 0.378329 -0.362760 0.000000
41.384300 92.303200 -744.931030 -0.900110 0.424318 -0.098776 0.000000
41.383801 0.025800 -744.872070 -0.046955 0.210696 -0.976423 0.000000
41.380699 39.445599 -754.140625 0.879698 0.444955 -0.167770 1.000000
41.380100 51.342701 -766.227722 -0.419727 0.769227 0.481788 1.000000
41.380100 114.960503 -728.239075 0.498955 0.852198 0.157487 0.000000
41.376400 96.241203 -741.677917 -0.984456 0.168193 -0.050575 0.000000
41.375500 77.625198 -749.989319 -0.901248 0.300416 -0.312255 0.000000
41.374401 109.108299 -732.405884 0.336600 0.286184 0.897106 0.000000
41.374298 110.523903 -731.368591 0.370471 0.277478 0.886430 0.000000
41.374199 78.941101 -749.232422 0.837971 0.227427 0.496066 0.000000
41.373402 95.189201 -742.665894 -0.943252 0.230634 0.238920 0.000000
41.373100 33.115501 -748.229980 -0.413751 0.495520 0.763722 1.000000
41.370998 90.878899 -745.729797 0.415634 0.567978 0.710387 0.000000
41.369701 33.911301 -748.924072 -0.565498 0.481596 0.669536 1.000000
41.365101 116.654999 -726.590820 0.256613 0.267955 -0.928628 0.000000
41.363098 100.537102 -738.816223 0.464657 0.044967 0.884348 0.000000
41.360199 99.505302 -739.617676 0.828223 0.118318 0.547766 0.000000
41.358200 78.395103 -749.555115 0.958157 0.249094 0.141022 0.000000
41.356701 48.987400 -763.236694 -0.469135 0.555950 0.686172 1.000000
41.352600 124.036301 -719.601013 -0.976857 0.203157 0.066908 0.000000
41.351601 47.771599 -762.347229 -0.055848 0.711708 -0.700252 1.000000
41.348400 -1.334100 -742.480713 0.219528 0.736432 -0.639902 0.000000
41.347401 82.961098 -747.957214 0.670697 0.220439 0.708218 0.000000
41.346699 75.475502 -752.257324 0.085719 0.777286 0.623281 0.000000
41.338200 112.491997 -730.230591 0.551353 0.672014 0.494375 0.000000
41.337601 42.927299 -757.092529 -0.455630 0.481948 0.748417 1.000000
41.329899 45.154499 -759.277710 -0.537208 0.527104 0.658459 1.000000
41.328899 97.917397 -740.417114 0.500509 0.490532 0.713350 0.000000
41.327301 94.547096 -744.032776 -0.935934 0.290654 -0.198868 0.000000
41.327000 41.383701 -755.753296 0.083926 0.933844 0.347694 1.000000
41.326698 88.658401 -746.470581 0.193003 0.977308 -0.087282 0.000000
41.325298 -2.042400 -742.712585 0.485300 0.708772 -0.511983 0.000000
41.324501 39.062500 -753.769714 0.930700 0.333282 -0.150737 1.000000
41.323601 76.494301 -750.706726 -0.907456 0.124443 -0.401294 0.000000
41.320900 94.632698 -743.060974 0.004097 0.818133 0.575015 0.000000
41.319199 119.370201 -724.887024 -0.414098 0.134264 0.900275 0.000000
41.319000 51.773998 -766.949829 -0.209853 0.843942 0.493683 1.000000
41.317101 102.886200 -737.145386 -0.985764 0.024099 -0.166398 0.000000
41.316502 91.693100 -746.200073 -0.958981 0.192327 -0.208244 0.000000
41.314602 54.189999 -769.683899 -0.229436 0.763225 0.604025 1.000000
41.312401 38.717701 -753.393127 -0.968025 0.148233 0.202370 1.000000
41.312302 89.544502 -745.989685 -0.676569 0.713389 0.182566 0.000000
41.308399 98.861298 -740.343079 -0.484057 0.253554 -0.837496 0.000000
41.305000 93.625099 -743.749329 0.790084 0.296084 0.536751 0.000000
41.305000 111.486298 -730.590515 0.056816 0.366002 0.928878 0.000000
41.302399 106.345200 -734.447388 -0.381278 0.261661 -0.886657 0.000000
41.297501 1.566500 -745.079224 0.573049 0.818038 -0.049279 0.000000
41.293201 92.795097 -744.326111 0.401880 0.613570 0.679723 0.000000
41.292301 87.411102 -747.428223 -0.825304 0.137305 -0.547742 0.000000
41.292099 91.642799 -745.072205 -0.621843 0.760030 0.188856 0.000000
41.291302 49.737900 -764.150696 -0.561339 0.403308 0.722662 1.000000
41.290600 79.483902 -748.873108 0.941196 0.134070 0.310121 0.000000
41.289600 2.961300 -744.258789 0.252919 0.592238 0.765040 0.000000
41.289299 38.228001 -752.837891 -0.966482 0.135488 0.218071 1.000000
41.287201 43.690300 -757.806885 -0.506209 0.512891 0.693322 1.000000
41.286900 75.619499 -751.284302 -0.921406 0.158476 -0.354818 0.000000
41.278000 46.019100 -760.312927 -0.828852 0.421531 0.367853 1.000000
41.276699 30.327600 -746.202393 0.044487 0.440829 -0.896488 1.000000
41.274502 105.685997 -734.883179 -0.511054 0.396761 -0.762499 0.000000
41.272999 90.751602 -746.355530 -0.949320 0.151730 -0.275263 0.000000
41.271599 53.005798 -768.451599 -0.150890 0.569200 0.808235 1.000000
41.270901 52.437698 -767.692810 -0.081023 0.845769 0.527362 1.000000
41.270699 80.432899 -748.534790 -0.742364 0.155730 -0.651647 0.000000
41.270599 54.857601 -770.375183 -0.251682 0.656906 0.710725 1.000000
41.266201 84.667801 -747.533630 -0.337342 0.861070 0.380473 0.000000
41.265999 113.024803 -729.803284 -0.126376 0.637826 -0.759741 0.000000
41.265499 47.033298 -761.623596 0.930751 0.197943 -0.307443 1.000000
41.263901 3.508300 -744.229004 -0.578802 0.538303 0.612551 0.000000
41.262798 37.398701 -751.949097 -0.786892 0.597315 0.154971 1.000000
41.261902 -1.061800 -741.935608 0.327282 0.885319 -0.330298 0.000000
41.261101 53.594898 -769.049011 -0.175067 0.762683 0.622629 1.000000
41.259998 77.911598 -750.406616 -0.384650 0.901388 0.198857 0.000000
41.259499 77.051804 -750.054504 -0.903409 0.265881 -0.336391 0.000000
41.254601 56.692699 -772.076782 -0.656230 0.572313 0.491753 1.000000
41.254601 44.309898 -758.536316 -0.552716 0.552716 0.623707 1.000000
41.252899 99.802101 -739.165894 -0.830240 0.338713 -0.442690 0.000000
41.252399 123.168800 -720.451782 -0.195053 0.763317 -0.615875 0.000000
41.252102 118.766197 -725.218384 0.496052 0.703158 0.509413 0.000000
41.249599 50.931000 -765.596985 -0.445050 0.732927 0.514538 1.000000
41.248798 104.741096 -735.616089 -0.873444 0.254943 -0.414848 0.000000
41.247601 91.109802 -745.255493 -0.927126 0.257772 0.272014 0.000000
41.241001 108.424896 -732.793396 -0.089270 0.497359 -0.862940 0.000000
41.229801 95.295197 -742.134277 -0.905810 0.389427 0.166897 0.000000
41.229301 55.587502 -771.259888 -0.283065 0.955183 -0.086600 1.000000
41.229099 81.874603 -748.158081 -0.658846 0.658846 -0.363104 0.000000
41.228802 97.135902 -740.849426 -0.407641 0.041162 -0.912214 0.000000
41.223099 -1.381100 -744.714722 0.722265 0.656746 0.216835 0.000000
41.218800 87.942101 -747.248474 -0.872216 0.009379 -0.489031 0.000000
41.217999 39.012001 -754.392883 0.506050 0.051298 0.860978 1.000000
41.216702 77.877502 -749.515076 -0.960737 0.277438 0.003635 0.000000
41.215698 115.223000 -727.808716 -0.525184 0.172069 -0.833411 0.000000
41.215302 123.773102 -720.039917 0.083694 0.991715 0.097452 0.000000
41.213299 49.376999 -763.752930 -0.452127 0.675688 0.582260 1.000000
41.206001 41.000900 -755.283386 0.143066 0.242819 -0.959464 1.000000
41.204102 122.777000 -721.046387 0.439529 0.108127 0.891697 0.000000
41.203800 90.069603 -745.589478 0.867597 0.023010 0.496736 0.000000
41.199799 37.743599 -752.512207 -0.975576 0.072401 0.207387 1.000000
41.198700 0.888700 -745.133728 0.739979 0.338415 0.581297 0.000000
41.198002 88.391403 -746.997314 -0.908599 0.049658 -0.414708 0.000000
41.197300 74.834900 -751.677429 -0.703751 0.625737 -0.336435 0.000000
41.196999 37.780499 -753.420776 -0.725537 0.378327 -0.574861 1.000000
41.193901 -1.665100 -743.672791 -0.979671 0.101768 -0.172883 0.000000
41.192101 73.833603 -752.396729 0.925575 0.024665 -0.377759 0.000000
41.191502 92.004997 -744.562683 -0.933825 0.332239 -0.132622 0.000000
41.191200 75.997803 -750.792297 -0.919590 0.271991 -0.283504 0.000000
41.190800 34.801899 -749.593994 -0.516405 0.414764 0.749197 1.000000
41.190300 6.668900 -744.978027 0.610068 0.780111 0.138720 0.000000
41.190201 31.729401 -747.437622 -0.211911 0.529016 0.821728 1.000000
41.189098 36.367001 -751.112488 -0.940095 0.157367 0.302418 1.000000
41.189098 115.901703 -727.186218 0.098088 0.642696 -0.759816 0.000000
41.187698 35.756699 -750.443481 -0.823894 0.376229 0.423853 1.000000
41.186901 48.450699 -763.092590 0.947017 0.036864 -0.319062 1.000000
41.184700 98.710297 -739.816284 -0.761388 0.561786 -0.323550 0.000000
41.183201 90.568901 -745.355896 0.762464 0.298912 0.573846 0.000000
41.181900 81.050003 -748.249817 -0.851617 0.248325 -0.461610 0.000000
41.181702 -0.742400 -743.882996 0.412646 0.900447 0.137549 0.000000
41.180801 109.616302 -731.944702 0.070062 0.959209 -0.273878 0.000000
41.179901 94.710403 -742.550171 0.666092 0.189213 0.721471 0.000000
41.179798 4.186400 -744.460388 -0.959073 0.282945 -0.011024 0.000000
41.177101 120.378899 -724.077087 0.202884 0.642724 -0.738745 0.000000
41.176998 93.064598 -744.818970 0.949675 0.101422 0.296362 0.000000
41.176102 35.263901 -749.989319 -0.759622 0.438054 0.480711 1.000000
41.174999 45.386600 -759.741089 -0.725428 0.533743 0.434596 1.000000
41.174900 121.707603 -722.670776 -0.218577 0.385810 -0.896312 0.000000
41.172199 111.156898 -730.970093 0.905340 0.336017 0.259717 0.000000
41.171700 40.592899 -754.895203 -0.095436 0.993655 0.059507 1.000000
41.171001 38.642200 -754.023010 -0.589059 0.807333 0.034980 1.000000
41.169899 5.314600 -744.877930 0.997038 0.022393 -0.073578 0.000000
41.169899 117.168701 -726.088684 0.166266 0.712351 -0.681844 0.000000
41.169201 120.922997 -723.547485 0.405813 0.909297 -0.092168 0.000000
41.167599 30.903299 -746.880310 -0.226930 0.680790 0.696440 1.000000
41.166401 101.988701 -737.572021 -0.556207 0.087671 -0.826406 0.000000
41.162899 83.448997 -747.996277 -0.801342 0.288105 -0.524257 0.000000
41.162701 95.772499 -741.762329 -0.862450 0.025887 -0.505480 0.000000
41.161999 93.979599 -743.155823 0.757831 0.195222 0.622559 0.000000
41.161800 101.120796 -738.160828 -0.801358 0.464113 -0.377393 0.000000
41.161701 86.631798 -747.377380 -0.880142 0.036616 -0.473297 0.000000
41.160900 2.224200 -745.137329 0.739276 0.159392 -0.654267 0.000000
41.160500 50.432499 -765.001770 -0.392355 0.770057 0.503061 1.000000
41.155102 39.967899 -754.322693 -0.929798 0.084527 0.358234 1.000000
41.151100 85.602997 -747.546509 -0.853020 0.054270 -0.519048 0.000000
41.148399 -2.291400 -743.161499 0.990745 0.088810 -0.102650 0.000000
41.143700 113.300903 -729.355774 -0.105612 0.885734 -0.452020 0.000000
41.143101 90.047302 -746.235901 0.958357 0.088761 0.271427 0.000000
41.141800 42.502201 -756.863892 -0.344278 0.813893 0.468028 1.000000
41.141201 44.727798 -758.980225 -0.658474 0.533852 0.530484 1.000000
41.139900 46.187000 -760.895020 -0.889097 0.117321 0.442428 1.000000
41.139900 37.041000 -751.590515 -0.843851 0.399224 0.358519 1.000000
41.138100 74.365303 -751.934509 -0.846042 0.315131 -0.430007 0.000000
41.136902 -2.195400 -743.686584 0.955853 0.291892 -0.033824 0.000000
41.136501 77.322998 -749.525513 -0.922319 0.191264 -0.335775 0.000000
41.128899 2.738300 -744.860718 0.950879 0.106530 0.290656 0.000000
41.128399 107.955597 -733.119324 -0.150417 0.564436 -0.811657 0.000000
41.123299 33.419601 -748.696228 -0.525012 0.508238 0.682683 1.000000
41.120800 88.218597 -746.212524 0.781737 0.155142 0.604001 0.000000
41.120300 98.231003 -740.012878 0.162505 0.331954 0.929193 0.000000
41.119701 0.652700 -744.686523 0.868881 0.271431 0.413970 0.000000
41.118698 93.089500 -743.672974 -0.841806 0.497225 -0.210074 0.000000
41.116299 114.509499 -728.195618 -0.003740 0.943832 0.330404 0.000000
41.115898 103.745903 -736.239075 -0.509480 0.301271 -0.806019 0.000000
41.114899 86.113197 -747.374573 -0.864139 0.042589 -0.501448 0.000000
41.112598 -1.248500 -744.017517 -0.938060 0.315418 0.143372 0.000000
41.110001 89.601303 -746.576721 -0.939942 0.131186 -0.315117 0.000000
41.105701 76.567398 -750.202881 -0.919626 0.332206 -0.209589 0.000000
41.105301 78.297501 -749.015808 -0.363875 0.924106 -0.116715 0.000000
41.104900 0.763000 -744.012329 -0.994231 0.102396 -0.031930 0.000000
41.103500 96.550400 -741.365723 0.819893 0.347305 0.455143 0.000000
41.103199 92.486099 -743.952087 0.563948 0.520179 0.641386 0.000000
41.101299 0.025600 -743.886414 -0.992626 0.016525 0.120085 0.000000
41.101002 107.001198 -733.846130 -0.228554 0.470731 -0.852159 0.000000
41.097500 79.814598 -748.497925 -0.611490 0.139043 -0.778940 0.000000
41.097198 5.862000 -744.664124 0.447379 0.890603 -0.081719 0.000000
41.095600 32.498100 -748.062012 -0.513585 0.631457 0.580941 1.000000
41.094398 122.096802 -722.244507 -0.236955 0.644956 -0.726556 0.000000
41.092201 -1.495000 -742.904785 0.932199 0.053755 -0.357933 0.000000
41.087799 89.076302 -745.977112 0.088290 0.794612 0.600663 0.000000
41.085602 74.672501 -752.455383 0.447719 0.876355 0.177620 0.000000
41.084499 7.751300 -745.004028 0.917162 0.225343 0.328686 0.000000
41.083099 -0.632700 -744.856323 0.213418 0.943169 0.254725 0.000000
41.081600 34.249901 -749.213806 -0.543883 0.520309 0.658384 1.000000
41.080601 43.177700 -757.486877 -0.464032 0.581297 0.668407 1.000000
41.075199 38.115101 -753.852478 -0.998840 0.048149 -0.001024 1.000000
41.074699 119.819298 -724.575623 0.182052 0.342935 -0.921549 0.000000
41.072399 -2.079300 -744.726379 0.477928 0.648975 0.591959 0.000000
41.068100 113.998100 -729.028992 0.333398 0.939575 -0.077749 0.000000
41.064499 -0.269600 -744.305908 -0.992276 0.043926 0.116010 0.000000
41.061699 37.046700 -752.315430 0.782081 0.615432 -0.097943 1.000000
41.061100 102.364403 -737.152710 -0.701656 0.548325 -0.454993 0.000000
41.059299 75.188103 -751.086426 0.596153 0.751947 0.281384 0.000000
41.058701 1.880300 -744.388672 0.999668 0.017183 -0.019205 0.000000
41.055302 91.512001 -744.568726 0.837418 0.419495 0.350364 0.000000
41.053600 75.960098 -750.267212 -0.989792 0.058629 -0.129903 0.000000
41.050800 -1.698000 -744.254822 -0.959294 0.228907 0.165396 0.000000
41.047600 50.028999 -764.558716 -0.551802 0.619301 0.558552 1.000000
41.047298 87.189400 -747.016296 -0.903911 0.142872 -0.403153 0.000000
41.044800 41.872101 -756.297119 -0.461072 0.387172 0.798442 1.000000
41.041599 37.360500 -752.866272 0.573368 0.809200 -0.128234 1.000000
41.040501 1.228100 -744.231384 -0.997856 0.064006 -0.013641 0.000000
41.040199 83.868202 -747.474976 0.456013 0.401227 0.794398 0.000000
41.037102 54.474499 -770.073303 -0.301036 0.716369 0.629439 1.000000
41.036999 87.971298 -746.739075 -0.924559 0.099108 -0.367923 0.000000
41.036800 43.882301 -758.312988 -0.527456 0.725872 0.441476 1.000000
41.036201 105.132301 -735.042419 -0.935364 0.265043 -0.234192 0.000000
41.035599 73.128502 -752.596924 -0.330680 0.931163 -0.153580 0.000000
41.035599 2.399600 -744.348816 0.997475 0.028743 0.064937 0.000000
41.035400 102.904099 -736.652527 0.689297 0.213168 0.692409 0.000000
41.035301 78.744797 -748.774475 0.690358 0.359117 0.628045 0.000000
41.033798 104.132599 -735.749023 -0.558502 0.359851 -0.747384 0.000000
41.031399 52.045799 -767.390686 -0.092718 0.848724 0.520645 1.000000
41.031101 112.018997 -730.348022 0.237043 0.065776 -0.969270 0.000000
41.029202 7.193100 -744.822815 -0.530969 0.494119 -0.688417 0.000000
41.028900 4.702200 -744.377197 -0.956468 0.193969 -0.218048 0.000000
41.027100 47.967800 -762.828674 -0.959364 0.049037 0.277876 1.000000
41.025902 93.326599 -744.163513 -0.922827 0.111068 -0.368856 0.000000
41.023701 112.532700 -729.803772 0.088330 0.381857 -0.919991 0.000000
41.019501 99.231102 -739.309814 -0.862055 0.249981 -0.440875 0.000000
41.019299 85.113197 -747.466797 -0.894653 0.009223 -0.446667 0.000000
41.017799 47.229801 -762.156128 -0.509436 0.204077 -0.835959 1.000000
41.017799 117.766098 -725.883179 0.157035 0.377733 -0.912501 0.000000
41.017502 93.328697 -743.218323 0.986467 0.144965 0.076607 0.000000
41.015499 110.182701 -731.521423 0.003957 0.455107 0.890428 0.000000
41.008801 36.639198 -751.944702 -0.975145 0.221033 0.015366 1.000000
41.007900 38.267601 -753.327087 0.930120 0.218769 -0.294985 1.000000
41.007801 97.517899 -740.362122 0.241352 0.689351 0.683041 0.000000
41.007198 118.416901 -725.551270 0.287729 0.323141 -0.901550 0.000000
41.007000 122.248001 -721.562500 -0.103103 0.814661 0.570698 0.000000
41.006100 76.696999 -749.661499 -0.908597 0.352136 -0.224613 0.000000
41.005699 51.462200 -766.616882 -0.236002 0.819067 0.522907 1.000000
41.000500 90.749802 -744.800781 -0.866281 0.281655 -0.412587 0.000000
40.996799 -0.952000 -743.436890 -0.961866 0.142257 -0.233615 0.000000
40.996300 93.988098 -742.644226 0.213030 0.741719 0.635981 0.000000
40.995602 45.554401 -760.278870 -0.895286 0.335174 0.293463 1.000000
40.992500 94.760399 -742.069214 -0.746394 0.021005 -0.665173 0.000000
40.991699 36.663300 -752.804077 0.786402 0.320622 0.527990 1.000000
40.990898 77.649696 -749.116028 0.876661 0.082493 0.473984 0.000000
40.989700 3.487600 -745.286377 0.380944 0.890846 -0.247539 0.000000
40.989498 110.868500 -731.396423 0.055630 0.171625 -0.983590 0.000000
40.983398 84.285103 -747.780823 -0.823290 0.218424 -0.523912 0.000000
40.982700 121.301903 -722.966980 -0.055362 0.425339 -0.903339 0.000000
40.980400 101.495201 -737.657227 -0.908638 0.320438 -0.267763 0.000000
40.979000 35.294800 -750.509521 -0.943180 0.244426 0.225093 1.000000
40.978199 -0.988900 -742.667480 0.995081 0.063092 -0.076374 0.000000
40.977798 89.469299 -745.585083 0.670352 0.213082 0.710791 0.000000
40.977699 3.184400 -744.656982 0.993011 0.117406 -0.012070 0.000000
40.976700 81.412300 -747.952698 -0.590871 0.061223 -0.804439 0.000000
40.976601 105.934097 -734.488220 -0.401125 0.332981 -0.853359 0.000000
40.974701 48.856701 -763.594971 -0.832492 0.390181 0.393340 1.000000
40.974701 1.693400 -743.822815 -0.930103 0.029753 -0.366091 0.000000
40.973900 46.543800 -761.234314 -0.892279 0.138482 0.429722 1.000000
40.972698 4.086200 -745.257813 0.929620 0.324740 -0.174217 0.000000
40.970299 4.586700 -745.417480 0.852278 0.475164 0.218726 0.000000
40.969898 -0.355500 -743.444214 0.925905 0.032556 0.376352 0.000000
40.969398 56.287800 -771.819214 0.070810 0.718218 0.692206 1.000000
40.969002 8.790100 -745.024719 0.891923 0.429550 0.141281 0.000000
40.966000 96.057899 -741.251282 -0.810772 0.253658 -0.527547 0.000000
40.964401 51.117001 -765.988281 -0.359813 0.737536 0.571468 1.000000
40.961800 1.253900 -744.757813 0.918439 0.179725 -0.352375 0.000000
40.961498 53.863602 -769.374023 -0.255317 0.699346 0.667629 1.000000
40.957699 116.966904 -726.521912 0.042028 0.212541 -0.976248 0.000000
40.953400 31.300400 -747.254578 -0.372492 0.589096 0.717088 1.000000
40.953300 0.573800 -743.437012 -0.790005 0.073388 -0.608692 0.000000
40.953098 8.262100 -745.035828 0.926636 0.122179 0.355554 0.000000
40.952702 36.213001 -751.592285 -0.104795 0.984110 -0.143340 1.000000
40.951302 55.194000 -770.940613 -0.361733 0.543411 0.757531 1.000000
40.951199 100.201302 -738.703796 -0.009133 0.999525 0.029428 0.000000
40.949699 100.818398 -738.531921 -0.302628 0.861798 -0.407088 0.000000
40.947701 75.470497 -750.664001 -0.632776 0.719283 -0.286752 0.000000
40.946301 108.926903 -732.743713 -0.313814 0.533643 -0.785332 0.000000
40.945900 88.587799 -745.647278 0.064206 0.803287 0.592121 0.000000
40.942200 32.022701 -747.783508 -0.428667 0.471045 0.770948 1.000000
40.941799 32.921299 -748.438721 -0.530422 0.500303 0.684361 1.000000
40.939999 116.375000 -726.884216 0.132007 0.857323 -0.497566 0.000000
40.939301 2.888200 -743.681213 0.883725 0.186124 0.429405 0.000000
40.938400 52.671001 -768.112122 -0.240020 0.742022 0.625934 1.000000
40.938400 2.244100 -743.852783 0.947834 0.084978 0.307229 0.000000
40.934502 82.796402 -747.532471 0.781889 0.104154 0.614656 0.000000
40.934399 3.788500 -744.687683 0.991350 0.016689 -0.130177 0.000000
40.933899 35.636902 -750.912170 -0.935966 0.308302 0.170050 1.000000
40.933899 7.114300 -745.758606 0.978876 0.096785 0.180094 0.000000
40.931801 9.826300 -745.203979 -0.682943 0.223480 -0.695446 0.000000
40.931099 90.107002 -745.070923 0.547030 0.361981 0.754803 0.000000
40.930302 82.007500 -747.678223 -0.231558 0.907301 0.350978 0.000000
40.930000 30.497499 -746.635498 -0.239340 0.529637 0.813757 1.000000
40.928799 74.589600 -751.298584 0.288266 0.947926 0.135418 0.000000
40.925301 106.626503 -734.184326 -0.221020 0.218308 -0.950522 0.000000
40.924400 92.608299 -743.459717 -0.907026 0.375172 -0.191180 0.000000
40.924000 34.748798 -750.086914 -0.954066 0.244872 0.172615 1.000000
40.923100 96.694801 -740.784790 0.059238 0.933326 0.354111 0.000000
40.921501 5.111400 -745.330688 -0.996839 0.077828 -0.015992 0.000000
40.920502 33.622799 -749.162903 -0.952116 0.209330 0.222836 1.000000
40.920101 41.055302 -755.705505 -0.244421 0.493454 0.834722 1.000000
40.919201 44.877399 -759.522522 -0.803898 0.457307 0.380287 1.000000
40.916901 53.274300 -768.756775 -0.293401 0.732700 0.614057 1.000000
40.916401 30.048000 -745.867188 0.198634 0.387120 -0.900379 1.000000
40.911999 86.429802 -746.978516 -0.878773 0.062080 -0.473185 0.000000
40.911598 103.529701 -736.666077 0.625446 0.661945 0.413093 0.000000
40.908798 40.031700 -754.860901 -0.347031 0.708726 0.614229 1.000000
40.908699 107.481201 -733.746399 0.079299 0.996126 -0.038020 0.000000
40.906898 109.260803 -732.242188 -0.072913 0.438855 -0.895595 0.000000
40.905201 80.647797 -748.038879 -0.773338 0.424929 -0.470515 0.000000
40.904701 0.162000 -744.991882 0.184875 0.022092 -0.982514 0.000000
40.903198 79.189400 -748.524475 0.547070 0.247818 0.799563 0.000000
40.902000 76.197998 -749.835083 -0.981518 0.051158 -0.184406 0.000000
40.900600 82.304199 -748.130188 -0.912755 0.269314 -0.307163 0.000000
40.898701 95.257698 -741.703308 0.920364 0.152694 0.360021 0.000000
40.898201 3.884100 -744.089722 0.842564 0.177460 0.508521 0.000000
40.896900 4.540400 -744.851013 -0.988312 0.021559 0.150913 0.000000
40.896500 91.065804 -744.344177 -0.803350 0.581430 0.128714 0.000000
40.894001 73.662498 -751.985291 -0.193144 0.914214 0.356243 0.000000
40.894001 91.991501 -743.957581 -0.800009 0.564443 -0.203444 0.000000
40.892601 46.686901 -761.741028 -0.169475 0.978503 0.117519 1.000000
40.891998 87.796898 -745.973083 0.542139 0.511927 0.666345 0.000000
40.891300 6.546700 -744.440430 0.490832 0.350137 0.797802 0.000000
40.886299 39.471401 -754.483887 -0.272253 0.304283 0.912848 1.000000
40.884602 10.927400 -745.365723 0.949820 0.112287 0.291947 0.000000
40.884300 36.197498 -752.413513 -0.977614 0.001162 -0.210402 1.000000
40.883999 5.231900 -744.281494 0.931922 0.197596 0.304101 0.000000
40.882599 41.503799 -755.976929 -0.476307 0.469715 0.743303 1.000000
40.878601 -0.495100 -742.796387 0.936806 0.342218 -0.072672 0.000000
40.877300 104.451302 -735.363525 -0.489456 0.580283 -0.650926 0.000000
40.875099 119.324699 -724.624573 -0.300466 0.388928 0.870893 0.000000
40.873501 49.448601 -764.246582 -0.433486 0.780923 0.449721 1.000000
40.872101 119.964302 -724.097473 0.113679 0.775086 -0.621545 0.000000
40.871700 76.903603 -749.155212 -0.881562 0.094202 -0.462574 0.000000
40.869900 42.755299 -757.248718 -0.505245 0.501910 0.702007 1.000000
40.866199 55.837898 -771.571472 -0.575499 0.612628 0.541745 1.000000
40.865101 43.401001 -757.913391 -0.528184 0.639558 0.558559 1.000000
40.862000 2.579200 -745.349609 0.868335 0.478234 0.131478 0.000000
40.861900 111.708099 -730.773315 -0.153155 0.413660 -0.897457 0.000000
40.859901 120.475800 -723.612610 -0.040177 0.934450 -0.353821 0.000000
40.859501 115.512100 -727.373718 -0.194814 0.593646 0.780790 0.000000
40.856800 10.415800 -745.108276 0.714022 0.241160 0.657278 0.000000
40.855499 114.866600 -727.905884 0.131896 0.149154 -0.979978 0.000000
40.854198 39.132500 -753.994080 -0.412304 0.902002 0.128053 1.000000
40.850899 6.292800 -744.892700 0.988502 0.016946 -0.150252 0.000000
40.850700 -0.750400 -741.598328 0.312861 0.946436 0.079851 0.000000
40.849300 44.229900 -758.936829 -0.771276 0.445155 0.454939 1.000000
40.846500 85.805000 -747.003784 -0.871673 0.190910 -0.451376 0.000000
40.845600 9.279900 -745.125916 0.907957 0.369802 0.197132 0.000000
40.845100 34.406200 -749.714600 -0.885644 0.383829 0.261362 1.000000
40.842701 35.621101 -752.215393 -0.902134 0.047056 -0.428883 1.000000
40.840401 1.134600 -743.563416 0.816283 0.009603 0.577572 0.000000
40.839901 88.696999 -746.222473 -0.876322 0.042381 -0.479858 0.000000
40.839699 87.410103 -746.554810 -0.892786 0.147603 -0.425614 0.000000
40.839001 45.723301 -760.769470 -0.426823 0.797273 0.426823 1.000000
40.834599 114.276604 -728.552673 0.358231 0.910684 0.205731 0.000000
40.833401 98.684998 -739.429626 0.927399 0.113364 0.356482 0.000000
40.828800 5.617800 -745.533325 0.934197 0.278718 -0.222695 0.000000
40.828201 1.588700 -745.285828 0.377318 0.062664 -0.923961 0.000000
40.827900 75.552696 -750.014893 -0.914630 0.322216 -0.244190 0.000000
40.824902 73.964302 -751.577576 -0.019101 0.989903 0.140452 0.000000
40.824699 -0.598700 -742.286377 0.885538 0.204808 0.416984 0.000000
40.824299 123.048203 -720.821899 -0.250601 0.891190 -0.378126 0.000000
40.823200 50.557999 -765.374329 -0.412234 0.740708 0.530485 1.000000
40.821899 40.653500 -755.399475 -0.321428 0.529317 0.785180 1.000000
40.821499 99.574203 -738.895996 -0.834952 0.429269 -0.344359 0.000000
40.818298 89.014801 -745.228210 -0.841289 0.415161 -0.346229 0.000000
40.813900 3.371400 -743.900818 -0.878131 0.006663 -0.478375 0.000000
40.811100 103.159203 -736.231628 -0.628315 0.409482 -0.661471 0.000000
40.807999 78.349403 -748.382874 -0.379489 0.492528 0.783201 0.000000
40.804798 77.902702 -748.693420 0.495129 0.004004 0.868810 0.000000
40.804298 112.949898 -729.544189 -0.046086 0.554433 -0.830951 0.000000
40.804199 38.669102 -753.646484 -0.398427 0.260105 0.879546 1.000000
40.803600 75.024597 -750.234985 0.831525 0.204473 0.516485 0.000000
40.803299 74.807198 -750.782410 0.828805 0.483599 0.281451 0.000000
40.802799 47.452801 -762.614929 0.932783 0.095292 -0.347613 1.000000
40.802502 6.435100 -745.532227 -0.956250 0.240725 0.166246 0.000000
40.800800 97.802696 -739.974792 0.299126 0.127430 0.945667 0.000000
40.799301 91.415604 -743.827087 -0.898260 0.427544 -0.101664 0.000000
40.798500 89.508499 -744.992188 -0.932048 0.159265 -0.325455 0.000000
40.795799 -0.081300 -742.477478 0.911196 0.316367 0.263882 0.000000
40.793999 84.610100 -747.330078 -0.837144 0.146168 -0.527091 0.000000
40.791100 -1.477300 -745.026794 -0.964025 0.264032 0.030701 0.000000
40.790100 83.318298 -747.654419 -0.826585 0.152851 -0.541658 0.000000
40.786900 88.082603 -745.542114 0.214069 0.790055 0.574445 0.000000
40.785500 51.685600 -767.029724 -0.203332 0.808741 0.551901 1.000000
40.784401 105.485703 -734.721375 -0.254009 0.229025 -0.939695 0.000000
40.782799 42.139702 -756.780884 -0.381305 0.658618 0.648714 1.000000
40.781200 11.898800 -745.616272 0.554739 0.031818 0.831416 0.000000
40.780998 35.545200 -751.452881 -0.743814 0.667598 0.032462 1.000000
40.780499 45.033401 -760.035828 -0.869342 0.397370 0.293841 1.000000
40.779598 0.031300 -743.140686 0.872014 0.371102 0.319178 0.000000
40.778599 4.435700 -744.004578 0.916351 0.046549 0.397662 0.000000
40.777500 72.612801 -752.760498 -0.870331 0.274921 -0.408585 0.000000
40.776699 7.605700 -744.594788 0.928626 0.090302 0.359860 0.000000
40.776600 54.766998 -770.480225 -0.221549 0.590282 0.776198 1.000000
40.773602 92.981903 -742.879822 -0.784581 0.194233 -0.588818 0.000000
40.772999 90.339600 -744.535217 -0.736554 0.622507 0.264526 0.000000
40.770401 101.793404 -737.260620 -0.458308 0.826843 -0.326013 0.000000
40.766602 33.884102 -749.635315 -0.972024 0.045125 0.230505 1.000000
40.763500 5.740200 -744.252930 0.936043 0.095077 0.338797 0.000000
40.763199 100.807404 -737.956177 -0.163028 0.984120 -0.070209 0.000000
40.760101 0.708300 -742.896301 -0.948148 0.317710 -0.008721 0.000000
40.755100 35.146900 -750.987671 0.968004 0.237293 -0.081609 1.000000
40.754200 8.637300 -746.063477 -0.920640 0.288687 -0.262835 0.000000
40.753601 33.107399 -748.974915 -0.895379 0.171578 0.410923 1.000000
40.753300 118.998001 -725.118103 0.242697 0.599696 -0.762537 0.000000
40.751801 -0.205400 -741.467285 0.735800 0.406583 -0.541562 0.000000
40.751598 92.104797 -743.379578 0.430015 0.579441 0.692341 0.000000
40.751499 50.109699 -764.975891 -0.467257 0.674926 0.571092 1.000000
40.750702 87.312599 -745.881287 0.095828 0.851012 0.516328 0.000000
40.750500 52.304298 -767.768616 -0.146431 0.832735 0.533956 1.000000
40.747398 76.311699 -749.312927 -0.826350 0.295236 -0.479564 0.000000
40.747002 37.833099 -753.184875 -0.567104 0.262344 0.780749 1.000000
40.746101 77.294098 -748.840027 -0.621574 0.236417 -0.746828 0.000000
40.744499 103.665001 -735.877930 -0.755486 0.284699 -0.590074 0.000000
40.743801 80.200104 -748.440796 -0.782107 0.245091 -0.572921 0.000000
40.741199 107.875504 -733.461670 0.202822 0.874947 -0.439694 0.000000
40.741100 100.306396 -738.224976 0.286618 0.787012 0.546316 0.000000
40.740898 112.449203 -730.243225 -0.098312 0.862013 -0.497261 0.000000
40.740200 73.748802 -752.662415 -0.660895 0.731105 -0.169421 0.000000
40.739601 93.489304 -742.585571 -0.708787 0.446519 -0.546115 0.000000
40.739399 1.981200 -743.454407 -0.790227 0.020832 -0.612460 0.000000
40.739300 48.191399 -763.307312 -0.906753 0.259281 0.332525 1.000000
40.738701 7.432100 -745.261719 0.955230 0.218376 -0.199620 0.000000
40.738400 86.889702 -746.725830 -0.861883 0.116548 -0.493532 0.000000
40.737598 108.191803 -732.884583 -0.121486 0.557665 -0.821128 0.000000
40.734798 94.267998 -742.026978 -0.635315 0.738339 -0.226341 0.000000
40.729900 52.651699 -769.395203 0.310777 0.937808 0.154704 1.000000
40.728401 122.536598 -721.084106 -0.123573 0.647641 0.751859 0.000000
40.727001 46.047199 -761.186584 -0.822055 0.282338 0.494481 1.000000
40.726601 12.605100 -745.527588 0.961833 0.198682 0.188156 0.000000
40.726501 81.138603 -747.585205 -0.813664 0.212993 -0.540911 0.000000
40.723598 74.306297 -750.907288 -0.335103 0.939604 -0.069649 0.000000
40.721699 113.606903 -729.113586 -0.265339 0.960090 -0.088446 0.000000
40.721600 9.566600 -746.092529 0.751640 0.658914 0.029504 0.000000
40.718201 109.755898 -732.149719 -0.117530 0.700717 -0.703692 0.000000
40.713001 54.081299 -769.774170 -0.226876 0.671241 0.705664 1.000000
40.712002 97.074600 -740.313904 -0.909495 0.275914 -0.310951 0.000000
40.710999 85.051102 -747.057495 -0.856325 0.176608 -0.485300 0.000000
40.710201 75.791100 -749.505676 -0.944548 0.024025 -0.327494 0.000000
40.708801 8.190600 -745.747986 0.719447 0.643215 -0.262050 0.000000
40.708500 34.763401 -750.622009 -0.947252 0.115583 0.298922 1.000000
40.706001 35.144402 -751.881775 -0.594607 0.803485 0.029243 1.000000
40.704601 -0.307700 -745.051025 0.654467 0.421323 -0.627822 0.000000
40.703701 73.013298 -752.197815 -0.994673 0.087602 -0.054336 0.000000
40.701900 0.709700 -745.074219 -0.132940 0.390423 0.910987 0.000000
40.701698 -0.952400 -745.120972 -0.808647 0.523978 0.267464 0.000000
40.693699 121.975197 -721.910522 0.136183 0.388893 -0.911162 0.000000
40.693100 95.541702 -741.253418 -0.158023 0.442174 -0.882899 0.000000
40.692600 122.949799 -720.292114 -0.513795 0.621608 -0.591285 0.000000
40.692501 13.404500 -745.885315 -0.687498 0.645240 -0.333185 0.000000
40.688599 44.376202 -759.413574 -0.969381 0.163061 0.183605 1.000000
40.687698 8.437500 -744.590515 0.845443 0.151973 0.511987 0.000000
40.686501 13.924000 -745.930603 0.904705 0.235311 0.355159 0.000000
40.685299 3.056400 -745.441101 -0.940328 0.114020 0.320597 0.000000
40.683300 14.489700 -746.711487 -0.579562 0.034913 0.814180 0.000000
40.683201 10.415500 -746.261475 -0.661536 0.473961 -0.581147 0.000000
