ply
format ascii 1.0
element vertex 680
property float x
property float y
property float z
property float nx
property float ny
property float nz
property float label
element face 0
property list uchar int vertex_indices
end_header
28.619400 134.573303 -754.606628 0.659939 0.334043 0.672975 0.000000
28.617300 147.487198 -667.165283 -0.896956 0.268346 -0.351370 1.000000
28.611300 137.055801 -755.784912 0.302648 0.439228 0.845862 0.000000
28.608000 135.044403 -696.344177 0.452419 0.807320 -0.378881 1.000000
28.601200 132.089996 -752.998718 0.969338 0.030330 0.243851 0.000000
28.597900 147.742294 -664.566284 -0.931323 0.244490 -0.269928 1.000000
28.597300 149.076401 -662.216309 0.860672 0.360030 0.360030 1.000000
28.597200 154.401398 -762.250122 -0.393931 0.827412 -0.400259 0.000000
28.593000 132.067993 -702.391418 -0.180686 0.874053 -0.450982 1.000000
28.588900 142.402802 -681.070923 -0.254009 0.939695 -0.229025 1.000000
28.587200 144.760300 -672.566101 0.114117 0.703968 0.701004 1.000000
28.584900 135.281006 -754.658875 0.510263 0.284177 0.811711 0.000000
28.584499 144.584000 -760.636292 0.194260 0.452284 0.870461 0.000000
28.584101 117.239601 -719.142883 0.393294 0.755581 -0.523848 1.000000
28.580601 114.844200 -721.426086 0.229557 0.969660 -0.084046 1.000000
28.577700 131.195297 -703.888306 -0.279285 0.732525 -0.620811 1.000000
28.575399 146.630096 -667.913879 0.363069 0.648925 0.668639 1.000000
28.571199 97.299698 -735.260071 0.526722 0.550281 -0.647885 1.000000
28.568899 122.436996 -713.892700 0.075406 0.553449 -0.829462 1.000000
28.568100 142.899994 -678.318481 -0.427003 0.519328 -0.740248 1.000000
28.567900 105.211899 -728.887695 0.322121 0.939409 -0.117258 1.000000
28.565800 193.156693 -794.215210 0.396761 0.762499 0.511054 0.000000
28.565399 113.101997 -722.891724 0.319138 0.804990 -0.500142 1.000000
28.564501 142.378494 -679.987000 -0.492319 0.321353 -0.808922 1.000000
28.558701 145.791702 -670.291382 -0.859123 0.387145 -0.334703 1.000000
28.557400 121.455498 -714.971497 0.019730 0.906275 -0.422227 1.000000
28.556000 133.981705 -699.174683 -0.696681 0.594082 -0.402122 1.000000
28.553499 124.660103 -711.796875 0.209630 0.490141 -0.846060 1.000000
28.550900 148.614105 -665.531311 0.856794 0.225154 0.463908 1.000000
28.550100 146.939102 -761.872925 -0.016221 0.313190 0.949552 0.000000
28.546700 136.620407 -695.440308 -0.511654 0.829338 -0.224517 1.000000
28.544399 147.246704 -665.632202 -0.853827 0.342460 -0.392047 1.000000
28.542700 150.579300 -762.294006 -0.148197 0.300473 -0.942207 0.000000
28.539499 147.873505 -663.928101 0.224572 0.462709 0.857594 1.000000
28.534401 146.730698 -666.859070 -0.818452 0.357576 -0.449751 1.000000
28.533800 141.231201 -684.591675 -0.055292 0.806701 0.588367 1.000000
28.528299 122.958702 -713.500671 0.156873 0.563250 -0.811259 1.000000
28.528099 130.180603 -705.204590 -0.099163 0.895263 -0.434363 1.000000
28.524799 140.209106 -687.233215 -0.331862 0.743046 -0.581163 1.000000
28.524500 148.158096 -662.549988 0.911447 0.124225 0.392215 1.000000
28.524401 110.191498 -725.242188 -0.205415 0.622421 0.755246 1.000000
28.524099 132.638397 -753.454224 0.761097 0.291993 0.579199 0.000000
28.521099 146.199997 -666.377625 0.661948 0.736999 -0.136592 1.000000
28.520700 197.506393 -800.013184 0.089837 0.845609 0.526188 0.000000
28.512100 149.411804 -762.167480 0.153581 0.040416 0.987309 0.000000
28.506901 127.458603 -708.644775 0.049279 0.818038 -0.573049 1.000000
28.506001 116.625198 -719.762512 0.402254 0.597588 -0.693599 1.000000
28.504999 129.156204 -706.521790 0.029469 0.646919 -0.761989 1.000000
28.504601 106.390999 -728.120422 0.327259 0.834588 -0.443130 1.000000
28.503201 111.598099 -723.805420 0.017876 0.997913 -0.062041 1.000000
28.499500 146.568497 -668.685608 -0.857448 0.153901 -0.491017 1.000000
28.495899 135.933197 -694.758972 0.166063 0.928001 -0.333522 1.000000
28.492201 133.878296 -753.655396 0.988559 0.150797 0.003351 0.000000
28.490499 135.938599 -696.470520 0.335739 0.317672 0.886772 1.000000
28.488600 152.355698 -762.302795 -0.296406 0.903966 -0.308204 0.000000
28.486700 100.064903 -732.859985 0.203142 0.947543 -0.246770 1.000000
28.485001 104.425903 -729.674377 -0.149329 0.030778 0.988308 1.000000
28.480700 148.455704 -661.741882 -0.511414 0.602557 0.612684 1.000000
28.480499 107.811798 -726.815796 -0.167312 0.195845 0.966256 1.000000
28.472799 137.258408 -693.513977 -0.572920 0.650205 -0.498995 1.000000
28.468901 102.784599 -731.050720 0.479002 0.433227 -0.763460 1.000000
28.465401 195.014694 -796.232483 -0.551586 0.087394 -0.829527 0.000000
28.454201 137.822601 -690.596924 0.456130 0.805029 -0.379308 1.000000
28.450001 138.728897 -690.751221 -0.249179 0.926945 -0.280504 1.000000
28.441500 149.176895 -664.285217 -0.969338 0.243851 0.030330 1.000000
28.440201 115.961197 -720.449829 0.374053 0.772396 -0.513311 1.000000
28.439400 136.576797 -754.960876 -0.946452 0.055371 -0.318060 0.000000
28.432899 145.318893 -670.873901 -0.676431 0.498511 -0.542152 1.000000
28.431700 141.727295 -682.463013 -0.167621 0.953427 -0.250761 1.000000
28.429001 151.427094 -762.306274 -0.714028 0.673931 -0.189688 0.000000
28.428101 130.186798 -752.246277 -0.309082 0.475390 0.823695 0.000000
28.418200 139.573898 -688.741211 -0.043023 0.842423 -0.537097 1.000000
28.409401 147.991592 -762.099182 0.079786 0.254555 0.963762 0.000000
28.407801 146.335297 -665.207825 0.944606 0.295949 -0.141894 1.000000
28.399700 146.772293 -666.064026 -0.920675 0.310710 -0.236254 1.000000
28.399000 141.958206 -759.055725 0.293447 0.500586 0.814434 0.000000
28.394300 149.574905 -663.174622 0.830186 0.412721 0.374770 1.000000
28.389200 143.759903 -760.054871 0.372348 0.326379 0.868812 0.000000
28.388399 132.715607 -701.062317 -0.125599 0.793488 -0.595485 1.000000
28.386801 118.124298 -718.330017 0.331562 0.858976 -0.390163 1.000000
28.386200 145.972504 -669.450317 -0.813725 0.546032 -0.199249 1.000000
28.384001 148.652298 -762.489319 -0.041874 0.206975 0.977450 0.000000
28.384001 136.621002 -694.705078 -0.475809 0.839210 -0.263312 1.000000
28.381901 137.527496 -691.313477 0.687775 0.652173 -0.318804 1.000000
28.376699 138.616104 -756.419006 0.427667 0.624027 0.653981 0.000000
28.375000 133.420700 -699.829712 -0.453439 0.539808 -0.709225 1.000000
28.371901 101.279297 -732.364624 0.421810 0.444436 -0.790287 1.000000
28.369499 110.941803 -724.722717 0.317226 0.739121 -0.594195 1.000000
28.367399 136.204102 -694.156189 -0.070264 0.891388 -0.447761 1.000000
28.363100 134.536499 -753.832397 0.966334 0.140628 -0.215458 0.000000
28.362700 136.570404 -693.379822 -0.139023 0.887170 -0.440002 1.000000
28.356701 143.798492 -675.354370 0.176307 0.697562 0.694495 1.000000
28.352501 140.812897 -685.371826 -0.297089 0.857403 -0.420235 1.000000
28.350300 137.151199 -692.154480 0.452419 0.807320 -0.378881 1.000000
28.348400 135.909897 -695.804688 -0.205353 0.967352 0.148525 1.000000
28.347900 147.219696 -664.248779 -0.912839 0.238698 -0.331284 1.000000
28.339399 137.967194 -755.947815 0.992873 0.052848 0.106821 0.000000
28.337799 146.388199 -664.470886 0.556773 0.818085 -0.144019 1.000000
28.337601 147.584503 -662.955688 -0.848690 0.206520 -0.486904 1.000000
28.337000 144.064499 -673.531677 -0.438478 0.857094 0.270420 1.000000
28.328600 130.455093 -704.630676 0.031418 0.864687 -0.501327 1.000000
28.318800 140.446198 -686.339417 0.001283 0.920203 0.391439 1.000000
28.310400 134.753296 -698.157776 -0.221401 0.574403 -0.788063 1.000000
28.295200 137.509506 -692.808411 0.110610 0.756572 0.644487 1.000000
28.294600 99.793098 -733.493286 0.350101 0.534024 -0.769576 1.000000
28.291500 146.281494 -761.647888 -0.116741 0.053270 0.991733 0.000000
28.291000 134.816803 -697.476318 -0.274876 0.919613 -0.280633 1.000000
28.285801 139.584595 -757.363525 0.335847 0.772929 0.538319 0.000000
28.280600 113.772003 -722.500916 0.387427 0.621531 -0.680882 1.000000
28.280001 146.589600 -663.672913 -0.553917 0.715959 0.424946 1.000000
28.273899 138.941605 -690.083313 -0.025506 0.887323 0.460442 1.000000
28.269899 127.790703 -708.111877 -0.097159 0.581502 -0.807722 1.000000
28.269199 112.737801 -723.348328 0.353001 0.037498 -0.934871 1.000000
28.266199 123.631599 -712.820984 -0.065425 0.120519 -0.990553 1.000000
28.264500 144.877106 -671.699707 -0.445421 0.802401 -0.397181 1.000000
28.262400 125.988403 -710.409424 -0.015260 0.617321 -0.786564 1.000000
28.262300 142.526901 -679.242188 -0.396280 0.841115 -0.368086 1.000000
28.262300 147.250595 -663.536682 -0.876829 0.463528 0.127721 1.000000
28.254101 137.819901 -692.214478 -0.497757 0.852243 -0.160996 1.000000
28.253201 148.563095 -661.090088 -0.171558 0.614878 0.769736 1.000000
28.252399 143.486496 -676.704224 -0.415871 0.448235 -0.791288 1.000000
28.245701 108.949898 -726.328003 0.402285 0.383354 -0.831389 1.000000
28.245399 142.751099 -759.500427 0.374377 0.438101 0.817257 0.000000
28.243299 141.923996 -681.550110 -0.326388 0.824643 -0.461989 1.000000
28.238800 132.570999 -701.808777 -0.214608 0.779690 -0.588241 1.000000
28.233900 132.771393 -752.875305 -0.298301 0.906660 -0.298301 0.000000
28.231400 140.555801 -757.992615 0.422540 0.521188 0.741501 0.000000
28.225500 147.831207 -665.724976 0.729624 0.182790 0.658966 1.000000
28.224701 121.916298 -714.594177 -0.073174 0.982456 0.171540 1.000000
28.224600 135.811707 -754.834290 0.571995 0.217389 0.790926 0.000000
28.220600 149.514801 -662.539917 -0.941064 0.055815 -0.333591 1.000000
28.219299 147.851303 -661.356812 -0.870761 0.459609 0.174740 1.000000
28.218700 119.042603 -717.543579 0.393526 0.785433 -0.477737 1.000000
28.212200 147.499695 -662.146118 -0.129902 0.159594 -0.978598 1.000000
28.211500 98.768700 -734.090881 0.365952 0.658057 -0.658057 1.000000
28.210600 146.709305 -662.267395 0.581056 0.804653 -0.122095 1.000000
28.198200 149.108093 -661.574585 0.962513 0.267711 0.043581 1.000000
28.197901 131.724396 -702.784973 -0.028525 0.495791 -0.867973 1.000000
28.193701 135.490707 -696.854126 -0.413221 0.595768 -0.688701 1.000000
28.192699 141.402802 -758.596313 0.223518 0.341766 0.912818 0.000000
28.189501 115.333397 -721.234070 -0.195970 0.720615 0.665064 1.000000
28.188601 153.833801 -762.870605 0.086458 0.138570 -0.986571 0.000000
28.188000 107.084000 -727.756226 0.308084 0.875688 -0.371826 1.000000
28.183100 145.102295 -760.935181 -0.145376 0.441887 0.885213 0.000000
28.182800 104.095802 -730.175293 0.276143 0.876717 -0.393844 1.000000
28.180700 129.783997 -705.786987 -0.162369 0.951402 -0.261669 1.000000
28.178301 146.947403 -667.443115 0.805639 0.220280 0.549930 1.000000
28.176800 137.504395 -755.422119 -0.276727 0.270992 0.921946 0.000000
28.176100 124.998398 -711.273621 0.089121 0.749492 -0.655988 1.000000
28.173901 138.216202 -691.207886 -0.534800 0.831087 -0.152588 1.000000
28.166500 109.742302 -725.818481 0.427682 0.238601 -0.871870 1.000000
28.165199 135.136002 -754.175476 0.827412 0.393931 0.400259 0.000000
28.162500 149.962097 -762.499573 0.017048 0.011031 0.999794 0.000000
28.160101 141.499100 -683.067627 -0.114990 0.993294 -0.012047 1.000000
28.158400 120.667397 -715.918518 0.426572 0.525391 -0.736207 1.000000
28.157400 128.495804 -707.356628 0.182189 0.742536 -0.644552 1.000000
28.153000 142.049194 -680.682129 -0.095169 0.742318 0.663255 1.000000
28.151100 141.416000 -683.971985 -0.241636 0.020437 -0.970152 1.000000
28.151100 143.241806 -677.431885 0.035393 0.386700 0.921526 1.000000
28.150900 146.157700 -668.304871 -0.816844 0.216088 -0.534857 1.000000
28.146000 105.913902 -728.771606 0.365829 0.538176 -0.759299 1.000000
28.139400 114.399399 -722.117126 -0.195450 0.749480 0.632518 1.000000
28.137800 148.627106 -660.401123 -0.832289 0.456113 0.315047 1.000000
28.137100 131.446304 -703.396301 -0.021025 0.679817 -0.733081 1.000000
28.133900 105.006897 -729.421326 0.377260 0.621079 -0.686976 1.000000
28.132900 144.120300 -674.806030 -0.214481 0.975464 0.049682 1.000000
28.132799 146.780807 -661.567871 0.637471 0.726052 -0.257836 1.000000
28.126699 139.322098 -756.668701 0.313391 0.483473 0.817337 0.000000
28.125799 117.745201 -718.942322 0.402303 0.640705 -0.653949 1.000000
28.114799 126.741600 -709.304871 -0.004127 0.779922 -0.625863 1.000000
28.096399 145.480804 -669.929871 -0.829817 0.477962 -0.288023 1.000000
28.092800 102.233299 -731.819702 0.230497 0.937353 -0.261230 1.000000
28.089600 139.713806 -687.967712 0.327344 0.479155 0.814406 1.000000
28.088301 144.376007 -673.000305 -0.566128 0.186686 -0.802900 1.000000
28.087299 119.616798 -717.038696 0.439564 0.640126 -0.630097 1.000000
28.081900 133.087799 -700.461792 -0.218804 0.971491 -0.091273 1.000000
28.076099 100.616501 -732.983826 0.235507 0.274993 -0.932156 1.000000
28.075399 147.657303 -665.088806 -0.709771 0.669213 0.219951 1.000000
28.075001 147.310699 -666.276672 -0.892279 0.429722 -0.138482 1.000000
28.072701 108.351303 -726.921021 0.439478 0.291444 -0.849658 1.000000
28.071800 146.297501 -667.620422 -0.817938 0.564246 -0.112266 1.000000
28.066099 97.642899 -734.981689 -0.212249 0.393759 -0.894374 1.000000
28.054001 124.114998 -712.409790 -0.094346 0.805568 -0.584944 1.000000
28.049900 144.192398 -760.497681 0.064899 0.358932 0.931105 0.000000
28.047800 147.997803 -660.713013 -0.987957 0.123642 -0.093026 1.000000
28.047400 144.580795 -672.241028 -0.127171 0.958368 0.255652 1.000000
28.037100 111.764603 -724.242676 -0.031934 0.820571 0.570651 1.000000
28.035700 103.298203 -730.674805 0.190138 0.971110 -0.144199 1.000000
28.035601 146.953003 -660.677917 0.874577 0.457000 0.162067 1.000000
28.030300 134.266495 -698.525024 -0.218844 0.771387 0.597553 1.000000
28.029600 149.187897 -660.941711 0.974432 0.206773 -0.087909 1.000000
28.026400 138.352997 -690.367004 -0.544471 0.806681 -0.229819 1.000000
28.020901 147.014694 -665.196777 -0.282865 0.845503 0.452893 1.000000
28.016199 143.237900 -759.885071 0.263977 0.269685 -0.926060 0.000000
28.014999 145.753693 -761.329712 0.404545 0.327046 0.854040 0.000000
28.014601 112.380798 -723.840515 0.456538 0.576943 -0.677281 1.000000
28.014500 143.360001 -676.065613 -0.463957 0.162458 -0.870834 1.000000
28.009701 121.110901 -715.180176 0.495728 0.257902 -0.829301 1.000000
28.008699 120.125198 -716.609497 0.402122 0.594082 -0.696681 1.000000
28.001301 130.892899 -704.278870 -0.029199 0.816195 -0.577038 1.000000
27.998600 139.100204 -689.305725 -0.629577 0.445881 -0.636257 1.000000
27.991301 148.063004 -663.307983 -0.587236 0.794496 0.154694 1.000000
27.991199 136.729004 -694.080688 -0.264521 0.936322 -0.230931 1.000000
27.982300 136.253693 -695.348511 -0.286742 0.777847 -0.559226 1.000000
27.979200 133.134705 -753.462402 -0.711939 0.156353 -0.684615 0.000000
27.978901 98.223602 -734.670471 -0.374377 0.438101 -0.817257 1.000000
27.973101 146.470093 -666.641785 -0.372047 0.921193 0.113948 1.000000
27.971300 110.633698 -725.183472 -0.355592 0.056422 0.932937 1.000000
27.967899 142.610306 -678.480896 0.089052 0.863661 0.496145 1.000000
27.964701 149.060501 -762.181274 0.023792 0.639590 0.768348 0.000000
27.960501 107.605301 -727.408325 0.084247 0.986047 0.143576 1.000000
27.958900 142.016296 -758.520325 0.083548 0.135323 0.987273 0.000000
27.957001 145.619400 -669.078979 -0.681956 0.723377 -0.107989 1.000000
27.956100 147.134003 -761.658386 -0.790841 0.354515 -0.498888 0.000000
27.953899 132.118103 -702.218506 0.027989 0.896990 -0.441164 1.000000
27.951401 142.179001 -679.759888 -0.231932 0.905850 -0.354463 1.000000
27.949200 148.012695 -659.966797 -0.845678 0.468116 0.256313 1.000000
27.948900 126.255798 -709.742371 -0.001372 0.794201 -0.607653 1.000000
27.948200 148.297897 -662.211792 -0.946306 0.289411 -0.144032 1.000000
27.947901 134.061295 -754.006775 -0.164702 0.971616 0.169809 0.000000
27.940800 140.206894 -757.523193 0.970008 0.227130 0.086585 0.000000
27.940701 147.733795 -664.243774 -0.453278 0.822849 0.342722 1.000000
27.940399 137.058701 -693.171692 -0.364630 0.828704 -0.424612 1.000000
27.931499 150.862503 -762.617981 -0.054673 0.212616 0.975605 0.000000
27.930099 140.270706 -686.887024 -0.499333 0.583396 -0.640559 1.000000
27.926800 140.881500 -684.845093 0.317963 0.388621 0.864797 1.000000
27.925900 122.702499 -713.872314 0.276529 0.510876 -0.813964 1.000000
27.923700 99.377502 -733.900024 0.339304 0.867451 -0.363869 1.000000
27.920200 128.850601 -706.811584 0.032255 0.789545 -0.612844 1.000000
27.911200 123.290604 -713.321716 0.127443 0.833509 -0.537606 1.000000
27.903900 140.461700 -685.808105 -0.388532 0.838412 -0.382240 1.000000
27.901400 127.179001 -708.861023 -0.016449 0.340376 -0.940146 1.000000
27.894300 113.228401 -722.896912 0.623635 0.453097 -0.637011 1.000000
27.882900 145.057999 -670.506775 -0.655195 0.517082 -0.550768 1.000000
27.868200 118.625900 -718.271973 0.359059 0.805888 -0.470766 1.000000
27.868200 130.109299 -705.180725 0.066151 0.980239 -0.186426 1.000000
27.864300 115.969200 -720.934204 0.484299 0.717295 -0.500942 1.000000
27.863400 102.917000 -731.348328 0.313868 0.818580 -0.481054 1.000000
27.862900 148.783005 -659.809021 -0.984321 0.057901 0.166614 1.000000
27.859301 133.943207 -699.385925 -0.095115 0.983653 -0.152906 1.000000
27.858299 147.066299 -660.020325 -0.949158 0.104289 0.297024 1.000000
27.857201 116.549896 -719.866882 0.019397 0.999432 -0.027563 1.000000
27.856600 139.247406 -688.656494 -0.594047 0.112942 -0.796463 1.000000
27.856300 125.587997 -710.744812 0.144100 0.809633 -0.568972 1.000000
27.849199 148.278900 -762.266479 -0.449931 0.385884 0.805392 0.000000
27.847099 135.506897 -696.283875 -0.216162 0.333548 -0.917616 1.000000
27.841200 146.805496 -664.313293 0.311442 0.074277 0.947358 1.000000
27.836201 106.430901 -728.487915 0.457506 0.608332 -0.648552 1.000000
27.832100 141.849503 -682.142212 0.165882 0.155752 0.973768 1.000000
27.831800 115.021301 -721.810913 0.169073 0.963321 0.208392 1.000000
27.826500 109.978996 -725.284302 -0.455094 0.155575 0.876747 1.000000
27.824200 144.809998 -671.194092 -0.460924 0.877335 -0.133539 1.000000
27.822201 101.844803 -732.266174 0.131479 0.565804 -0.813990 1.000000
27.810301 117.430099 -719.559998 0.435516 0.831725 -0.344325 1.000000
27.806299 142.262695 -759.139099 -0.091984 0.493883 0.864649 0.000000
27.804100 124.593597 -711.825684 0.014922 0.516830 -0.855958 1.000000
27.800200 143.781494 -674.308716 -0.448438 0.167982 -0.877887 1.000000
27.791599 129.264999 -706.282471 0.001377 0.761293 -0.648407 1.000000
27.790800 147.235001 -662.710388 0.256311 0.400205 0.879852 1.000000
27.790501 149.310394 -660.288086 0.946889 0.273063 -0.169815 1.000000
27.789200 136.365097 -755.170105 0.348731 0.556347 -0.754231 0.000000
27.779800 138.404007 -755.787781 0.638070 0.570727 0.516853 0.000000
27.763201 138.672104 -689.742920 -0.113760 0.993503 -0.003250 1.000000
27.762199 104.494202 -729.788391 0.134126 0.355365 -0.925055 1.000000
27.755600 146.435196 -665.405212 -0.778161 0.194924 -0.597051 1.000000
27.754101 143.579498 -674.953979 -0.342732 0.875870 -0.339685 1.000000
27.745701 135.129303 -697.248718 0.127340 0.965980 -0.225095 1.000000
27.741400 132.759903 -700.989990 -0.258844 0.908148 -0.329039 1.000000
27.739500 147.436005 -661.553223 -0.936352 0.332776 -0.111823 1.000000
27.736099 100.201202 -733.394287 0.444961 0.425545 -0.787986 1.000000
27.735201 145.796494 -667.928223 -0.751308 0.429084 -0.501420 1.000000
27.732300 136.353806 -694.704712 -0.015827 0.962995 -0.269054 1.000000
27.728500 143.062607 -676.862183 -0.490661 0.405896 -0.771039 1.000000
27.725800 148.203598 -659.385376 -0.956552 0.021037 -0.290802 1.000000
27.718500 137.686600 -691.732483 -0.101791 0.853039 -0.511823 1.000000
27.716900 146.793503 -663.383179 -0.820979 0.527445 -0.218622 1.000000
27.713800 148.889999 -659.048218 0.859491 0.396570 0.322502 1.000000
27.712900 134.612305 -697.827515 0.037626 0.820807 -0.569966 1.000000
27.705799 142.968704 -677.913879 -0.220041 0.691335 -0.688214 1.000000
27.702299 101.087997 -732.450989 0.347189 0.264454 -0.899736 1.000000
27.699699 146.239105 -666.065430 -0.760671 0.536849 -0.364928 1.000000
27.690800 111.403397 -724.781677 0.529500 0.519414 -0.670700 1.000000
27.690300 105.529999 -729.341125 -0.021742 0.354262 -0.934893 1.000000
27.689199 139.990295 -687.424316 -0.559732 0.495859 -0.663946 1.000000
27.685600 145.890594 -667.235779 -0.689615 0.698872 -0.189760 1.000000
27.684299 143.953003 -673.610718 -0.467437 0.421834 -0.776891 1.000000
27.680401 103.836998 -730.587219 0.403232 0.765650 -0.501183 1.000000
27.677000 127.735497 -707.825073 -0.218964 0.756281 -0.616517 1.000000
27.675200 109.385002 -726.158630 0.374983 0.326006 -0.867818 1.000000
27.667200 137.382095 -692.468811 0.143219 0.988783 -0.042393 1.000000
27.658701 142.015396 -681.242371 -0.354983 0.675614 -0.646168 1.000000
27.655399 141.149796 -683.595825 -0.435844 0.504921 -0.745047 1.000000
27.653299 112.920097 -723.721008 0.409574 0.086298 -0.908186 1.000000
27.642500 138.835007 -756.718079 -0.020160 0.217012 -0.975961 0.000000
27.631001 145.179199 -669.572876 -0.798045 0.552253 -0.241125 1.000000
27.626400 122.151398 -714.296692 0.107989 0.893364 -0.436164 1.000000
27.622200 113.940399 -722.891479 -0.536683 0.168928 0.826701 1.000000
27.619301 118.236000 -718.847473 0.515649 0.426687 -0.742996 1.000000
27.615499 133.463501 -700.190674 -0.124991 0.869193 0.478415 1.000000
27.613501 132.416504 -701.720825 -0.146520 0.947674 -0.283630 1.000000
27.601000 116.511703 -720.620422 0.525302 0.249480 -0.813521 1.000000
27.596901 147.466003 -660.741699 -0.937459 0.347910 0.011386 1.000000
27.596300 121.700203 -714.829224 -0.583104 0.459466 0.669985 1.000000
27.596201 148.362503 -658.591003 0.966302 0.076851 0.245670 1.000000
27.594700 123.640297 -712.729370 0.110504 0.856766 -0.503727 1.000000
27.594200 138.054703 -690.870483 -0.086648 0.903616 -0.419487 1.000000
27.592199 146.811707 -659.111877 0.900542 0.408302 -0.149379 1.000000
27.585300 135.963196 -695.794373 0.031466 0.513033 -0.857792 1.000000
27.583599 142.269699 -680.340881 -0.318141 0.901153 -0.294465 1.000000
27.582899 125.001999 -710.944092 -0.174949 0.463102 0.868867 1.000000
27.577600 107.204300 -728.048889 0.463476 0.712657 -0.526602 1.000000
27.576200 145.452499 -668.537109 -0.784650 0.532156 -0.318015 1.000000
27.568701 141.347504 -682.740417 -0.499201 0.369958 -0.783536 1.000000
27.568001 144.776703 -761.083008 -0.212087 0.967886 -0.134964 0.000000
27.565800 142.882797 -759.448486 0.071547 0.192814 0.978623 0.000000
27.561701 141.375702 -758.358215 -0.523754 0.638272 0.564172 0.000000
27.556499 146.330093 -664.661316 -0.660089 0.701445 -0.268808 1.000000
27.554600 117.107498 -720.131714 0.486492 0.697138 -0.526615 1.000000
27.553801 147.671097 -659.018127 -0.943267 0.236162 -0.233400 1.000000
27.551600 149.412704 -659.527527 0.907281 0.420062 -0.019752 1.000000
27.547199 114.558098 -722.451782 0.618705 0.391021 -0.681400 1.000000
27.546801 131.041199 -703.698914 0.199752 0.723133 0.661194 1.000000
27.539200 146.861496 -662.151001 -0.918731 0.322488 -0.227891 1.000000
27.534901 149.289505 -661.356628 0.120252 0.434322 -0.892695 1.000000
27.534500 120.788200 -716.124023 0.287964 0.866940 -0.406807 1.000000
27.529499 119.175201 -717.805420 -0.035030 0.972390 0.230716 1.000000
27.528299 131.801895 -702.922729 -0.012880 0.977704 -0.209592 1.000000
27.518999 130.573700 -704.697327 -0.127972 0.822255 -0.554544 1.000000
27.515499 144.141495 -672.627686 -0.356391 0.520879 -0.775674 1.000000
27.507500 128.433304 -707.390930 -0.072728 0.432254 -0.898814 1.000000
27.504601 100.947304 -733.242676 0.437362 0.483228 -0.758422 1.000000
27.492300 115.576302 -721.630493 0.523914 0.544130 -0.655314 1.000000
27.489100 144.334106 -671.867920 0.324691 0.489413 0.809352 1.000000
27.487400 143.169006 -675.585876 -0.151594 0.971986 -0.179620 1.000000
27.485500 140.524200 -685.270630 -0.218370 0.972060 0.086100 1.000000
27.478600 146.400208 -663.932373 -0.557571 0.822526 0.112096 1.000000
27.475599 110.424500 -725.731812 0.511588 0.384909 -0.768194 1.000000
27.460899 139.544693 -688.076172 -0.348503 0.552742 -0.756982 1.000000
27.458401 126.732903 -709.423584 -0.043389 0.572453 -0.818789 1.000000
27.450701 129.694107 -705.684875 -0.054779 0.835738 -0.546390 1.000000
27.448000 102.645302 -731.795715 0.172528 0.676372 -0.716069 1.000000
27.439699 139.833298 -686.745789 -0.437152 0.734085 -0.519633 1.000000
27.437201 105.988098 -728.803528 0.733087 0.511341 -0.448457 1.000000
27.436501 146.622299 -662.792175 0.699300 0.133271 0.702295 1.000000
27.435101 145.892303 -666.588928 -0.444805 0.860765 0.247451 1.000000
27.431601 148.641296 -657.410889 0.983828 0.082484 0.158991 1.000000
27.429501 147.928802 -658.088928 -0.392692 0.506752 0.767460 1.000000
27.428400 121.412201 -715.520325 0.354369 0.615656 -0.703840 1.000000
27.424500 112.123703 -724.485107 0.432900 0.879098 -0.199459 1.000000
27.417601 146.946701 -661.141479 -0.810648 0.556089 -0.183343 1.000000
27.413700 108.368500 -727.279602 0.529743 0.222645 -0.818414 1.000000
27.405100 144.806900 -670.104370 -0.655908 0.629340 -0.416792 1.000000
27.402300 141.059402 -684.408875 -0.400554 0.837236 -0.372280 1.000000
27.396799 119.743202 -717.344971 0.402153 0.490073 -0.773371 1.000000
27.391300 141.583496 -681.742676 -0.207847 0.975280 0.075022 1.000000
27.389000 101.585403 -732.783875 0.363178 0.505221 -0.782850 1.000000
27.388100 142.430603 -679.442871 -0.015226 0.615975 0.787618 1.000000
27.382200 126.188904 -710.057922 0.099082 0.103745 0.989656 1.000000
27.381901 134.288101 -698.693726 0.067160 0.590152 -0.804493 1.000000
27.380899 105.200401 -729.887329 0.450206 0.654389 -0.607527 1.000000
27.378099 136.949097 -693.802124 -0.043702 0.790870 -0.610422 1.000000
27.377199 124.178703 -712.145325 0.199788 0.720167 -0.664412 1.000000
27.375200 140.284698 -686.196472 -0.384578 0.916647 -0.108895 1.000000
27.373400 142.376801 -678.778870 -0.459172 0.721082 -0.518847 1.000000
27.367201 104.681503 -730.335388 0.483171 0.411590 -0.772748 1.000000
27.359501 139.087799 -689.154724 -0.110679 0.650794 0.751144 1.000000
27.347700 148.986603 -658.422119 0.930766 0.264117 -0.252818 1.000000
27.334801 127.601501 -708.372986 -0.004110 0.807008 -0.590527 1.000000
27.332600 148.100998 -657.001892 -0.970708 0.052769 -0.234394 1.000000
27.332100 147.325195 -659.685425 -0.939691 0.331734 -0.083264 1.000000
27.329000 120.243103 -716.901428 0.387194 0.782489 -0.487638 1.000000
27.318600 148.741196 -656.477478 -0.012500 0.659730 0.751398 1.000000
27.318001 146.979401 -658.546570 0.682097 0.287283 0.672467 1.000000
27.310301 113.394203 -723.269470 0.102010 0.991449 0.081379 1.000000
27.305500 138.609604 -690.204529 0.059383 0.874174 -0.481969 1.000000
27.305000 145.970200 -665.502991 -0.629792 0.572385 -0.525108 1.000000
27.303600 107.761597 -727.777222 0.399341 0.910608 -0.106399 1.000000
27.298000 122.763802 -714.110291 0.030186 0.971999 -0.233038 1.000000
27.296400 144.538895 -670.819885 -0.443515 0.896243 -0.006580 1.000000
27.293100 116.241402 -721.168823 0.477127 0.784429 -0.396258 1.000000
27.289499 103.335197 -731.338684 0.375592 0.455505 -0.807122 1.000000
27.288700 109.151299 -726.822388 0.621572 0.260965 -0.738611 1.000000
27.287300 136.280807 -695.175476 -0.090024 0.931140 -0.353376 1.000000
27.277201 142.448502 -678.113403 0.323679 0.478414 0.816304 1.000000
27.275499 143.235596 -676.402771 -0.331960 0.387544 -0.860007 1.000000
27.275400 123.093803 -713.477417 0.094327 0.957480 -0.272643 1.000000
27.272699 135.039902 -696.782715 0.211431 0.169407 0.962600 1.000000
27.263901 145.311096 -667.953430 -0.605493 0.792463 -0.073350 1.000000
27.259501 106.709900 -728.633484 0.578922 0.662823 -0.474884 1.000000
27.248600 109.972099 -726.289795 0.585402 0.228260 -0.777947 1.000000
27.247400 128.977295 -706.608276 0.046747 0.786196 -0.616207 1.000000
27.245300 102.240898 -732.289307 0.249427 0.307098 -0.918410 1.000000
27.240700 146.985703 -660.323181 -0.598510 0.800349 -0.035042 1.000000
27.238600 137.159897 -692.932129 -0.025862 0.864328 -0.502263 1.000000
27.237101 136.715393 -694.403870 -0.107648 0.925227 -0.363823 1.000000
27.230700 143.617004 -673.988525 -0.138527 0.913721 0.382000 1.000000
27.226601 125.528503 -710.525024 -0.436515 0.739605 0.512288 1.000000
27.224100 144.967300 -669.094971 -0.476088 0.874935 -0.088477 1.000000
27.222601 115.098000 -722.040588 0.348596 0.927294 0.136407 1.000000
27.220100 141.790802 -680.731873 -0.205838 0.940777 -0.269386 1.000000
27.214300 141.892105 -679.946289 -0.223774 0.973721 -0.042336 1.000000
27.212601 132.117493 -702.273071 -0.102700 0.887720 -0.448784 1.000000
27.210800 148.104294 -655.990906 0.550642 0.362222 0.752057 1.000000
27.209299 111.191803 -725.344788 0.583859 0.411844 -0.699638 1.000000
27.196100 133.893707 -699.470825 0.129857 0.523805 -0.841882 1.000000
27.194901 133.084198 -700.778015 -0.023700 0.790480 -0.612029 1.000000
27.194799 138.001801 -691.509583 0.035296 0.673447 -0.738392 1.000000
27.178101 135.666504 -696.333801 -0.034552 0.838921 -0.543156 1.000000
27.174400 117.929497 -719.248291 0.068607 0.996439 -0.049005 1.000000
27.173401 124.992897 -711.530518 0.198308 0.938842 -0.281514 1.000000
27.170799 143.699600 -674.654724 -0.361135 0.857115 -0.367335 1.000000
27.161699 147.320999 -657.906921 -0.154227 0.582469 0.798088 1.000000
27.159599 144.058395 -673.219177 -0.431791 0.888132 -0.157409 1.000000
27.159000 104.206001 -730.861572 0.376219 0.333222 -0.864536 1.000000
27.157301 149.369400 -657.735718 0.568136 0.758051 0.320281 1.000000
27.155701 148.642105 -655.492920 0.961635 0.188634 0.199186 1.000000
27.137501 105.967003 -729.457886 0.588770 0.390864 -0.707513 1.000000
27.132799 149.357895 -660.443420 -0.575499 0.612628 0.541745 1.000000
27.115999 149.412598 -658.951599 0.722896 0.490240 0.486916 1.000000
27.112801 149.219193 -656.975708 0.476205 0.875149 0.085689 1.000000
27.112499 142.890106 -677.123413 -0.360365 0.475681 -0.802412 1.000000
27.106300 118.751602 -718.272888 0.831211 0.529766 -0.168630 1.000000
27.099199 146.529297 -661.535889 -0.724177 0.669292 -0.166180 1.000000
27.096500 140.534897 -684.697083 -0.167134 0.985513 -0.028816 1.000000
27.087700 139.532898 -687.447998 -0.058045 0.581864 -0.811212 1.000000
27.086500 141.028305 -683.125671 -0.214681 0.947603 -0.236559 1.000000
27.086100 148.505707 -658.044312 -0.985063 0.028871 -0.169759 1.000000
27.084801 127.125198 -708.956421 -0.129857 0.523805 -0.841882 1.000000
27.084400 148.825806 -654.866577 0.950939 0.308649 0.021243 1.000000
27.065100 131.400803 -703.334900 0.020949 0.769539 -0.638256 1.000000
27.064600 134.901794 -697.683472 0.028870 0.842743 -0.537541 1.000000
27.059799 145.939896 -664.835327 -0.546800 0.749197 -0.373783 1.000000
27.057699 117.607399 -719.918884 0.098119 0.987103 -0.126491 1.000000
27.056299 148.788696 -654.202881 0.943225 0.305438 0.130518 1.000000
27.052700 116.876404 -720.604980 0.506709 0.399176 -0.764137 1.000000
27.048700 146.230606 -663.156494 -0.502351 0.760890 0.410717 1.000000
27.044300 145.711502 -667.091614 -0.275898 0.924902 0.261603 1.000000
27.039801 112.800797 -724.019226 0.440047 0.818138 -0.370148 1.000000
27.039700 149.125397 -655.964111 0.649999 0.733371 0.199168 1.000000
27.039200 147.140503 -654.262207 0.644295 0.764489 0.020964 1.000000
27.039000 148.091400 -655.077698 -0.957466 0.246960 0.149233 1.000000
27.034000 146.371094 -662.202087 -0.500210 0.851389 -0.157883 1.000000
27.032900 137.823105 -692.130615 -0.128281 0.866254 0.482854 1.000000
27.027201 147.514999 -656.650574 0.998522 0.045054 -0.030385 1.000000
27.025200 107.372597 -728.429626 0.470964 0.795656 -0.380951 1.000000
27.016001 141.487396 -682.403320 -0.235873 0.971313 0.030240 1.000000
27.003500 147.292694 -652.956604 0.632657 0.744577 -0.212958 1.000000
27.002899 144.164597 -671.282776 -0.632640 0.769348 -0.088715 1.000000
27.002100 148.373596 -653.703979 -0.999261 0.007145 -0.037766 1.000000
27.002001 114.252098 -722.885925 0.450958 0.837939 -0.307400 1.000000
27.000799 122.041100 -714.986572 0.306884 0.309849 -0.899897 1.000000
27.000401 129.964905 -705.237122 -0.214867 0.952714 -0.214867 1.000000
26.993700 146.942307 -655.112671 0.058186 0.995752 0.071360 1.000000
26.983500 147.512604 -655.597778 0.520714 0.331655 0.786678 1.000000
26.980900 123.949997 -712.840576 0.284204 0.467462 -0.837083 1.000000
26.976601 130.734802 -704.350220 0.027636 0.911991 -0.409277 1.000000
26.976601 132.204407 -701.608093 -0.120519 0.990553 -0.065425 1.000000
26.972799 147.089600 -659.120605 -0.820840 0.507400 -0.262234 1.000000
26.971600 145.566193 -666.216187 -0.623647 0.620285 -0.475720 1.000000
26.970200 146.843201 -656.111084 0.812315 0.543073 0.212640 1.000000
26.962400 140.251495 -685.624023 -0.129886 0.756920 -0.640470 1.000000
26.959200 139.357697 -688.497986 -0.161810 0.515119 0.841707 1.000000
26.952101 141.953506 -679.339600 -0.117259 0.716915 -0.687229 1.000000
26.949800 145.980392 -664.166687 -0.480639 0.863398 0.153396 1.000000
26.948000 148.057205 -650.147400 0.514433 0.845664 -0.142165 1.000000
26.944700 111.856499 -724.949524 0.478116 0.852162 -0.212663 1.000000
26.941799 146.615005 -660.767517 -0.529258 0.845402 -0.071979 1.000000
26.939899 138.440201 -690.753601 0.108959 0.823729 0.556416 1.000000
26.939800 148.128799 -654.356873 -0.973256 0.224784 0.047387 1.000000
26.939100 129.470993 -706.168091 0.038188 0.739720 -0.671830 1.000000
26.935600 144.911804 -668.492371 -0.577855 0.798134 -0.170490 1.000000
26.933901 143.916306 -672.257202 0.049378 0.811213 0.582662 1.000000
26.931000 148.460602 -649.513489 -0.348852 0.443563 0.825563 1.000000
26.927900 128.005600 -708.058411 0.062346 0.974317 -0.216379 1.000000
26.925900 125.468597 -711.122498 0.056506 0.877911 -0.475478 1.000000
26.921301 119.365898 -718.006226 0.583132 0.653713 -0.482303 1.000000
26.915400 108.673302 -727.564880 0.443583 0.835441 -0.324458 1.000000
26.910999 128.579193 -707.175171 -0.020100 0.997574 -0.066646 1.000000
26.910299 146.779297 -659.699402 -0.726648 0.655378 -0.206064 1.000000
26.907700 134.600998 -698.254028 -0.128281 0.866254 0.482854 1.000000
26.903500 147.574997 -652.257629 0.725176 0.670674 -0.155936 1.000000
26.899401 141.463196 -681.270386 -0.160963 0.956466 -0.243440 1.000000
26.898100 147.242401 -653.618286 0.773692 0.629616 -0.070598 1.000000
26.896999 144.515198 -669.740479 -0.479387 0.699872 -0.529497 1.000000
26.879700 113.617996 -723.944214 0.372397 0.785097 -0.494917 1.000000
26.879101 120.908798 -716.061279 -0.566025 0.579542 0.586300 1.000000
26.877001 145.170502 -667.446777 -0.642724 0.738745 -0.202884 1.000000
26.876699 135.961807 -695.722412 0.026656 0.764603 -0.643950 1.000000
26.875500 124.623199 -712.077881 0.169360 0.478627 -0.861529 1.000000
26.861200 147.929504 -657.698730 -0.975623 0.139375 -0.169510 1.000000
26.859501 143.202499 -674.942017 -0.110308 0.775098 0.622138 1.000000
26.852900 115.716599 -721.724304 0.919657 0.125848 -0.372012 1.000000
26.849100 139.959305 -686.424683 0.012536 0.985788 -0.167527 1.000000
26.842100 147.889801 -650.990784 0.517957 0.174643 -0.837389 1.000000
26.841499 133.407501 -700.292725 -0.125304 0.868488 0.479613 1.000000
26.841200 147.993103 -653.111206 0.965341 0.079499 0.248591 1.000000
26.839899 144.292099 -670.410522 -0.476636 0.867796 -0.140528 1.000000
26.836500 118.690498 -718.921570 0.800553 0.433297 -0.413968 1.000000
26.822399 131.764496 -702.791504 0.004017 0.866335 -0.499448 1.000000
26.820900 105.465897 -730.097229 0.375981 0.867059 -0.326874 1.000000
26.816999 142.703506 -677.725525 -0.329794 0.770592 -0.545366 1.000000
26.816099 149.481094 -658.310486 0.071313 0.868346 0.490804 1.000000
26.809200 142.863800 -675.714905 -0.320199 0.938981 -0.125648 1.000000
26.801399 126.583099 -709.406921 -0.327344 0.479155 0.814406 1.000000
26.800800 148.182495 -656.571228 -0.953742 0.070791 -0.292172 1.000000
26.800600 110.647301 -725.879028 0.538065 0.066376 -0.840286 1.000000
26.791901 102.833603 -731.864929 0.694323 0.104664 0.712012 1.000000
26.791201 143.595795 -672.820801 -0.350461 0.588448 0.728633 1.000000
26.789200 121.499001 -715.758728 0.369984 0.623218 -0.688993 1.000000
26.787600 105.007599 -730.742371 0.439380 0.148381 -0.885962 1.000000
26.781401 106.770500 -729.146484 -0.332914 0.605741 0.722666 1.000000
26.778900 142.115005 -678.639221 -0.003881 0.410093 0.912036 1.000000
26.772800 132.751495 -701.300781 -0.124991 0.869193 0.478415 1.000000
26.771400 138.803207 -689.251709 0.026039 0.958485 -0.283950 1.000000
26.763399 103.793404 -731.245789 0.340522 0.304520 -0.889557 1.000000
26.761299 115.070602 -722.881470 0.793752 0.421933 -0.438099 1.000000
26.759100 112.770401 -724.629883 -0.174255 0.795510 0.580344 1.000000
26.757700 142.695206 -676.604004 -0.271297 0.927524 -0.257093 1.000000
26.756901 136.942093 -693.502075 -0.029359 0.980607 -0.193773 1.000000
26.754900 149.514694 -655.110779 -0.930654 0.286681 0.227368 1.000000
26.749599 119.909401 -717.494690 0.338975 0.937787 -0.075181 1.000000
26.739500 126.279503 -710.139893 0.153783 0.862651 -0.481854 1.000000
26.730101 136.441193 -694.778992 -0.023228 0.964560 -0.262840 1.000000
26.727900 145.618195 -665.322876 -0.769550 0.602324 -0.212129 1.000000
26.724001 116.529404 -721.332520 0.794827 0.414342 -0.443362 1.000000
26.721001 109.324997 -727.221680 0.555013 0.001357 -0.831841 1.000000
26.715700 114.246300 -723.508728 -0.063637 0.908521 0.412964 1.000000
26.708300 135.371201 -696.803772 0.013428 0.960743 -0.277114 1.000000
26.702000 138.549896 -689.882324 0.315840 0.565947 0.761544 1.000000
26.698099 109.731003 -726.659729 -0.660152 0.512332 0.549287 1.000000
26.697300 123.179604 -713.807678 0.216094 0.544067 -0.810737 1.000000
26.695700 140.888794 -684.317871 -0.115144 0.933345 0.340014 1.000000
26.693100 134.274902 -698.851074 0.022449 0.977122 -0.211493 1.000000
26.689899 107.978302 -728.259583 0.452935 0.650154 -0.610041 1.000000
26.688700 131.094894 -703.871887 -0.019649 0.913040 -0.407397 1.000000
26.688400 122.476700 -714.343018 0.318324 0.498866 -0.806104 1.000000
26.685301 120.371002 -716.906372 -0.277119 0.915510 0.291628 1.000000
26.684401 147.820007 -651.662476 0.614826 0.750057 -0.243729 1.000000
26.677401 118.204300 -719.616089 0.812061 0.499851 -0.301172 1.000000
26.677401 148.371994 -652.306030 0.915870 0.270565 0.296609 1.000000
26.675600 146.851303 -658.568115 -0.923804 0.326797 -0.199474 1.000000
26.675501 149.568802 -656.416321 -0.823227 0.043328 -0.566056 1.000000
26.662701 148.196106 -655.638184 -0.952780 0.303660 0.001229 1.000000
26.657700 127.444603 -708.374573 0.019277 0.987671 -0.155351 1.000000
26.652800 143.377502 -673.620728 -0.134953 0.863409 0.486121 1.000000
26.652300 144.527496 -669.082886 -0.345934 0.932812 -0.100954 1.000000
26.652201 145.176498 -666.676392 -0.374646 0.919334 0.120274 1.000000
26.649799 147.233795 -657.461914 0.755700 0.046964 0.653232 1.000000
26.649401 140.926804 -683.607178 0.093026 0.982214 0.163098 1.000000
26.640200 149.088303 -653.517822 0.116547 0.900079 0.419850 1.000000
26.637400 149.454193 -654.179016 -0.346901 0.872600 0.343844 1.000000
26.619101 143.251602 -674.314270 0.024157 0.942127 0.334385 1.000000
26.609301 148.472504 -651.595276 0.536634 0.687092 0.489825 1.000000
26.606001 146.156799 -661.746399 -0.535378 0.835889 -0.121080 1.000000
26.605400 137.407303 -692.561829 -0.021446 0.944874 -0.326732 1.000000
26.600500 141.880096 -680.452271 -0.006249 0.943547 -0.331179 1.000000
26.598499 148.466705 -650.645020 0.844594 0.530524 0.072151 1.000000
26.593201 146.404297 -660.172729 -0.785735 0.610803 -0.097670 1.000000
26.583799 117.384102 -720.558289 0.914427 0.348832 -0.205280 1.000000
26.579500 130.151398 -704.733398 -0.195554 0.902445 -0.383865 1.000000
26.577400 141.501297 -681.868713 0.093279 0.839510 -0.535277 1.000000
26.562799 111.416702 -725.859497 -0.520533 0.631715 0.574440 1.000000
26.558300 146.412201 -659.240173 -0.690808 0.714476 -0.110943 1.000000
26.554600 148.521103 -648.983826 0.215541 0.477807 -0.851612 1.000000
26.553301 143.759201 -671.704529 -0.135408 0.973169 -0.186028 1.000000
26.550501 137.796204 -691.628418 0.061577 0.893549 -0.444722 1.000000
26.545200 125.825203 -710.716187 0.052766 0.768669 -0.637467 1.000000
26.543301 129.038193 -706.632385 0.138823 0.786666 -0.601568 1.000000
26.542400 147.627808 -654.223328 0.777577 0.232182 0.584351 1.000000
26.540501 145.807205 -663.398987 -0.501868 0.813373 -0.294199 1.000000
26.537500 147.597107 -654.942383 -0.089236 0.936316 0.339631 1.000000
26.536699 139.578995 -687.960327 -0.099515 0.991716 -0.081213 1.000000
26.535200 148.936996 -656.516174 -0.785278 0.585501 0.201314 1.000000
26.522400 133.861099 -699.588989 -0.015836 0.997660 0.066511 1.000000
26.518801 145.983093 -662.422424 -0.478948 0.752163 -0.452614 1.000000
26.517799 149.250900 -657.566101 0.001377 0.651358 -0.758770 1.000000
26.505800 106.156403 -729.631287 0.638784 0.351250 -0.684528 1.000000
26.503599 125.005997 -711.425293 0.199305 0.659715 -0.724605 1.000000
26.503099 116.306198 -722.049683 0.802866 0.423154 -0.419936 1.000000
26.499599 117.990799 -720.268127 0.828359 0.384878 -0.407052 1.000000
26.494301 115.650101 -722.602417 0.600149 0.239746 -0.763114 1.000000
26.493900 148.702103 -652.929199 0.446867 0.883676 0.139377 1.000000
26.492001 104.316902 -730.934021 -0.061191 0.599103 -0.798330 1.000000
26.489401 148.924805 -654.607178 -0.042712 0.938368 0.342990 1.000000
26.485001 113.357399 -724.414978 0.273446 0.961390 -0.030933 1.000000
26.481600 147.101700 -656.765015 0.670970 0.165841 0.722700 1.000000
26.481001 120.973099 -716.670288 0.424506 0.847456 -0.318768 1.000000
26.465799 119.407898 -718.526184 -0.653713 0.482303 0.583132 1.000000
26.464701 117.146400 -721.176086 0.800619 0.426889 -0.420446 1.000000
26.460899 132.273499 -702.109314 0.151595 0.846281 -0.510712 1.000000
26.459900 144.732895 -667.987915 -0.368719 0.870545 -0.325880 1.000000
26.457001 140.702896 -684.954773 0.194322 0.978850 -0.063969 1.000000
26.457001 145.600800 -664.411926 -0.518270 0.768470 -0.375299 1.000000
26.456301 124.143097 -712.486816 0.110935 0.717378 -0.687795 1.000000
26.447300 107.351700 -728.957092 0.711989 0.552663 -0.433168 1.000000
26.446301 129.922394 -705.590698 0.143043 0.739308 -0.657999 1.000000
26.442499 145.290604 -665.848877 -0.388797 0.788887 -0.475914 1.000000
26.436899 123.525200 -713.178223 0.171787 0.761638 -0.624817 1.000000
26.427700 147.088898 -655.577271 -0.840645 0.506793 -0.190987 1.000000
26.426800 112.090897 -725.396973 0.758429 0.330102 -0.561978 1.000000
26.424900 148.644806 -649.892517 -0.126293 0.616608 0.777074 1.000000
26.422701 141.327606 -682.649414 0.182790 0.729624 -0.658966 1.000000
26.418699 146.162003 -660.901672 -0.336767 0.940625 -0.042580 1.000000
26.417200 135.039993 -697.439087 0.048610 0.997049 0.059412 1.000000
26.413799 143.998795 -670.934814 -0.265942 0.921454 -0.283192 1.000000
26.411800 146.751297 -657.858826 -0.225953 0.813124 0.536447 1.000000
26.410999 142.558807 -677.214600 -0.063037 0.850301 -0.522508 1.000000
26.409300 139.978806 -686.948730 -0.097847 0.967036 0.235088 1.000000
26.406900 136.571396 -694.167175 0.020651 0.965726 -0.258742 1.000000
26.402201 110.583298 -726.449219 0.774362 0.015293 -0.632558 1.000000
26.402201 149.024506 -655.380920 -0.388343 0.921514 0.001282 1.000000
26.396000 136.227798 -695.317871 0.069524 0.961961 -0.264192 1.000000
26.389000 140.303299 -686.082214 0.061424 0.896796 -0.438160 1.000000
26.384600 147.470306 -653.192200 -0.905228 0.163939 -0.392028 1.000000
26.382500 128.389801 -707.574707 0.184059 0.501298 -0.845472 1.000000
26.361900 118.853996 -719.651184 0.776466 0.514954 -0.363212 1.000000
26.346800 122.137100 -715.245972 -0.367286 0.168753 0.914671 1.000000
26.345900 108.456703 -727.977173 0.501910 0.702007 -0.505245 1.000000
26.345600 138.135803 -690.843323 0.138632 0.965244 -0.221553 1.000000
26.340000 127.110001 -709.132324 0.151777 0.883196 -0.443766 1.000000
26.339600 139.113098 -688.589905 -0.061746 0.736641 -0.673459 1.000000
26.334600 142.222900 -679.399414 -0.104543 0.899069 0.425141 1.000000
26.334400 147.429993 -656.205627 0.378844 0.569086 0.729807 1.000000
26.333000 141.760605 -681.147095 0.166602 0.975811 -0.141549 1.000000
26.299299 130.520798 -704.277100 0.288921 0.949312 0.123823 1.000000
26.297001 135.497101 -696.195618 -0.076386 0.967967 -0.239174 1.000000
26.294100 133.043503 -700.940002 0.049470 0.804248 -0.592232 1.000000
26.292400 144.163605 -669.781921 -0.098347 0.974759 -0.200429 1.000000
26.290600 143.747803 -673.211182 -0.200829 0.786452 -0.584090 1.000000
26.286200 113.924004 -724.092773 0.784431 0.611417 -0.104102 1.000000
26.280300 147.014008 -654.784119 -0.815884 0.521732 -0.249255 1.000000
26.276501 143.034897 -675.303772 -0.192997 0.981166 -0.008090 1.000000
26.271400 119.937500 -718.013184 0.699421 0.573160 -0.426963 1.000000
26.270300 128.003601 -708.170105 0.097022 0.958582 -0.267782 1.000000
26.270100 142.317505 -678.280029 0.044465 0.996672 -0.068325 1.000000
26.256800 115.147903 -723.317688 -0.855705 0.260830 0.446919 1.000000
26.254801 147.170105 -653.838928 -0.732631 0.673903 -0.095433 1.000000
26.253799 147.552094 -652.424927 -0.939466 0.330873 -0.089030 1.000000
26.251900 117.806702 -720.996521 0.828985 0.418440 -0.371069 1.000000
26.238800 142.816406 -676.072510 -0.015611 0.969099 0.246178 1.000000
26.238300 131.365799 -703.299316 0.279856 0.814553 0.508118 1.000000
26.237600 112.800400 -725.019409 0.762118 0.046834 -0.645742 1.000000
26.236601 110.125000 -727.021179 -0.549592 0.156388 0.820665 1.000000
26.230301 105.257301 -730.385376 -0.319568 0.679691 -0.660225 1.000000
26.222000 134.586899 -698.409424 -0.128281 0.866254 0.482854 1.000000
26.221001 120.469398 -717.435120 -0.620791 0.446769 0.644217 1.000000
26.211800 117.034103 -721.850220 0.829448 0.393395 -0.396555 1.000000
26.210600 143.683502 -672.266479 0.054341 0.206497 -0.976937 1.000000
26.208401 126.679901 -709.688782 0.266210 0.562348 -0.782877 1.000000
26.186800 144.496994 -668.615906 -0.071041 0.988754 -0.131601 1.000000
26.186199 148.077103 -649.537781 0.413968 0.433297 0.800553 1.000000
26.179800 148.843307 -652.200012 -0.976536 0.184884 -0.110434 1.000000
26.175900 116.236504 -722.659607 0.834277 0.324006 -0.446096 1.000000
26.174299 147.903305 -650.781921 -0.859400 0.476455 -0.185535 1.000000
26.170401 146.410995 -658.416870 -0.400474 0.895605 -0.193684 1.000000
26.163900 137.731903 -692.204285 0.099854 0.826330 -0.554263 1.000000
26.163300 129.459305 -706.288574 0.172113 0.763086 -0.622958 1.000000
26.158701 145.372803 -664.959106 -0.398053 0.423630 -0.813690 1.000000
26.155500 146.649506 -657.109192 -0.622883 0.725363 -0.293027 1.000000
26.155199 141.913696 -679.963318 0.243039 0.815806 0.524778 1.000000
26.148600 114.708199 -723.796692 -0.602958 0.676043 0.423565 1.000000
26.147100 122.931503 -714.058411 0.440522 0.389262 -0.808959 1.000000
26.146400 148.633301 -651.128479 -0.888934 0.407000 0.210112 1.000000
26.145000 109.142097 -727.632324 0.581171 0.641815 -0.500313 1.000000
26.136200 137.097397 -693.079407 0.123504 0.844189 -0.521624 1.000000
26.134501 106.926498 -729.379822 0.176257 0.712692 -0.678973 1.000000
26.120300 138.513107 -690.320923 -0.036575 0.881875 -0.470062 1.000000
26.120001 139.004303 -689.345520 -0.070208 0.800939 0.594615 1.000000
26.118200 126.092300 -710.216919 -0.411075 0.794745 0.446540 1.000000
26.115801 124.687698 -711.928772 -0.371559 0.830078 0.415830 1.000000
26.115400 144.900101 -667.000916 -0.173032 0.934373 -0.311458 1.000000
26.115200 108.160202 -728.599182 -0.194308 0.196952 0.960965 1.000000
26.113400 146.688507 -656.086426 -0.556866 0.830511 -0.012314 1.000000
26.108299 121.691902 -715.725891 0.515331 0.666405 -0.538831 1.000000
26.107000 146.459000 -659.729614 -0.292123 0.876369 0.382938 1.000000
26.093901 140.340393 -685.364197 0.264134 0.801779 0.536082 1.000000
26.089800 137.019897 -693.779907 0.089999 0.992270 -0.085442 1.000000
26.089300 111.302200 -726.330994 0.612394 0.145238 -0.777097 1.000000
26.079201 145.811707 -661.940186 -0.141454 0.893015 0.427218 1.000000
26.078699 139.763596 -687.473389 0.166291 0.688048 -0.706355 1.000000
